40.25, 40.125, 40, 40, 39.9375, 39.6875, 39.5, 39.25, 39.0625, 39.0625, 39, 38.833332, 38.458332, 38.366074, 38.257141, 37.720238, 37.5, 37.1875, 37.0625, 37.125, 37, 36.8125, 36.517857, 36.25, 36.0625, 35.9375, 35.75, 35.5, 35.25, 35.0625, 34.875, 34.625, 34.375, 34.125, 33.9375, 33.9375, 33.875, 33.6875, 33.5, 33.25, 33.0625, 33, 32.9375, 32.6875, 32.4375, 32.1875, 32, 31.9375, 31.678572, 31.3125, 31.125, 30.75, 30.75, 30.5625, 30.3125, 30.25, 30.0625, 29.9375, 29.8125, 29.5625, 29.3125, 29.125, 28.875, 28.6875, 28.4375, 28.1875, 28.0625, 28, 28, 27.8125, 27.5625, 27.3125, 27, 26.875, 26.6875, 26.4375, 26.25, 26.0625, 26, 26, 26, 25.75, 25.625, 25.5, 25.3125, 25.098213, 24.69643, 24.508928, 24.169643, 23.791666, 23.607143, 23.375, 23.25, 23.25, 22.9375, 22.625, 22.4375, 22.1875, 22.0625, 22.0625, 22, 21.75, 21.5, 21.25, 21, 21, 20.875, 20.65625, 20.40625, 20.15625, 20.03125, 20, 19.875, 19.625, 19.375, 19.125, 19, 19, 18.8125, 18.5625, 18.3125, 18.0625, 17.9375, 17.6875, 17.4375, 17.1875, 17, 17, 16.9375, 16.6875, 16.4375, 16.1875, 16, 15.8125, 15.5625, 15.3125, 15.0625, 14.9375, 14.875, 14.75, 14.5, 14.3125, 14.125, 14, 13.875, 13.625, 13.3125, 12.892857, 12.839286, 12.8125, 12.508928, 12.383928, 12.125, 12, 11.9375, 11.8125, 11.553572, 11.1875, 11.0625, 10.9375, 10.875, 10.625, 10.375, 10.125, 10, 9.9375, 9.6875, 9.4375, 9.1875, 9, 9, 9, 9, 9, 9, 9, 9, 9, 9, 8.875, 8.875, 8.8125, 8.8125, 8.9375, 8.9375, 9, 9, 9, 9.0625, 9.125, 9.125, 9.125, 9.0625, 9.0625, 9.125, 9.125, 9.125, 9.0625, 9, 9, 9, 9, 9, 9, 9.083333, 9.25, 9.4000006, -10, -10, -10, -10, -10, -10, -10, -10, -10, -10, -10, -10, -10, -10, -10, -10, -10, 45.5, 45.625, 45.75, 45.916668, 46.194443, 46.375, 46.375, 46.375, 46.375, 46.625, 46.9375, 47.383926, 47.71875, 47.941963, 47.96875, 48.107143, 48.0625, 48.0625, 47.9375, 47.9375, 48, 48.1875, 48.375, 48.5, 48.5, 48.580357, 48.895832, 48.991074, 49.0625, 49.133926, 49.321426, 49.5625, 49.8125, 50.035713, 49.9375, 49.866074, 49.875, 50, 50.3125, 50.5, 50.6875, 50.830357, 51.107143, 50.92857, 50.892857, 50.803574, 50.651787, 50.6875, 50.553574, 50.487499, 50.678574, 50.866074, 51, 51.0625, 51, 51.0625, 51.169643, 51.2551, 51.102043, 50.637756, 49.865643, 49.285713, 48.904758, 49.027775, 49.125, 48.839287, 48.233334, -10, -10, -10, -10, -10, -10, -10, -10, -10, -10, -10, -10, -10, -10, -10, -10, -10, -10, -10, 50.5, 50.285713, 49.875, 49.375, 49.00893, 48.875, 48.9375, 49.1875, 49.291668, 23.5625, 24.857143, 25.066963, 25.015625, 24.491072, 23.960714, 24.053572, 24.220238, 25.229166, 25.806549, 26.084822, 26.15625, 26.0625, 26, -10, -10, -10, -10, -10, -10, -10, -10, -10, -10, -10, -10, -10, -10, -10, -10, -10, -10, -10, -10, -10, -10, -10, -10, -10, -10, -10, -10, -10, 42.625, 42.666664, 42.5625, 42.4375, 42.25, 42.089287, 42.0625, 41.633926, 41.446426, 41.1875, 41, 40.9375, 40.875, 40.6875, 40.4375, 40.25, 40.0625, 40, 39.9375, 39.75, 39.5, 39.25, 39.0625, 38.9375, 38.8125, 38.5625, 38.375, 38.321426, 38.257141, 37.720238, 37.5, 37.1875, 37.0625, 37, 36.875, 36.75, 36.5, 36.3125, 36.125, 35.875, 35.625, 35.375, 35.0625, 34.9375, 34.875, 34.625, 34.4375, 34.1875, 33.9375, 33.9375, 33.875, 33.625, 33.4375, 33.1875, 33, 33, 33, 32.75, 32.5, 32.25, 32, 31.9375, 31.6875, 31.4375, 31.1875, 30.875, 30.803572, 30.5, 30.3125, 30.1875, 30.0625, 29.9375, 29.8125, 29.5625, 29.3125, 29.125, 28.875, 28.75, 28.5625, 28.3125, 28.1875, 28.0625, 28, 27.8125, 27.5625, 27.3125, 27, 26.875, 26.6875, 26.4375, 26.25, 26.0625, 26, 26, 26, 25.75, 25.625, 25.5, 25.3125, 25.098213, 24.75893, 24.633928, 24.357143, 23.979166, 23.696428, 23.4375, 23.25, 23.25, 23, 22.75, 22.5625, 22.3125, 22.125, 22.0625, 21.9375, 21.6875, 21.4375, 21.1875, 21, 21, 20.875, 20.625, 20.375, 20.125, 20, 20, 19.875, 19.625, 19.3125, 19.026787, 18.9375, 18.9375, 18.8125, 18.5625, 18.3125, 18.0625, 17.875, 17.625, 17.375, 17.125, 17, 17, 16.875, 16.625, 16.375, 16.125, 16, 15.875, 15.625, 15.375, 15.125, 15, 15, 14.9375, 14.6875, 14.4375, 14.1875, 13.9375, 13.75, 13.5, 13.25, 13, 12.964286, 12.866072, 12.383928, 12.258928, 12, 12, 12, 11.875, 11.616072, 11.25, 11.0625, 10.9375, 10.8125, 10.5625, 10.3125, 10.0625, 10, 10, 9.75, 9.5, 9.25, 9, 9, 9, 9, 9, 9, 9, 9, 9, 9, 8.9375, 8.875, 8.75, 8.75, 8.8125, 8.875, 9, 9, 9, 9.0625, 9.125, 9.125, 9.125, 9.0625, 9, 9, 9, 9, 9, 9, 9, 9, 9, 9, 9, -10, -10, -10, -10, -10, -10, -10, -10, -10, -10, -10, -10, -10, -10, -10, -10, -10, -10, -10, 44.666664, 45.166668, 45.333332, 45.5, 45.6875, 45.927082, 45.96875, 46.03125, 46.09375, 46.1875, 46.4375, 46.6875, 47.0625, 47.4375, 47.660713, 47.8125, 48.044643, 47.9375, 47.9375, 47.75, 47.6875, 47.6875, 47.883926, 48.1875, 48.25, 48.3125, 48.330357, 48.645832, 48.803574, 48.9375, 49.071426, 49.25, 49.3125, 49.5625, 49.785713, 49.8125, 49.803574, 49.875, 49.9375, 50.1875, 50.3125, 50.4375, 50.642857, 51.013393, 50.92857, 51.017857, 50.928574, 50.683037, 50.580357, 50.366074, 50.237499, 50.491074, 50.741074, 50.9375, 51.0625, 51.0625, 51.125, 51.3125, 51.4375, 51.3125, 50.901787, 50.226189, 49.6875, 49.375, 49.270832, 49.333332, 49.059525, 48.65556, 48.892857, 48.625, 48.375, 47.642857, 47.119049, -10, -10, -10, -10, -10, -10, -10, -10, -10, -10, -10, -10, -10, -10, 50.25, 50.142857, 49.8125, 49.25, 48.714287, 48.5, 48.4375, 48.6875, 49.055557, 23.708334, 24.214285, 24.314625, 24.546875, 24.209822, 23.799999, 23.959822, 24.148809, 24.976191, 25.699406
40.625, 40.4375, 40.1875, 40.0625, 40, 39.75, 39.5, 39.25, 39.0625, 39, 38.9375, 38.6875, 38.5, 38.3125, 38.107143, 37.791668, 37.580357, 37.375, 37.25, 37.125, 37, 36.839287, 36.625, 36.4375, 36.25, 35.9375, 35.6875, 35.5, 35.178574, 34.9375, 34.9375, 34.625, 34.5, 34.25, 33.9375, 33.9375, 33.875, 33.6875, 33.5, 33.25, 33.0625, 33, 33, 32.75, 32.5, 32.25, 32, 32, 31.75, 31.5, 31.25, 30.9375, 30.866072, 30.5, 30.3125, 30.125, 30, 29.9375, 29.875, 29.625, 29.375, 29.125, 28.8125, 28.625, 28.4375, 28.25, 28.125, 28.0625, 28, 27.75, 27.5, 27.25, 27, 26.9375, 26.8125, 26.5625, 26.3125, 26.125, 26, 26, 25.9375, 25.6875, 25.5, 25.3125, 25.1875, 25.035713, 24.732143, 24.571428, 24.3125, 24.0625, 23.803572, 23.5, 23.25, 23.1875, 23, 22.8125, 22.5625, 22.3125, 22.0625, 22, 21.875, 21.6875, 21.5, 21.25, 21.125, 21.0625, 20.875, 20.625, 20.375, 20.125, 20, 20, 19.9375, 19.678572, 19.166666, 18.848215, 18.75, 18.8125, 18.8125, 18.625, 18.375, 18.125, 17.875, 17.625, 17.375, 17.125, 17, 17, 16.875, 16.625, 16.375, 16.125, 16, 15.9375, 15.6875, 15.4375, 15.1875, 15, 15, 15, 14.75, 14.5, 14.25, 13.875, 13.6875, 13.4375, 13.1875, 13.0625, 13, 12.803572, 12.4375, 12.25, 12, 12, 12, 11.875, 11.616072, 11.25, 11, 10.875, 10.75, 10.5, 10.3125, 10.0625, 10, 9.9375, 9.6875, 9.4375, 9.1875, 9, 9, 9, 9, 9, 9, 9, 9, 9, 9, 9, 8.9375, 8.8125, 8.8125, 8.8125, 8.875, 9, 9, 9, 9, 9, 9, 9, 9, 9, 9, 9, 9, 9, 9, 9, 9, 9, 9, -10, -10, -10, -10, -10, -10, -10, -10, -10, -10, -10, -10, -10, -10, -10, -10, -10, -10, -10, 44, 44.444443, 44.9375, 45.125, 45.3125, 45.46875, 45.65625, 45.78125, 45.90625, 46, 46.1875, 46.375, 46.625, 46.9375, 47.25, 47.5, 47.625, 47.919643, 47.9375, 47.973213, 47.875, 47.794643, 47.589287, 47.758926, 47.9375, 48, 48.125, 48.11607, 48.360119, 48.491074, 48.5625, 48.6875, 48.75, 48.9375, 49.1875, 49.535713, 49.625, 49.678574, 49.8125, 49.9375, 50.098213, 50.017857, 50.104168, 50.392857, 50.763393, 50.74107, 50.839287, 50.928574, 50.745537, 50.705357, 50.428574, 50.299999, 50.491074, 50.678574, 50.875, 51, 51, 51.125, 51.1875, 51.25, 51.125, 50.705357, 50.392857, 50.0625, 49.875, 49.8125, 49.625, 49.357143, 48.991669, 49.261902, 49.083332, 48.916668, 48.345234, 47.841267, 47.583332, -10, -10, -10, -10, -10, -10, 44.5, -10, -10, -10, -10, -10, -10, 50, 50, 49.705357, 48.9375, 48.428574, 48.1875, 48.166668, 48.5, 23.666668, 23.65625, 23.875, 24.066963, 24.203125, 24.053572, 23.871428, 24.128571, 24.053572, 24.8125, 25.553572, 25.866072, 26.0625, 26.125, 26.166668, -10, -10, -10, -10, -10, -10, -10, -10, -10, -10, -10, -10, -10, -10, -10, -10, -10, -10, -10, -10, -10, -10, -10, -10, -10, -10, -10, -10, -10, 42.875, 42.816666, 42.541668, 42.321426, 42.017857, 41.875, 41.8125, 41.5625, 41.4375, 41.25, 41, 41, 41, 40.9375, 40.6875, 40.5, 40.25, 40.0625, 39.9375, 39.6875, 39.4375, 39.1875, 39.0625, 39, 38.9375, 38.6875, 38.4375, 38.1875, 38, 37.875, 37.625, 37.5, 37.3125, 37.125, 37, 36.776787, 36.5625, 36.375, 36.25, 36, 35.8125, 35.6875, 35.357143, 34.9375, 34.9375, 34.625, 34.625, 34.375, 34.0625, 34, 33.875, 33.75, 33.5625, 33.3125, 33.125, 33, 33, 32.75, 32.5, 32.25, 32, 32, 31.75, 31.5, 31.25, 31, 30.928572, 30.5625, 30.375, 30.125, 30, 29.9375, 29.9375, 29.75, 29.5, 29.25, 28.9375, 28.75, 28.5625, 28.375, 28.1875, 28.0625, 28, 27.8125, 27.5625, 27.3125, 27.0625, 27, 26.9375, 26.6875, 26.4375, 26.1875, 26, 26, 25.875, 25.625, 25.375, 25.125, 25.0625, 24.973213, 24.767857, 24.571428, 24.3125, 24.0625, 23.839287, 23.625, 23.375, 23.25, 23.0625, 22.8125, 22.5625, 22.3125, 22.0625, 22, 21.875, 21.75, 21.5625, 21.3125, 21.1875, 21.0625, 20.875, 20.625, 20.375, 20.125, 20, 19.9375, 19.875, 19.616072, 19.104166, 18.785715, 18.625, 18.625, 18.5625, 18.4375, 18.25, 18.0625, 17.8125, 17.5625, 17.3125, 17.0625, 17, 17, 16.875, 16.625, 16.375, 16.125, 16, 15.9375, 15.6875, 15.4375, 15.1875, 15, 15, 14.9375, 14.6875, 14.4375, 14.1875, 13.875, 13.75, 13.5, 13.25, 13.125, 13, 12.866072, 12.5, 12.3125, 12.0625, 12, 12, 11.8125, 11.553572, 11.1875, 10.866072, 10.625, 10.5, 10.25, 10.1875, 10, 10, 9.875, 9.625, 9.375, 9.125, 9, 9, 9, 9, 9, 8.9375, 8.875, 8.875, 8.875, 8.9375, 9, 8.875, 8.75, 8.75, 8.75, 8.875, 9, 9, 9, 9, 9, 9, 8.9375, 8.875, 8.875, 8.875, 8.9375, 9, 9, 9, 9, 9, -10, -10, -10, -10, -10, -10, -10, -10, -10, -10, -10, -10, -10, -10, -10, -10, -10, -10, -10, 43.75, 43.875, 44, 44.333332, 44.4375, 44.6875, 44.9375, 45.15625, 45.40625, 45.65625, 45.84375, 46, 46.1875, 46.25, 46.4375, 46.625, 46.875, 47.0625, 47.25, 47.5625, 47.866074, 47.946426, 47.875, 47.6875, 47.401787, 47.571426, 47.8125, 47.8125, 47.875, 47.74107, 47.797619, 47.928574, 48.0625, 48.3125, 48.678574, 48.910713, 49.0625, 49.25, 49.25, 49.276787, 49.446426, 49.770832, 49.964287, 49.892857, 49.979168, 50.25, 50.513393, 50.732143, 50.73214, 50.732143, 50.526787, 50.424107, 50.34375, 50.4375, 50.5625, 50.75, 50.875, 51, 51, 51.0625, 51.0625, 51.0625, 50.9375, 50.642857, 50.5625, 50.348213, 50.071426, 50, 49.875, 49.732143, 49.541668, 49.446426, 49.535713, 49.42857, 49.010201, 48.625854, 48.066662, 47.916668, 47.583332, 47.377777, -10, -10, -10, 44.333332, 44.166664, -10, -10, -10, -10, -10, 50, 49.799999, 49.353741, 48.339287, 47.901787, 47.857143, 47.895836, 23, 23.555557, 23.5625, 23.8125, 23.96875, 24.0625, 24.03125, 24.040178, 24.231251, 24.1875, 24.875, 25.553572
40.75, 40.5625, 40.375, 40.098213, 39.830357, 39.642857, 39.375, 39.1875, 39.125, 38.9375, 38.8125, 38.5625, 38.3125, 38.125, 38, 37.9375, 37.75, 37.6875, 37.5, 37.25, 37, 36.651787, 36.4375, 36.25, 36.1875, 36, 35.875, 35.8125, 35.473213, 34.9375, 34.9375, 34.625, 34.6875, 34.4375, 34.1875, 34.0625, 33.9375, 33.875, 33.625, 33.375, 33.1875, 33, 33, 32.75, 32.5, 32.25, 32, 31.9375, 31.6875, 31.4375, 31.1875, 31, 30.928572, 30.5625, 30.375, 30.125, 30, 29.875, 29.8125, 29.6875, 29.4375, 29.25, 29.0625, 28.8125, 28.625, 28.4375, 28.1875, 28.0625, 28, 27.875, 27.6875, 27.4375, 27.1875, 27.0625, 27, 26.75, 26.5, 26.25, 26, 26, 25.8125, 25.5625, 25.3125, 25.0625, 25, 24.9375, 24.8125, 24.625, 24.375, 24.0625, 23.839287, 23.6875, 23.4375, 23.3125, 23.125, 22.8125, 22.5625, 22.3125, 22.0625, 22, 21.875, 21.8125, 21.625, 21.375, 21.25, 21.0625, 20.9375, 20.6875, 20.4375, 20.1875, 20, 19.9375, 19.8125, 19.553572, 19.041666, 18.723215, 18.5625, 18.5, 18.375, 18.25, 18.125, 18, 17.8125, 17.5625, 17.3125, 17.0625, 17, 17, 16.8125, 16.5625, 16.3125, 16.0625, 16, 15.875, 15.625, 15.375, 15.125, 15, 15, 14.875, 14.625, 14.375, 14.125, 13.875, 13.6875, 13.4375, 13.1875, 13.0625, 13, 12.866072, 12.5, 12.3125, 12, 11.9375, 11.9375, 11.6875, 11.5, 11.25, 10.866072, 10.625, 10.4375, 10.1875, 10.125, 10, 10, 9.8125, 9.5625, 9.3125, 9.0625, 9, 9, 8.9375, 8.875, 8.8125, 8.6875, 8.625, 8.6875, 8.75, 8.875, 9, 8.875, 8.8125, 8.8125, 8.8125, 8.9375, 9, 9, 9, 9, 8.9375, 8.875, 8.75, 8.625, 8.625, 8.6875, 8.8125, 8.9375, 9, 9, 9, -10, -10, -10, -10, -10, -10, -10, -10, -10, -10, -10, -10, -10, -10, -10, -10, -10, -10, 43, 43.166664, 43.5, 43.666668, 43.875, 44.020832, 44.1875, 44.4375, 44.625, 44.84375, 45.09375, 45.316963, 45.53125, 45.6875, 45.875, 46, 46.1875, 46.375, 46.625, 46.75, 46.875, 47.1875, 47.491074, 47.758926, 47.875, 47.8125, 47.589287, 47.696426, 47.875, 47.8125, 47.875, 47.691963, 47.558037, 47.65625, 47.78125, 48, 48.303574, 48.589287, 49, 49.205357, 49.3125, 49.3125, 49.154762, 49.440475, 49.535713, 49.726189, 49.773811, 49.9375, 50.03125, 50.1875, 50.35714, 50.553574, 50.712502, 50.629463, 50.65625, 50.5625, 50.625, 50.625, 50.6875, 50.75, 50.75, 50.75, 50.625, 50.5625, 50.4375, 50.3125, 50.428574, 50.510715, 50.125, 50.053574, 49.875, 49.8125, 49.875, 49.875, 49.875, 49.8125, 49.508926, 49.448978, 49.194443, 49.200001, 48.849998, 48.553337, -10, -10, -10, 44.785713, 44.73333, 45.111111, -10, -10, -10, -10, 49.5, 49.253571, 47.789684, 47.316326, 47.258926, 47.726192, 47.777782, 23, 23.604168, 23.708334, 23.96875, 24.15625, 24.1875, 24.21875, 24.290178, 24.512501, 24.59375, 25.25, 25.657738, 25.9375, 26.0625, 26.125, 26.166668, -10, -10, -10, -10, -10, -10, -10, -10, -10, -10, -10, -10, -10, -10, -10, -10, -10, -10, -10, -10, -10, -10, -10, -10, -10, -10, -10, -10, -10, 43.25, 42.983334, 42.604168, 42.258926, 41.830357, 41.6875, 41.6875, 41.5625, 41.4375, 41.3125, 41.0625, 41, 41, 41, 40.75, 40.5625, 40.375, 40.098213, 39.767857, 39.580357, 39.375, 39.1875, 39.1875, 38.9375, 38.6875, 38.4375, 38.125, 37.9375, 37.875, 37.8125, 37.6875, 37.75, 37.535713, 37.205357, 36.883926, 36.464287, 36.3125, 36.125, 36.125, 36, 35.875, 35.8125, 35.535713, 35, 35, 34.75, 34.75, 34.5, 34.25, 34.0625, 33.9375, 33.875, 33.625, 33.375, 33.1875, 33, 32.9375, 32.6875, 32.4375, 32.1875, 32, 31.875, 31.625, 31.375, 31.125, 31, 31, 30.75, 30.5, 30.25, 30, 29.875, 29.75, 29.625, 29.375, 29.1875, 29.0625, 28.75, 28.5, 28.3125, 28.0625, 28, 28, 27.9375, 27.8125, 27.625, 27.375, 27.1875, 27.0625, 26.75, 26.5, 26.25, 26, 25.9375, 25.6875, 25.4375, 25.1875, 25, 24.9375, 24.875, 24.6875, 24.4375, 24.25, 24, 23.8125, 23.6875, 23.4375, 23.25, 23.125, 22.75, 22.5, 22.25, 22, 21.928572, 21.6875, 21.6875, 21.5, 21.375, 21.25, 21.0625, 20.9375, 20.6875, 20.4375, 20.1875, 20, 19.9375, 19.75, 19.491072, 19.041666, 18.758928, 18.625, 18.5, 18.3125, 18.1875, 18.0625, 18, 17.8125, 17.5625, 17.3125, 17.0625, 17, 17, 16.8125, 16.5625, 16.3125, 16.0625, 15.9375, 15.75, 15.5, 15.25, 15.0625, 15, 15, 14.8125, 14.5625, 14.3125, 14.0625, 13.9375, 13.75, 13.5, 13.25, 13.0625, 13, 12.9375, 12.6875, 12.4375, 12.125, 11.875, 11.8125, 11.5625, 11.375, 11.1875, 10.866072, 10.625, 10.4375, 10.1875, 10.125, 10, 10, 9.75, 9.5, 9.25, 9, 9, 9, 8.9375, 8.875, 8.75, 8.5625, 8.5, 8.5625, 8.6875, 8.875, 9, 8.875, 8.8125, 8.8125, 8.8125, 8.90625, 8.90625, 8.84375, 8.84375, 8.8125, 8.75, 8.6875, 8.5, 8.375, 8.375, 8.5, 8.625, 8.8125, 8.916667, 9, -10, -10, -10, -10, -10, -10, -10, -10, -10, -10, -10, -10, -10, -10, -10, -10, -10, -10, 43, 43, 43.111111, 43.3125, 43.4375, 43.5625, 43.6875, 43.9375, 44.25, 44.5, 44.78125, 45.125, 45.285713, 45.4375, 45.53125, 45.5625, 45.696426, 46.083332, 46.232143, 46.4375, 46.5, 46.5, 46.8125, 47.178574, 47.571426, 47.9375, 48.107143, 47.964287, 48.0625, 48, 47.9375, 48, 47.816963, 47.683037, 47.65625, 47.71875, 47.9375, 48.178574, 48.401787, 48.75, 49.071426, 49.258926, 49.25, 48.967262, 49.083332, 49.098213, 49.288689, 49.398811, 49.5625, 49.625, 49.6875, 49.73214, 50.035713, 50.53125, 50.486607, 50.665176, 50.5625, 50.5625, 50.5, 50.5, 50.5, 50.4375, 50.4375, 50.375, 50.3125, 50.25, 50.366074, 50.544643, 50.698215, 50.25, 50.116074, 49.9375, 49.9375, 50, 49.9375, 49.9375, 49.9375, 49.9375, 49.883926, 49.690479, 49.306122, 49.035713, 48.823811, 49.25, 49.125, 48.75, 46.833332, 46.555553, 46.733334, -10, -10, -10, 46.107143, 47.375, 47.200001, 46.962585, 46.745537, 46.616074, -10, -10, -10, 23.479168, 23.625, 23.90625, 24.09375, 24.1875, 24.34375, 24.540178, 24.887501, 25.040178, 25.395834, 25.729166
40.6875, 40.4375, 40.25, 40.035713, 39.705357, 39.642857, 39.4375, 39.25, 39.1875, 38.8125, 38.5, 38.25, 37.9375, 37.75, 37.75, 37.625, 37.5625, 37.625, 37.285713, 36.955357, 36.633926, 36.25, 36.125, 36, 36, 35.875, 35.75, 35.625, 35.294643, 34.875, 34.8125, 34.625, 34.625, 34.4375, 34.25, 34.0625, 33.9375, 33.8125, 33.5625, 33.3125, 33.0625, 32.9375, 32.8125, 32.5625, 32.375, 32.125, 32, 31.875, 31.625, 31.375, 31.125, 31, 30.9375, 30.6875, 30.4375, 30.1875, 30, 29.875, 29.6875, 29.5625, 29.25, 29.125, 29.0625, 28.8125, 28.625, 28.375, 28.125, 27.9375, 27.9375, 27.9375, 27.8125, 27.6875, 27.4375, 27.25, 27.098213, 26.705357, 26.446428, 26.1875, 26, 25.9375, 25.6875, 25.4375, 25.1875, 25, 24.9375, 24.8125, 24.625, 24.375, 24.1875, 24, 23.75, 23.625, 23.375, 23.1875, 23.125, 22.8125, 22.5625, 22.3125, 22.0625, 21.866072, 21.625, 21.5625, 21.3125, 21.25, 21.125, 21, 20.9375, 20.75, 20.5, 20.25, 20.0625, 19.875, 19.625, 19.375, 19.125, 18.9375, 18.8125, 18.5625, 18.25, 18.0625, 17.875, 17.8125, 17.6875, 17.4375, 17.25, 17.0625, 17, 17, 16.8125, 16.5625, 16.3125, 16.0625, 15.875, 15.625, 15.375, 15.125, 15, 15, 15, 14.75, 14.5, 14.25, 14, 14, 13.875, 13.625, 13.375, 13.125, 13, 13, 12.75, 12.5, 12.1875, 11.875, 11.75, 11.5, 11.3125, 11.125, 10.928572, 10.6875, 10.5, 10.25, 10.125, 10, 10, 9.8125, 9.625, 9.375, 9.125, 9.0625, 9, 8.875, 8.75, 8.5625, 8.3125, 8.25, 8.3125, 8.5, 8.75, 8.9375, 8.8125, 8.6875, 8.625, 8.5625, 8.65625, 8.65625, 8.59375, 8.65625, 8.6875, 8.625, 8.5625, 8.3125, 8.125, 8.125, 8.3125, 8.458333, 8.75, 8.8888893, -10, -10, -10, -10, -10, -10, -10, -10, -10, -10, -10, -10, -10, -10, -10, -10, -10, -10, 42.625, 42.833332, 43, 43.145832, 43.125, 43.25, 43.3125, 43.5, 43.75, 44.0625, 44.375, 44.625, 44.9375, 45.035713, 45.125, 45.1875, 45.1875, 45.383926, 45.770832, 45.964287, 46.125, 46.125, 46.125, 46.4375, 46.803574, 47.223213, 47.669643, 48.166668, 48.214287, 48.28125, 48.15625, 48.03125, 48.03125, 47.875, 47.8125, 47.75, 47.90625, 48.125, 48.303574, 48.401787, 48.625, 48.852676, 49.071426, 49.0625, 48.717262, 48.677082, 48.6875, 48.989582, 49.075893, 49.21875, 49.28125, 49.3125, 49.410713, 49.60714, 50.302082, 50.21875, 50.477676, 50.3125, 50.375, 50.375, 50.375, 50.375, 50.25, 50.1875, 50.1875, 50.125, 50.0625, 50.303574, 50.544643, 50.760715, 50.375, 50.178574, 50, 50.0625, 50.1875, 50.125, 50.0625, 50, 50, 50.0625, 50, 49.767857, 49.5625, 49.387501, 49.5, 49.32143, 48.722225, 47.653057, 47.333332, 47.166668, 47.875, 47.5, 46.791664, 46.07143, 46.57143, 46.350002, 46.364582, 46.245537, 46.25, -10, -10, -10, 23.270834, 23.458334, 23.75, 24.0625, 24.21875, 24.40625, 24.611607, 25.020834, 25.397322, 25.6875, 25.8125, 25.9375, 26, 26, 26, -10, -10, -10, -10, -10, -10, -10, -10, -10, -10, -10, -10, -10, -10, -10, -10, -10, -10, -10, -10, -10, -10, -10, -10, -10, -10, -10, -10, -10, 43, 42.75, 42.5625, 42.3125, 42.0625, 41.875, 41.75, 41.625, 41.4375, 41.3125, 41.1875, 41.0625, 40.9375, 40.8125, 40.5625, 40.3125, 40.125, 39.910713, 39.580357, 39.517857, 39.375, 39.25, 39.125, 38.6875, 38.375, 38.125, 37.8125, 37.625, 37.625, 37.4375, 37.4375, 37.5, 37.160713, 36.830357, 36.508926, 36.1875, 36.0625, 36, 35.9375, 35.75, 35.5625, 35.375, 35.053574, 34.75, 34.625, 34.4375, 34.4375, 34.3125, 34.1875, 34.0625, 33.875, 33.6875, 33.4375, 33.1875, 33, 32.875, 32.6875, 32.4375, 32.25, 32.0625, 32, 31.875, 31.625, 31.375, 31.125, 31, 30.875, 30.6875, 30.4375, 30.1875, 30.0625, 29.9375, 29.6875, 29.5, 29.1875, 29, 29, 28.8125, 28.625, 28.375, 28.125, 27.9375, 27.9375, 27.9375, 27.8125, 27.6875, 27.4375, 27.3125, 27.223213, 26.875, 26.488094, 26.196428, 26, 25.9375, 25.6875, 25.4375, 25.1875, 25, 24.9375, 24.75, 24.5, 24.25, 24.0625, 23.9375, 23.6875, 23.5, 23.25, 23.0625, 23.0625, 22.875, 22.625, 22.375, 22.1875, 21.901785, 21.517857, 21.383928, 21.125, 21.125, 21.0625, 21, 21, 20.803572, 20.4375, 20.25, 20, 19.875, 19.625, 19.375, 19.125, 19, 18.875, 18.625, 18.375, 18.125, 17.9375, 17.8125, 17.625, 17.375, 17.1875, 17.0625, 17, 16.9375, 16.6875, 16.4375, 16.1875, 16, 15.8125, 15.5625, 15.3125, 15.0625, 15, 14.9375, 14.875, 14.625, 14.375, 14.1875, 14, 14, 13.8125, 13.5625, 13.3125, 13.0625, 13, 13, 12.75, 12.5, 12.1875, 11.875, 11.6875, 11.4375, 11.25, 11.0625, 11, 10.9375, 10.75, 10.5, 10.25, 10.0625, 10, 9.875, 9.6875, 9.4375, 9.1875, 9.0625, 9, 8.8125, 8.625, 8.375, 8.125, 8.125, 8.1875, 8.375, 8.5625, 8.6875, 8.625, 8.5, 8.4375, 8.375, 8.46875, 8.53125, 8.53125, 8.65625, 8.625, 8.5, 8.375, 8.125, 8, 8, 8.2589283, 8.520833, -10, -10, -10, -10, -10, -10, -10, -10, -10, -10, -10, -10, -10, -10, -10, -10, -10, 41.666664, 41.75, 41.875, 42.416668, 42.625, 42.75, 42.875, 42.9375, 43.098213, 43.125, 43.3125, 43.5625, 43.875, 44.25, 44.5625, 44.8125, 44.848213, 44.875, 44.84375, 44.78125, 44.977676, 45.302082, 45.535713, 45.895832, 45.991074, 46, 46.1875, 46.375, 46.6875, 47.276787, 48.073811, 48.234692, 48.352043, 47.96875, 48.013393, 48.09375, 48.0625, 48.0625, 48, 48.09375, 48.1875, 48.125, 48.116074, 48.3125, 48.602676, 48.688774, 48.9375, 48.645832, 48.450893, 48.446426, 48.739582, 48.825893, 48.96875, 49.03125, 49, 49.1875, 49.616074, 50.369045, 50.3125, 50.446426, 50.1875, 50.25, 50.3125, 50.267857, 49.958332, 49.821426, 49.866074, 49.973213, 49.9375, 49.875, 50.053574, 50.232143, 50.537498, 50.366074, 50.241074, 50.125, 50.1875, 50.3125, 50.232143, 50.0625, 50, 49.9375, 50.0625, 50, 49.830357, 49.75, 49.6875, 49.625, 49.491074, 48.979168, 48.633926, 48.3125, 48.166668, 48.583332, 48.25, 47.611111, 46.382656, 46.166668, 45.941963, 46, 46.03125, -10, -10, -10, -10, 23.25, 23.444445, 23.75, 24.041666, 24.21875, 24.34375, 24.486607, 24.882441, 25.418156, 25.741072, 25.9375
40.5, 40.3125, 40.035713, 39.767857, 39.508926, 39.375, 39.375, 39.25, 39.0625, 38.642857, 38.3125, 38.0625, 37.8125, 37.625, 37.625, 37.4375, 37.375, 37.375, 37.035713, 36.642857, 36.383926, 36.1875, 36.125, 36.125, 36.0625, 35.8125, 35.5, 35.25, 34.9375, 34.75, 34.5625, 34.375, 34.375, 34.25, 34.1875, 34.125, 33.875, 33.625, 33.375, 33.125, 32.9375, 32.8125, 32.5625, 32.375, 32.1875, 32.0625, 32.0625, 31.9375, 31.6875, 31.4375, 31.1875, 31, 30.875, 30.75, 30.5, 30.25, 30.125, 30, 29.8125, 29.5625, 29.25, 29, 28.9375, 28.875, 28.6875, 28.4375, 28.1875, 27.9375, 27.9375, 27.9375, 27.75, 27.625, 27.375, 27.1875, 27.098213, 26.75, 26.363094, 26.133928, 26, 25.9375, 25.6875, 25.4375, 25.1875, 25, 24.9375, 24.6875, 24.4375, 24.1875, 24, 24, 23.75, 23.5, 23.25, 23, 23, 22.9375, 22.6875, 22.4375, 22.25, 21.964285, 21.553572, 21.276787, 21.008928, 21, 21, 21, 21, 20.866072, 20.5, 20.3125, 20.0625, 19.875, 19.625, 19.375, 19.125, 19, 18.9375, 18.75, 18.5625, 18.3125, 18, 17.705357, 17.4375, 17.1875, 17.0625, 17, 16.9375, 16.8125, 16.5625, 16.3125, 16.125, 16, 15.8125, 15.625, 15.4375, 15.1875, 15.125, 15, 14.8125, 14.5625, 14.3125, 14.125, 14, 14, 13.875, 13.625, 13.375, 13.125, 13, 12.9375, 12.6875, 12.4375, 12.1875, 11.9375, 11.75, 11.5, 11.25, 11.0625, 11, 11, 10.8125, 10.5625, 10.3125, 10.0625, 10, 9.9375, 9.75, 9.5, 9.25, 9.0625, 9, 8.8125, 8.625, 8.375, 8.125, 8.125, 8.125, 8.25, 8.375, 8.4375, 8.375, 8.25, 8.1875, 8.125, 8.21875, 8.28125, 8.28125, 8.40625, 8.375, 8.3125, 8.25, 8.0625, 8, 8, 8.2619047, 8.5277777, -10, -10, -10, -10, -10, -10, -10, -10, -10, -10, -10, -10, -10, -10, -10, -10, 41, 41.444443, 41.5, 41.5, 42.026787, 42.232143, 42.428574, 42.6875, 42.8125, 42.973213, 43, 43.1875, 43.4375, 43.75, 44.1875, 44.4375, 44.5625, 44.5625, 44.625, 44.71875, 44.71875, 44.745537, 44.736393, 44.908165, 45.583332, 45.848213, 45.9375, 46.125, 46.28125, 46.53125, 47.058037, 47.792561, 47.369049, 47.50893, 47.71875, 47.950893, 48.15625, 48.21875, 48.21875, 48.09375, 48.125, 48.25, 48.25, 48.25, 48.1875, 48.397324, 48.5, 48.4375, 48.5, 48.450893, 48.5, 48.46875, 48.361607, 48.522324, 48.822918, 48.9375, 49.1875, 49.491074, 50.156544, 50.169643, 50.258926, 50.125, 50.25, 50.375, 50.267857, 49.851189, 49.696426, 49.741074, 49.973213, 50.09375, 50.15625, 50.334824, 50.397324, 50.4375, 50.375, 50.25, 50.1875, 50.3125, 50.4375, 50.339287, 50.0625, 50, 49.875, 50.0625, 50, 49.892857, 49.875, 49.875, 49.875, 49.803574, 49.354168, 49.133926, 48.9375, 48.875, 49.07143, 48.857143, 48.488094, 48.035717, 46.619049, 46.397957, 46.464287, 46.57143, -10, -10, -10, -10, -10, -10, 23.71875, 23.947916, 24.1875, 24.254463, 24.325893, 24.788691, 25.244047, 25.616072, 25.875, 25.9375, 26, 26, 26, -10, -10, -10, -10, -10, -10, -10, -10, -10, -10, -10, -10, -10, -10, -10, -10, -10, -10, -10, -10, -10, -10, -10, -10, -10, -10, -10, -10, -10, 43.125, 42.966667, 42.714287, 42.5625, 42.25, 42.0625, 41.875, 41.75, 41.6875, 41.5625, 41.4375, 41.25, 40.9375, 40.625, 40.375, 40.1875, 39.910713, 39.642857, 39.383926, 39.21875, 39.28125, 39.28125, 39.080357, 38.559525, 38.258926, 38, 37.875, 37.75, 37.75, 37.5625, 37.4375, 37.3125, 37, 36.6875, 36.4375, 36.25, 36.0625, 36, 35.875, 35.6875, 35.5, 35.375, 35.125, 34.875, 34.625, 34.375, 34.4375, 34.3125, 34.25, 34.1875, 33.8125, 33.5625, 33.3125, 33.0625, 32.9375, 32.8125, 32.625, 32.5, 32.3125, 32.1875, 32.125, 31.9375, 31.6875, 31.4375, 31.1875, 31, 30.875, 30.8125, 30.5625, 30.3125, 30.1875, 30, 29.875, 29.625, 29.3125, 29.0625, 28.9375, 28.875, 28.6875, 28.4375, 28.1875, 27.9375, 27.9375, 27.875, 27.625, 27.4375, 27.1875, 27, 26.910713, 26.625, 26.238094, 26.071428, 25.9375, 25.875, 25.625, 25.375, 25.1875, 25, 25, 24.8125, 24.5625, 24.3125, 24.0625, 24, 23.75, 23.5, 23.25, 23, 23, 23, 22.8125, 22.5625, 22.375, 22.098213, 21.741072, 21.401787, 21.071428, 20.9375, 20.9375, 20.875, 20.875, 20.803572, 20.4375, 20.3125, 20.125, 19.8125, 19.625, 19.375, 19.125, 19.0625, 18.9375, 18.8125, 18.6875, 18.4375, 18.125, 17.705357, 17.375, 17.1875, 17.0625, 17.0625, 17, 16.8125, 16.5625, 16.3125, 16.125, 16, 15.875, 15.75, 15.5625, 15.3125, 15.1875, 14.9375, 14.6875, 14.4375, 14.1875, 14.0625, 14, 14, 13.9375, 13.6875, 13.4375, 13.1875, 13, 12.875, 12.625, 12.375, 12.125, 12, 11.875, 11.625, 11.375, 11.125, 11, 11, 10.8125, 10.5625, 10.3125, 10.0625, 9.9375, 9.875, 9.6875, 9.4375, 9.25, 9.0625, 9, 8.75, 8.5, 8.25, 8, 8, 8, 8.0625, 8.125, 8.1875, 8.1875, 8.125, 8.0625, 8, 8.0625, 8.125, 8.1875, 8.3125, 8.375, 8.3125, 8.25, 8.125, 8, 8, -10, -10, -10, -10, -10, -10, -10, -10, -10, -10, -10, -10, -10, -10, -10, -10, -10, 41, 41, 41.270832, 41.25, 41.25, 41.464287, 41.839287, 42.116074, 42.4375, 42.6875, 42.848213, 42.955357, 43.223213, 43.375, 43.6875, 44, 44.25, 44.25, 44.25, 44.3125, 44.40625, 44.46875, 44.495537, 44.502678, 44.49107, 45.029762, 45.392857, 45.6875, 45.875, 46, 46.1875, 46.558037, 47.247917, 47.22768, 47.428574, 47.40625, 47.700893, 47.90625, 48.03125, 48.03125, 47.90625, 47.955357, 48.208332, 48.303574, 48.4375, 48.4375, 48.40625, 48.303574, 48.125, 48.25, 48.370537, 48.5, 48.40625, 48.111607, 48.263393, 48.739586, 48.9375, 49.1875, 49.258926, 49.735119, 50.086311, 50.1875, 50.1875, 50.25, 50.375, 50.267857, 49.851189, 49.758926, 49.866074, 50.035713, 50.15625, 50.21875, 50.15625, 50.15625, 50.125, 50.0625, 49.9375, 50, 50.1875, 50.375, 50.401787, 50.125, 50.0625, 49.875, 50, 50, 50, 50, 50, 49.875, 49.741074, 49.354168, 49.196426, 49.205357, 49.410713, 49.5, 49.4375, 49.404762, 48.92857, 48.756947, 48.627975, 48.625, 48.666668, -10, -10, -10, -10, -10, -10, 23.78125, 24.010416, 24.1875, 24.129463, 24.138393, 24.538691, 24.976191, 25.366072, 25.6875
40.3125, 40.125, 39.910713, 39.580357, 39.321426, 39.09375, 39.15625, 39.28125, 39.205357, 38.791668, 38.363094, 38.071426, 37.9375, 37.875, 37.875, 37.75, 37.5625, 37.375, 37.125, 36.75, 36.5, 36.3125, 36.0625, 35.9375, 35.75, 35.625, 35.5, 35.4375, 35.3125, 35.0625, 34.75, 34.5, 34.5625, 34.375, 34.3125, 34.25, 33.75, 33.5, 33.1875, 32.9375, 32.9375, 32.8125, 32.6875, 32.5625, 32.3125, 32.1875, 32.125, 31.9375, 31.6875, 31.4375, 31.1875, 31, 30.875, 30.8125, 30.5625, 30.3125, 30.1875, 30, 29.9375, 29.6875, 29.4375, 29.1875, 29, 28.9375, 28.6875, 28.4375, 28.1875, 28, 28, 27.9375, 27.6875, 27.4375, 27.1875, 26.875, 26.75, 26.544643, 26.166666, 26.071428, 25.9375, 25.8125, 25.5625, 25.3125, 25.125, 25, 25, 24.8125, 24.5625, 24.3125, 24.0625, 24, 23.8125, 23.5625, 23.3125, 23.0625, 23, 23, 22.875, 22.625, 22.4375, 22.223213, 21.803572, 21.464287, 21.133928, 20.9375, 20.875, 20.75, 20.6875, 20.616072, 20.3125, 20.25, 20.125, 19.875, 19.75, 19.5, 19.25, 19.125, 18.9375, 18.875, 18.75, 18.5, 18.25, 17.767857, 17.5, 17.375, 17.25, 17.25, 17.125, 16.8125, 16.5, 16.25, 16.0625, 16, 15.9375, 15.8125, 15.625, 15.375, 15.1875, 14.875, 14.5625, 14.3125, 14.0625, 14, 14, 14, 13.875, 13.625, 13.375, 13.125, 13, 12.875, 12.625, 12.375, 12.125, 12, 11.9375, 11.6875, 11.4375, 11.1875, 11, 10.9375, 10.75, 10.5, 10.25, 10.0625, 9.9375, 9.8125, 9.5625, 9.3125, 9.125, 9, 9, 8.75, 8.5, 8.25, 8, 8, 8, 8, 8, 8, 8, 8, 8, 8, 8.0625, 8.125, 8.1875, 8.25, 8.25, 8.1875, 8.125, 8.0625, 8, -10, -10, -10, -10, -10, -10, -10, -10, -10, -10, -10, -10, -10, -10, -10, -10, -10, -10, 40.75, 40.875, 40.895832, 40.875, 40.875, 40.964287, 41.357143, 41.723213, 42.053574, 42.375, 42.535713, 42.705357, 42.973213, 43.125, 43.5, 43.8125, 44, 44.0625, 44.0625, 44.1875, 44.34375, 44.46875, 44.495537, 44.440178, 44.321426, 44.717262, 45.017857, 45.375, 45.598213, 45.71875, 45.875, 46.075893, 46.518749, 46.544643, 46.897324, 47.098213, 47.419643, 47.6875, 47.8125, 47.8125, 47.75, 47.767857, 47.958332, 48.116074, 48.3125, 48.4375, 48.4375, 48.303574, 48.0625, 48.125, 48.276787, 48.375, 48.25, 47.955357, 48.107143, 48.958336, 49.208332, 49.401787, 49.375, 49.433037, 49.697918, 49.741074, 49.946426, 50.116074, 50.25, 50.142857, 49.726189, 49.696426, 49.866074, 50.035713, 50.15625, 50.21875, 50.09375, 49.96875, 49.875, 49.75, 49.6875, 49.8125, 50, 50.1875, 50.214287, 50, 50, 49.875, 50, 50, 50, 50, 50.0625, 49.9375, 49.8125, 49.651787, 49.5, 49.580357, 49.785713, 49.875, 49.875, 49.6875, 49.4375, 49.380955, 49.377552, 49.410713, 49.42857, -10, -10, -10, -10, -10, -10, 24, 24.041666, 24.09375, 23.941963, 23.888393, 24.288691, 24.726191, 25.116072, 25.4375, 25.625, 25.75, 25.8125, 25.833334, -10, -10, -10, -10, -10, -10, -10, -10, -10, -10, -10, -10, -10, -10, -10, -10, -10, -10, -10, -10, -10, -10, -10, -10, -10, -10, -10, -10, -10, 43.125, 43.049999, 42.901787, 42.75, 42.4375, 42.25, 42.0625, 42, 42, 41.9375, 41.6875, 41.4375, 41.0625, 40.625, 40.375, 40.1875, 39.973213, 39.642857, 39.383926, 39.15625, 39.15625, 39.28125, 39.330357, 38.952381, 38.443451, 38.142857, 38, 38, 38, 37.9375, 37.6875, 37.375, 37.017857, 36.625, 36.375, 36.25, 36.0625, 35.875, 35.75, 35.6875, 35.625, 35.616074, 35.424999, 35.294643, 34.875, 34.642857, 34.5625, 34.3125, 34.25, 34.125, 33.6875, 33.4375, 33.125, 32.9375, 32.9375, 32.8125, 32.6875, 32.5625, 32.3125, 32.1875, 32.125, 31.9375, 31.6875, 31.4375, 31.1875, 30.9375, 30.8125, 30.75, 30.5, 30.3125, 30.1875, 30, 30, 29.75, 29.5, 29.25, 29, 28.9375, 28.6875, 28.4375, 28.1875, 28, 28, 27.9375, 27.678572, 27.229166, 27.017857, 26.625, 26.4375, 26.3125, 26.125, 26.107143, 25.854166, 25.633928, 25.375, 25.1875, 25.0625, 25, 25, 24.8125, 24.5625, 24.3125, 24.0625, 24, 23.875, 23.625, 23.375, 23.125, 23, 23, 22.875, 22.625, 22.375, 22.1875, 21.848213, 21.517857, 21.196428, 20.9375, 20.875, 20.6875, 20.625, 20.625, 20.419643, 20.25, 20.1875, 19.875, 19.875, 19.625, 19.375, 19.1875, 19, 18.9375, 18.8125, 18.5625, 18.25, 17.830357, 17.625, 17.5625, 17.5, 17.4375, 17.25, 16.875, 16.5, 16.25, 16.0625, 16, 16, 15.9375, 15.75, 15.5, 15.25, 14.9375, 14.6875, 14.4375, 14.1875, 14.0625, 14, 14, 13.9375, 13.6875, 13.4375, 13.1875, 13, 12.875, 12.625, 12.375, 12.125, 12, 12, 11.75, 11.5, 11.25, 11, 10.9375, 10.6875, 10.4375, 10.1875, 10, 9.9375, 9.8125, 9.5625, 9.3125, 9.125, 9, 8.9375, 8.6875, 8.4375, 8.1875, 8, 8, 8, 8, 8, 8, 8, 8, 8, 8, 8, 8, 8, 8, 8.0625, 8.0625, 8.0625, 8.083333, -10, -10, -10, -10, -10, -10, -10, -10, -10, -10, -10, -10, -10, -10, -10, -10, 40, 40, 40, 40.625, 40.75, 40.669643, 40.549999, 40.616074, 40.642857, 41.169643, 41.598213, 41.928574, 42.1875, 42.3125, 42.486607, 42.754463, 42.96875, 43.34375, 43.669643, 43.75, 43.8125, 43.8125, 43.96875, 44.28125, 44.446426, 44.33036, 44.325592, 44.333332, 44.491074, 44.745537, 45.03125, 45.316963, 45.625, 45.946426, 46.0625, 46.3125, 46.53125, 46.84375, 47.098213, 47.3125, 47.53125, 47.625, 47.6875, 47.6875, 47.736607, 47.958332, 48.116074, 48.3125, 48.4375, 48.4375, 48.366074, 48.125, 48.125, 48.169643, 48.1875, 47.9375, 47.705357, 48.007141, 48.708336, 49.029758, 49.160713, 49.137501, 49.040176, 49.385418, 49.366074, 49.633926, 49.8125, 50.0625, 50, 49.955357, 49.875, 49.9375, 50, 50.09375, 50.15625, 50.09375, 49.96875, 49.8125, 49.6875, 49.625, 49.75, 49.9375, 50.0625, 50.107143, 50, 50, 49.9375, 50, 50, 50, 50, 50, 49.8125, 49.6875, 49.589287, 49.5, 49.642857, 49.848213, 49.9375, 50, 49.875, 49.839287, 49.8125, 49.875, 50, 50, -10, -10, -10, -10, -10, -10, 24, 24, 23.9375, 23.723213, 23.6875, 24.229168, 24.571428, 24.9375, 25.1875
40.4375, 40.1875, 40, 39.6875, 39.4375, 39.21875, 39.09375, 39.21875, 39.330357, 38.997025, 38.505951, 38.205357, 38, 38, 38, 37.875, 37.625, 37.3125, 37.017857, 36.723213, 36.392857, 36.196426, 35.9375, 35.75, 35.625, 35.5625, 35.5625, 35.491074, 35.237499, 35.107143, 34.6875, 34.517857, 34.4375, 34.25, 34.125, 33.9375, 33.5625, 33.375, 33.125, 33, 33, 32.875, 32.8125, 32.625, 32.375, 32.1875, 32.0625, 31.9375, 31.6875, 31.4375, 31.1875, 30.9375, 30.8125, 30.75, 30.5, 30.3125, 30.1875, 29.9375, 29.875, 29.625, 29.375, 29.1875, 29, 28.9375, 28.6875, 28.4375, 28.1875, 28, 28, 27.9375, 27.678572, 27.166666, 26.955357, 26.723213, 26.5625, 26.5, 26.25, 26.107143, 25.729166, 25.446428, 25.1875, 25.0625, 25, 25, 25, 24.8125, 24.5625, 24.3125, 24.0625, 24, 23.875, 23.625, 23.375, 23.125, 23, 23, 22.875, 22.625, 22.375, 22.125, 21.75, 21.5, 21.1875, 20.9375, 20.875, 20.6875, 20.625, 20.553572, 20.148809, 20.017857, 20, 19.8125, 19.9375, 19.6875, 19.4375, 19.1875, 18.875, 18.75, 18.5625, 18.375, 18.1875, 17.9375, 17.8125, 17.8125, 17.6875, 17.5625, 17.375, 16.9375, 16.5625, 16.3125, 16.0625, 16, 16, 15.875, 15.625, 15.375, 15.125, 14.875, 14.75, 14.5, 14.25, 14.125, 14, 14, 13.875, 13.625, 13.375, 13.125, 13, 12.9375, 12.6875, 12.4375, 12.1875, 12, 12, 11.75, 11.5, 11.25, 11, 10.9375, 10.6875, 10.4375, 10.1875, 10, 9.9375, 9.8125, 9.5625, 9.3125, 9.125, 9, 8.875, 8.625, 8.375, 8.125, 8, 8, 8, 8, 8, 8, 8, 8, 8, 8, 8, 8, 8, 8, 8.0625, 8.0625, 8.083333, -10, -10, -10, -10, -10, -10, -10, -10, -10, -10, -10, -10, -10, -10, -10, -10, -10, 39.666668, 39.729168, 39.8125, 40.328125, 40.546875, 40.544643, 40.487499, 40.647324, 40.678574, 41.0625, 41.419643, 41.616074, 41.8125, 41.90625, 42.049107, 42.316963, 42.53125, 42.941963, 43.502975, 43.607143, 43.6875, 43.625, 43.65625, 43.84375, 43.946426, 43.9375, 44.035416, 44.114582, 44.209824, 44.388393, 44.6875, 44.973213, 45.375, 45.727676, 45.84375, 46.09375, 46.21875, 46.53125, 46.785713, 47.044643, 47.3125, 47.4375, 47.5625, 47.625, 47.705357, 47.958332, 48.116074, 48.25, 48.3125, 48.1875, 48.125, 48.0625, 48, 48.0625, 48.0625, 47.9375, 48, 48.328571, 48.613094, 48.708332, 48.678574, 48.845833, 48.78125, 49.135418, 49.053574, 49.258926, 49.3125, 49.607143, 49.916668, 50.0625, 50.0625, 50.0625, 50.0625, 50.0625, 50.0625, 50, 49.875, 49.8125, 49.75, 49.6875, 49.8125, 49.875, 49.9375, 50, 50, 50, 50, 50, 50, 50, 50, 49.9375, 49.8125, 49.6875, 49.651787, 49.625, 49.767857, 50.035713, 50.125, 50.1875, 50, 49.901787, 49.8125, 49.875, 50, 50, -10, -10, -10, -10, -10, -10, 23.875, 23.9375, 23.84375, 23.6875, 23.785713, 24.354168, 24.75, 25, 25.1875, 25.375, 25.5625, 25.75, 25.833334, -10, -10, -10, -10, -10, -10, -10, -10, -10, -10, -10, -10, -10, -10, -10, -10, -10, -10, -10, -10, -10, -10, -10, -10, -10, -10, -10, -10, -10, 43, 42.833336, 42.75, 42.5625, 42.375, 42.25, 42.125, 42.0625, 42, 41.875, 41.625, 41.375, 41, 40.75, 40.5625, 40.3125, 40.1875, 39.875, 39.625, 39.4375, 39.1875, 39.1875, 39.25, 39.080357, 38.622025, 38.330357, 38, 37.9375, 37.9375, 37.8125, 37.625, 37.3125, 36.955357, 36.660713, 36.330357, 36.133926, 36, 35.9375, 35.9375, 36, 35.9375, 35.511906, 35.085712, 34.857143, 34.4375, 34.267857, 34.1875, 34.0625, 34, 33.8125, 33.5, 33.375, 33.125, 33.0625, 33.0625, 32.875, 32.8125, 32.5625, 32.3125, 32.125, 32, 32, 31.75, 31.5, 31.25, 30.875, 30.75, 30.6875, 30.5, 30.375, 30.25, 30, 29.8125, 29.5625, 29.3125, 29.125, 29, 29, 28.75, 28.5, 28.25, 28, 28, 28, 27.741072, 27.229166, 27.017857, 26.785713, 26.6875, 26.6875, 26.4375, 26.232143, 25.854166, 25.571428, 25.3125, 25.1875, 25.0625, 25, 25, 24.8125, 24.5625, 24.3125, 24.0625, 24, 23.875, 23.625, 23.375, 23.125, 23, 23, 22.8125, 22.5625, 22.3125, 22.0625, 21.8125, 21.625, 21.375, 21.125, 21, 20.8125, 20.75, 20.616072, 20.211309, 20.017857, 19.9375, 19.875, 19.9375, 19.625, 19.267857, 19, 18.75, 18.6875, 18.5, 18.3125, 18.125, 17.9375, 17.9375, 17.875, 17.75, 17.5625, 17.3125, 16.875, 16.5, 16.3125, 16.0625, 16.0625, 16.0625, 15.8125, 15.5625, 15.3125, 15.0625, 14.9375, 14.875, 14.625, 14.375, 14.25, 14.0625, 14.0625, 13.875, 13.5625, 13.3125, 13.0625, 13, 13, 12.75, 12.4375, 12.008928, 11.791667, 11.958333, 11.741072, 11.517857, 11.25, 11, 10.9375, 10.6875, 10.4375, 10.1875, 10, 10, 9.875, 9.625, 9.375, 9.125, 9, 8.875, 8.625, 8.375, 8.125, 8, 8, 8, 8, 8, 8, 8, 8, 8, 8, 8, 8, 8, 8, 8.0625, 8.083333, -10, -10, -10, -10, -10, -10, -10, -10, -10, -10, -10, -10, -10, -10, -10, 38.5, 38.666668, 38.75, 39.5, 39.578125, 39.703125, 39.984375, 40.265625, 40.357143, 40.424999, 40.647324, 40.678574, 40.955357, 41.232143, 41.366074, 41.5, 41.65625, 41.78125, 41.96875, 42.21875, 42.535713, 43.127975, 43.232143, 43.375, 43.40625, 43.53125, 43.78125, 43.946426, 43.803574, 43.760418, 43.989582, 44.075893, 44.388393, 44.5625, 44.848213, 45.28125, 45.67857, 45.84375, 46.03125, 46.125, 46.375, 46.660713, 46.919643, 47.125, 47.25, 47.375, 47.5625, 47.6875, 47.8125, 47.9375, 48, 48.0625, 48, 48, 47.928574, 47.6875, 47.8125, 47.857143, 47.875, 48.125, 48.400002, 48.415176, 48.154762, 48.117348, 48.689583, 48.709824, 48.90625, 48.741074, 48.821426, 48.875, 49.169643, 49.595238, 50.020832, 50.0625, 50.0625, 50, 50, 50, 50, 49.9375, 49.9375, 49.9375, 49.9375, 50, 50, 50, 50, 50, 50, 50, 50, 50, 50, 50, 49.875, 49.75, 49.6875, 49.651787, 49.75, 49.875, 50, 50.1875, 50.1875, 50.0625, 49.964287, 49.8125, 49.875, 50, 50, 22.125, 22.333334, 22.5, 22.875, 23.3125, 23.6875, 23.96875, 24.03125, 23.90625, 23.75, 23.910713, 24.541668, 25, 25.25, 25.375
40.625, 40.375, 40.25, 40, 39.75, 39.625, 39.375, 39.25, 39.1875, 38.973213, 38.705357, 38.446426, 38.125, 38, 37.9375, 37.75, 37.5625, 37.25, 36.892857, 36.723213, 36.392857, 36.196426, 36.0625, 36.0625, 36.25, 36.410713, 36.3125, 35.595238, 35.032143, 34.732143, 34.375, 34.205357, 34.0625, 34, 33.9375, 33.6875, 33.4375, 33.3125, 33.125, 33.125, 33.125, 32.9375, 32.875, 32.625, 32.375, 32.1875, 32, 32, 31.8125, 31.5625, 31.3125, 30.9375, 30.8125, 30.8125, 30.625, 30.5, 30.3125, 30, 29.8125, 29.5625, 29.3125, 29.125, 29, 29, 28.75, 28.5, 28.25, 28, 28, 28, 27.741072, 27.229166, 27.017857, 26.848213, 26.8125, 26.875, 26.625, 26.357143, 25.916666, 25.633928, 25.375, 25.25, 25.125, 25, 25, 24.875, 24.625, 24.375, 24.125, 24, 23.875, 23.625, 23.375, 23.125, 23, 23, 22.75, 22.5, 22.25, 22, 21.875, 21.75, 21.5, 21.25, 21.125, 20.9375, 20.875, 20.678572, 20.211309, 19.955357, 19.875, 19.875, 19.875, 19.5625, 19.205357, 18.9375, 18.75, 18.6875, 18.5, 18.3125, 18.125, 18, 18, 17.875, 17.6875, 17.4375, 17.1875, 16.875, 16.5625, 16.375, 16.125, 16.125, 16.1875, 15.982143, 15.604167, 15.321428, 15.0625, 15, 15, 14.75, 14.5, 14.3125, 14.0625, 14, 13.8125, 13.5, 13.25, 13.0625, 13, 13, 12.75, 12.4375, 12.008928, 11.791667, 11.958333, 11.741072, 11.517857, 11.25, 11, 11, 10.75, 10.5, 10.25, 10, 10, 9.875, 9.625, 9.375, 9.125, 9, 8.875, 8.625, 8.375, 8.125, 8, 8, 8, 7.9375, 7.9375, 7.9375, 7.9375, 8, 7.9375, 7.9375, 7.9375, 7.875, 7.9375, 7.9375, 7.9791665, 8.1111107, -10, -10, -10, -10, -10, -10, -10, -10, -10, -10, -10, -10, -10, -10, -10, 38.333332, 38.444447, 38.458332, 38.90625, 38.984375, 39.171875, 39.529018, 39.828125, 39.982143, 40.112499, 40.428574, 40.647324, 40.96875, 41.09375, 41.1875, 41.25, 41.4375, 41.625, 41.8125, 42.0625, 42.285713, 42.752975, 42.919643, 43.0625, 43.21875, 43.316963, 43.361607, 43.488094, 43.449406, 43.501488, 43.802082, 43.950893, 44.325893, 44.5, 44.8125, 45.3125, 45.74107, 45.96875, 46.09375, 46.09375, 46.1875, 46.375, 46.638393, 46.84375, 47, 47.15625, 47.375, 47.5, 47.65625, 47.75, 47.8125, 47.875, 47.875, 47.9375, 47.928574, 47.75, 47.8125, 47.82143, 47.875, 48.125, 48.400002, 47.977676, 47.84375, 47.870537, 48.287796, 48.491074, 48.8125, 48.6875, 48.6875, 48.633926, 48.857143, 49.282738, 49.708332, 49.875, 49.9375, 49.9375, 50, 50, 50, 49.9375, 49.9375, 49.9375, 49.9375, 50, 50.0625, 50.0625, 50.0625, 50.0625, 50, 50, 50, 50, 50, 50, 49.75, 49.625, 49.5625, 49.5625, 49.8125, 49.9375, 50.0625, 50.3125, 50.375, 50.375, 50.276787, 50.0625, 50, 50, 50, 22.083334, 22.222223, 22.375, 22.75, 23.1875, 23.645834, 23.953125, 24.046875, 24, 23.875, 24.080357, 24.583334, 25.071428, 25.375, 25.5625, 25.6875, 25.8125, 25.9375, 26, -10, -10, -10, -10, -10, -10, -10, -10, -10, -10, -10, -10, -10, -10, -10, -10, -10, -10, -10, -10, -10, -10, -10, -10, -10, -10, -10, -10, -10, 43, 42.750004, 42.625, 42.5, 42.3125, 42.25, 42.1875, 42.0625, 42, 41.75, 41.5, 41.25, 40.8125, 40.6875, 40.625, 40.375, 40.3125, 40.125, 39.875, 39.8125, 39.5625, 39.375, 39.1875, 38.9375, 38.75, 38.5, 38.1875, 38, 37.9375, 37.75, 37.625, 37.375, 37.125, 36.973213, 36.642857, 36.383926, 36.25, 36.3125, 36.5, 36.723213, 36.553574, 35.583332, 35.053574, 34.625, 34.375, 34.1875, 34.0625, 34, 33.9375, 33.6875, 33.4375, 33.3125, 33.125, 33.125, 33.125, 33, 32.9375, 32.6875, 32.4375, 32.1875, 32, 32, 31.8125, 31.5625, 31.3125, 31, 30.9375, 30.875, 30.6875, 30.5, 30.25, 30, 29.8125, 29.5625, 29.3125, 29.125, 29, 29, 28.75, 28.5, 28.25, 28, 28, 28, 27.75, 27.4375, 27.1875, 27.035713, 26.9375, 26.9375, 26.625, 26.3125, 26.0625, 25.8125, 25.625, 25.4375, 25.25, 25.0625, 25, 24.875, 24.625, 24.375, 24.125, 24, 23.875, 23.625, 23.375, 23.125, 23, 23, 22.75, 22.5, 22.25, 22, 21.875, 21.75, 21.5, 21.25, 21.125, 21, 20.875, 20.616072, 20.166666, 19.955357, 19.875, 19.875, 19.75, 19.4375, 19.080357, 18.875, 18.75, 18.75, 18.5625, 18.375, 18.1875, 18, 17.9375, 17.75, 17.5, 17.3125, 17.125, 16.875, 16.580357, 16.375, 16.125, 16.125, 16.25, 16.017857, 15.559524, 15.267857, 15, 15, 15, 14.75, 14.5, 14.3125, 14.0625, 13.9375, 13.6875, 13.375, 13.125, 13, 13, 12.9375, 12.6875, 12.375, 11.946428, 11.791667, 11.895833, 11.678572, 11.455357, 11.1875, 11, 11, 10.75, 10.5, 10.25, 10, 10, 9.8125, 9.5625, 9.3125, 9.0625, 9, 8.9375, 8.6875, 8.4375, 8.1875, 8, 8, 7.9375, 7.8125, 7.75, 7.75, 7.8125, 7.9375, 7.875, 7.8125, 7.8125, 7.6875, 7.8125, 7.8541665, 7.9722219, -10, -10, -10, -10, -10, -10, -10, -10, -10, -10, -10, -10, -10, -10, -10, 37.5, 38.0625, 38.208336, 38.21875, 38.28125, 38.328125, 38.515625, 38.904018, 39.265625, 39.53125, 39.84375, 40.0625, 40.34375, 40.65625, 40.825893, 40.9375, 40.9375, 41, 41.09375, 41.290176, 41.739582, 41.995537, 42.395832, 42.544643, 42.75, 42.96875, 43.098213, 43.080357, 43.166668, 43.333332, 43.459824, 43.65625, 43.84375, 44.232143, 44.46875, 44.84375, 45.28125, 45.607143, 45.875, 46, 46, 46.0625, 46.1875, 46.388393, 46.5625, 46.6875, 46.78125, 46.9375, 47.09375, 47.28125, 47.4375, 47.625, 47.75, 47.791668, 47.916668, 47.904766, 47.666668, 47.9375, 47.988098, 48.125, 48.232143, 48.25, 47.977676, 47.709824, 47.736607, 48.025295, 48.285713, 48.5, 48.5625, 48.5625, 48.5, 48.607143, 49.032738, 49.395832, 49.625, 49.6875, 49.6875, 49.8125, 49.875, 49.9375, 49.866074, 49.6875, 49.6875, 49.6875, 49.875, 50, 50.0625, 50.0625, 50.125, 50.0625, 50.0625, 50.0625, 50, 50, 50, 49.875, 49.8125, 49.6875, 49.651787, 49.8125, 49.875, 50.0625, 50.25, 50.375, 50.410713, 50.241074, 50.09375, 49.96875, 49.958332, 22, 21.979166, 22.104168, 22.21875, 22.5625, 23.015625, 23.484375, 23.828125, 23.984375, 24.0625, 24, 24.1875, 24.571428, 25.226191, 25.553572, 25.8125
40.625, 40.375, 40.3125, 40.25, 40, 40, 39.75, 39.5, 39.25, 39, 38.875, 38.625, 38.3125, 38.0625, 37.875, 37.6875, 37.625, 37.375, 37.125, 37, 36.75, 36.5625, 36.5, 36.5625, 36.71875, 36.941963, 36.772324, 35.864582, 35.428574, 35, 34.75, 34.4375, 34.1875, 34.0625, 34, 33.8125, 33.5625, 33.375, 33.125, 33, 32.9375, 32.8125, 32.6875, 32.5, 32.3125, 32.125, 32, 31.9375, 31.75, 31.5, 31.25, 31, 30.9375, 30.875, 30.6875, 30.5, 30.1875, 30, 29.875, 29.625, 29.4375, 29.1875, 29, 29, 28.75, 28.5, 28.25, 27.9375, 27.9375, 27.9375, 27.6875, 27.5, 27.25, 27, 26.9375, 26.875, 26.625, 26.375, 26.125, 25.9375, 25.8125, 25.5625, 25.375, 25.125, 25, 24.875, 24.625, 24.375, 24.125, 24, 23.875, 23.625, 23.375, 23.125, 23, 23, 22.75, 22.5, 22.25, 21.9375, 21.875, 21.75, 21.5, 21.3125, 21.125, 21, 20.8125, 20.5625, 20.3125, 20, 19.9375, 19.8125, 19.5625, 19.3125, 18.955357, 18.8125, 18.8125, 18.875, 18.6875, 18.5, 18.25, 18, 17.9375, 17.6875, 17.4375, 17.25, 17.0625, 16.9375, 16.705357, 16.5625, 16.3125, 16.25, 16.3125, 16.080357, 15.622024, 15.330357, 15.0625, 15, 15, 14.75, 14.5, 14.3125, 14.0625, 13.9375, 13.678572, 13.166667, 12.883928, 12.8125, 12.875, 12.8125, 12.625, 12.3125, 11.883928, 11.791667, 11.833333, 11.616072, 11.392857, 11.125, 11, 11, 10.75, 10.5, 10.25, 10, 10, 9.8125, 9.5625, 9.3125, 9.0625, 9, 9, 8.75, 8.5, 8.25, 8, 8, 7.875, 7.6875, 7.5625, 7.5, 7.5625, 7.6875, 7.625, 7.5625, 7.625, 7.5625, 7.8125, 7.9375, -10, -10, -10, -10, -10, -10, -10, -10, -10, -10, -10, -10, -10, -10, -10, 37, 37.333332, 37.6875, 37.791668, 37.78125, 37.84375, 37.96875, 38.104591, 38.617561, 38.958332, 39.208332, 39.541668, 39.84375, 40.125, 40.541668, 40.767857, 40.916668, 40.916668, 40.84375, 40.864582, 41.058037, 41.659225, 41.888393, 42.0625, 42.1875, 42.375, 42.6875, 42.910713, 42.955357, 43.104168, 43.302082, 43.491074, 43.6875, 43.8125, 44.19643, 44.428574, 44.75, 45.1875, 45.482143, 45.796875, 45.875, 45.9375, 45.96875, 46.015625, 46.15625, 46.28125, 46.34375, 46.390625, 46.5, 46.6875, 46.90625, 47.15625, 47.4375, 47.625, 47.770836, -10, -10, -10, 47.916668, 48.113098, 48.145832, 48.107143, 48.0625, 47.90625, 47.78125, 47.84375, 47.941963, 48.044643, 48.125, 48.25, 48.3125, 48.3125, 48.464287, 48.723213, 49.074406, 49.3125, 49.4375, 49.375, 49.5, 49.625, 49.794643, 49.803574, 49.6875, 49.625, 49.625, 49.8125, 49.9375, 50.0625, 50.0625, 50.125, 50.0625, 50.0625, 50.0625, 50.0625, 50.125, 50.1875, 50.125, 50, 49.75, 49.526787, 49.5625, 49.660713, 49.75, 49.9375, 50, 50.035713, 49.991074, 49.96875, 49.90625, 49.958332, 22, 21.791666, 21.9375, 22.03125, 22.375, 22.890625, 23.421875, 23.828125, 23.984375, 24.09375, 24, 24.125, 24.383928, 24.940477, 25.3125, 25.770834, 25.928572, 26, 26, 26, -10, -10, -10, -10, -10, -10, -10, -10, -10, -10, -10, -10, -10, -10, -10, -10, -10, -10, -10, -10, -10, -10, -10, -10, -10, -10, -10, -10, -10, 43, 42.916668, 42.875, 42.8125, 42.5625, 42.375, 42.1875, 41.9375, 41.8125, 41.5625, 41.3125, 41.125, 40.8125, 40.5625, 40.5, 40.25, 40.1875, 40.1875, 39.9375, 39.9375, 39.6875, 39.4375, 39.25, 39, 38.9375, 38.75, 38.5, 38.25, 38, 37.8125, 37.6875, 37.4375, 37.25, 37.125, 36.9375, 36.75, 36.625, 36.5625, 36.59375, 36.691963, 36.450893, 35.572918, 35.25, 34.96875, 34.84375, 34.59375, 34.3125, 34.125, 34, 33.875, 33.625, 33.4375, 33.25, 33.0625, 32.946426, 32.520836, 32.258926, 32.125, 32.0625, 32, 32, 31.9375, 31.75, 31.5, 31.25, 31.0625, 31, 30.9375, 30.6875, 30.375, 29.955357, 29.75, 29.75, 29.5625, 29.4375, 29.25, 29, 29, 28.75, 28.5, 28.25, 27.9375, 27.9375, 27.875, 27.625, 27.4375, 27.1875, 27, 26.875, 26.75, 26.5, 26.25, 26.0625, 25.9375, 25.875, 25.625, 25.4375, 25.1875, 25, 24.8125, 24.5625, 24.3125, 24.0625, 24, 23.875, 23.625, 23.375, 23.125, 23, 22.9375, 22.6875, 22.4375, 22.1875, 21.9375, 21.875, 21.75, 21.5, 21.3125, 21.125, 21, 20.8125, 20.5625, 20.3125, 20, 19.9375, 19.8125, 19.5625, 19.375, 19.125, 18.9375, 18.9375, 18.875, 18.625, 18.4375, 18.1875, 17.9375, 17.875, 17.625, 17.375, 17.25, 17.0625, 17, 16.830357, 16.6875, 16.4375, 16.3125, 16.3125, 16.080357, 15.622024, 15.330357, 15.0625, 15, 15, 14.75, 14.5, 14.25, 14, 13.875, 13.678572, 13.291667, 13, 12.729167, 12.696428, 12.5625, 12.4375, 12.25, 12.0625, 12, 11.875, 11.625, 11.3125, 11.026786, 10.9375, 10.9375, 10.75, 10.5, 10.3125, 10.0625, 10.0625, 9.875, 9.5625, 9.3125, 9.0625, 9, 9, 8.75, 8.5, 8.25, 8, 8, 7.8125, 7.5625, 7.375, 7.25, 7.3125, 7.4375, 7.375, 7.3125, 7.375, 7.3125, 7.75, 7.9166665, -10, -10, -10, -10, -10, -10, -10, -10, -10, -10, -10, -10, -10, -10, -10, 37, 37.25, 37.3125, 37.375, 37.40625, 37.46875, 37.6875, 38.044643, 38.377979, -10, -10, -10, 39.625, -10, -10, -10, -10, -10, 40.65625, 40.572914, 40.763393, 41.492558, 41.714287, 41.875, 41.9375, 42.0625, 42.34375, 42.598213, 42.642857, 42.791668, 43.114582, 43.366074, 43.5625, 43.625, 43.839287, 44.084824, 44.375, 44.8125, 45.125, 45.588543, 45.625, 45.6875, 45.59375, 45.609375, 45.71875, 45.90625, 46.03125, 46.109375, 46.1875, 46.375, 46.59375, 46.78125, 47.140625, 47.359375, 47.5, -10, -10, -10, -10, 48.341274, 48.083332, 47.940475, 47.9375, 47.8125, 47.8125, 47.9375, 48.035713, 48, 48, 48.125, 48.1875, 48.25, 48.464287, 48.669643, 48.803574, 49.0625, 49.125, 49.125, 49.25, 49.375, 49.607143, 49.678574, 49.625, 49.625, 49.625, 49.8125, 49.9375, 50.0625, 50.0625, 50.125, 50.0625, 50.0625, 50.0625, 50.125, 50.25, 50.3125, 50.3125, 50.1875, 49.875, 49.651787, 49.625, 49.660713, 49.75, 49.875, 49.9375, 49.973213, 49.928574, 49.96875, 49.90625, 49.958332, 50, 22.041666, 22.104166, 22.09375, 22.25, 22.609375, 23.078125, 23.591518, 23.828125, 24.03125, 24.0625, 24.1875, 24.383928, 24.833334, 25.125, 25.583334
40.5, 40.25, 40.125, 40.125, 39.9375, 39.9375, 39.6875, 39.4375, 39.25, 38.9375, 38.8125, 38.625, 38.375, 38.1875, 38, 37.875, 37.8125, 37.5625, 37.375, 37.1875, 37, 36.8125, 36.6875, 36.5625, 36.40625, 36.40625, 36.200893, 35.552086, 35.30357, 35.09375, 34.90625, 34.65625, 34.375, 34.1875, 34.0625, 34, 33.8125, 33.625, 33.4375, 33.1875, 32.946426, 32.333336, 31.973213, 31.8125, 31.830357, 31.973213, 32, 32, 31.6875, 31.4375, 31.1875, 31, 30.9375, 30.8125, 30.5625, 30.25, 29.830357, 29.625, 29.5625, 29.375, 29.3125, 29.1875, 29, 28.9375, 28.6875, 28.4375, 28.1875, 27.9375, 27.9375, 27.8125, 27.5625, 27.375, 27.125, 27, 26.8125, 26.625, 26.375, 26.1875, 26.0625, 26, 26, 25.75, 25.5625, 25.25, 24.892857, 24.625, 24.375, 24.1875, 24, 24, 23.8125, 23.5625, 23.3125, 23.0625, 23, 22.875, 22.625, 22.375, 22.125, 21.9375, 21.875, 21.75, 21.5, 21.3125, 21.125, 21, 20.875, 20.625, 20.375, 20.0625, 19.9375, 19.8125, 19.5625, 19.4375, 19.1875, 19, 19, 18.8125, 18.5625, 18.375, 18.125, 17.875, 17.75, 17.5, 17.25, 17.1875, 17.0625, 17, 16.892857, 16.75, 16.5, 16.3125, 16.1875, 15.910714, 15.580357, 15.321428, 15, 14.875, 14.8125, 14.5625, 14.375, 14.1875, 14, 13.9375, 13.803572, 13.416667, 13.0625, 12.622025, 12.571428, 12.40625, 12.34375, 12.21875, 12.03125, 12, 11.875, 11.6875, 11.366072, 10.880953, 10.830357, 10.8125, 10.75, 10.5625, 10.375, 10.1875, 10.125, 10, 9.6875, 9.375, 9.125, 9, 9, 8.75, 8.5, 8.25, 8, 8, 7.75, 7.5, 7.25, 7.0625, 7.125, 7.1875, 7.1875, 7.125, 7.1875, 7.25, -10, -10, -10, -10, -10, -10, -10, -10, -10, -10, -10, -10, -10, -10, -10, -10, 36.5, 36.8125, 36.875, 37, 37.125, 37.25, 37.4375, 37.75, 38.169643, 38.395836, -10, -10, -10, -10, -10, -10, -10, -10, -10, 40.4375, 40.270832, 40.450893, 41.211308, 41.57143, 41.8125, 41.8125, 41.8125, 41.96875, 42.1875, 42.5, 42.75, 42.96875, 43.1875, 43.3125, 43.375, 43.598213, 44.043156, 44.232143, 44.42857, 44.6875, 45.05283, 45.232143, 45.366074, 45.34375, 45.359375, 45.421875, 45.609375, 45.765625, 45.875, 46, 46.25, 46.5, 46.71875, 47.078125, 47.265625, 47.354168, -10, -10, -10, -10, -10, 48.145832, 48.002975, 47.9375, 47.875, 47.9375, 48, 48.0625, 47.9375, 47.6875, 47.714287, 47.75, 47.919643, 48.276787, 48.517857, 48.616074, 48.928574, 48.928574, 48.9375, 49, 49.125, 49.357143, 49.491074, 49.5, 49.5625, 49.625, 49.8125, 49.875, 50, 50, 50.0625, 50.0625, 50.0625, 50.0625, 50.0625, 50.125, 50.125, 50.15625, 50.09375, 49.90625, 49.745537, 49.6875, 49.723213, 49.75, 49.8125, 49.8125, 49.848213, 49.803574, 49.90625, 49.90625, 49.958332, 50, 22.041666, 22.104166, 22.0625, 22.125, 22.4375, 22.875, 23.464287, 23.75, 23.9375, 23.9375, 24.017857, 24.342262, 24.690477, 24.9375, 25.333334, 25.553572, 25.8125, 25.9375, 26, -10, -10, -10, -10, -10, -10, -10, -10, -10, -10, -10, -10, -10, -10, -10, -10, -10, -10, -10, -10, -10, -10, -10, -10, -10, -10, -10, -10, -10, 42.875, 42.833332, 42.75, 42.6875, 42.4375, 42.25, 42.0625, 41.75, 41.5625, 41.3125, 41.125, 41.0625, 40.9375, 40.6875, 40.5, 40.25, 40.0625, 40.0625, 39.9375, 39.9375, 39.6875, 39.4375, 39.1875, 38.8125, 38.6875, 38.5, 38.3125, 38.125, 37.964287, 37.875, 37.633926, 37.446426, 37.25, 37.125, 37, 36.8125, 36.6875, 36.5, 36.28125, 36.21875, 35.959824, 35.510418, 35.294643, 35.09375, 34.90625, 34.65625, 34.375, 34.1875, 34.0625, 34.0625, 33.9375, 33.8125, 33.625, 33.3125, 32.946426, 32.208336, 31.848213, 31.6875, 31.830357, 32.035713, 32.0625, 32, 31.625, 31.375, 31.125, 31, 30.9375, 30.8125, 30.5625, 30.25, 29.767857, 29.5, 29.375, 29.1875, 29.1875, 29.125, 29, 28.875, 28.625, 28.375, 28.125, 27.9375, 27.9375, 27.8125, 27.5625, 27.375, 27.125, 27, 26.8125, 26.5625, 26.3125, 26.125, 26, 25.9375, 25.875, 25.625, 25.4375, 25.1875, 24.892857, 24.625, 24.375, 24.1875, 24, 24, 23.8125, 23.625, 23.4375, 23.1875, 23.0625, 22.767857, 22.5, 22.25, 22.0625, 21.9375, 21.9375, 21.875, 21.625, 21.4375, 21.1875, 21, 20.9375, 20.6875, 20.4375, 20.125, 19.9375, 19.8125, 19.625, 19.5, 19.25, 19.0625, 19, 18.8125, 18.625, 18.4375, 18.1875, 17.9375, 17.8125, 17.5625, 17.3125, 17.1875, 17, 17, 17, 16.875, 16.625, 16.375, 16.125, 15.875, 15.625, 15.375, 15, 14.75, 14.6875, 14.4375, 14.3125, 14.1875, 14, 14, 13.928572, 13.541667, 13.1875, 12.622025, 12.508928, 12.375, 12.3125, 12.25, 12.0625, 12, 11.9375, 11.75, 11.428572, 10.943453, 10.830357, 10.8125, 10.75, 10.5625, 10.375, 10.1875, 10.125, 10.0625, 9.75, 9.4375, 9.1875, 9, 9, 8.75, 8.5, 8.25, 8, 8, 7.75, 7.5, 7.25, 7, 7, 7, 7, 7, 7.0833335, -10, -10, -10, -10, -10, -10, -10, -10, -10, -10, -10, -10, -10, -10, -10, 36, 36, 36.333332, 36.625, 36.75, 36.875, 37, 37.166668, 37.416668, 37.875, 38.434525, 38.611111, -10, -10, -10, -10, -10, -10, -10, -10, -10, 40.375, 40.25, 40.410713, 40.949402, 41.342857, 41.479168, 41.669643, 41.5, 41.65625, 41.75, 42, 42.321426, 42.739582, 42.991074, 43.125, 43.125, 43.285713, 43.730656, 43.857143, 44.1875, 44.3125, 44.61533, 44.857143, 44.991074, 45.03125, 45.046875, 45.046875, 45.252232, 45.598957, 45.803574, 46, 46.1875, 46.40625, 46.59375, 46.890625, 47.078125, 47.145836, -10, -10, -10, -10, -10, 47.958332, 47.8125, 47.875, 47.8125, 48, 48.125, 48.125, 47.892857, 47.642857, 47.735119, 47.708332, 47.732143, 48.026787, 48.205357, 48.366074, 48.678574, 48.741074, 48.8125, 48.875, 49, 49.169643, 49.3125, 49.5, 49.5625, 49.6875, 49.8125, 49.875, 50, 50, 50, 50, 50, 50, 50.0625, 50.0625, 50, 49.96875, 49.84375, 49.71875, 49.59375, 49.5, 49.598213, 49.5625, 49.625, 49.5625, 49.5625, 49.6875, 49.8125, 49.875, 49.875, 49.833332, 22.25, 22.333332, 22.25, 22.25, 22.4375, 22.8125, 23.44643, 23.8125, 24.0625, 24.125, 24.267857, 24.520834, 24.607143, 24.758928, 25.145834
40.5, 40.25, 40.0625, 40, 39.9375, 39.875, 39.625, 39.375, 39.125, 38.75, 38.5625, 38.375, 38.1875, 38.0625, 38.026787, 38, 37.696426, 37.508926, 37.25, 37.0625, 37, 36.8125, 36.625, 36.375, 36.125, 36.0625, 35.803574, 35.354168, 35.107143, 34.90625, 34.78125, 34.59375, 34.375, 34.1875, 34.0625, 34.0625, 34, 33.9375, 33.75, 33.5, 33.133926, 32.395836, 32.035713, 31.8125, 31.892857, 32.035713, 32.0625, 32, 31.625, 31.375, 31.125, 31, 30.9375, 30.75, 30.5, 30.1875, 29.767857, 29.5625, 29.4375, 29.3125, 29.25, 29.1875, 29.0625, 28.8125, 28.5625, 28.3125, 28.0625, 28, 28, 27.875, 27.625, 27.375, 27.125, 27, 26.75, 26.5, 26.25, 26.0625, 26.0625, 26, 25.875, 25.625, 25.375, 25.125, 24.892857, 24.6875, 24.4375, 24.25, 24.0625, 24, 23.875, 23.6875, 23.5, 23.1875, 22.9375, 22.642857, 22.375, 22.1875, 22.0625, 21.9375, 21.875, 21.8125, 21.5625, 21.375, 21.1875, 21, 20.9375, 20.6875, 20.4375, 20.1875, 20, 19.875, 19.75, 19.5625, 19.3125, 19.125, 18.9375, 18.6875, 18.5625, 18.375, 18.1875, 17.9375, 17.6875, 17.4375, 17.1875, 17.125, 17, 17, 16.9375, 16.75, 16.5, 16.25, 16.0625, 15.875, 15.625, 15.375, 14.9375, 14.625, 14.5625, 14.3125, 14.25, 14.1875, 14, 14, 13.9375, 13.75, 13.428572, 12.809525, 12.571428, 12.4375, 12.3125, 12.25, 12.125, 12, 12, 11.8125, 11.491072, 11.005953, 10.830357, 10.75, 10.6875, 10.5, 10.3125, 10.1875, 10.125, 10, 9.6875, 9.375, 9.125, 9, 9, 8.8125, 8.5625, 8.3125, 8.0625, 8, 7.75, 7.5, 7.25, 7, 7, 7, 7, -10, -10, -10, -10, -10, -10, -10, -10, -10, -10, -10, -10, -10, -10, -10, 36, 36, 36, 36, 36.25, 36.4375, 36.625, 36.8125, 37, -10, -10, -10, -10, -10, -10, -10, -10, -10, -10, -10, -10, -10, -10, 40.25, 40.166668, 40.267857, 40.592262, 40.914288, 41.041668, 41.325893, 41.28125, 41.53125, 41.65625, 41.875, 42.071426, 42.485119, 42.785713, 42.928574, 43.0625, 43.133926, 43.489582, 43.669643, 43.9375, 44.098213, 44.318455, 44.544643, 44.678574, 44.8125, 44.84375, 44.796875, 44.939732, 45.255207, 45.569199, 45.875, 46.0625, 46.28125, 46.375, 46.578125, 46.765625, 46.8125, -10, -10, -10, -10, -10, 47.8125, 47.625, 47.71875, 47.71875, 47.9375, 48.1875, 48.160713, 47.919643, 47.767857, 47.860119, 47.895832, 47.857143, 48.026787, 48.035713, 48.125, 48.428574, 48.491074, 48.6875, 48.8125, 49, 49.125, 49.1875, 49.3125, 49.375, 49.5, 49.6875, 49.75, 49.8125, 49.8125, 49.8125, 49.8125, 49.8125, 49.8125, 49.75, 49.625, 49.5, 49.46875, 49.40625, 49.46875, 49.53125, 49.5, 49.625, 49.625, 49.625, 49.625, 49.5625, 49.625, 49.6875, 49.625, 49.541668, 49.777775, 22.375, 22.416666, 22.3125, 22.3125, 22.4375, 22.8125, 23.44643, 23.875, 24.1875, 24.3125, 24.455357, 24.645834, 24.75, 25.020834, 25.241072, 25.5, 25.75, 25.9375, 26, -10, -10, -10, -10, -10, -10, -10, -10, -10, -10, -10, -10, -10, -10, -10, -10, -10, -10, -10, -10, -10, -10, -10, -10, -10, -10, -10, -10, 42, 42.166668, 42.1875, 42.125, 42.232143, 42.1875, 42.125, 42.0625, 41.875, 41.625, 41.375, 41.1875, 41.0625, 41, 40.875, 40.6875, 40.4375, 40.1875, 40.0625, 40, 39.875, 39.625, 39.375, 39.0625, 38.6875, 38.4375, 38.1875, 38, 37.9375, 37.964287, 38, 37.6875, 37.383926, 37.1875, 37, 37, 36.8125, 36.625, 36.375, 36.125, 36.0625, 35.8125, 35.5625, 35.25, 35, 34.8125, 34.5625, 34.375, 34.1875, 34.0625, 34.0625, 34.0625, 33.9375, 33.6875, 33.4375, 33.0625, 32.6875, 32.464287, 32.25, 32.205357, 32.223213, 32.125, 32, 31.625, 31.375, 31.125, 30.9375, 30.875, 30.625, 30.375, 30.1875, 29.875, 29.75, 29.625, 29.5, 29.375, 29.25, 29.125, 28.75, 28.5, 28.25, 28.0625, 28.125, 28.125, 28.0625, 27.75, 27.4375, 27.1875, 27, 26.8125, 26.5625, 26.3125, 26.125, 26.0625, 26, 25.875, 25.625, 25.375, 25.125, 24.892857, 24.75, 24.5625, 24.375, 24.1875, 24.0625, 23.9375, 23.8125, 23.6875, 23.366072, 22.854166, 22.526785, 22.25, 22.125, 22.0625, 21.9375, 21.875, 21.75, 21.5, 21.3125, 21.125, 21, 20.9375, 20.6875, 20.4375, 20.1875, 20, 19.875, 19.75, 19.5625, 19.3125, 19.125, 18.9375, 18.6875, 18.625, 18.5, 18.3125, 18.125, 17.75, 17.4375, 17.1875, 17.0625, 17, 17, 16.875, 16.625, 16.375, 16.125, 16, 15.9375, 15.6875, 15.4375, 14.9375, 14.5625, 14.5, 14.3125, 14.375, 14.3125, 14.125, 14.0625, 13.875, 13.625, 13.3125, 12.892857, 12.75, 12.6875, 12.5, 12.375, 12.1875, 12, 12, 11.8125, 11.553572, 11.104167, 10.830357, 10.75, 10.625, 10.4375, 10.25, 10.125, 10.0625, 9.9375, 9.6875, 9.375, 9.125, 9, 9, 8.8125, 8.5625, 8.3125, 8.0625, 8, 7.75, 7.5, 7.25, 7, 7, 7, 7, -10, -10, -10, -10, -10, -10, -10, -10, -10, -10, -10, -10, -10, -10, 35.5, 35.777775, 35.833332, 35.875, 35.9375, 35.9375, 36.125, 36.4375, 36.645832, 37, -10, -10, -10, -10, -10, -10, -10, -10, -10, -10, -10, -10, -10, -10, 40.166668, 40.111115, 40.166668, 40.345238, 40.742859, 40.916668, 41.200893, 41.21875, 41.46875, 41.53125, 41.75, 41.883926, 42.235119, 42.598213, 42.803574, 43, 43.133926, 43.458332, 43.607143, 43.8125, 43.848213, 43.839287, 44.107143, 44.241074, 44.5625, 44.75, 44.841518, 44.939732, 45.192707, 45.475449, 45.75, 46, 46.25, 46.34375, 46.46875, 46.5625, 46.645832, -10, -10, -10, -10, -10, 47.90625, 47.770836, 47.828125, 47.84375, 48, 48.1875, 48.098213, 47.857143, 47.705357, 47.860119, 47.958332, 47.857143, 47.672619, 47.55357, 47.625, 48.035713, 48.178574, 48.4375, 48.5625, 48.8125, 48.9375, 48.9375, 49, 49, 49.125, 49.375, 49.5, 49.5625, 49.5625, 49.5625, 49.5625, 49.5625, 49.5, 49.3125, 49, 48.875, 49.052082, 49.09375, 49.28125, 49.28125, 49.1875, 49.3125, 49.3125, 49.3125, 49.375, 49.25, 49.25, 49.25, 49.125, 49.041668, 22, 22.125, 22.166666, 22.125, 22.25, 22.4375, 22.8125, 23.339287, 23.758928, 24.229166, 24.28125, 24.424107, 24.489584, 24.5625, 24.895834, 25.178572
40.8125, 40.5625, 40.3125, 40.125, 40, 39.8125, 39.5625, 39.3125, 39, 38.6875, 38.4375, 38.1875, 38.0625, 38, 38.026787, 38.0625, 37.625, 37.321426, 37.125, 36.9375, 36.9375, 36.75, 36.625, 36.375, 36.1875, 36.125, 35.75, 35.5, 35.1875, 34.9375, 34.875, 34.6875, 34.5, 34.25, 34.0625, 34, 34, 33.875, 33.625, 33.375, 33.0625, 32.875, 32.75, 32.5625, 32.4375, 32.25, 32.125, 31.9375, 31.6875, 31.4375, 31.1875, 30.9375, 30.8125, 30.5625, 30.3125, 30.1875, 29.9375, 29.875, 29.75, 29.625, 29.4375, 29.25, 29.125, 28.8125, 28.5625, 28.3125, 28.1875, 28.160713, 28.089287, 28.0625, 27.625, 27.339287, 27.125, 26.875, 26.75, 26.5, 26.25, 26.0625, 26, 25.9375, 25.8125, 25.5625, 25.3125, 25.125, 25, 24.9375, 24.75, 24.5, 24.25, 24.0625, 24, 23.9375, 23.875, 23.553572, 22.979166, 22.651785, 22.3125, 22.1875, 22.125, 21.9375, 21.875, 21.6875, 21.4375, 21.25, 21.0625, 21, 20.9375, 20.6875, 20.4375, 20.1875, 20, 19.875, 19.75, 19.5, 19.25, 19.0625, 18.875, 18.6875, 18.625, 18.5, 18.3125, 18.116072, 17.625, 17.375, 17.125, 17.0625, 17, 16.9375, 16.8125, 16.5625, 16.3125, 16.125, 16, 15.9375, 15.6875, 15.4375, 14.9375, 14.5625, 14.5625, 14.4375, 14.5625, 14.5, 14.25, 14.125, 13.875, 13.625, 13.375, 13.0625, 12.875, 12.84375, 12.59375, 12.40625, 12.21875, 12, 11.9375, 11.6875, 11.4375, 11.1875, 10.9375, 10.8125, 10.5625, 10.3125, 10.125, 10, 10, 9.875, 9.625, 9.375, 9.125, 9, 9, 8.8125, 8.5625, 8.3125, 8.0625, 7.9375, 7.6875, 7.4375, 7.1875, 7, 7, 7, -10, -10, -10, -10, -10, -10, -10, -10, -10, -10, -10, -10, -10, -10, -10, 35.333332, 35.583332, 35.5625, 35.5625, 35.65625, 35.6875, 35.9375, 36.3125, 36.5, -10, -10, -10, -10, -10, -10, -10, -10, -10, -10, -10, -10, -10, -10, -10, -10, -10, -10, -10, -10, 40.729168, 41.013393, 41.125, 41.4375, 41.5625, 41.71875, 41.758926, 42.047619, 42.348213, 42.616074, 42.875, 43, 43.125, 43.3125, 43.5, 43.660713, 43.6875, 43.8125, 43.9375, 44.1875, 44.5, 44.898811, 44.964287, 45.208332, 45.366074, 45.5625, 45.8125, 46.0625, 46.09375, 46.09375, 46.174107, 46.437496, 46.607143, 46.875, 47, -10, -10, 47.71875, 47.645836, 47.765625, 47.75, 47.8125, 47.96875, 47.879463, 47.763393, 47.861607, 48.145832, 48.208332, 48, 47.601189, 47.267857, 47.375, 47.482143, 47.714287, 48.044643, 48.241074, 48.5625, 48.6875, 48.6875, 48.6875, 48.6875, 48.8125, 49.125, 49.285713, 49.276787, 49.3125, 49.25, 49.3125, 49.25, 49.125, 48.9375, 48.625, 48.625, 48.895832, 48.9375, 49.125, 49.0625, 48.9375, 49.0625, 49.0625, 49.0625, 49.125, 48.9375, 48.9375, 48.866074, 48.479168, 48.39167, 22, 22.208334, 22.291666, 22.25, 22.464287, 22.660713, 22.875, 23.294643, 23.642857, 24.291666, 24.46875, 24.65625, 24.53125, 24.642857, 24.895834, 25.303572, 25.625, 25.8125, 26, 26, -10, -10, -10, -10, -10, -10, -10, -10, -10, -10, -10, -10, -10, -10, -10, -10, -10, -10, -10, -10, -10, -10, -10, -10, -10, -10, -10, -10, -10, 42.416668, 42.270836, 42.276787, 42.419643, 42.4375, 42.196426, 41.928574, 41.6875, 41.375, 41.25, 41.125, 41, 41, 41, 40.9375, 40.6875, 40.4375, 40.1875, 40, 39.8125, 39.5625, 39.3125, 39.0625, 38.8125, 38.625, 38.4375, 38.3125, 38.25, 38.1875, 38.0625, 37.678574, 37.3125, 37.125, 36.9375, 36.875, 36.75, 36.625, 36.4375, 36.3125, 36.125, 35.705357, 35.4375, 35.125, 34.9375, 34.9375, 34.8125, 34.6875, 34.4375, 34.1875, 34.0625, 33.9375, 33.75, 33.5, 33.25, 33.0625, 33, 32.9375, 32.8125, 32.553574, 32.1875, 32.0625, 31.875, 31.75, 31.5, 31.25, 30.9375, 30.75, 30.5, 30.25, 30.0625, 29.875, 29.875, 29.75, 29.6875, 29.5, 29.25, 29.125, 28.8125, 28.5625, 28.3125, 28.1875, 28.160713, 28.089287, 28, 27.5625, 27.276787, 27.0625, 26.875, 26.75, 26.5, 26.25, 26.0625, 26, 25.9375, 25.8125, 25.5625, 25.3125, 25.125, 25, 25, 24.8125, 24.5625, 24.3125, 24.0625, 24, 23.875, 23.75, 23.428572, 22.854166, 22.696428, 22.375, 22.25, 22.1875, 21.9375, 21.875, 21.625, 21.375, 21.1875, 21, 21, 20.9375, 20.6875, 20.4375, 20.125, 19.875, 19.75, 19.5625, 19.375, 19.1875, 19, 18.875, 18.6875, 18.5625, 18.4375, 18.25, 17.982143, 17.375, 17.1875, 16.9375, 16.9375, 16.875, 16.75, 16.5625, 16.375, 16.1875, 16.0625, 16, 15.875, 15.625, 15.375, 14.9375, 14.625, 14.5625, 14.4375, 14.5, 14.4375, 14.25, 14.125, 13.875, 13.625, 13.375, 13.125, 12.9375, 12.9375, 12.6875, 12.4375, 12.25, 12, 11.9375, 11.6875, 11.4375, 11.1875, 10.9375, 10.8125, 10.625, 10.375, 10.1875, 10.0625, 10, 9.875, 9.625, 9.375, 9.125, 9, 9, 8.875, 8.625, 8.375, 8.125, 7.9375, 7.6875, 7.4375, 7.1875, 7, 7, 7, -10, -10, -10, -10, -10, -10, -10, -10, -10, -10, -10, -10, -10, -10, -10, 35.083332, 35.145832, 35.1875, 35.28125, 35.453125, 35.583332, 35.833332, 36.208332, 36.3125, -10, -10, -10, -10, -10, -10, -10, -10, -10, -10, -10, -10, -10, -10, -10, -10, -10, -10, -10, -10, 40.75, 40.875, 41.166668, 41.5, 41.75, 41.96875, 41.9375, 41.964287, 42.169643, 42.366074, 42.6875, 42.9375, 43.169643, 43.375, 43.4375, 43.410713, 43.375, 43.616074, 43.8125, 44.0625, 44.375, 44.773811, 44.883926, 45, 45.125, 45.375, 45.6875, 45.96875, 46.09375, 46.09375, 46.111607, 46.385414, 46.613098, 46.791668, 46.958332, 47, 47.03125, 47.46875, 47.541668, 47.613838, 47.473213, 47.455357, 47.59375, 47.736607, 47.808037, 47.96875, 48.0625, 48.125, 48, 47.601189, 47.330357, 47.375, 47.482143, 47.651787, 47.919643, 48.053574, 48.3125, 48.4375, 48.4375, 48.5, 48.5625, 48.6875, 48.9375, 48.973213, 48.901787, 48.9375, 48.9375, 49.0625, 49, 48.875, 48.6875, 48.4375, 48.5, 48.770832, 48.875, 49.0625, 49, 48.9375, 49, 49, 49, 49.0625, 48.9375, 48.875, 48.633926, 47.854168, 47.666664, 22, 22.166668, 22.28125, 22.375, 22.714287, 22.910713, 23.03125, 23.25, 23.455357, 24.041666, 24.21875, 24.40625, 24.34375, 24.517857, 24.833334, 25.303572
40.75, 40.5625, 40.375, 40.1875, 40, 39.8125, 39.5625, 39.3125, 39.0625, 38.875, 38.75, 38.625, 38.5625, 38.4375, 38.3125, 38.125, 37.678574, 37.3125, 37.125, 36.875, 36.75, 36.5625, 36.4375, 36.375, 36.3125, 36.125, 35.660713, 35.375, 35.0625, 34.9375, 34.9375, 34.875, 34.75, 34.5625, 34.3125, 34.125, 33.9375, 33.625, 33.375, 33.125, 33, 33, 33, 32.9375, 32.741074, 32.40625, 32.21875, 31.96875, 31.78125, 31.5, 31.3125, 31, 30.75, 30.455357, 30.1875, 29.928572, 29.625, 29.625, 29.5, 29.5, 29.375, 29.1875, 29.0625, 28.875, 28.625, 28.375, 28.25, 28.160713, 28.089287, 27.9375, 27.5, 27.214287, 27, 26.875, 26.8125, 26.625, 26.375, 26.1875, 26.0625, 25.9375, 25.8125, 25.5625, 25.3125, 25.125, 25, 25, 24.8125, 24.5625, 24.3125, 24.0625, 24, 23.875, 23.75, 23.491072, 22.916666, 22.696428, 22.375, 22.1875, 22.125, 22, 22, 21.8125, 21.625, 21.375, 21.125, 21.0625, 20.9375, 20.6875, 20.375, 20, 19.6875, 19.5625, 19.375, 19.25, 19.125, 19, 19, 18.875, 18.6875, 18.5, 18.25, 17.982143, 17.4375, 17.25, 17, 16.875, 16.75, 16.625, 16.4375, 16.3125, 16.1875, 16.0625, 16, 15.875, 15.625, 15.375, 15, 14.6875, 14.5625, 14.4375, 14.4375, 14.3125, 14.125, 14, 13.8125, 13.625, 13.4375, 13.1875, 13, 13, 12.75, 12.5, 12.25, 11.9375, 11.875, 11.625, 11.375, 11.1875, 10.9375, 10.875, 10.6875, 10.4375, 10.25, 10.0625, 10, 9.9375, 9.6875, 9.4375, 9.1875, 9, 9, 8.8125, 8.5625, 8.3125, 8.0625, 7.9375, 7.6875, 7.4375, 7.1875, 7, 7, 7, -10, -10, -10, -10, -10, -10, -10, -10, -10, -10, -10, -10, -10, -10, 33.833336, 34.583332, 34.770832, 34.9375, 35.15625, 35.453125, 35.666664, -10, 36.111111, 36.166668, -10, -10, -10, -10, -10, -10, -10, -10, -10, -10, -10, -10, -10, -10, -10, -10, -10, -10, -10, -10, -10, -10, -10, -10, -10, 41.958332, 42, 42, 42.0625, 42.1875, 42.375, 42.6875, 42.982143, 43.125, 43.1875, 43.125, 43.098213, 43.428574, 43.6875, 43.875, 44.25, 44.648811, 44.758926, 44.9375, 45, 45.1875, 45.5625, 45.84375, 46.09375, 46.21875, 46.174107, 46.427082, 46.553574, 46.6875, 46.875, 46.958332, 46.9375, 47.21875, 47.416668, 47.564732, 47.504463, 47.517857, 47.53125, 47.700893, 47.78125, 47.84375, 47.9375, 47.9375, 47.9375, 47.636902, 47.392857, 47.4375, 47.482143, 47.589287, 47.794643, 47.866074, 48, 48.125, 48.125, 48.1875, 48.3125, 48.375, 48.589287, 48.767857, 48.76786, 48.875, 48.875, 49, 48.9375, 48.8125, 48.6875, 48.5, 48.625, 48.895832, 49, 49.125, 49, 48.9375, 48.9375, 48.9375, 48.9375, 49, 48.9375, 48.875, 48.491074, 47.25, 46.949997, 22, 22.125002, 22.1875, 22.21875, 22.663265, 22.869049, 22.959822, 23.125, 23.267857, 23.791666, 23.96875, 24.21875, 24.28125, 24.5, 24.6875, 25.1875, 25.5, 25.75, 26, 26, -10, -10, -10, -10, -10, -10, -10, -10, -10, -10, -10, -10, -10, -10, -10, -10, -10, -10, -10, -10, -10, -10, -10, -10, -10, -10, -10, -10, -10, 43, 42.666668, 42.589287, 42.5, 42.3125, 41.946426, 41.553574, 41.25, 41, 41, 40.9375, 40.875, 40.8125, 40.6875, 40.625, 40.4375, 40.3125, 40.160713, 39.892857, 39.696426, 39.4375, 39.25, 39.0625, 38.9375, 38.875, 38.8125, 38.75, 38.5625, 38.375, 38.125, 37.75, 37.5, 37.1875, 36.830357, 36.5625, 36.375, 36.3125, 36.375, 36.375, 36.125, 35.616074, 35.3125, 35.0625, 35, 35, 35, 34.8125, 34.625, 34.375, 34.125, 33.875, 33.5625, 33.375, 33.125, 33.0625, 33.0625, 33, 32.875, 32.678574, 32.34375, 32.15625, 31.90625, 31.71875, 31.4375, 31.3125, 31.098213, 30.705357, 30.401785, 30.125, 29.866072, 29.625, 29.5625, 29.4375, 29.375, 29.25, 29.125, 29, 28.9375, 28.75, 28.5, 28.3125, 28.098213, 27.964287, 27.75, 27.375, 27.151787, 26.9375, 26.8125, 26.6875, 26.5, 26.25, 26.125, 26.0625, 25.9375, 25.75, 25.5, 25.25, 25.0625, 25, 24.9375, 24.6875, 24.4375, 24.1875, 24, 24, 23.875, 23.6875, 23.4375, 23.0625, 22.875, 22.625, 22.375, 22.25, 22.0625, 22, 21.875, 21.75, 21.5, 21.25, 21.125, 20.875, 20.625, 20.3125, 19.9375, 19.625, 19.4375, 19.25, 19.125, 19.0625, 19, 19, 18.9375, 18.6875, 18.4375, 18.1875, 17.857143, 17.4375, 17.3125, 17.0625, 16.9375, 16.75, 16.625, 16.4375, 16.3125, 16.1875, 16.0625, 16, 15.875, 15.625, 15.375, 15.0625, 14.75, 14.625, 14.4375, 14.3125, 14.125, 13.875, 13.78125, 13.71875, 13.59375, 13.46875, 13.25, 13, 12.9375, 12.6875, 12.4375, 12.1875, 11.9375, 11.875, 11.625, 11.375, 11.1875, 11, 10.9375, 10.8125, 10.5625, 10.3125, 10.125, 10, 9.96875, 9.71875, 9.46875, 9.21875, 9, 9, 8.8125, 8.5625, 8.3125, 8.0625, 7.9375, 7.75, 7.5, 7.25, 7.0625, 7, 7, -10, -10, -10, -10, -10, -10, -10, -10, -10, -10, -10, -10, -10, 33.25, 33.555557, 34.145832, 34.375, 34.741074, 35.084824, 35.28125, 35.454166, -10, -10, -10, -10, -10, -10, -10, -10, -10, -10, -10, -10, -10, -10, -10, -10, -10, -10, -10, -10, -10, -10, -10, -10, -10, -10, -10, -10, -10, 42, 42, 42, 42.0625, 42.1875, 42.4375, 42.794643, 42.9375, 43.0625, 43.125, 43.133926, 43.428574, 43.6875, 43.75, 44, 44.291668, 44.383926, 44.625, 44.75, 45, 45.375, 45.625, 45.9375, 46.125, 46.080357, 46.302082, 46.397324, 46.53125, 46.78125, 46.9375, 46.953125, 47, 47.25, 47.455357, 47.441963, 47.455357, 47.46875, 47.638393, 47.71875, 47.78125, 47.75, 47.75, 47.8125, 47.866074, 47.75, 47.75, 47.625, 47.651787, 47.794643, 47.866074, 47.9375, 48, 48.0625, 48.125, 48.25, 48.3125, 48.464287, 48.642857, 48.70536, 48.875, 48.875, 49, 48.9375, 48.875, 48.8125, 48.8125, 49, 49.0625, 49.125, 49.125, 49, 49, 49.0625, 49.125, 49.1875, 49.1875, 49.125, 49.125, 48.761902, 47, 46.599995, 22, 22.062502, 22.0625, 22.09375, 22.224491, 22.851192, 22.959822, 23.125, 23.258928, 23.625, 23.875, 24.125, 24.3125, 24.5625, 24.75, 25.25
40.553574, 40.166668, 40.008926, 39.848213, 39.705357, 39.571426, 39.375, 39.25, 39.0625, 39, 39, 39, 38.875, 38.625, 38.375, 38.0625, 37.75, 37.5625, 37.3125, 36.955357, 36.6875, 36.392857, 36.25, 36.3125, 36.3125, 36, 35.553574, 35.25, 35, 35, 35, 34.9375, 34.75, 34.5625, 34.3125, 34.0625, 33.75, 33.4375, 33.3125, 33.1875, 33.1875, 33.1875, 33, 32.8125, 32.616074, 32.28125, 32.15625, 31.84375, 31.59375, 31.3125, 31.1875, 31.098213, 30.767857, 30.526785, 30.25, 29.991072, 29.75, 29.5625, 29.464287, 29.375, 29.25, 29.1875, 28.9375, 28.8125, 28.625, 28.375, 28.1875, 28, 27.9375, 27.6875, 27.375, 27.151787, 26.9375, 26.8125, 26.6875, 26.5, 26.3125, 26.1875, 26.125, 26, 25.6875, 25.375, 25.089287, 24.9375, 24.9375, 24.9375, 24.6875, 24.4375, 24.1875, 24, 24, 23.8125, 23.5625, 23.3125, 22.9375, 22.8125, 22.625, 22.375, 22.25, 22.0625, 22, 21.875, 21.8125, 21.5625, 21.25, 21.089287, 20.8125, 20.5625, 20.3125, 19.9375, 19.625, 19.4375, 19.3125, 19.25, 19.1875, 19.0625, 18.892857, 18.8125, 18.5625, 18.375, 18.1875, 17.928572, 17.6875, 17.5, 17.25, 17, 16.75, 16.6875, 16.4375, 16.3125, 16.1875, 16, 16, 15.875, 15.625, 15.375, 15.125, 14.875, 14.75, 14.5, 14.25, 14, 13.75, 13.71875, 13.71875, 13.59375, 13.46875, 13.25, 13, 12.875, 12.625, 12.375, 12.125, 11.9375, 11.9375, 11.678572, 11.3125, 11.1875, 10.9375, 11, 10.9375, 10.6875, 10.4375, 10.1875, 10, 9.96875, 9.71875, 9.46875, 9.21875, 8.9375, 8.875, 8.6875, 8.4375, 8.25, 8.0625, 8, 7.875, 7.625, 7.375, 7.125, 7, -10, -10, -10, -10, -10, -10, -10, -10, -10, -10, -10, -10, -10, -10, 33.166668, 33.458336, 33.739582, 34.09375, 34.709824, 35.200893, 35.328125, 35.429169, -10, -10, -10, -10, -10, -10, -10, -10, -10, -10, -10, -10, -10, -10, -10, -10, -10, -10, -10, -10, -10, -10, -10, -10, -10, -10, -10, -10, -10, -10, -10, -10, 42, 42.0625, 42.25, 42.544643, 42.6875, 42.875, 43, 43.133926, 43.491074, 43.6875, 43.8125, 43.9375, 44, 44.125, 44.25, 44.4375, 44.794643, 45.178574, 45.4375, 45.75, 46, 46, 46.15625, 46.325893, 46.46875, 46.71875, 46.875, 46.859375, 46.875, 47.125, 47.330357, 47.410713, 47.517857, 47.625, 47.794643, 47.8125, 47.75, 47.625, 47.625, 47.6875, 47.875, 48, 48, 48, 47.9375, 47.9375, 47.9375, 47.9375, 47.9375, 48.026787, 48.160713, 48.1875, 48.25, 48.214287, 48.357143, 48.553574, 48.75, 48.875, 49, 49, 49, 49.0625, 49.1875, 49.375, 49.375, 49.3125, 49.267857, 49.25, 49.1875, 49.205357, 49.1875, 49.25, 49.25, 49.1875, 49.1875, 48.833332, 22, 22, 22, 21.979168, 21.9375, 22.075893, 22.586309, 22.994049, 23.102678, 23.125, 23.25, 23.5, 23.75, 24.03125, 24.28125, 24.53125, 24.78125, 25.1875, 25.4375, 25.6875, 25.9375, 26, -10, -10, -10, -10, -10, -10, -10, -10, -10, -10, -10, -10, -10, -10, -10, -10, -10, -10, -10, -10, -10, -10, -10, -10, -10, -10, -10, -10, -10, 42.75, 42.400002, 42.151787, 42.125, 41.9375, 41.767857, 41.580357, 41.40625, 41.28125, 41.21875, 41.09375, 40.9375, 40.75, 40.5625, 40.428574, 40.014881, 39.776787, 39.67857, 39.580357, 39.446426, 39.3125, 39.125, 38.9375, 38.9375, 38.875, 38.875, 38.6875, 38.4375, 38.25, 38, 37.75, 37.5625, 37.3125, 36.955357, 36.6875, 36.330357, 36.125, 36.0625, 36, 35.75, 35.410713, 35.1875, 35, 35, 35, 34.875, 34.625, 34.4375, 34.125, 33.875, 33.625, 33.3125, 33.25, 33.1875, 33.1875, 33.1875, 33, 32.8125, 32.625, 32.40625, 32.21875, 31.84375, 31.53125, 31.25, 31.125, 31.035713, 30.705357, 30.526785, 30.25, 30.116072, 29.9375, 29.6875, 29.651787, 29.5625, 29.4375, 29.375, 29, 28.767857, 28.5625, 28.3125, 28.1875, 27.9375, 27.8125, 27.5625, 27.1875, 26.964287, 26.8125, 26.625, 26.5625, 26.4375, 26.25, 26.1875, 26.125, 26, 25.6875, 25.375, 25.089287, 24.9375, 24.9375, 24.9375, 24.6875, 24.4375, 24.1875, 24, 23.9375, 23.75, 23.5, 23.25, 23, 22.875, 22.6875, 22.4375, 22.25, 22.0625, 22, 21.9375, 21.875, 21.625, 21.3125, 21.089287, 20.75, 20.5, 20.25, 19.9375, 19.6875, 19.5625, 19.5, 19.4375, 19.375, 19.125, 18.785713, 18.625, 18.375, 18.25, 18.125, 18, 17.875, 17.625, 17.375, 17.0625, 16.875, 16.875, 16.625, 16.4375, 16.25, 16, 16, 15.875, 15.625, 15.375, 15.125, 14.9375, 14.875, 14.625, 14.375, 14.0625, 13.75, 13.71875, 13.71875, 13.59375, 13.46875, 13.25, 13, 12.8125, 12.5625, 12.3125, 12.0625, 11.9375, 11.9375, 11.678572, 11.3125, 11.1875, 10.875, 10.875, 10.75, 10.5, 10.3125, 10.125, 10, 9.96875, 9.71875, 9.46875, 9.21875, 8.9375, 8.8125, 8.5625, 8.3125, 8.125, 8, 8, 7.9375, 7.6875, 7.4375, 7.1875, 7, -10, -10, -10, -10, -10, -10, -10, -10, -10, -10, -10, -10, -10, -10, 33.125, 33.25, 33.5, 34, 34.678574, 35.138393, 35.1875, 35.158333, -10, -10, -10, -10, -10, -10, -10, -10, -10, -10, -10, -10, -10, -10, -10, -10, -10, -10, -10, -10, -10, -10, -10, -10, -10, -10, -10, -10, -10, -10, -10, -10, 42, 42, 42.0625, 42.1875, 42.28125, 42.53125, 42.84375, 43.102676, 43.3125, 43.5, 43.625, 43.8125, 44.0625, 44.125, 44.125, 44.142857, 44.375, 44.886902, 45.178574, 45.4375, 45.6875, 45.75, 46, 46.357143, 46.5625, 46.642857, 46.696426, 46.625, 46.625, 46.875, 47.080357, 47.270832, 47.660713, 47.794643, 47.90625, 47.8125, 47.6875, 47.5, 47.5, 47.625, 47.8125, 48, 48, 48, 47.875, 47.8125, 47.8125, 47.8125, 47.875, 48.026787, 48.098213, 48.0625, 48.0625, 48.026787, 48.232143, 48.428574, 48.6875, 48.8125, 48.9375, 49, 49.0625, 49.1875, 49.375, 49.553574, 49.291668, 49.133926, 49.125, 49.5, 49.580357, 49.598213, 49.270832, 49.25, 49.1875, 49.116074, 49.037498, 48.940475, 22, 22, 22, 21.833334, 21.745537, 22.004465, 22.608843, 22.931549, 23.071428, 23.133928, 23.4375, 23.625, 23.875, 24.09375, 24.34375, 24.59375, 24.84375, 25.125
40.428574, 39.952381, 39.589287, 39.49107, 39.392857, 39.383926, 39.294643, 38.979168, 38.758926, 38.6875, 38.625, 38.625, 38.4375, 38.25, 38.125, 37.875, 37.6875, 37.5, 37.25, 37.017857, 36.75, 36.392857, 36.1875, 36, 35.9375, 35.75, 35.44643, 35.125, 35, 34.9375, 34.9375, 34.75, 34.5, 34.25, 33.9375, 33.75, 33.5625, 33.3125, 33.3125, 33.25, 33.1875, 33.125, 32.9375, 32.75, 32.5, 32.3125, 32.125, 31.8125, 31.5625, 31.3125, 31.125, 30.973213, 30.642857, 30.508928, 30.25, 30.1875, 30.1875, 29.9375, 29.839287, 29.625, 29.4375, 29.25, 28.875, 28.580357, 28.375, 28.1875, 28.125, 27.9375, 27.75, 27.5, 27.125, 26.901787, 26.8125, 26.5625, 26.4375, 26.25, 26.0625, 26.0625, 26.0625, 26, 25.75, 25.5, 25.205357, 24.9375, 24.875, 24.8125, 24.6875, 24.4375, 24.25, 24.0625, 23.875, 23.6875, 23.4375, 23.1875, 23.0625, 23, 22.8125, 22.5625, 22.3125, 22.0625, 22, 21.875, 21.75, 21.5, 21.1875, 20.964287, 20.6875, 20.4375, 20.25, 20.0625, 19.8125, 19.75, 19.625, 19.5, 19.4375, 19.125, 18.785713, 18.625, 18.375, 18.25, 18.125, 18, 17.9375, 17.6875, 17.4375, 17.1875, 17, 17, 16.75, 16.5, 16.25, 16, 16, 15.875, 15.625, 15.375, 15.125, 15, 15, 14.75, 14.5, 14.1875, 13.875, 13.84375, 13.78125, 13.53125, 13.236607, 13, 12.75, 12.5625, 12.375, 12.1875, 12, 12, 12, 11.803572, 11.4375, 11.25, 10.9375, 10.875, 10.8125, 10.5625, 10.375, 10.1875, 10, 9.96875, 9.71875, 9.46875, 9.21875, 8.9375, 8.8125, 8.5625, 8.3125, 8.125, 8, 8, 7.9375, 7.6875, 7.4375, 7.1875, 7, -10, -10, -10, -10, -10, -10, -10, -10, -10, -10, -10, -10, -10, -10, 32.833332, 32.958336, 33.25, 33.78125, 34.459824, 34.919643, 34.90625, 34.825001, -10, -10, -10, -10, -10, -10, -10, -10, -10, -10, -10, -10, -10, -10, -10, -10, -10, -10, -10, -10, -10, -10, -10, -10, -10, -10, -10, -10, -10, -10, -10, -10, -10, -10, 42, 42.1875, 42.239582, 42.34375, 42.59375, 42.924107, 43.116074, 43.3125, 43.4375, 43.5625, 43.875, 44, 44, 43.955357, 44.125, 44.574402, 44.910713, 45.1875, 45.4375, 45.482143, 45.625, 46.013393, 46.392857, 46.361607, 46.415176, 46.4375, 46.4375, 46.625, 46.723213, 46.895832, 47.348213, 47.651787, 47.78125, 47.75, 47.625, 47.375, 47.3125, 47.375, 47.5625, 47.857143, 47.9375, 47.9375, 47.8125, 47.75, 47.75, 47.8125, 47.875, 48.026787, 48.035713, 47.9375, 48.017857, 48.145832, 48.232143, 48.375, 48.5, 48.5625, 48.75, 48.875, 49, 49.125, 49.25, 49.303574, 48.979168, 48.883926, 49, 49.535713, 49.642857, 49.598213, 49.145832, 49.0625, 48.9375, 48.803574, 48.704166, 49.111111, 22, 22, 22, 21.791666, 21.839287, 22.369049, 22.854166, 23.160715, 23.142857, 23.133928, 23.4375, 23.625, 23.875, 24.15625, 24.40625, 24.65625, 24.90625, 25.0625, 25.3125, 25.5625, 25.8125, 26, -10, -10, -10, -10, -10, -10, -10, -10, -10, -10, -10, -10, -10, -10, -10, -10, -10, -10, -10, -10, -10, -10, -10, -10, -10, -10, -10, -10, -10, 42.75, 42.400002, 42.151787, 42.1875, 42, 41.830357, 41.598213, 41.40625, 41.40625, 41.46875, 41.40625, 41.3125, 41.0625, 40.866074, 40.553574, 39.848213, 39.383926, 39.205357, 39.3125, 39.375, 39.357143, 38.979168, 38.696426, 38.625, 38.5, 38.5, 38.3125, 38.125, 38.0625, 37.8125, 37.5625, 37.375, 37.1875, 37.0625, 36.8125, 36.455357, 36.1875, 35.9375, 35.875, 35.75, 35.491074, 35.1875, 35.0625, 34.9375, 34.866074, 34.5, 34.3125, 34.0625, 33.875, 33.75, 33.625, 33.375, 33.3125, 33.25, 33.125, 33, 32.8125, 32.625, 32.375, 32.25, 32.0625, 31.75, 31.5, 31.25, 31.0625, 30.9375, 30.6875, 30.5625, 30.3125, 30.1875, 30.1875, 30, 29.839287, 29.625, 29.375, 29.0625, 28.6875, 28.330357, 28.1875, 28.035713, 27.964287, 27.8125, 27.5625, 27.375, 27, 26.839287, 26.8125, 26.625, 26.5625, 26.375, 26.1875, 26.125, 26.0625, 26, 25.8125, 25.5625, 25.267857, 24.9375, 24.75, 24.75, 24.6875, 24.5625, 24.4375, 24.1875, 23.9375, 23.625, 23.375, 23.125, 23, 22.9375, 22.6875, 22.4375, 22.1875, 22, 22, 21.8125, 21.625, 21.375, 21.0625, 20.839287, 20.625, 20.375, 20.1875, 20.0625, 19.8125, 19.75, 19.625, 19.5, 19.4375, 19.125, 18.785713, 18.625, 18.375, 18.3125, 18.1875, 18.0625, 18, 17.6875, 17.4375, 17.1875, 17, 17, 16.75, 16.5, 16.25, 16, 16, 15.875, 15.625, 15.375, 15.125, 15, 15, 14.75, 14.5, 14.25, 14, 14, 13.875, 13.5625, 13.205357, 12.9375, 12.6875, 12.5, 12.3125, 12.125, 12, 12, 12, 11.803572, 11.4375, 11.1875, 10.8125, 10.6875, 10.625, 10.4375, 10.3125, 10.1875, 10, 10, 9.75, 9.5, 9.25, 8.9375, 8.8125, 8.5625, 8.3125, 8.125, 8, 8, 7.9375, 7.6875, 7.4375, 7.1875, 7, -10, -10, -10, -10, -10, -10, -10, -10, -10, -10, -10, -10, -10, 31.75, 32.583332, 32.815479, 33.1875, 33.75, 34.3125, 34.772324, 34.859375, 34.912498, 35.25, -10, -10, -10, -10, -10, -10, -10, -10, -10, -10, -10, -10, -10, -10, -10, -10, -10, -10, -10, -10, -10, -10, -10, -10, -10, -10, -10, -10, -10, -10, -10, -10, -10, -10, 42.166668, 42.114582, 42.09375, 42.25, 42.607143, 42.910713, 43.125, 43.3125, 43.375, 43.625, 43.8125, 43.8125, 43.767857, 43.875, 44.136902, 44.410713, 44.678574, 45.229168, 45.473213, 45.6875, 46.044643, 46.07143, 46.205357, 46.196426, 46.1875, 46.1875, 46.3125, 46.410713, 46.583332, 47.098213, 47.401787, 47.53125, 47.5, 47.375, 47.25, 47.258926, 47.541668, 47.6875, 47.982143, 48, 47.90625, 47.6875, 47.625, 47.625, 47.75, 47.875, 47.964287, 47.973213, 47.875, 48.017857, 48.177082, 48.200893, 48.28125, 48.28125, 48.3125, 48.5, 48.6875, 48.875, 49.0625, 49.1875, 49.116074, 48.791668, 48.696426, 48.875, 49.535713, 49.642857, 49.598213, 49.083332, 48.875, 48.642857, 48.428574, 48.079166, -10, -10, -10, 22, 21.9375, 22.151787, 22.851191, 23.291666, 23.428572, 23.267857, 23.196428, 23.5, 23.6875, 23.9375, 24.21875, 24.46875, 24.71875, 25.03125, 25.0625
40.25, 39.744045, 39.3125, 39.205357, 39.1875, 39.1875, 39.169643, 38.729168, 38.571426, 38.5625, 38.375, 38.4375, 38.25, 38.0625, 38.0625, 37.75, 37.5, 37.25, 37, 36.875, 36.6875, 36.5, 36.25, 36.0625, 35.9375, 35.8125, 35.616074, 35.3125, 35.1875, 35, 34.803574, 34.5, 34.3125, 34, 33.767857, 33.625, 33.5, 33.3125, 33.25, 33.125, 33, 32.875, 32.75, 32.625, 32.375, 32.25, 32, 31.6875, 31.4375, 31.1875, 31.0625, 30.875, 30.625, 30.4375, 30.1875, 30.0625, 30.0625, 30, 29.875, 29.6875, 29.4375, 29.0625, 28.75, 28.392857, 28.25, 28.098213, 27.892859, 27.674999, 27.482143, 27.25, 27.0625, 26.875, 26.875, 26.75, 26.625, 26.4375, 26.1875, 26.0625, 26, 25.9375, 25.875, 25.678572, 25.303572, 25, 24.6875, 24.6875, 24.6875, 24.5625, 24.5, 24.25, 23.9375, 23.625, 23.375, 23.125, 23, 22.875, 22.625, 22.375, 22.125, 22, 22, 21.8125, 21.5625, 21.3125, 21.0625, 20.875, 20.6875, 20.5, 20.25, 20.125, 19.875, 19.75, 19.5625, 19.4375, 19.375, 19.125, 18.892857, 18.6875, 18.4375, 18.375, 18.223213, 17.955357, 17.821428, 17.5, 17.3125, 17.125, 17, 17, 16.75, 16.5, 16.25, 16, 16, 15.9375, 15.6875, 15.4375, 15.1875, 15, 14.9375, 14.6875, 14.4375, 14.1875, 14, 14, 13.8125, 13.5, 13.142857, 12.875, 12.6875, 12.5, 12.3125, 12.125, 12, 12, 12, 11.8125, 11.5625, 11.25, 10.875, 10.625, 10.5, 10.3125, 10.1875, 10.125, 10, 9.9375, 9.6875, 9.4375, 9.1875, 9, 8.9375, 8.6875, 8.4375, 8.1875, 8, 8, 7.9375, 7.6875, 7.4375, 7.1875, 7, -10, -10, -10, -10, -10, -10, -10, -10, -10, -10, -10, -10, -10, 31.5, 32.083332, 32.273811, 32.700893, 33.53125, 34.049107, 34.46875, 34.59375, 34.75, 34.944443, 35.666668, -10, -10, -10, -10, -10, -10, -10, -10, -10, -10, -10, -10, -10, -10, -10, -10, -10, -10, -10, -10, -10, -10, -10, -10, -10, -10, -10, -10, -10, -10, -10, -10, -10, -10, 42.069443, 41.96875, 41.979168, 42.169643, 42.42857, 42.833332, 43.053574, 43.25, 43.4375, 43.5625, 43.625, 43.517857, 43.580357, 43.833332, 44.098213, 44.428574, 44.979168, 45.223213, 45.4375, 45.794643, 45.9375, 46.080357, 46.102676, 46.09375, 46.09375, 46.09375, 46.160713, 46.333332, 46.848213, 47.089287, 47.21875, 47.1875, 47.125, 47.1875, 47.258926, 47.588543, 47.71875, 47.919643, 47.9375, 47.796875, 47.59375, 47.5625, 47.5, 47.6875, 47.875, 47.9375, 47.9375, 47.875, 47.955357, 48.177082, 48.200893, 48.21875, 48.15625, 48.125, 48.25, 48.4375, 48.625, 48.821426, 49.012501, 48.82143, 48.604168, 48.508926, 48.732143, 49.348213, 49.517857, 49.517857, 49.083332, 48.8125, 48.580357, 48.154766, 47.688889, -10, -10, -10, 21.8125, 21.729166, 22.044643, 22.994047, 23.267857, 23.5, 23.3125, 23.321428, 23.625, 23.75, 24.0625, 24.3125, 24.5625, 24.8125, 25.0625, 25.0625, 25.3125, 25.5625, 25.75, 26, -10, -10, -10, -10, -10, -10, -10, -10, -10, -10, -10, -10, -10, -10, -10, -10, -10, -10, -10, -10, -10, -10, -10, -10, -10, -10, -10, -10, -10, 42.375, 42.333332, 42.25, 42.25, 42.125, 41.875, 41.580357, 41.3125, 41.25, 41.3125, 41.3125, 41.1875, 40.875, 40.553574, 40.125, 39.708332, 39.357143, 39.1875, 39.0625, 38.9375, 38.857143, 38.479168, 38.446426, 38.5, 38.375, 38.5, 38.294643, 37.955357, 37.955357, 37.625, 37.4375, 37.25, 37, 36.875, 36.75, 36.5625, 36.3125, 36.25, 36.125, 36.0625, 35.928574, 35.5, 35.3125, 35.0625, 34.803574, 34.5625, 34.375, 34, 33.723213, 33.5625, 33.5, 33.4375, 33.375, 33.25, 33.0625, 32.875, 32.6875, 32.5, 32.25, 32.125, 31.9375, 31.6875, 31.4375, 31.1875, 31.0625, 30.9375, 30.75, 30.5, 30.25, 30.0625, 30, 30, 29.8125, 29.5625, 29.25, 28.875, 28.6875, 28.5, 28.375, 28.223213, 27.892859, 27.674999, 27.482143, 27.25, 27.1875, 27, 27, 26.9375, 26.75, 26.5, 26.25, 26.0625, 26, 26, 26, 25.803572, 25.428572, 25.0625, 24.625, 24.5625, 24.5625, 24.4375, 24.4375, 24.25, 24, 23.6875, 23.4375, 23.1875, 23, 22.8125, 22.5625, 22.3125, 22.0625, 22, 22, 21.8125, 21.5625, 21.3125, 21.0625, 20.875, 20.75, 20.625, 20.375, 20.25, 19.9375, 19.6875, 19.4375, 19.25, 19.1875, 19.0625, 18.9375, 18.75, 18.5, 18.375, 18.223213, 17.955357, 17.883928, 17.5625, 17.375, 17.1875, 17, 17, 16.75, 16.5, 16.25, 16, 16, 16, 15.75, 15.5, 15.25, 15, 14.875, 14.625, 14.375, 14.125, 14, 14, 13.8125, 13.5, 13.142857, 12.875, 12.6875, 12.5, 12.3125, 12.125, 12, 12, 12, 11.8125, 11.5625, 11.25, 10.9375, 10.6875, 10.5625, 10.375, 10.1875, 10.125, 10, 9.9375, 9.6875, 9.4375, 9.1875, 9, 8.9375, 8.6875, 8.4375, 8.1875, 8, 8, 7.9375, 7.6875, 7.4375, 7.1875, 7, -10, -10, -10, -10, -10, -10, -10, -10, -10, -10, -10, -10, 31, 31.375, 31.583332, 31.839287, 32.690475, 33.479168, 33.955357, 34.462502, 34.583332, 34.833332, 34.944443, -10, -10, -10, -10, -10, -10, -10, -10, -10, -10, -10, -10, -10, -10, -10, -10, -10, -10, -10, -10, -10, -10, -10, -10, -10, -10, -10, -10, -10, -10, -10, -10, -10, -10, -10, -10, 41.833332, 41.763889, 41.934525, 42.05357, 42.520832, 42.821426, 43.09375, 43.21875, 43.34375, 43.4375, 43.375, 43.5, 43.625, 43.857143, 44.178574, 44.666668, 44.91964, 45.270832, 45.440475, 45.4375, 45.625, 45.65625, 45.78125, 45.84375, 45.90625, 46.0625, 46.3125, 46.625, 46.794643, 46.875, 46.9375, 46.875, 47.0625, 47.196426, 47.463543, 47.59375, 47.732143, 47.6875, 47.546875, 47.46875, 47.625, 47.625, 47.705357, 47.758926, 47.75, 47.8125, 47.75, 47.830357, 47.989582, 48.013393, 48.09375, 48.03125, 48, 48.0625, 48.1875, 48.3125, 48.446426, 48.575001, 48.455357, 48.5625, 48.625, 48.875, 49.098213, 49.0625, 49.0625, 48.9375, 48.75, 48.642857, -10, -10, -10, -10, -10, 21.625, 21.625, 22.008928, 23.002977, 23.236607, 23.5625, 23.3125, 23.3125, 23.5, 23.625, 23.9375, 24.25, 24.4375, 24.625, 24.875, 24.9375
40.0625, 39.645832, 39.357143, 39.125, 39, 38.75, 38.625, 38.375, 38.4375, 38.5625, 38.4375, 38.625, 38.357143, 38.017857, 38.017857, 37.6875, 37.5, 37.3125, 37.0625, 36.875, 36.8125, 36.625, 36.375, 36.3125, 36.125, 36.0625, 35.9375, 35.625, 35.375, 35.125, 34.866074, 34.625, 34.4375, 34.0625, 33.785713, 33.5625, 33.5, 33.5, 33.375, 33.3125, 33.125, 32.875, 32.625, 32.375, 32.125, 32, 31.875, 31.6875, 31.5, 31.25, 31.125, 31, 30.75, 30.5, 30.25, 30.0625, 30, 30, 29.8125, 29.5625, 29.25, 28.9375, 28.8125, 28.625, 28.5625, 28.348213, 27.955359, 27.799999, 27.580357, 27.267857, 27.196428, 27, 27, 27, 26.875, 26.625, 26.375, 26.125, 26.0625, 26.0625, 26.0625, 25.866072, 25.4375, 25.1875, 24.75, 24.625, 24.5, 24.375, 24.3125, 24.1875, 24, 23.6875, 23.4375, 23.1875, 23, 22.8125, 22.5625, 22.3125, 22.0625, 22, 22, 21.875, 21.625, 21.375, 21.125, 20.9375, 20.8125, 20.6875, 20.4375, 20.25, 19.9375, 19.625, 19.375, 19.1875, 19.125, 19.0625, 18.875, 18.625, 18.375, 18.25, 18.098213, 17.830357, 17.696428, 17.375, 17.25, 17.125, 17, 17, 16.75, 16.5, 16.25, 16, 16, 15.9375, 15.6875, 15.4375, 15.1875, 15, 14.875, 14.625, 14.375, 14.125, 14, 14, 13.8125, 13.5625, 13.3125, 13.0625, 12.9375, 12.75, 12.5, 12.25, 12, 11.875, 11.8125, 11.5625, 11.375, 11.125, 10.875, 10.6875, 10.5, 10.3125, 10.125, 10.0625, 10, 9.9375, 9.6875, 9.4375, 9.1875, 9, 8.9375, 8.6875, 8.4375, 8.1875, 8, 8, 8, 7.75, 7.5, 7.25, 7, -10, -10, -10, -10, -10, -10, -10, -10, -10, -10, -10, -10, 31.166666, 31.291666, 31.5, 31.839287, 32.627975, 33.322918, 33.674107, 34.408333, -10, -10, -10, -10, -10, -10, -10, -10, -10, -10, -10, -10, -10, -10, -10, -10, -10, -10, -10, -10, -10, -10, -10, -10, -10, -10, -10, -10, -10, -10, -10, -10, -10, -10, -10, -10, -10, -10, -10, -10, -10, -10, 41.875, 42.270832, 42.633926, 42.96875, 43.09375, 43.1875, 43.15625, 43.03125, 43.09375, 43.196426, 43.583332, 43.821426, 44.260418, 44.59375, 45.114582, 45.377975, 45.375, 45.375, 45.28125, 45.3125, 45.4375, 45.5625, 45.78125, 46, 46.25, 46.3125, 46.5, 46.6875, 46.75, 47.0625, 47.258926, 47.526043, 47.65625, 47.75, 47.625, 47.515625, 47.5, 47.65625, 47.71875, 47.767857, 47.758926, 47.75, 47.875, 47.875, 47.9375, 47.90625, 47.90625, 47.96875, 47.96875, 48, 48, 48.0625, 48.125, 48.258926, 48.450001, 48.330357, 48.526787, 48.669643, 48.866074, 49.0625, 49, 49.0625, 48.991074, 48.729168, 48.684525, -10, -10, -10, -10, -10, 21.375, 21.541666, 21.915178, 22.825893, 23.142857, 23.46875, 23.3125, 23.3125, 23.5, 23.625, 23.9375, 24.1875, 24.3125, 24.4375, 24.6875, 24.8125, 25.1875, 25.5625, 25.8125, 26.083334, -10, -10, -10, -10, -10, -10, -10, -10, -10, -10, -10, -10, -10, -10, -10, -10, -10, -10, -10, -10, -10, -10, -10, -10, -10, -10, -10, -10, -10, 42, 42, 42, 42, 42, 41.875, 41.6875, 41.5, 41.375, 41.3125, 41.25, 40.9375, 40.517857, 40.1875, 39.8125, 39.6875, 39.5, 39.375, 39.125, 38.8125, 38.625, 38.3125, 38.4375, 38.5, 38.375, 38.5625, 38.232143, 37.892857, 37.892857, 37.5625, 37.5, 37.375, 37.125, 37, 36.875, 36.6875, 36.4375, 36.3125, 36.125, 36, 35.875, 35.5625, 35.3125, 35.125, 34.9375, 34.8125, 34.5625, 34.1875, 33.723213, 33.4375, 33.375, 33.375, 33.3125, 33.3125, 33.125, 32.9375, 32.6875, 32.4375, 32.1875, 32, 31.9375, 31.8125, 31.625, 31.375, 31.1875, 31, 30.75, 30.5, 30.25, 30.0625, 30, 30, 29.8125, 29.5625, 29.3125, 29.0625, 29, 28.8125, 28.625, 28.375, 27.991072, 27.799999, 27.642857, 27.267857, 27.196428, 27.0625, 27.0625, 27.0625, 26.875, 26.5625, 26.3125, 26.0625, 26.0625, 26, 25.9375, 25.741072, 25.3125, 25.1875, 24.875, 24.6875, 24.5, 24.3125, 24.1875, 24.125, 24, 23.75, 23.5, 23.25, 23.0625, 22.875, 22.6875, 22.4375, 22.1875, 22.0625, 22, 21.9375, 21.6875, 21.4375, 21.1875, 21, 20.9375, 20.8125, 20.5625, 20.3125, 20, 19.75, 19.5625, 19.375, 19.25, 19.125, 18.8125, 18.5, 18.25, 18.0625, 17.910713, 17.642857, 17.446428, 17.1875, 17.125, 17.0625, 17, 17, 16.75, 16.5, 16.25, 16, 16, 15.9375, 15.6875, 15.4375, 15.1875, 15, 14.875, 14.625, 14.375, 14.125, 14, 14, 13.8125, 13.5625, 13.3125, 13.0625, 13, 12.875, 12.6875, 12.4375, 12.125, 11.9375, 11.8125, 11.5625, 11.375, 11.1875, 11, 10.875, 10.6875, 10.4375, 10.1875, 10.0625, 10, 9.9375, 9.6875, 9.4375, 9.1875, 9, 8.875, 8.625, 8.375, 8.125, 8, 8, 8, 7.75, 7.5, 7.25, 7, -10, -10, -10, -10, -10, -10, -10, -10, -10, -10, -10, -10, 31.166666, 31.604166, 31.708332, 31.950893, 32.699402, 33.5, 33.792858, -10, -10, -10, -10, -10, -10, -10, -10, -10, -10, -10, -10, -10, -10, -10, -10, -10, -10, -10, -10, -10, -10, -10, -10, -10, -10, -10, -10, -10, -10, -10, -10, -10, -10, -10, -10, -10, -10, -10, -10, -10, -10, -10, 41.690475, 42.083332, 42.383926, 42.958332, 43.125, 43.166668, 43.041668, 42.59375, 42.65625, 42.915176, 43.427082, 43.75, 43.90625, 44.133926, 44.583332, 44.940475, 44.9375, 44.9375, 44.625, 44.660713, 44.875, 45.25, 45.53125, 45.75, 46, 46.125, 46.375, 46.625, 46.75, 47.0625, 47.21875, 47.328125, 47.5, 47.59375, 47.53125, 47.5, 47.578125, 47.734375, 47.828125, 47.830357, 47.758926, 47.75, 47.875, 47.875, 47.875, 47.8125, 47.8125, 47.875, 47.9375, 48, 48, 48, 48.0625, 48.10714, 48.164288, 48.080357, 48.214287, 48.419643, 48.678574, 48.9375, 48.9375, 49, 48.866074, 48.604168, 48.625, -10, -10, -10, -10, -10, 21.25, 21.458334, 21.834822, 22.59375, 22.955357, 23.34375, 23.285713, 23.3125, 23.5, 23.5625, 23.875, 24.1875, 24.3125, 24.375, 24.5625, 24.6875
