18.1875, 17.705357, 17.5, 17.3125, 17.3125, 17.3125, 17.25, 17.125, 16.9375, 16.9375, 16.9375, 16.875, 16.625, 16.375, 16.125, 16, 16, 16, 16, 15.9375, 15.6875, 15.4375, 15.1875, 15, 14.9375, 14.75, 14.625, 14.4375, 14.25, 14.1875, 14.03125, 13.90625, 13.90625, 13.90625, 13.75, 13.625, 13.366072, 12.916667, 12.830357, 12.625, 12.5625, 12.526786, 12.5625, 12.5, 12.276786, 12.125, 11.9375, 12, 12, 11.8125, 11.5625, 11.3125, 11.0625, 11, 11, 11, 11, 10.8125, 10.553572, 10.125, 9.9375, 9.875, 9.9375, 9.9375, 9.75, 9.5, 9.25, 9.0625, 9, 9, 8.9375, 8.75, 8.5, 8.25, 8.0625, 8.0625, 8.125, 8.1875, 8.1875, 8.125, 8.0625, 8, 7.9375, 8.0625, 8.125, 8.125, 8.1875, 8.0625, 8, 8, 8, 8, 8, 8, 8, 8, 8, 8, 8, 8.0625, 8.0625, 8.0625, 8.0625, 8, 8, 8, 8, 8, 8, 8, 8.0625, 8.0982141, 8.1875, 8.1875, 8.125, 8.125, 8.0625, 8.0625, 8.0625, 8.0625, 8, 8, 8.0625, 8.0625, 8.0625, 8.0625, 8, 8, 8, 7.9375, 7.9375, 7.9375, 7.9375, 8, 8, 8, 8, 8, 8, 8, 8.0625, 8.25, 8.6116066, 9.4613094, 10.401786, 11.267857, 11.732142, 11.9375, 12, 12, 12.0625, 12.25, 12.46875, 12.71875, 12.90625, 12.96875, 12.9375, 12.9375, 12.9375, 12.9375, 13, 13, 13.0625, 13.0625, 13.0625, 13.0625, 13, 13, 13.0625, 13.0625, 13.0625, 13.0625, 13, 13, 13.0625, 13.25, 13.4375, 13.71875, 14.09375, 14.40625, 14.71875, 14.629464, 13.760416, 13.34375, 13.03125, 12.75, 12.604167, 13.442857, 13.428572, 13.428572, 13.357142, 11.973214, 11.95238, -10, -10, -10, 19.416668, 19.583332, 19.833334, 19.888887, 20, 19.958334, 19.9375, 19.830357, 19.526787, 18.935375, 18.150793, 16.25, 16.297617, 16.554762, 17.985714, 18.762501, 19.07143, 20.472221, 20.79365, 20.709822, 20.607143, 20.566328, 20.571428, 20.62245, 20.547619, 20.678572, 20.625, 20.65625, 20.674107, 20.927084, 21.013393, 21.0625, 21.125, 21.25, 21.535713, 21.75, 21.9375, 22, 22, 8.8125, 8.875, 8.96875, 9.03125, 9.0625, 9.0625, 9, 8.9375, 8.875, 8.875, 8.875, 8.9375, 9, 9, 9, 9, 9.0625, 9.0625, 9.0625, 9.125, 9.0625, 9.1875, 9.4375, 9.5, 9.5625, 9.625, 9.5625, 9.6875, 9.875, 9.9375, 10, 10, 10, 10, 10, 10, 10.1875, 10.4375, 10.6875, 10.9375, 11, 11, 10.9375, 10.9375, 10.9375, 10.9375, 11.0625, 11.0625, 11.0625, 11.25, 11.4375, 11.6875, 11.9375, 12, 12, 12, 12, 12, 12, 12.0625, 12.125, 12.125, 12.25, 12.375, 12.5, 12.6875, 12.6875, 12.625, 12.625, 12.5625, 12.6875, 12.8125, 12.875, 13, 13.25, 13.5, 13.6875, 13.875, 13.8125, 13.8125, 13.875, 14, 14.0625, 14.125, 14.035714, 13.857142, 14, 14.178572, 14.544643, 14.625, 14.8125, 14.875, 14.9375, 15.0625, 15.0625, 14.9375, 14.833334, -10, -10, -10, -10, -10, -10, -10, -10, -10, -10, -10, -10, -10, -10, -10, -10, -10, -10, -10, 21.625, 21.583334, 21.348213, 21.125, 21.083334, 20.633928, 20.571428, 20.267857, 20.125, 20.0625, 19.9375, 20.0625, 20.0625, 19.875, 19.642857, 19.3125, 19.0625, 19, 19, 19, 19, 19, 18.875, 18.6875, 18.4375, 18.125, 17.767857, 17.5625, 17.3125, 17.3125, 17.3125, 17.25, 17.1875, 17, 16.9375, 16.875, 16.8125, 16.5625, 16.3125, 16.125, 16, 16, 16, 16, 16, 15.75, 15.5, 15.25, 15, 15, 14.875, 14.6875, 14.4375, 14.1875, 14, 13.90625, 13.84375, 13.84375, 13.90625, 13.75, 13.5625, 13.3125, 13.0625, 12.9375, 12.75, 12.5625, 12.401786, 12.4375, 12.375, 12.214286, 12.125, 11.9375, 12, 12, 11.8125, 11.5625, 11.25, 10.9375, 10.8125, 10.75, 10.8125, 10.8125, 10.625, 10.4375, 10.125, 9.9375, 9.9375, 9.9375, 9.9375, 9.6875, 9.4375, 9.1875, 9, 9, 9, 8.9375, 8.8125, 8.5625, 8.3125, 8.125, 8, 8, 8, 8, 8, 8, 8, 7.9375, 8.0625, 8.125, 8.125, 8.1875, 8.0625, 8, 8, 8, 8, 8, 8, 8, 8, 8, 8, 8, 8, 8, 8, 8, 8, 8, 8, 8, 8, 8.0625, 8.0625, 8.0625, 8.0625, 8.125, 8.125, 8.125, 8.125, 8, 8, 8, 8, 8, 8, 8, 8, 8, 8, 8.0625, 8.0625, 8.0625, 8.0625, 8, 8, 8, 8, 8, 8, 8, 8, 8, 8, 8.0625, 8.1875, 8.5982141, 9.8779764, 11.020408, 11.642857, 11.892857, 12, 12, 12, 12.0625, 12.25, 12.40625, 12.65625, 12.84375, 12.96875, 13.0625, 13.125, 13.125, 13.0625, 13.0625, 13, 13.071428, 13.291667, 13.3125, 13.375, 13.375, 13.34375, 13.25, 13.142857, 13.0625, 13.0625, 13.0625, 13.125, 13.25, 13.4375, 13.75, 14.254464, 14.869048, 15.529762, 15.976192, 15.818452, 14.619047, 14.25, 13.928572, 13.678572, 13.511905, 16.866667, 17.333334, 17.416666, 17.369047, 13.198979, 13.736111, -10, -10, 19, 19.361113, 19.436508, 19.589287, 19.666666, 19.5625, 19.6875, 19.75, 19.767857, 19.526787, 18.863947, 18.367346, 16.785715, 16.826529, 17.046938, 18.657143, 19.175001, 19.380953, 20.354166, 20.65774, 20.834822, 20.78125, 20.84375, 20.96875, 20.973213, 20.928572, 21, 20.75, 20.78125, 20.674107, 20.864584, 20.950893, 21, 21.125, 21.25, 21.535713, 21.75, 21.9375, 21.9375, 21.916666, 8.8125, 8.875, 8.96875, 9.03125, 9.0625, 9.0625, 9, 9, 8.9375, 8.9375, 8.9375, 8.9375, 9, 9, 9, 9.0625, 9.1875, 9.1875, 9.1875, 9.125, 9, 9.125, 9.375, 9.4375, 9.4375, 9.5625, 9.5625, 9.75, 10, 10, 10, 10, 10, 10, 10, 10, 10.125, 10.3125, 10.5625, 10.75, 10.875, 10.9375, 10.8125, 10.8125, 10.8125, 10.8125, 11, 11.0625, 11.0625, 11.3125, 11.5, 11.75, 12, 12, 12, 12, 12, 12, 12, 12.0625, 12.125, 12.125, 12.1875, 12.25, 12.3125, 12.4375, 12.5625, 12.5625, 12.625, 12.6875, 12.75, 12.875, 12.9375, 13, 13.1875, 13.4375, 13.625, 13.8125, 13.75, 13.75, 13.8125, 13.9375, 14.125, 14.25, 14.142858, 13.857142, 14, 14.116072, 14.544643, 14.6875, 14.875, 14.9375, 15
18.1875, 17.830357, 17.6875, 17.5, 17.5625, 17.5625, 17.4375, 17.375, 17.125, 17, 16.9375, 16.8125, 16.6875, 16.473213, 16.205357, 16.071428, 16, 16, 15.9375, 15.875, 15.625, 15.375, 15.1875, 15, 15, 14.9375, 14.75, 14.5, 14.25, 14, 13.84375, 13.78125, 13.71875, 13.78125, 13.75, 13.5625, 13.375, 13.125, 13, 12.875, 12.6875, 12.464286, 12.375, 12.25, 12.026786, 12, 11.875, 11.9375, 12, 11.875, 11.625, 11.3125, 10.9375, 10.75, 10.6875, 10.75, 10.8125, 10.625, 10.4375, 10.1875, 10, 10, 10, 9.875, 9.625, 9.375, 9.125, 9, 9, 9, 9, 8.9375, 8.6875, 8.4375, 8.1875, 8, 8, 8, 7.9375, 7.9375, 7.9375, 7.9375, 8, 8.125, 8.1875, 8.1875, 8.1875, 8.0625, 8, 8, 8, 8, 8, 8, 8, 8, 8, 8, 8, 8, 8, 8, 8, 8, 8, 8, 8, 8, 8, 8, 8, 8, 8.0625, 8.0625, 8.0625, 8.0625, 8, 8, 8, 8, 8, 8, 8, 8, 8, 8, 8.0625, 8.0625, 8.0625, 8.0625, 8, 8, 8, 8, 8, 8, 8, 8, 8, 8, 8.0625, 8.2678566, 8.9217691, 10.547619, 11.464287, 11.892857, 12, 12, 12, 12, 12.0625, 12.25, 12.40625, 12.71875, 13.03125, 13.254464, 13.375, 13.375, 13.25, 13.125, 13.125, 13.1875, 13.428572, 13.776042, 13.90625, 13.96875, 14, 13.859375, 13.785714, 13.767857, 13.419643, 13.419643, 13.375, 13.625, 13.95238, 14.265306, 14.732142, 15.308673, 17.381945, 17.663691, 17.889881, 17.773809, 17.277779, 17.166666, 17.083334, 17, 16.944445, 18.1, 18.535715, 18.607143, 18.566328, 17.125, 17.305555, 19.375, 19.375, 19.222221, 19.361113, 19.431547, 19.235119, 19.265625, 19.171875, 19.375, 19.5625, 19.8125, 19.785713, 19.401785, 19.357143, 19, 18.940475, 18.994047, 19.195919, 19.38125, 19.535715, 19.979166, 20.324406, 20.616072, 20.75, 20.875, 21.0625, 20.973213, 20.803572, 20.8125, 20.625, 20.75, 20.642857, 20.895834, 20.919643, 21, 21.1875, 21.25, 21.5, 21.6875, 21.875, 21.875, 21.833332, 9, 9, 9.0625, 9.0625, 9.0625, 9.0625, 9, 9.0625, 9, 9, 9, 8.9375, 9, 9, 9, 9.0625, 9.1875, 9.1875, 9.1875, 9.125, 9, 9.125, 9.3125, 9.3125, 9.3125, 9.4375, 9.5, 9.75, 10, 10, 10, 10, 10, 10, 10, 10, 10.125, 10.3125, 10.5625, 10.678572, 10.675, 10.866072, 10.741072, 10.8125, 10.8125, 10.8125, 11, 11.0625, 11.0625, 11.25, 11.4375, 11.6875, 11.9375, 12, 12, 12, 12, 12, 12, 12.0625, 12.125, 12.125, 12.1875, 12.1875, 12.1875, 12.25, 12.375, 12.5, 12.6875, 12.875, 12.9375, 13, 13, 13, 13.1875, 13.375, 13.5, 13.6875, 13.625, 13.6875, 13.8125, 13.9375, 14.125, 14.25, 14.080358, 13.794642, 13.9375, 14.116072, 14.607143, 14.8125, 15, 15, 15.0625, 15.0625, 15.0625, 15.0625, 15, -10, -10, -10, -10, -10, -10, -10, -10, -10, -10, -10, -10, -10, -10, -10, -10, -10, -10, -10, 22, 21.749998, 21.5625, 21.375, 21.1875, 21.125, 21, 20.642857, 20.375, 20.1875, 20.035713, 20.089287, 20, 19.75, 19.580357, 19.375, 19.375, 19.4375, 19.4375, 19.3125, 19.125, 19, 18.875, 18.6875, 18.5, 18.1875, 17.892857, 17.8125, 17.6875, 17.75, 17.75, 17.5625, 17.4375, 17.1875, 17, 16.9375, 16.8125, 16.6875, 16.473213, 16.267857, 16.133928, 16.0625, 16.0625, 15.9375, 15.875, 15.625, 15.375, 15.1875, 15, 15, 14.9375, 14.8125, 14.5625, 14.3125, 14.0625, 13.78125, 13.71875, 13.59375, 13.65625, 13.6875, 13.5, 13.375, 13.125, 13, 12.9375, 12.75, 12.526786, 12.4375, 12.25, 12.026786, 12, 11.875, 11.9375, 12, 11.875, 11.625, 11.3125, 10.9375, 10.75, 10.6875, 10.6875, 10.6875, 10.5, 10.3125, 10.125, 10, 10, 10, 9.9375, 9.6875, 9.4375, 9.1875, 9, 9, 9, 8.9375, 8.875, 8.625, 8.375, 8.1875, 8, 8, 8, 7.9375, 7.9375, 7.9375, 7.9375, 8, 8.0625, 8.125, 8.125, 8.125, 8.0625, 8, 8, 8, 7.9375, 7.875, 7.875, 7.875, 7.9375, 8, 8, 8, 8, 8, 8, 8, 8, 8, 8, 8, 8, 7.9375, 7.9375, 7.9375, 7.9375, 8, 8, 8, 8, 8, 8, 8, 8, 8, 8, 8, 8, 8, 8, 8.0625, 8.0625, 8.0625, 8.0625, 8, 8, 8, 8, 8, 8, 8, 8, 8, 8, 8, 8.2857141, 9.9682541, 11.04762, 11.714287, 12, 12, 12, 12, 12, 12, 12.1875, 12.40625, 12.825893, 13.28125, 13.691964, 13.875, 13.696428, 13.428572, 13.1875, 13.21875, 13.40625, 13.821428, 14.311756, 14.988096, 15.086736, 15.142858, 14.910714, 14.82653, 14.806122, 14.030612, 14.289116, 14.306122, 14.916667, 16.722221, 17.035715, 17.416666, 17.669641, 18.184525, 18.461735, 18.584185, 18.520407, 18.261906, 18.224489, 18.214285, 18.178572, 18.095238, 18.9625, 19.375, 19.46875, 19.526787, 18.5, 18.690475, 19.375, 19.375, 19.222221, -10, 19.296131, 19.172619, 19.25, 19.25, 19.53125, 19.625, 19.875, 19.910713, 19.696428, 19.6875, 19.619047, 19.581633, 19.602039, 19.6, 19.85, 19.821428, 19.916666, 20.145834, 20.397322, 20.59375, 20.78125, 21.03125, 20.973213, 20.741072, 20.6875, 20.5625, 20.75, 20.6875, 20.8125, 20.8125, 20.9375, 21.25, 21.375, 21.6875, 21.8125, 21.9375, 21.875, 21.75, 9, 9, 9, 9, 9, 9, 9, 9.125, 9.0625, 9.0625, 9.0625, 8.9375, 9, 9, 9, 9.0625, 9.1875, 9.1875, 9.1875, 9.125, 9, 9.125, 9.3125, 9.375, 9.4375, 9.5625, 9.625, 9.8125, 10, 10, 10, 10, 10, 10.0625, 10.125, 10.125, 10.25, 10.375, 10.5625, 10.741072, 10.7375, 10.928572, 10.803572, 10.8125, 10.8125, 10.8125, 11.0625, 11.125, 11.125, 11.25, 11.3125, 11.5, 11.6875, 11.8125, 11.875, 11.9375, 12, 12, 12, 12, 12, 12, 12.0625, 12.125, 12.1875, 12.25, 12.4375, 12.625, 12.8125, 13, 13, 13, 13, 13, 13.125, 13.25, 13.375, 13.5625, 13.5625, 13.6875, 13.8125, 13.9375, 14.125, 14.1875, 14.044643, 13.901786, 14.044643, 14.241072, 14.625, 14.8125, 15, 15, 15
18.1875, 18, 17.9375, 17.875, 17.875, 17.875, 17.6875, 17.5, 17.25, 17, 16.9375, 16.8125, 16.6875, 16.473213, 16.330357, 16.196428, 16.125, 16.125, 15.9375, 15.875, 15.6875, 15.4375, 15.25, 15.0625, 15, 15, 14.875, 14.625, 14.375, 14.0625, 13.8125, 13.75, 13.5625, 13.5625, 13.5625, 13.375, 13.3125, 13.125, 13, 13, 12.9375, 12.8125, 12.6875, 12.4375, 12.1875, 12.0625, 11.9375, 11.9375, 12, 11.9375, 11.6875, 11.375, 11, 10.75, 10.6875, 10.6875, 10.625, 10.4375, 10.25, 10.0625, 10, 10, 10, 9.9375, 9.75, 9.5, 9.25, 9.0625, 9, 9, 8.875, 8.75, 8.5, 8.25, 8.125, 8, 8, 8, 7.9375, 7.9375, 7.875, 7.8125, 7.8125, 7.8125, 7.875, 7.9375, 8, 8, 8, 8, 8, 7.875, 7.75, 7.75, 7.75, 7.875, 8, 8, 8, 8, 8, 8, 8, 8, 8, 8, 8, 8, 7.875, 7.8125, 7.8125, 7.8125, 7.9375, 8, 8, 8, 8, 8, 8, 7.9375, 7.875, 7.875, 7.875, 7.9375, 8, 8, 8.0625, 8.0625, 8.0625, 8.0625, 8, 8, 8, 7.96875, 7.90625, 7.90625, 7.90625, 7.875, 7.90625, 7.875, 7.875, 8.3214283, 10.153062, 11.023809, 11.669643, 11.875, 11.9375, 12, 12, 12, 12.107143, 12.645833, 12.910714, 13.325893, 13.65625, 14.044642, 14.4375, 14.1875, 13.699405, 13.458333, 13.635417, 13.90625, 14.446428, 14.999256, 15.707483, 15.638393, 15.948979, 15.755209, 16.030611, 16.153061, 16.315477, 17.001984, 17.214285, 17.583334, 17.797619, 17.959185, 18.142857, 18.270407, 18.645834, 18.857143, 18.964287, 18.9375, 18.9375, 19.0625, 19.125, 19.0625, 18.892857, 18.90625, 18.96875, 19.125, 19.261162, 19.395834, 19.472221, -10, -10, -10, -10, 19.233631, 19.172619, 19.28125, 19.40625, 19.78125, 19.8125, 19.9375, 19.9375, 19.875, 20.0625, 20.125, 20.1875, 20.1875, 20.0625, 19.892857, 19.8125, 19.8125, 19.875, 20.09375, 20.28125, 20.53125, 20.84375, 20.9375, 20.839287, 20.75, 20.6875, 20.75, 20.75, 20.875, 20.875, 21, 21.3125, 21.5625, 21.910713, 22, 22.083334, 21.833334, 21.666666, 9, 9, 9, 9, 9, 9, 9, 9.1875, 9.1875, 9.1875, 9.1875, 9, 9, 9, 9, 9.0625, 9.125, 9.125, 9.125, 9.0625, 9, 9.125, 9.3125, 9.4375, 9.5625, 9.6875, 9.75, 9.875, 10, 10, 10, 10, 10, 10.125, 10.25, 10.3125, 10.5, 10.5625, 10.6875, 10.803572, 10.7375, 10.928572, 10.866072, 10.875, 10.875, 10.875, 11, 11.0625, 11.125, 11.25, 11.375, 11.5, 11.625, 11.75, 11.8125, 11.9375, 12, 12, 12, 12, 12, 12, 12.0625, 12.1875, 12.3125, 12.4375, 12.625, 12.75, 12.875, 13, 13, 13, 13, 13, 13.0625, 13.125, 13.3125, 13.5625, 13.6875, 13.875, 14, 14, 14.125, 14.1875, 14.044643, 13.9375, 13.9375, 14.125, 14.5, 14.75, 15, 15, 15, 15, 15, 15, 15, -10, -10, -10, -10, -10, -10, -10, -10, -10, -10, -10, -10, -10, -10, -10, -10, -10, -10, -10, 21.875, 21.583332, 21.4375, 21.1875, 21, 21, 20.9375, 20.75, 20.5, 20.3125, 20.035713, 19.901787, 19.8125, 19.5, 19.5, 19.375, 19.375, 19.5, 19.4375, 19.25, 19.0625, 18.9375, 18.875, 18.6875, 18.5, 18.25, 18, 18, 18, 17.9375, 17.875, 17.625, 17.375, 17.1875, 17, 17, 16.875, 16.75, 16.535713, 16.330357, 16.196428, 16.125, 16.125, 15.9375, 15.875, 15.75, 15.5, 15.3125, 15.125, 15, 15, 14.9375, 14.6875, 14.4375, 14.1875, 13.875, 13.8125, 13.625, 13.5, 13.4375, 13.25, 13.1875, 13.0625, 13, 13, 13, 12.9375, 12.8125, 12.5625, 12.25, 12.0625, 11.875, 11.875, 11.875, 11.8125, 11.625, 11.375, 11.125, 10.9375, 10.9375, 10.875, 10.75, 10.5, 10.25, 10.0625, 10, 10, 10, 9.9375, 9.8125, 9.5625, 9.3125, 9.125, 9, 9, 8.875, 8.6875, 8.4375, 8.1875, 8.0625, 8, 8, 8, 7.9375, 7.875, 7.75, 7.625, 7.5625, 7.625, 7.75, 7.875, 8, 8, 8, 7.9375, 7.875, 7.6875, 7.5, 7.5625, 7.625, 7.8125, 8, 8, 8, 8, 8, 8, 8, 8, 8, 8, 7.9375, 7.875, 7.75, 7.6875, 7.6875, 7.6875, 7.75, 7.75, 7.8125, 7.875, 7.9375, 7.9375, 7.875, 7.75, 7.6875, 7.75, 7.8125, 7.9375, 8, 8, 8, 8, 7.9375, 7.9375, 7.9375, 7.875, 7.9375, 7.90625, 7.84375, 7.90625, 7.90625, 7.8125, 7.78125, 7.6875, 7.7678571, 8.7380953, 10.419643, 11.107143, 11.625, 11.75, 11.875, 12.107143, 12.333333, 12.489797, 12.693878, 13.47619, 13.669642, 13.888393, 14.183036, 14.651786, 14.991072, 14.75, 14.013605, 13.809524, 14.354167, 14.75, 15.21875, 15.636161, 16.319942, 16.441965, 16.642857, 16.889881, 17.010204, 17.142857, 17.306124, 17.965986, 18.219387, 18.571428, 18.604166, 18.745537, 18.78125, 18.71875, 18.75, 18.8125, 18.875, 19, 19.0625, 19.125, 19.205357, 19.200001, 18.830357, 18.709822, 18.65625, 18.75, 18.984375, 19.208334, -10, -10, -10, -10, -10, 19.28125, 19.333334, 19.46875, 19.71875, 20.03125, 20, 20.0625, 20, 19.875, 20.0625, 20.1875, 20.3125, 20.375, 20.3125, 20.142857, 20, 19.9375, 19.8125, 19.84375, 20.03125, 20.28125, 20.700893, 20.875, 20.875, 20.8125, 20.8125, 20.8125, 20.875, 20.9375, 20.9375, 21.0625, 21.3125, 21.625, 21.973213, 22, 22.0625, 8.5, 8.5, 8.8125, 8.875, 8.9375, 9, 9, 9, 9, 9.125, 9.125, 9.125, 9.125, 9, 9, 9, 9, 9, 9, 9, 9, 9, 9, 9.1875, 9.375, 9.5625, 9.75, 9.8125, 9.875, 9.9375, 10, 10, 10, 10, 10, 10.125, 10.3125, 10.4375, 10.6875, 10.8125, 10.875, 10.991072, 10.8625, 10.991072, 10.991072, 11, 11, 11, 11.0625, 11.0625, 11.125, 11.1875, 11.3125, 11.4375, 11.5625, 11.75, 11.8125, 11.9375, 12, 12, 12, 12, 12, 12.0625, 12.1875, 12.3125, 12.5, 12.625, 12.75, 12.875, 12.9375, 13, 13, 13.0625, 13.0625, 13.0625, 13.125, 13.0625, 13.25, 13.5, 13.75, 14, 14.125, 14.125, 14.0625, 14.0625, 13.9375, 13.9375, 14, 14.25, 14.5625, 14.8125, 15, 15, 15
17.9375, 17.8125, 17.875, 17.9375, 17.9375, 17.8125, 17.5625, 17.3125, 17.125, 17, 17, 16.875, 16.625, 16.375, 16.25, 16.125, 16.125, 16.125, 16, 16, 15.9375, 15.75, 15.5, 15.25, 15.0625, 15, 14.9375, 14.75, 14.5, 14.25, 14, 13.875, 13.75, 13.5625, 13.375, 13.1875, 13, 12.9375, 12.9375, 12.9375, 13, 12.9375, 12.8125, 12.5625, 12.3125, 12.125, 11.9375, 11.9375, 11.8125, 11.6875, 11.5, 11.25, 11.125, 11, 11, 10.9375, 10.75, 10.5625, 10.3125, 10.125, 10.0625, 10, 10, 10, 9.9375, 9.6875, 9.4375, 9.1875, 9, 9, 8.875, 8.625, 8.375, 8.125, 8, 8, 8, 8, 7.9375, 7.8125, 7.625, 7.4375, 7.3125, 7.4375, 7.625, 7.8125, 7.9375, 7.875, 7.8125, 7.6875, 7.625, 7.4375, 7.25, 7.3125, 7.375, 7.5625, 7.75, 7.75, 7.8125, 7.875, 7.9375, 8, 7.9375, 7.875, 7.8125, 7.75, 7.6875, 7.625, 7.5, 7.5, 7.5, 7.5, 7.5625, 7.5, 7.5625, 7.625, 7.75, 7.75, 7.6875, 7.5625, 7.4375, 7.5, 7.625, 7.8125, 7.9375, 8, 8, 7.9375, 7.8125, 7.75, 7.6875, 7.625, 7.6875, 7.65625, 7.59375, 7.65625, 7.65625, 7.5625, 7.53125, 7.5833335, 7.7178574, 9.1452379, 10.36012, 11, 11.446428, 11.791667, 11.9375, 12.357143, 13.577778, 14.448413, 14.849208, 14.62755, 14.678572, 14.513393, 14.683036, 15.116072, 15.428572, 15.25, 15.34127, 15.347222, 15.494048, 15.803572, 15.861607, 16.214287, 16.851192, 17.035715, 17.267857, 17.395834, 17.491072, 17.5625, 17.901787, 18.541666, 18.785713, 19.0625, 18.875, 18.71875, 18.625, 18.5, 18.5, 18.625, 18.75, 18.96875, 19.15625, 19.28125, 19.486607, 19.485714, 18.973213, 18.78125, 18.65625, 18.75, 18.984375, 19.145834, -10, -10, -10, -10, 18.75, 19.09375, 19.3125, 19.578125, 19.859375, 20.15625, 20.125, 20.125, 20.0625, 19.9375, 19.9375, 20.089287, 20.357143, 20.491072, 20.5625, 20.330357, 20.0625, 19.830357, 19.625, 19.5625, 19.78125, 20.125, 20.647322, 20.9375, 21.03125, 21, 21, 20.9375, 21.0625, 21.125, 21.125, 21.25, 21.3125, 21.5625, 21.910713, 21.90625, 22.020834, 8.5, 8.5, 8.75, 8.875, 8.9375, 9, 9, 9, 9, 9.0625, 9.0625, 9.0625, 9.0625, 9, 9, 8.9375, 8.875, 8.8125, 8.8125, 8.875, 8.9375, 9.0625, 9.0625, 9.3125, 9.5625, 9.75, 10, 10, 10, 10, 10, 10, 10, 10, 10, 10.125, 10.3125, 10.5, 10.75, 10.875, 10.9375, 11.0625, 11.0625, 11.0625, 11.0625, 11, 11, 11, 11.0625, 11.0625, 11.125, 11.1875, 11.3125, 11.4375, 11.5625, 11.75, 11.8125, 11.9375, 12, 12, 12, 12, 12, 12.125, 12.3125, 12.4375, 12.6875, 12.8125, 12.875, 13, 12.9375, 12.9375, 12.9375, 13, 13.0625, 13, 13, 12.9375, 13.1875, 13.5, 13.8125, 14.0625, 14.125, 14.125, 14.0625, 14.0625, 14, 14, 14.0625, 14.3125, 14.5625, 14.8125, 15, 15, 15, 15, 15, 15, 15, -10, -10, -10, -10, -10, -10, -10, -10, -10, -10, -10, -10, -10, -10, -10, -10, -10, -10, -10, 21.625, 21.416666, 21.3125, 21.0625, 21, 21, 20.9375, 20.875, 20.625, 20.375, 20.125, 19.9375, 19.9375, 19.75, 19.625, 19.375, 19.125, 19.0625, 19, 18.9375, 18.875, 18.875, 18.857143, 18.517857, 18.029762, 17.732143, 17.625, 17.75, 17.875, 17.9375, 17.8125, 17.5625, 17.3125, 17.125, 17, 17, 16.875, 16.6875, 16.4375, 16.25, 16.1875, 16.125, 16.125, 16.0625, 16, 16, 15.875, 15.6875, 15.4375, 15.1875, 15.0625, 14.9375, 14.8125, 14.5625, 14.3125, 14.125, 13.9375, 13.875, 13.6875, 13.5, 13.3125, 13, 12.830357, 12.8125, 12.8125, 12.9375, 12.875, 12.6875, 12.4375, 12.1875, 12.0625, 11.9375, 11.9375, 11.8125, 11.616072, 11.3125, 11.125, 11, 11, 11, 11, 10.875, 10.6875, 10.4375, 10.1875, 10, 9.9375, 9.9375, 9.9375, 9.9375, 9.6875, 9.4375, 9.1875, 9, 9, 8.9375, 8.6875, 8.4375, 8.1875, 8, 8, 8, 8, 7.9375, 7.8125, 7.5625, 7.3125, 7.1875, 7.25, 7.4375, 7.625, 7.6875, 7.625, 7.5625, 7.4375, 7.375, 7.25, 7.125, 7.1875, 7.25, 7.375, 7.5, 7.5625, 7.6875, 7.75, 7.8125, 7.8125, 7.6875, 7.625, 7.5625, 7.5, 7.4375, 7.375, 7.3125, 7.3125, 7.3125, 7.3125, 7.3125, 7.25, 7.3125, 7.375, 7.5, 7.5, 7.4375, 7.3125, 7.1875, 7.25, 7.375, 7.5625, 7.6875, 7.75, 7.75, 7.6875, 7.5625, 7.5, 7.4375, 7.375, 7.4375, 7.40625, 7.34375, 7.46875, 7.53125, 7.5, 7.53125, -10, 7.7678576, 9.7537413, 10.372025, 11.017857, 11.446428, 11.885417, 12.0625, 12.607143, 14.066667, 14.935374, 15.406464, 15.174107, 15.15625, 15.125, 15.245536, 15.553572, 15.866072, 15.928572, 16.047619, 16.119047, 16.416666, 16.607143, 16.53125, 16.803572, 17.142857, 17.366072, 17.705357, 17.958334, 18.053572, 18.125, 18.3125, 18.4375, 18.5625, 18.8125, 18.75, 18.75, 18.6875, 18.4375, 18.276787, 18.375, 18.607143, 18.90625, 19.21875, 19.40625, 19.642857, 19.673214, 19.160713, 18.90625, 18.75, 18.78125, 18.859375, 18.9375, -10, -10, -10, -10, 18.75, 19.020834, 19.28125, 19.59375, 19.90625, 20.1875, 20.1875, 20.1875, 20.125, 20, 19.9375, 20.089287, 20.357143, 20.491072, 20.625, 20.366072, 19.955357, 19.6875, 19.46875, 19.4375, 19.71875, 20.15625, 20.678572, 20.901787, 21.09375, 21.0625, 21.1875, 21.1875, 21.25, 21.25, 21.1875, 21.25, 21.3125, 21.5625, 21.848213, 21.84375, 21.958334, -10, -10, -10, 8.875, 8.9375, 9, 9, 9, 9, 9, 9, 9, 9, 9, 8.9375, 8.8125, 8.6875, 8.5625, 8.625, 8.75, 8.875, 9.0625, 9.0625, 9.25, 9.4375, 9.625, 9.875, 9.9375, 10, 10, 10, 10, 10, 10, 10, 10.125, 10.25, 10.4375, 10.6875, 10.75, 10.875, 10.9375, 10.9375, 11, 11, 11, 11, 11, 11.0625, 11.125, 11.1875, 11.3125, 11.5, 11.625, 11.8125, 11.9375, 11.9375, 12, 12, 12, 12, 12, 12, 12.125, 12.3125, 12.375, 12.625, 12.75, 12.8125, 13, 12.9375, 12.9375, 12.9375, 13, 13.0625, 13, 13, 12.9375, 13.1875, 13.5, 13.8125, 14.0625, 14.125, 14.125, 14.0625, 14.0625, 14, 14, 14.0625, 14.3125, 14.5625, 14.75, 14.875, 14.875, 14.875
17.607143, 17.5625, 17.625, 17.8125, 17.875, 17.75, 17.5625, 17.3125, 17.125, 17, 17, 16.9375, 16.8125, 16.5625, 16.3125, 16.1875, 16.0625, 16.0625, 15.991072, 15.666667, 15.642857, 15.5625, 15.5, 15.375, 15.1875, 15.0625, 15, 14.875, 14.625, 14.375, 14.125, 14, 14, 13.875, 13.75, 13.5, 13.125, 12.892857, 12.8125, 12.8125, 12.9375, 12.8125, 12.5625, 12.3125, 12.0625, 12, 11.9375, 11.9375, 11.8125, 11.544643, 11.125, 11, 10.875, 11, 11, 11, 10.875, 10.6875, 10.4375, 10.1875, 9.9375, 9.8125, 9.8125, 9.75, 9.75, 9.5625, 9.3125, 9.125, 9, 9, 8.9375, 8.6875, 8.4375, 8.1875, 8, 8, 8, 8, 7.9375, 7.75, 7.5, 7.25, 7.125, 7.1875, 7.3125, 7.4375, 7.4375, 7.375, 7.3125, 7.1875, 7.125, 7.0625, 7, 7.0625, 7.125, 7.1875, 7.25, 7.3125, 7.4375, 7.5, 7.5625, 7.5625, 7.4375, 7.375, 7.3125, 7.25, 7.1875, 7.125, 7.125, 7.1875, 7.1875, 7.1875, 7.125, 7, 7.0625, 7.125, 7.25, 7.25, 7.1875, 7.125, 7.0625, 7.125, 7.25, 7.375, 7.4375, 7.5, 7.5, 7.4375, 7.3125, 7.25, 7.1875, 7.125, 7.1875, 7.1875, 7.1875, 7.4166665, 7.5416665, 7.625, 7.625, -10, 8.9489803, 10.780952, 11.19898, 11.678572, 11.938775, 12.510417, 12.5, 13, 14.391666, 15.247025, 15.739584, 15.653274, 15.727678, 15.71875, 15.964286, 16.294643, 16.428572, 16.625, 16.75, 16.8125, 17.03125, 17.15625, 17.09375, 17.330357, 17.714287, 17.982143, 18.3125, 18.375, 18.3125, 18.25, 18.3125, 18.3125, 18.375, 18.5625, 18.5625, 18.625, 18.625, 18.3125, 18.116072, 18.294643, 18.535715, 18.90625, 19.21875, 19.28125, 19.517857, 19.610714, 19.205357, 19.0625, 18.90625, 18.875, 18.8125, 18.791666, -10, -10, -10, -10, 18.75, 18.916668, 19.125, 19.5, 19.75, 20, 20, 19.9375, 19.9375, 19.875, 19.875, 20.026787, 20.232143, 20.366072, 20.625, 20.598213, 20.330357, 20.125, 19.90625, 19.75, 19.96875, 20.40625, 20.839287, 20.964287, 21.09375, 21, 21.1875, 21.25, 21.3125, 21.3125, 21.1875, 21.25, 21.25, 21.4375, 21.6875, 21.71875, 21.875, -10, -10, -10, 8.875, 8.9375, 9, 9, 9, 9, 9, 9, 9, 9, 9, 8.875, 8.6875, 8.5, 8.375, 8.5, 8.6875, 8.875, 9.0625, 9.0625, 9.1875, 9.3125, 9.4375, 9.6875, 9.8125, 9.9375, 10.0625, 10.0625, 10.0625, 10.0625, 10, 10, 10.125, 10.1875, 10.3125, 10.5, 10.5625, 10.75, 10.875, 10.9375, 10.9375, 10.9375, 10.9375, 10.9375, 11, 11.0625, 11.125, 11.125, 11.25, 11.4375, 11.625, 11.875, 12, 12, 12, 12, 12, 12, 12, 12, 12.125, 12.25, 12.25, 12.5, 12.625, 12.75, 13, 12.9375, 12.9375, 12.9375, 13, 13.0625, 13.0625, 13.125, 13.125, 13.375, 13.625, 13.875, 14.0625, 14.0625, 14.0625, 14, 14, 14, 14, 14.0625, 14.3125, 14.5625, 14.6875, 14.8125, 14.8125, 14.8125, 15, 15.125, 15.125, 15.166667, -10, -10, -10, -10, -10, -10, -10, -10, -10, -10, -10, -10, -10, -10, -10, -10, -10, -10, -10, 21.5, 21.333334, 21.25, 21, 21, 21, 20.9375, 20.9375, 20.6875, 20.4375, 20.25, 20, 19.9375, 19.875, 19.75, 19.5, 19.3125, 19.1875, 19.0625, 18.9375, 18.705357, 18.5625, 18.419643, 18.142857, 17.717262, 17.607143, 17.625, 17.6875, 17.8125, 17.875, 17.8125, 17.625, 17.4375, 17.1875, 17, 17, 17, 16.9375, 16.6875, 16.4375, 16.25, 16.0625, 16.0625, 15.928572, 15.479167, 15.434525, 15.525, 15.375, 15.383928, 15.1875, 15.0625, 15, 14.875, 14.625, 14.375, 14.125, 14, 14, 13.875, 13.8125, 13.5625, 13.1875, 12.955357, 12.8125, 12.75, 12.8125, 12.6875, 12.4375, 12.25, 12.0625, 12, 12, 12, 11.9375, 11.669643, 11.1875, 11.0625, 10.875, 11, 11, 11, 10.875, 10.6875, 10.4375, 10.1875, 9.9375, 9.75, 9.6875, 9.5625, 9.5, 9.375, 9.1875, 9.0625, 9, 9, 8.875, 8.625, 8.375, 8.125, 8, 8, 8, 8, 7.9375, 7.75, 7.5, 7.25, 7.125, 7.125, 7.1875, 7.25, 7.1875, 7.125, 7.0625, 7, 7, 7, 7, 7, 7, 7, 7.0625, 7.125, 7.25, 7.3125, 7.3125, 7.3125, 7.1875, 7.125, 7.0625, 7, 7, 7, 7, 7.0625, 7.0625, 7.0625, 7.0625, 7, 7, 7, 7.0625, 7.0625, 7.0625, 7.0625, 7, 7, 7.0625, 7.125, 7.1875, 7.25, 7.25, 7.1875, 7.125, 7.0625, 7, 7.0625, 7.0833335, 7, 7.125, -10, 7.458333, 7.6875, 7.6666665, -10, 13.25, 13.844444, 13.940476, 13.904762, 13.603175, 13.206845, 13.125, 13.517857, 14.495833, 15.139881, 15.552084, 15.697917, 16.013393, 16.21875, 16.5, 16.6875, 16.75, 16.875, 17.0625, 17.125, 17.375, 17.5, 17.375, 17.589287, 17.794643, 18.053572, 18.4375, 18.5, 18.4375, 18.25, 18.1875, 18.125, 18.125, 18.3125, 18.3125, 18.375, 18.4375, 18.1875, 17.991072, 18.169643, 18.446428, 19.03125, 19.334822, 19.361607, 19.4375, 19.410713, 19.205357, 19.133928, 19.03125, 19, 18.875, 18.791666, 18.625, 18.625, -10, -10, 18.84375, 18.927084, 19.035713, 19.276787, 19.5625, 19.794643, 19.8125, 19.839287, 19.982143, 19.982143, 20, 20.026787, 20.169643, 20.241072, 20.4375, 20.410713, 20.205357, 20.125, 20.03125, 20, 20.21875, 20.59375, 20.919643, 21.026787, 21.09375, 20.9375, 21.125, 21.1875, 21.25, 21.3125, 21.1875, 21.3125, 21.3125, 21.4375, 21.6875, 21.71875, 21.895834, -10, -10, -10, 9, 9, 9, 9, 9, 9, 9, 9, 9, 9, 9, 8.875, 8.625, 8.4375, 8.3125, 8.4375, 8.6875, 8.875, 9.0625, 9.0625, 9.125, 9.1875, 9.25, 9.5, 9.6875, 9.875, 10.125, 10.125, 10.125, 10.125, 10, 10, 10.125, 10.125, 10.25, 10.375, 10.375, 10.5625, 10.625, 10.75, 10.8125, 10.875, 10.9375, 10.9375, 11, 11.0625, 11.125, 11.125, 11.25, 11.4375, 11.625, 11.875, 12, 12, 12, 12, 12, 12, 12, 12, 12, 12.089286, 12.232143, 12.419643, 12.625, 12.75, 12.9375, 12.9375, 12.9375, 12.9375, 12.9375, 13, 13.0625, 13.1875, 13.3125, 13.5625, 13.75, 13.875, 14, 14, 14, 14, 14, 14, 14.0625, 14.125, 14.375, 14.5625, 14.5625, 14.6875, 14.6875, 14.75
17.857143, 17.8125, 17.8125, 17.875, 17.8125, 17.75, 17.5625, 17.375, 17.1875, 17, 17, 16.9375, 16.875, 16.625, 16.375, 16.25, 16.0625, 16.0625, 15.928572, 15.479167, 15.434525, 15.4625, 15.3125, 15.321428, 15.125, 15.0625, 15, 14.8125, 14.5625, 14.3125, 14.0625, 14, 14, 13.9375, 13.875, 13.625, 13.3125, 13.017857, 12.875, 12.75, 12.75, 12.625, 12.375, 12.25, 12.0625, 12, 12, 12, 12, 11.732143, 11.25, 11.125, 10.875, 11, 10.9375, 10.875, 10.6875, 10.4375, 10.25, 10.0625, 9.875, 9.75, 9.625, 9.4375, 9.3125, 9.1875, 9.0625, 9, 9, 9, 8.875, 8.625, 8.375, 8.125, 8, 8, 8, 8, 8, 7.875, 7.625, 7.375, 7.1875, 7.0625, 7.0625, 7.0625, 7, 7, 7, 7, 7, 7, 7, 7, 7, 7, 7.0625, 7.125, 7.1875, 7.1875, 7.125, 7.0625, 7, 7, 7, 7, 7, 7, 7, 7, 7, 7, 7, 7, 7, 7, 7, 7, 7, 7, 7, 7, 7, 7, 7, 7, 7, 7, 7, 7, 7, 7.0833335, 7.1111112, -10, 7.125, -10, 7.6111107, 7.9166665, 16.25, 16.166668, 15.916667, 14.909523, 14.816327, 14.510203, 14.190476, 13.84375, 14.104166, 14.375, 14.958333, 15.053572, 15.34375, 15.71875, 16.227678, 16.53125, 16.75, 16.875, 16.9375, 17.125, 17.375, 17.4375, 17.6875, 17.75, 17.625, 17.776787, 17.919643, 18.116072, 18.5, 18.5625, 18.5, 18.25, 18.0625, 17.875, 17.8125, 18.017857, 18.208334, 18.366072, 18.375, 18.125, 17.928572, 17.982143, 18.196428, 18.705357, 19.074406, 19.133928, 19.15625, 19.125, 19.0625, 19.0625, 19.03125, 19, 18.875, 18.791666, 18.833334, 18.875, 19.4375, 19.4375, 19.03125, 19.104168, 19.160713, 19.339287, 19.625, 19.794643, 19.8125, 19.901787, 20.107143, 20.169643, 20.3125, 20.25, 20.25, 20.1875, 20.25, 20.285713, 20.142857, 20.294643, 20.28125, 20.28125, 20.40625, 20.633928, 20.973213, 21.026787, 21.125, 20.9375, 21.125, 21.1875, 21.1875, 21.1875, 21.125, 21.25, 21.375, 21.5625, 21.75, 21.8125, 21.9375, 22, 8.5, 8.666666, 8.875, 8.9375, 9, 9, 9, 9, 9, 9, 9, 9, 9, 8.875, 8.6875, 8.5625, 8.5, 8.625, 8.8125, 8.9375, 9, 9, 9.0625, 9.0625, 9.125, 9.3125, 9.5, 9.75, 10.0625, 10.125, 10.125, 10.125, 10, 10, 10.125, 10.125, 10.1875, 10.25, 10.1875, 10.3125, 10.375, 10.5625, 10.6875, 10.8125, 10.9375, 10.9375, 11, 11.0625, 11.125, 11.125, 11.3125, 11.5, 11.6875, 11.9375, 12, 12, 12, 12, 12, 12, 12, 12, 11.9375, 12.026786, 12.232143, 12.357143, 12.651786, 12.919643, 13.044643, 13.125, 13.0625, 13, 13, 13, 13.125, 13.25, 13.4375, 13.6875, 13.8125, 13.9375, 14, 14, 14, 14, 14, 14, 14.0625, 14.1875, 14.4375, 14.625, 14.625, 14.6875, 14.6875, 14.75, 15, 15.125, 15.125, 15.166667, -10, -10, -10, -10, -10, -10, -10, -10, -10, -10, -10, -10, -10, -10, -10, -10, -10, -10, -10, 21.625, 21.416668, 21.3125, 21.0625, 21, 21, 20.9375, 20.8125, 20.5625, 20.375, 20.1875, 20.0625, 20, 19.9375, 19.9375, 19.75, 19.5625, 19.375, 19.125, 18.9375, 18.767857, 18.625, 18.4375, 18.375, 18.1875, 18.125, 18, 17.8125, 17.8125, 17.625, 17.5625, 17.4375, 17.25, 17.125, 17, 16.9375, 16.8125, 16.6875, 16.4375, 16.25, 16.125, 16, 16, 15.866072, 15.416667, 15.309525, 15.275, 15.0625, 15.071428, 14.9375, 14.9375, 14.9375, 14.75, 14.5625, 14.375, 14.125, 14.125, 14.0625, 13.9375, 13.8125, 13.5625, 13.3125, 13.125, 13, 12.875, 12.75, 12.5625, 12.3125, 12.1875, 12.0625, 12, 12, 12, 12, 11.741072, 11.375, 11.1875, 10.9375, 11, 10.875, 10.8125, 10.5625, 10.3125, 10.1875, 10, 9.9375, 9.8125, 9.6875, 9.5, 9.3125, 9.1875, 9.0625, 9, 9, 9, 8.875, 8.625, 8.375, 8.125, 8, 8, 8, 8, 8, 7.875, 7.625, 7.375, 7.125, 7, 7, 7, 7, 6.9375, 6.875, 6.875, 6.875, 6.9375, 7, 7, 7, 7, 7.0625, 7.0625, 7.0625, 7.0625, 7, 7, 7, 7, 7, 7, 7, 7, 7, 7, 7, 7, 7, 7, 7, 7, 7, 7, 7, 7, 7, 7, 7, 7, 7, 7, 7, 7, 7, 7, 7, -10, -10, -10, 7.1666665, -10, 16, 16, 16.166666, 16.027779, 15.8125, 15.583333, 15.375, 15.008928, 14.666667, 14.4375, 14.761904, 14.918367, 14.958333, 15.008928, 15.321428, 15.895834, 16.5, 16.8125, 16.9375, 17, 17, 17.1875, 17.5, 17.625, 17.875, 17.875, 17.6875, 17.776787, 17.919643, 18.116072, 18.5, 18.5, 18.4375, 18.1875, 17.9375, 17.875, 17.875, 18.080357, 18.333334, 18.428572, 18.375, 18.1875, 18.026787, 17.919643, 18.026785, 18.517857, 18.869047, 18.946428, 19.0625, 19.0625, 19.125, 19.1875, 19.125, 19.0625, 18.9375, 18.875, 18.875, 18.921875, 19.375, 19.375, 19.21875, 19.317709, 19.316963, 19.464287, 19.6875, 19.794643, 19.8125, 19.901787, 20.107143, 20.232143, 20.4375, 20.4375, 20.5, 20.375, 20.375, 20.4375, 20.4375, 20.6875, 20.6875, 20.625, 20.625, 20.758928, 21.035713, 21.125, 21.1875, 21, 21.0625, 21.0625, 21.0625, 21.0625, 21.125, 21.3125, 21.4375, 21.625, 21.75, 21.8125, 21.9375, 22, 8.666667, 8.7777777, 8.875, 8.9375, 9, 8.9375, 8.9375, 8.9375, 8.9375, 9, 9, 9, 9, 8.9375, 8.8125, 8.75, 8.75, 8.8125, 8.9375, 9, 9, 9, 9.125, 9.125, 9.125, 9.3125, 9.4375, 9.6875, 10.0625, 10.125, 10.125, 10.125, 10, 10, 10.125, 10.125, 10.1875, 10.1875, 10.125, 10.1875, 10.1875, 10.4375, 10.5625, 10.75, 10.9375, 10.9375, 11, 11, 11, 11, 11.125, 11.375, 11.625, 11.875, 12, 11.9375, 11.875, 11.875, 11.875, 11.9375, 12, 12, 11.9375, 12.089286, 12.357143, 12.544643, 12.839286, 13.044643, 13.107143, 13.125, 13.0625, 13, 13, 13, 13.125, 13.25, 13.4375, 13.6875, 13.8125, 13.9375, 14, 14, 14, 14, 14, 14, 14.0625, 14.1875, 14.375, 14.5625, 14.625, 14.75, 14.8125, 14.875
18.25, 18.0625, 17.875, 17.8125, 17.625, 17.5, 17.375, 17.1875, 17.0625, 16.9375, 16.8125, 16.625, 16.4375, 16.25, 16.125, 16.0625, 16, 16, 15.9375, 15.6875, 15.541667, 15.4625, 15.125, 15.008928, 14.875, 14.8125, 14.75, 14.6875, 14.5625, 14.5, 14.3125, 14.25, 14.125, 13.9375, 13.75, 13.5, 13.25, 13.0625, 13, 12.875, 12.75, 12.5625, 12.3125, 12.1875, 12.0625, 12, 12, 12, 12, 11.75, 11.5, 11.25, 11, 11, 10.8125, 10.6875, 10.4375, 10.1875, 10.125, 10, 10, 9.9375, 9.75, 9.5625, 9.3125, 9.125, 9.0625, 9, 9, 9, 8.9375, 8.6875, 8.4375, 8.1875, 8, 8, 8, 8, 7.9375, 7.8125, 7.5625, 7.3125, 7.125, 7, 7, 7, 7, 6.9375, 6.8125, 6.8125, 6.8125, 6.875, 7, 7, 7, 7, 7.0625, 7.0625, 7.0625, 7.0625, 7, 7, 7, 7, 7, 7, 7, 7, 7, 7, 7, 7, 7, 7, 7, 7, 7, 7, 7, 7, 7, 7, 7, 7, 7, 7, 7, 7, 7, -10, -10, -10, -10, -10, 15.666666, 15.625, 15.75, 15.75, 15.8125, 15.73512, 15.794643, 15.678572, 15.5, 15.196428, 14.854167, 14.6875, 14.979166, 15.107143, 15.125, 15.142857, 15.446428, 16.065477, 16.580357, 16.875, 16.9375, 16.9375, 16.9375, 17.125, 17.4375, 17.625, 17.875, 17.875, 17.6875, 17.75, 17.75, 17.875, 18.1875, 18.125, 18.125, 17.875, 17.6875, 17.75, 17.6875, 17.973213, 18.369049, 18.428572, 18.4375, 18.25, 18.0625, 17.8125, 17.848213, 18.330357, 18.744047, 18.946428, 19.1875, 19.25, 19.375, 19.375, 19.25, 19.125, 19, 19, 19.0625, 19.171875, 19.34375, 19.34375, 19.34375, 19.421875, 19.410713, 19.526787, 19.75, 19.857143, 19.875, 20.026787, 20.232143, 20.357143, 20.5, 20.4375, 20.5625, 20.5, 20.4375, 20.5, 20.375, 20.5, 20.5, 20.5, 20.5625, 20.696428, 21, 21.0625, 21.125, 21, 21, 21, 21, 21.0625, 21.25, 21.5, 21.625, 21.75, 21.8125, 21.8125, 21.9375, 22, 8.666667, 9.083333, 9.041667, 9.0625, 9.0625, 8.9375, 8.9375, 8.9375, 8.9375, 9, 9, 9, 9, 9, 8.9375, 8.9375, 8.9375, 8.9375, 9, 9, 9, 9, 9.125, 9.125, 9.125, 9.3125, 9.4375, 9.6875, 10, 10.0625, 10.0625, 10.0625, 10, 9.9375, 10, 10, 10.0625, 10.125, 10.0625, 10.0625, 10.0625, 10.3125, 10.5625, 10.8125, 11, 11, 11, 11, 11, 11.0625, 11.125, 11.3125, 11.5625, 11.6875, 11.875, 11.875, 11.8125, 11.875, 11.875, 12.008928, 12.25, 12.1875, 12.080357, 12.151786, 12.419643, 12.607143, 12.901786, 13.107143, 13.107143, 13.125, 13.0625, 13, 13, 13, 13.0625, 13.125, 13.25, 13.4375, 13.5625, 13.75, 13.875, 13.9375, 14, 14, 14, 14, 14, 14.0625, 14.1875, 14.375, 14.607143, 14.75, 14.875, 14.9375, 15, 15, 15, 15, -10, -10, -10, -10, -10, -10, -10, -10, -10, -10, -10, -10, -10, -10, -10, -10, -10, -10, -10, 21.375, 21.25, 21.1875, 21.0625, 20.9375, 20.9375, 20.8125, 20.6875, 20.5, 20.3125, 20.1875, 20, 19.875, 19.8125, 19.8125, 19.75, 19.625, 19.375, 19.125, 19, 19, 19, 18.9375, 18.75, 18.5, 18.25, 18, 17.8125, 17.8125, 17.625, 17.4375, 17.25, 16.9375, 16.8125, 16.6875, 16.625, 16.5, 16.375, 16.25, 16.1875, 16.125, 16.0625, 16.0625, 16, 15.875, 15.6875, 15.4375, 15.1875, 14.9375, 14.875, 14.8125, 14.6875, 14.625, 14.5625, 14.5, 14.375, 14.3125, 14.125, 14, 13.8125, 13.5625, 13.3125, 13.0625, 13, 12.9375, 12.875, 12.625, 12.375, 12.1875, 12, 12, 12, 12, 12, 11.8125, 11.5625, 11.3125, 11.0625, 11, 10.8125, 10.625, 10.375, 10.125, 10.0625, 10, 10, 10, 9.875, 9.75, 9.5, 9.25, 9.125, 9, 9, 9, 9, 8.75, 8.5, 8.25, 8, 8, 8, 8, 7.875, 7.75, 7.5, 7.25, 7.125, 7, 7, 7, 7, 6.9375, 6.8125, 6.8125, 6.8125, 6.875, 7, 7, 7, 7, 7, 7, 7, 7, 7, 7, 7, 7, 7, 7, 7, 7, 7, 7, 7, 7, 7, 7, 7, 7, 7, 7, 7, 7, 7, 7, 7, 7, 7, 7, 7, 7, -10, -10, -10, -10, -10, 15, 15.444444, 15.416667, 15.5625, 15.5625, 15.4375, 15.401786, 15.482143, 15.428572, 15.25, 15.017857, 14.9375, 14.928572, 15.229166, 15.294643, 15.25, 15.142857, 15.446428, 16.065477, 16.580357, 16.875, 16.9375, 16.875, 16.875, 17.125, 17.410713, 17.6875, 17.9375, 17.875, 17.8125, 17.8125, 17.8125, 17.8125, 18, 17.875, 17.892857, 17.982143, 17.833334, 17.729166, 17.571428, 17.785713, 18.244049, 18.366072, 18.4375, 18.3125, 18.1875, 18, 18, 18.080357, 18.502977, 18.741072, 19.0625, 19.3125, 19.4375, 19.4375, 19.3125, 19.125, 19.0625, 19.125, 19.1875, 19.171875, 19.25, 19.357143, 19.357143, 19.515625, 19.5625, 19.75, 19.9375, 20, 20, 20, 20.0625, 20.25, 20.482143, 20.5625, 20.75, 20.6875, 20.5625, 20.5625, 20.375, 20.375, 20.4375, 20.5, 20.625, 20.821428, 21.0625, 21.125, 21.1875, 21.0625, 21.0625, 21, 21.0625, 21.1875, 21.375, 21.625, 21.6875, 21.8125, 21.875, 21.875, 22, 22, 22, 8.958333, 8.958334, 9, 9.0625, 8.9375, 8.9375, 8.9375, 8.9375, 9, 9, 9, 9, 9, 8.9375, 8.9375, 8.9375, 8.9375, 9, 9, 9, 9, 9.125, 9.125, 9.1875, 9.375, 9.5, 9.75, 9.9375, 10, 10, 10, 10, 9.9375, 10, 10, 10, 10.0625, 10.0625, 10.125, 10.25, 10.5, 10.6875, 10.875, 11, 11, 11, 11, 11, 11.0625, 11.125, 11.25, 11.4375, 11.5, 11.5625, 11.5, 11.455357, 11.708333, 11.803572, 12.071428, 12.375, 12.375, 12.330357, 12.375, 12.5, 12.6875, 12.964286, 13.169643, 13.169643, 13.125, 13.0625, 13, 13, 13, 13, 13, 13.0625, 13.125, 13.1875, 13.375, 13.5, 13.6875, 13.875, 13.9375, 14, 14, 13.9375, 13.9375, 14, 14.25, 14.607143, 14.8125, 15, 15
18.25, 18, 17.8125, 17.75, 17.5625, 17.375, 17.1875, 16.875, 16.6875, 16.5, 16.375, 16.375, 16.375, 16.294643, 16.104168, 16.017857, 15.9375, 16, 16, 15.875, 15.625, 15.375, 15.125, 14.875, 14.875, 14.8125, 14.6875, 14.625, 14.5625, 14.5, 14.3125, 14.1875, 13.9375, 13.8125, 13.75, 13.5625, 13.375, 13.125, 13, 13, 12.9375, 12.6875, 12.4375, 12.1875, 12, 12, 12, 11.9375, 11.9375, 11.75, 11.5, 11.3125, 11.0625, 11, 10.875, 10.75, 10.5, 10.25, 10.125, 10, 10, 10, 9.9375, 9.875, 9.625, 9.375, 9.1875, 9, 9, 9, 9, 8.8125, 8.625, 8.375, 8.125, 8.0625, 8, 8, 7.875, 7.6875, 7.4375, 7.1875, 7.0625, 7, 7, 6.9375, 6.9375, 6.875, 6.75, 6.8125, 6.8125, 6.875, 7, 7, 6.9375, 6.9375, 6.9375, 6.9375, 7, 7, 7, 6.9375, 6.875, 6.8125, 6.75, 6.8125, 6.875, 6.9375, 7, 7, 7, 6.9375, 6.875, 6.875, 6.875, 6.875, 6.875, 6.875, 6.875, 6.9375, 7, 7, 7, 7, 7, 7, 7, -10, -10, -10, -10, -10, 15, 15, 15.364583, 15.40625, 15.40625, 15.40625, 15.1875, 15.026786, 15.107143, 15.116072, 15.125, 15.125, 15.0625, 15, 14.9375, 14.9375, 14.9375, 15, 15.383928, 16.065477, 16.580357, 16.875, 17, 16.9375, 16.9375, 17.125, 17.285713, 17.5, 17.75, 17.75, 17.6875, 17.75, 17.75, 17.75, 18, 17.875, 17.955357, 18.169643, 18.020834, 17.916666, 17.651787, 17.785713, 18.160713, 18.1875, 18.3125, 18.1875, 18.125, 18, 18.0625, 18.125, 18.419643, 18.6875, 19, 19.375, 19.5, 19.5, 19.375, 19.1875, 19.1875, 19.3125, 19.375, 19.256697, 19.125, 19.294643, 19.330357, 19.546875, 19.625, 19.75, 20, 20.0625, 20.0625, 19.9375, 19.875, 20.0625, 20.339287, 20.5625, 20.75, 20.6875, 20.5625, 20.5625, 20.4375, 20.375, 20.4375, 20.4375, 20.625, 20.875, 21, 21.1875, 21.25, 21.25, 21.25, 21.125, 21.0625, 21.151787, 21.348213, 21.5625, 21.6875, 21.75, 21.875, 21.875, 22, 21.9375, 21.888887, 9.125, 9.083334, 9.0625, 9.0625, 8.9375, 8.9375, 8.9375, 8.9375, 9, 9, 9, 9, 9, 8.875, 8.875, 8.875, 8.875, 9, 9, 9, 9, 9.0625, 9.0625, 9.1875, 9.4375, 9.625, 9.875, 10, 10, 10, 10, 9.9375, 9.875, 9.9375, 9.9375, 10, 10.125, 10.1875, 10.3125, 10.5, 10.6875, 10.8125, 10.9375, 11, 11, 11, 11, 11, 11.0625, 11.0625, 11.125, 11.1875, 11.1875, 11.25, 11.25, 11.330357, 11.645833, 11.803572, 12.071428, 12.375, 12.4375, 12.455357, 12.5, 12.625, 12.8125, 13, 13.0625, 13.0625, 13, 12.9375, 12.9375, 12.9375, 12.9375, 13, 13, 12.9375, 12.875, 12.8125, 12.9375, 13.15625, 13.46875, 13.78125, 13.96875, 14.0625, 14.0625, 14, 13.875, 13.875, 14.0625, 14.419643, 14.6875, 14.9375, 15, 15, 15, 15, 15, -10, -10, -10, -10, -10, -10, -10, -10, -10, -10, -10, -10, -10, -10, -10, -10, -10, -10, -10, 21.375, 21.25, 21.1875, 21, 20.875, 20.875, 20.8125, 20.875, 20.6875, 20.4375, 20.25, 19.9375, 19.6875, 19.5625, 19.5625, 19.5625, 19.5625, 19.4375, 19.1875, 19, 18.875, 18.75, 18.625, 18.375, 18.25, 18.125, 18, 17.9375, 17.8125, 17.625, 17.375, 17.125, 16.875, 16.6875, 16.4375, 16.3125, 16.3125, 16.25, 16.232143, 16.041668, 15.955357, 15.9375, 16, 16, 15.9375, 15.6875, 15.4375, 15.1875, 14.9375, 14.9375, 14.875, 14.75, 14.625, 14.5, 14.375, 14.1875, 14, 13.8125, 13.75, 13.6875, 13.5625, 13.4375, 13.1875, 13.0625, 13.0625, 12.9375, 12.6875, 12.4375, 12.1875, 12, 12, 12, 11.9375, 11.875, 11.6875, 11.4375, 11.25, 11.0625, 11, 10.9375, 10.8125, 10.5625, 10.3125, 10.125, 10, 10, 10, 9.9375, 9.875, 9.6875, 9.4375, 9.25, 9.125, 9.125, 9.125, 9.125, 8.9375, 8.6875, 8.4375, 8.1875, 8.0625, 8, 8, 7.875, 7.625, 7.375, 7.125, 7, 7, 7, 6.9375, 6.9375, 6.875, 6.8125, 6.875, 6.8125, 6.875, 6.9375, 6.9375, 6.875, 6.875, 6.875, 6.8125, 6.875, 6.8125, 6.75, 6.6875, 6.625, 6.5625, 6.5625, 6.6875, 6.8125, 6.875, 6.9375, 6.9375, 6.875, 6.8125, 6.6875, 6.6875, 6.6875, 6.6875, 6.6875, 6.625, 6.625, 6.6875, 6.8125, 6.875, 6.9375, 7.0625, 7.0833335, 7, -10, -10, -10, -10, 14.875, 15, 15, 15, 15.052083, 15.03125, 14.96875, 14.90625, 14.6875, 14.589286, 14.732143, 14.803572, 14.9375, 15, 15, 15, 14.9375, 14.9375, 14.9375, 15, 15.375, 15.919643, 16.508928, 16.8125, 17, 16.9375, 17, 17.125, 17.223213, 17.375, 17.5625, 17.6875, 17.75, 17.9375, 18, 17.9375, 18.0625, 17.875, 17.892857, 18.169643, 18.083334, 17.979166, 17.714287, 17.785713, 18.098213, 18.0625, 18.1875, 18.0625, 18.0625, 18.0625, 18.125, 18.125, 18.3125, 18.5625, 18.8125, 19.1875, 19.3125, 19.3125, 19.25, 19.125, 19.25, 19.4375, 19.5625, 19.419643, 19.112499, 19.339287, 19.205357, 19.4375, 19.5, 19.625, 20, 20.125, 20.0625, 19.901787, 19.875, 20.035713, 20.276787, 20.4375, 20.5, 20.5, 20.375, 20.375, 20.25, 20.1875, 20.3125, 20.3125, 20.5, 20.6875, 20.8125, 21, 21.125, 21.1875, 21.1875, 21.125, 21.0625, 21.151787, 21.285713, 21.5, 21.625, 21.6875, 21.875, 21.875, 22, 21.875, 21.833332, 9.125, 9.083334, 9.0625, 9.0625, 9, 9, 9, 9, 9, 9, 9, 9, 9, 8.875, 8.875, 8.875, 8.875, 9, 9, 9, 9.0625, 9.125, 9.1875, 9.375, 9.5625, 9.75, 9.9375, 10, 10, 10, 10, 9.875, 9.8392859, 9.9821434, 9.9821434, 10.0625, 10.1875, 10.3125, 10.5, 10.75, 10.875, 10.9375, 11, 11, 11, 11, 11, 11, 11, 11, 11, 11, 11, 11.0625, 11.1875, 11.392857, 11.770833, 11.928572, 12.133928, 12.375, 12.5, 12.580357, 12.625, 12.75, 12.8125, 12.9375, 13, 13, 13, 12.9375, 12.9375, 12.9375, 12.9375, 13, 13, 12.9375, 12.8125, 12.625, 12.6875, 12.84375, 13.21875, 13.65625, 13.90625, 14.125, 14.125, 14.0625, 14, 14, 14.125, 14.482143, 14.6875, 14.875, 15
18.0625, 18, 18, 17.875, 17.625, 17.375, 17.0625, 16.8125, 16.616072, 16.166666, 16.044643, 16.09375, 16.09375, 16.138393, 15.979167, 15.892857, 15.9375, 16, 15.9375, 15.9375, 15.6875, 15.4375, 15.25, 15, 15, 15, 14.9375, 14.75, 14.5625, 14.3125, 14.0625, 13.875, 13.75, 13.75, 13.6875, 13.5625, 13.4375, 13.125, 13, 12.9375, 12.75, 12.5625, 12.3125, 12.125, 12, 12, 12, 11.9375, 11.875, 11.75, 11.5, 11.3125, 11.125, 11, 11, 10.9375, 10.6875, 10.4375, 10.1875, 10.0625, 10.035714, 9.8928566, 9.8928566, 9.875, 9.75, 9.5625, 9.3125, 9.125, 9.0535717, 8.875, 8.875, 8.6875, 8.5625, 8.375, 8.1875, 8.0625, 8, 8, 7.9375, 7.6875, 7.4375, 7.1875, 7, 7, 7, 6.9375, 6.875, 6.75, 6.6875, 6.6875, 6.625, 6.6875, 6.75, 6.75, 6.6875, 6.6875, 6.625, 6.5625, 6.625, 6.5625, 6.5, 6.4375, 6.375, 6.3125, 6.375, 6.5, 6.625, 6.6875, 6.6875, 6.75, 6.75, 6.6875, 6.5625, 6.5, 6.4375, 6.4375, 6.4375, 6.375, 6.375, 6.5, 6.625, 6.6875, 6.7708335, 7.0833335, 7.1111112, -10, -10, -10, 14.25, 14.333334, 14.583333, 14.583333, 14.625, 14.642857, 14.71875, 14.71875, 14.71875, 14.59375, 14.5, 14.375, 14.375, 14.375, 14.5, 14.625, 14.6875, 14.6875, 14.651786, 14.794643, 14.866072, 14.9375, 15.25, 15.75, 16.428572, 16.75, 17, 17, 17.125, 17.1875, 17.285713, 17.375, 17.5, 17.6875, 17.8125, 18.0625, 18.125, 18.0625, 18.1875, 18, 18.017857, 18.357143, 18.333334, 18.229166, 18.089287, 18.142857, 18.241072, 18.0625, 18.125, 18, 18.0625, 18.0625, 18.125, 18.0625, 18.1875, 18.4375, 18.5625, 18.875, 19, 19, 19.0625, 19.0625, 19.25, 19.5, 19.6875, 19.607143, 19.299999, 19.526787, 19.330357, 19.5625, 19.625, 19.6875, 20.0625, 20.125, 20, 19.839287, 19.8125, 20.035713, 20.339287, 20.5, 20.5, 20.375, 20.1875, 20.0625, 20, 20.0625, 20.285713, 20.3125, 20.375, 20.40625, 20.46875, 20.65625, 20.90625, 21.0625, 21.125, 21.125, 21.0625, 21.089287, 21.232143, 21.5625, 21.6875, 21.8125, 21.9375, 21.9375, 22, 21.875, 21.833332, 8.625, 8.75, 8.875, 9.0357141, 9.0625, 9.0625, 9, 9, 9, 9, 9, 9, 9, 8.875, 8.875, 8.875, 8.875, 9, 9, 9, 9.125, 9.1875, 9.25, 9.5, 9.625, 9.75, 9.9375, 9.9375, 9.9375, 10, 10, 9.875, 9.9017859, 10.044643, 10.107143, 10.25, 10.3125, 10.4375, 10.625, 10.8125, 10.9375, 11, 11, 11, 11, 11, 11, 11.0625, 10.973214, 10.901786, 10.9375, 10.875, 11.0625, 11.125, 11.25, 11.455357, 11.770833, 11.928572, 12.0625, 12.125, 12.3125, 12.4375, 12.625, 12.8125, 12.875, 13, 13, 13, 13, 13, 13, 13.0625, 13.0625, 13.0625, 13.0625, 12.9375, 12.8125, 12.625, 12.625, 12.71875, 13.03125, 13.46875, 13.84375, 14.160714, 14.1875, 14.1875, 14.125, 14.125, 14.25, 14.5, 14.6875, 14.875, 15, 15, 15, 15, 15, -10, -10, -10, -10, -10, -10, -10, -10, -10, -10, -10, -10, -10, -10, -10, -10, -10, -10, -10, 21.875, 21.583332, 21.4375, 21.125, 20.9375, 20.875, 20.767857, 20.75, 20.5, 20.3125, 20.125, 20, 19.8125, 19.5625, 19.4375, 19.375, 19.3125, 19.3125, 19.1875, 19, 18.8125, 18.625, 18.375, 18.125, 18.0625, 18, 18, 18, 17.875, 17.6875, 17.5, 17.25, 17.0625, 16.866072, 16.416666, 16.169643, 16.09375, 15.96875, 15.950893, 15.791667, 15.705357, 15.75, 15.75, 15.6875, 15.625, 15.4375, 15.3125, 15.223214, 15.0625, 15.0625, 15, 15, 14.875, 14.625, 14.375, 14.0625, 13.8125, 13.75, 13.6875, 13.5625, 13.4375, 13.3125, 13.0625, 13, 12.9375, 12.6875, 12.5, 12.25, 12.0625, 12, 12, 12, 11.9375, 11.875, 11.6875, 11.4375, 11.25, 11.0625, 11, 11, 11, 10.8125, 10.5625, 10.3125, 10.125, 10.035714, 9.8928566, 9.8928566, 9.8125, 9.6875, 9.5, 9.25, 9.125, 9.0535717, 8.8125, 8.75, 8.5625, 8.4375, 8.3125, 8.1875, 8.0625, 8, 7.9375, 7.875, 7.625, 7.375, 7.1875, 7, 7, 7, 6.875, 6.75, 6.5625, 6.4375, 6.4375, 6.375, 6.4375, 6.5, 6.5, 6.4375, 6.4375, 6.375, 6.3125, 6.375, 6.3125, 6.25, 6.1875, 6.125, 6.0625, 6.125, 6.25, 6.375, 6.4375, 6.4375, 6.5, 6.5, 6.4375, 6.3125, 6.25, 6.1875, 6.1875, 6.1875, 6.125, 6.125, 6.25, 6.375, 6.4375, 6.6944447, -10, -10, -10, -10, 14, 14.166667, 14.222222, 14.4375, 14.375, 14.25, 14.267857, 14.34375, 14.40625, 14.46875, 14.34375, 14.25, 14.1875, 14.1875, 14.1875, 14.3125, 14.375, 14.4375, 14.375, 14.401786, 14.607143, 14.741072, 14.9375, 15.25, 15.75, 16.428572, 16.75, 17, 17, 17.0625, 17.0625, 17.125, 17.25, 17.4375, 17.6875, 17.8125, 18.0625, 18.125, 18.125, 18.25, 18.125, 18.125, 18.25, 18.3125, 18.40625, 18.361607, 18.424107, 18.334822, 18.0625, 18.0625, 17.9375, 18, 17.7875, 17.9375, 17.866072, 18, 18.3125, 18.5, 18.8125, 19, 19, 19.0625, 19, 19.151787, 19.482143, 19.741072, 19.794643, 19.549999, 19.669643, 19.410713, 19.5625, 19.625, 19.6875, 20.0625, 20.125, 20, 19.901787, 19.875, 20.035713, 20.294643, 20.375, 20.3125, 20.1875, 19.9375, 19.8125, 19.8125, 20, 20.330357, 20.375, 20.366072, 20.09375, 20.171875, 20.296875, 20.671875, 20.9375, 21.0625, 21.125, 21.0625, 21.026787, 21.107143, 21.267857, 21.4375, 21.625, 21.857143, 21.9375, 22, 21.875, 21.833332, 8.75, 8.833333, 8.9375, 9.0357141, 9.0625, 9.0625, 9, 9, 9, 9, 8.9375, 8.9375, 8.9375, 8.875, 8.9375, 8.9375, 8.9375, 9, 9, 9, 9.125, 9.1875, 9.25, 9.4375, 9.5, 9.5625, 9.7589283, 10.020833, 10.044643, 10.125, 10.0625, 9.875, 9.9017859, 10.044643, 10.107143, 10.3125, 10.375, 10.4375, 10.625, 10.75, 10.875, 11, 11, 11, 11, 11, 11.0625, 11.125, 11.035714, 10.964286, 11, 11, 11.25, 11.4375, 11.625, 11.8125, 11.9375, 12, 12, 12, 12.125, 12.25, 12.5, 12.6875, 12.75, 12.875, 12.875, 12.9375, 13.0625, 13.035714, 12.964286, 13.0625, 13, 13.125, 13.1875, 13.0625, 13, 12.8125, 12.75, 12.84375, 13.03125, 13.40625, 13.78125, 14.098214, 14.1875, 14.1875, 14.1875, 14.1875, 14.25, 14.5, 14.625, 14.8125, 15
18.0625, 18, 18, 17.9375, 17.8125, 17.6875, 17.4375, 17.25, 17.053572, 16.604166, 16.357143, 16.15625, 15.96875, 15.90625, 15.9375, 15.875, 15.875, 15.75, 15.5625, 15.4375, 15.25, 15.1875, 15.223214, 15.125, 15.125, 15.0625, 14.9375, 14.8125, 14.5625, 14.3125, 14.125, 13.9375, 13.9375, 13.875, 13.625, 13.4375, 13.25, 13, 13, 12.9375, 12.6875, 12.5625, 12.3125, 12.125, 12.0625, 12, 12, 12, 11.9375, 11.75, 11.5, 11.25, 11.0625, 11, 11, 11, 10.8125, 10.5625, 10.3125, 10.125, 10.035714, 9.8928566, 9.8303566, 9.6875, 9.5625, 9.375, 9.1875, 9.125, 9.0535717, 8.8125, 8.75, 8.5, 8.3125, 8.1875, 8.0625, 8, 8, 7.9375, 7.8125, 7.5625, 7.3125, 7.125, 7, 7, 7, 6.9375, 6.75, 6.5, 6.3125, 6.1875, 6.125, 6.1875, 6.25, 6.25, 6.25, 6.25, 6.1875, 6.125, 6.125, 6.0625, 6, 6, 6, 6, 6.125, 6.1875, 6.25, 6.25, 6.1875, 6.25, 6.25, 6.25, 6.1875, 6.125, 6.0625, 6.0625, 6.0625, 6, 6, 6.0625, 6.125, 6.1875, -10, -10, -10, -10, -10, 14, 14.125, 14.104167, 14.0625, 13.9375, 13.8125, 13.892857, 13.9375, 13.9375, 14, 13.875, 13.9375, 14.0625, 14.0625, 14.0625, 14.125, 14.1875, 14.25, 14.1875, 14.276786, 14.419643, 14.616072, 14.875, 15.1875, 15.75, 16.428572, 16.75, 17, 16.9375, 16.9375, 16.9375, 17, 17.25, 17.4375, 17.6875, 17.9375, 18.232143, 18.3125, 18.3125, 18.25, 18.0625, 18, 18.0625, 18.1875, 18.28125, 18.40625, 18.46875, 18.272322, 18.0625, 18, 18, 18.035713, 17.814285, 18, 17.897322, 18.09375, 18.34375, 18.53125, 18.8125, 19, 19, 19.0625, 18.9375, 19.026787, 19.357143, 19.616072, 19.803572, 19.862499, 19.982143, 19.75, 19.8125, 19.75, 19.75, 20, 20.0625, 19.9375, 19.901787, 19.9375, 20.035713, 20.1875, 20.1875, 20.125, 20.0625, 19.8125, 19.6875, 19.75, 20.044643, 20.455357, 20.625, 20.616072, 20.21875, 20.026041, 19.984375, 20.234375, 20.5625, 20.75, 20.9375, 21, 21, 21.008928, 21.142857, 21.25, 21.5, 21.732143, 21.875, 22, 21.9375, 21.916666, 8.75, 8.833333, 8.9375, 9.0357141, 9.0625, 9.0625, 9, 9, 9, 9, 8.875, 8.875, 8.875, 8.875, 9, 9, 9, 9, 9, 9, 9.125, 9.25, 9.3125, 9.5, 9.5625, 9.5625, 9.7589283, 10.020833, 10.044643, 10.125, 10.0625, 9.9375, 9.9642859, 10.107143, 10.169643, 10.3125, 10.375, 10.4375, 10.625, 10.75, 10.875, 11.0625, 11.0625, 11.0625, 11.0625, 11, 11.0625, 11.125, 11.035714, 10.964286, 11, 11.125, 11.4375, 11.6875, 11.875, 11.9375, 12, 12, 12, 12.0625, 12.1875, 12.3125, 12.5625, 12.625, 12.625, 12.6875, 12.6875, 12.8125, 13, 13.160714, 13.089286, 13.1875, 13.0625, 13.089286, 13.294643, 13.303572, 13.4375, 13.285714, 13.080357, 13.080357, 13.125, 13.4375, 13.75, 14.035714, 14.125, 14.125, 14.1875, 14.1875, 14.3125, 14.5625, 14.6875, 14.9375, 15.083333, 15, 15, -10, -10, -10, -10, -10, -10, -10, -10, -10, -10, -10, -10, -10, -10, -10, -10, -10, -10, -10, -10, -10, 21.75, 21.499998, 21.375, 21.1875, 21, 20.9375, 20.767857, 20.625, 20.5, 20.3125, 20.1875, 20.125, 19.9375, 19.8125, 19.598213, 19.330357, 19.133928, 19, 19, 18.9375, 18.875, 18.875, 18.6875, 18.5, 18.3125, 18.125, 18.0625, 18, 18, 17.875, 17.75, 17.5, 17.25, 17.053572, 16.666666, 16.482143, 16.34375, 16.28125, 16.21875, 16.1875, 16, 15.839286, 15.625, 15.375, 15.25, 15.0625, 15.0625, 15.223214, 15.25, 15.25, 15.1875, 15, 14.8125, 14.5625, 14.3125, 14.125, 14, 14, 13.9375, 13.75, 13.5, 13.25, 12.9375, 12.8125, 12.6875, 12.5, 12.4375, 12.25, 12.125, 12.0625, 12, 12, 12, 12, 11.8125, 11.5625, 11.3125, 11, 10.875, 10.8125, 10.75, 10.625, 10.4375, 10.25, 10.125, 10.035714, 9.8928566, 9.8303566, 9.625, 9.4375, 9.25, 9.0625, 9, 8.9285717, 8.6875, 8.625, 8.375, 8.25, 8.125, 8, 8, 8, 7.9375, 7.8125, 7.5625, 7.3125, 7.125, 7, 7, 7, 6.9375, 6.6875, 6.4375, 6.1875, 6, 6, 5.9375, 6, 6, 6, 6.0625, 6, 6, 6, 6, 6, 6, 6, 6, 6.0625, 6.0625, 6.0625, 6.0625, 6, 6.0625, 6.125, 6.125, 6.125, 6.0625, 6, 6, 6, 6, 6, 6.0625, 6.0625, 6.0833335, -10, -10, -10, -10, 14, 14, 13.9375, 13.8125, 13.6875, 13.4375, 13.3125, 13.392857, 13.5, 13.5625, 13.75, 13.75, 13.875, 14.0625, 14.0625, 14.0625, 14.0625, 14.125, 14.125, 14.0625, 14.214286, 14.294643, 14.553572, 14.8125, 15.125, 15.75, 16.428572, 16.75, 17, 16.875, 16.75, 16.767857, 17.020834, 17.294643, 17.5, 17.6875, 17.9375, 18.276787, 18.375, 18.375, 18.25, 18, 17.875, 17.875, 18, 18.09375, 18.21875, 18.28125, 18.084822, 17.9375, 17.9375, 18, 18.035713, 17.751785, 17.9375, 17.897322, 18.200893, 18.46875, 18.65625, 18.9375, 19.0625, 19.0625, 19.125, 18.9375, 18.964287, 19.294643, 19.553572, 19.75, 19.9375, 20.017857, 20.083334, 20.107143, 20.0625, 19.9375, 20, 20, 19.9375, 20, 20.0625, 20.125, 20.25, 20.25, 20.1875, 20.125, 19.875, 19.6875, 19.8125, 20.107143, 20.517857, 20.8125, 20.776787, 20.236607, 19.972469, 19.859375, 20.046875, 20.375, 20.5625, 20.75, 20.875, 20.9375, 21.008928, 21.080357, 21.1875, 21.4375, 21.669643, 21.875, 22, 22, 22, 8.666667, 8.833333, 8.9375, 9.0357141, 9.0625, 9.0625, 9, 9, 9, 9, 8.875, 8.875, 8.875, 8.875, 9, 9, 9, 9, 9, 9, 9.0625, 9.125, 9.0625, 9.1875, 9.3125, 9.4196434, 9.6964283, 10.020833, 10.044643, 10.125, 10.0625, 10, 10, 10, 10.0625, 10.1875, 10.25, 10.375, 10.5625, 10.625, 10.8125, 11, 11, 11.0625, 11.0625, 11, 11.0625, 11.125, 11.098214, 11.026786, 11.125, 11.3125, 11.625, 11.875, 12, 12, 12, 12, 12, 12.0625, 12.1875, 12.3125, 12.5625, 12.5625, 12.5, 12.5, 12.5, 12.6875, 12.9375, 13.223214, 13.214286, 13.3125, 13.1875, 13.151786, 13.294643, 13.303572, 13.5, 13.473214, 13.330357, 13.392857, 13.375, 13.5625, 13.8125, 13.973214, 14.0625, 14.0625, 14.0625, 14.125, 14.3125, 14.5625, 14.75, 15, 15.111111
18.1875, 18.125, 18, 18, 17.875, 17.75, 17.5, 17.25, 17.125, 17, 16.875, 16.75, 16.6875, 16.5625, 16.4375, 16.1875, 15.901786, 15.625, 15.4375, 15.25, 15.125, 15.125, 15.223214, 15.3125, 15.25, 15.1875, 15, 14.8125, 14.5625, 14.3125, 14.125, 14, 14, 13.9375, 13.75, 13.5, 13.25, 13, 12.8125, 12.6875, 12.5, 12.375, 12.25, 12.1875, 12.125, 12.0625, 12.0625, 12, 12, 11.75, 11.5, 11.25, 10.9375, 10.875, 10.75, 10.625, 10.5, 10.3125, 10.1875, 10.0625, 10, 10, 9.9375, 9.75, 9.5, 9.25, 9.0625, 9, 9, 8.9375, 8.875, 8.625, 8.375, 8.1875, 8, 8, 8, 7.9375, 7.8125, 7.5625, 7.3125, 7.125, 7, 7, 6.9375, 6.875, 6.625, 6.375, 6.1875, 6, 6, 5.9375, 5.9375, 5.9375, 5.9375, 6, 6, 6, 6, 6, 6, 6, 6, 6, 6, 6, 6, 6, 6, 6, 6, 6, 6, 6, 6, 6, 6, 6, 6, 6, 6, -10, -10, -10, -10, 13.5, 13.777778, 13.875, 13.875, 13.75, 13.5625, 13.3125, 13.1875, 13.25, 13.25, 13.3125, 13.4375, 13.5, 13.6875, 13.9375, 14, 14.0625, 14.0625, 14.125, 14.125, 14.125, 14.25, 14.1875, 14.4375, 14.6875, 15.0625, 15.75, 16.428572, 16.75, 17, 16.8125, 16.65625, 16.705357, 16.958334, 17.232143, 17.40625, 17.5625, 17.875, 18.25, 18.375, 18.375, 18.1875, 17.9375, 17.75, 17.75, 17.8125, 17.90625, 18.09375, 18.15625, 18.09375, 18.125, 18.0625, 18.125, 17.973213, 17.689285, 17.875, 17.834822, 18.272322, 18.739584, 18.950893, 19.25, 19.25, 19.1875, 19.1875, 19, 19.089287, 19.419643, 19.616072, 19.6875, 19.75, 19.767857, 19.967262, 20.252977, 20.232143, 20.125, 20.0625, 20, 20, 20.0625, 20.125, 20.125, 20.25, 20.3125, 20.25, 20.3125, 20.125, 19.9375, 20.0625, 20.294643, 20.607143, 20.875, 20.901787, 20.455357, 20.191219, 20.078125, 20.140625, 20.3125, 20.4375, 20.6875, 20.982143, 21.125, 21.125, 20.955357, 21.0625, 21.25, 21.607143, 21.875, 22, 22, 22, 22, 9, 9, 9, 9, 9, 9, 9, 8.9375, 8.9375, 8.8125, 8.8125, 8.875, 8.875, 9, 8.9375, 8.9375, 8.9375, 8.875, 8.875, 8.875, 8.9375, 8.9375, 9.125, 9.3125, 9.4821434, 9.7589283, 10.083333, 10.107143, 10.125, 10.0625, 10, 10, 10, 10, 10.0625, 10.125, 10.25, 10.5, 10.625, 10.8125, 11, 11, 11.0625, 11.0625, 11, 11.0625, 11.0625, 11.125, 11.1875, 11.3125, 11.5625, 11.75, 11.9375, 12, 12, 12, 12, 12.0625, 12.125, 12.25, 12.375, 12.5625, 12.5, 12.4375, 12.4375, 12.4375, 12.6875, 12.9375, 13.160714, 13.151786, 13.1875, 13.0625, 13.089286, 13.294643, 13.366072, 13.625, 13.660714, 13.517857, 13.642857, 13.625, 13.75, 13.875, 13.9375, 14, 14, 14.0625, 14.1875, 14.333333, 14.583333, 14.75, -10, -10, -10, -10, -10, -10, -10, -10, -10, -10, -10, -10, -10, -10, -10, -10, -10, -10, -10, -10, -10, -10, -10, -10, -10, 21.5, 21.333334, 21.25, 21.0625, 21, 21, 20.8125, 20.625, 20.5625, 20.3125, 20.25, 20.1875, 20, 20, 19.767857, 19.122023, 18.964285, 18.8125, 18.9375, 19, 18.875, 18.75, 18.5625, 18.4375, 18.3125, 18.1875, 18.125, 18, 18, 17.875, 17.6875, 17.4375, 17.1875, 17.0625, 17, 16.9375, 16.875, 16.875, 16.75, 16.5625, 16.3125, 16.026787, 15.8125, 15.6875, 15.5, 15.375, 15.3125, 15.3125, 15.375, 15.3125, 15.223214, 14.964286, 14.8125, 14.5625, 14.375, 14.1875, 14.0625, 14, 14, 13.8125, 13.5625, 13.3125, 13, 12.8125, 12.625, 12.4375, 12.375, 12.3125, 12.375, 12.3125, 12.1875, 12.125, 12, 12, 11.75, 11.5, 11.25, 10.9375, 10.875, 10.6875, 10.5, 10.3125, 10.125, 10.0625, 10, 10, 10, 9.9375, 9.8125, 9.5625, 9.3125, 9.125, 9, 9, 9, 9, 8.75, 8.5, 8.25, 7.9375, 7.9375, 7.9375, 7.9375, 7.9375, 7.6875, 7.4375, 7.1875, 7, 7, 6.9375, 6.875, 6.625, 6.375, 6.1875, 6, 6, 5.9375, 5.9375, 5.9375, 5.9375, 6, 6, 6, 6, 6, 6, 6, 6, 6, 6, 6, 6, 6, 6, 6, 6, 6, 6, 6, 6, 6, 6, 6, 6, 6, 6, -10, -10, -10, -10, 13.333333, 13.583333, 13.625, 13.625, 13.5, 13.3125, 13.125, 13.0625, 13.125, 13.125, 13.125, 13.1875, 13.25, 13.4375, 13.625, 13.758928, 13.95, 13.821428, 14.017857, 14, 14.0625, 14.1875, 14.0625, 14.3125, 14.5625, 15, 15.75, 16.428572, 16.75, 17, 16.875, 16.84375, 16.955357, 17.270834, 17.482143, 17.53125, 17.5625, 17.75, 18.125, 18.25, 18.3125, 18.1875, 17.9375, 17.75, 17.75, 17.8125, 17.9375, 18.1875, 18.3125, 18.303572, 18.237499, 18.303572, 18.303572, 18.223213, 18.026787, 17.9375, 17.799107, 18.200893, 19.010418, 19.361607, 19.625, 19.5, 19.267857, 19.1875, 19.0625, 19.1875, 19.4375, 19.5625, 19.5625, 19.625, 19.642857, 19.967262, 20.377977, 20.419643, 20.375, 20.25, 20.125, 20.0625, 20.0625, 20.125, 20.125, 20.1875, 20.1875, 20.125, 20.25, 20.294643, 20.25, 20.366072, 20.273809, 20.392857, 20.5625, 20.660713, 20.580357, 20.300594, 20.1875, 20.125, 20.125, 20.25, 20.625, 21.026787, 21.25, 21.375, 21.3125, 21.4375, 21.5625, 21.75, 21.9375, 22, 22, 22, 9, 9, 9, 9, 9, 9, 9, 9, 8.9375, 8.9375, 8.875, 8.875, 8.9375, 8.9375, 9, 8.9375, 8.9375, 8.9375, 8.875, 8.875, 8.875, 8.9375, 8.9375, 9.125, 9.375, 9.6071434, 9.875, 10, 10, 10, 10, 10, 10, 10, 10, 10, 10.0625, 10.1875, 10.4375, 10.625, 10.8125, 11, 11, 11.0625, 11.0625, 11, 11, 11, 11.125, 11.25, 11.375, 11.625, 11.75, 11.875, 12, 12, 12, 12, 12.0625, 12.125, 12.25, 12.4375, 12.5625, 12.5, 12.517857, 12.5625, 12.5625, 12.8125, 12.875, 13.125, 13.1875, 13.1875, 13.125, 13.026786, 13.232143, 13.303572, 13.625, 13.785714, 13.705357, 13.892857, 13.875, 13.9375, 14, 14, 14.0625, 14.0625, 14.083333, 14.166667, 14.395833, -10, -10, -10, -10
18.125, 18.125, 18, 18, 17.875, 17.6875, 17.4375, 17.1875, 17.0625, 17, 17, 17, 16.9375, 16.8125, 16.5625, 16.25, 16.026787, 15.875, 15.75, 15.5625, 15.4375, 15.25, 15.1875, 15.25, 15.1875, 15.098214, 14.901786, 14.75, 14.5, 14.375, 14.1875, 14.0625, 14, 14, 13.8125, 13.5625, 13.3125, 13, 12.8125, 12.625, 12.4375, 12.375, 12.303572, 12.25, 12.25, 12.125, 12.125, 12, 12, 11.8125, 11.5625, 11.3125, 11, 10.875, 10.6875, 10.4375, 10.25, 10.0625, 10, 10, 10, 10, 10, 9.9375, 9.75, 9.5, 9.25, 9.0625, 9, 9, 9, 8.8125, 8.5625, 8.3125, 8, 7.875, 7.875, 7.875, 7.875, 7.6875, 7.4375, 7.1875, 7, 7, 6.9375, 6.875, 6.625, 6.375, 6.1875, 6, 6, 5.9375, 5.9375, 5.9375, 5.9375, 6, 6, 6, 6, 6, 6, 6, 6, 6, 6, 6, 6, 6, 6, 6, 6, 6, 6, 6, 6, 6, 5.9375, 5.875, 5.8928571, 6, -10, -10, -10, -10, 13, 13.25, 13.333333, 13.375, 13.375, 13.3125, 13.1875, 13.0625, 13, 13, 13, 13, 13.0625, 13.125, 13.25, 13.375, 13.508928, 13.7625, 13.696428, 13.892857, 13.9375, 14, 14.0625, 14.0625, 14.3125, 14.5625, 15.0625, 15.75, 16.428572, 16.75, 17, 16.9375, 16.96875, 17.080357, 17.458334, 17.607143, 17.65625, 17.6875, 17.75, 18.017857, 18.125, 18.1875, 18.125, 17.875, 17.6875, 17.6875, 17.8125, 18.125, 18.4375, 18.5625, 18.491072, 18.299999, 18.303572, 18.241072, 18.25, 18.1875, 18.125, 18.080357, 18.357143, 19.104168, 19.392857, 19.5625, 19.4375, 19.205357, 19.125, 19.0625, 19.1875, 19.4375, 19.5625, 19.5, 19.5, 19.455357, 19.779762, 20.252977, 20.294643, 20.25, 20.0625, 19.9375, 19.9375, 20, 20.125, 20.125, 20.1875, 20.125, 20.0625, 20.25, 20.392857, 20.375, 20.428572, 20.166666, 20.267857, 20.375, 20.410713, 20.392857, 20.258928, 20.25, 20.3125, 20.25, 20.375, 20.75, 21.214287, 21.5, 21.6875, 21.625, 21.6875, 21.6875, 21.78125, 21.90625, 21.90625, 21.96875, 22, 9.166667, 9.083333, 9.0625, 9, 9, 9, 9, 9, 8.875, 8.8125, 8.8125, 8.8125, 8.9375, 8.9375, 8.9375, 8.875, 8.875, 8.9375, 8.875, 8.875, 8.875, 8.875, 8.875, 9, 9.25, 9.5446434, 9.8125, 10, 10, 10, 10, 10, 10, 10, 10, 10, 10, 10.125, 10.375, 10.5625, 10.8125, 10.9375, 10.9375, 11, 11, 11, 11, 11, 11.1875, 11.375, 11.5, 11.6875, 11.75, 11.8125, 11.9375, 12, 12, 12.0625, 12.125, 12.125, 12.1875, 12.3125, 12.375, 12.375, 12.517857, 12.625, 12.6875, 12.9375, 12.9375, 13.0625, 13.125, 13.125, 13.125, 13.0625, 13.1875, 13.25, 13.5, 13.75, 13.75, 13.9375, 13.9375, 14, 14.125, 14.1875, 14.375, 14.395833, 14.111111, -10, 14.583333, -10, -10, -10, -10, -10, 27.25, 27.291668, 27.444445, -10, -10, -10, -10, -10, -10, -10, -10, -10, -10, -10, -10, -10, -10, -10, -10, -10, -10, -10, 21.625, 21.416668, 21.3125, 21.125, 21, 21, 20.875, 20.6875, 20.5, 20.25, 20.125, 20.0625, 20, 20, 19.919643, 19.479166, 19.455357, 19.3125, 19.25, 19.1875, 18.9375, 18.75, 18.5625, 18.375, 18.25, 18.125, 18.0625, 18, 18, 17.9375, 17.8125, 17.5625, 17.3125, 17.125, 17, 17, 17, 16.875, 16.6875, 16.4375, 16.1875, 16.0625, 16, 15.9375, 15.75, 15.625, 15.375, 15.1875, 15.125, 15.0625, 14.910714, 14.714286, 14.625, 14.375, 14.3125, 14.1875, 14.0625, 14, 13.9375, 13.6875, 13.4375, 13.1875, 13, 12.9375, 12.8125, 12.6875, 12.5625, 12.428572, 12.3125, 12.25, 12.125, 12.125, 12, 12, 11.875, 11.625, 11.375, 11.125, 11, 10.875, 10.6875, 10.5, 10.3125, 10.1875, 10.125, 10.0625, 10, 10, 10, 9.8125, 9.5625, 9.3125, 9.0625, 8.9375, 8.9375, 8.9375, 8.8125, 8.625, 8.375, 8.0625, 7.875, 7.875, 7.875, 7.875, 7.6875, 7.4375, 7.1875, 7, 7, 6.9375, 6.875, 6.625, 6.375, 6.1875, 6, 6, 6, 6, 5.9375, 5.875, 5.875, 5.875, 5.9375, 6, 6, 6, 6, 6, 5.9375, 5.875, 5.8125, 5.8125, 5.8125, 5.875, 5.9375, 5.9375, 6, 6, 6, 6, 6, 5.875, 5.75, 5.7857141, 6, -10, -10, -10, -10, 13, 12.916667, 13.020833, 13.0625, 13.125, 13.1875, 13.125, 13.0625, 13, 13, 13, 13, 13, 13, 13.0625, 13.125, 13.321428, 13.6375, 13.633928, 13.830357, 13.875, 13.9375, 14.0625, 14.1875, 14.4375, 14.6875, 15.125, 15.6875, 16.321428, 16.6875, 16.9375, 17, 17.09375, 17.1875, 17.375, 17.5, 17.59375, 17.6875, 17.75, 17.973213, 18.0625, 18.125, 18.125, 17.9375, 17.8125, 17.8125, 18, 18.3125, 18.5625, 18.6875, 18.616072, 18.424999, 18.491072, 18.428572, 18.464287, 18.607143, 18.544643, 18.455357, 18.5625, 19.166668, 19.392857, 19.5, 19.375, 19.142857, 19.0625, 19.0625, 19.25, 19.5, 19.625, 19.625, 19.625, 19.5625, 19.696428, 20.145834, 20.169643, 20.1875, 20, 19.875, 19.875, 19.875, 20, 20, 20.0625, 20.0625, 20.0625, 20.3125, 20.455357, 20.4375, 20.428572, 20.041666, 20.080357, 20.0625, 20.125, 20.25, 20.1875, 20.3125, 20.4375, 20.4375, 20.625, 20.875, 21.303572, 21.669643, 21.794643, 21.75, 21.75, 21.6875, 21.84375, 21.96875, 21.96875, 22.03125, 22, 9.041667, 9.1333332, 9.0625, 9.0625, 9, 9, 9, 9, 8.8125, 8.6875, 8.6875, 8.6875, 8.875, 8.9375, 8.9375, 8.875, 8.875, 8.9375, 8.875, 8.875, 8.875, 8.875, 8.9375, 9.0625, 9.3125, 9.5625, 9.8125, 10, 10, 10, 10, 10, 10, 10, 10, 10, 10.0625, 10.1875, 10.4375, 10.6875, 10.875, 11, 11, 11, 11, 11, 11, 11.0625, 11.223214, 11.339286, 11.4375, 11.5, 11.625, 11.6875, 11.875, 12, 12.0625, 12.125, 12.1875, 12.1875, 12.125, 12.25, 12.3125, 12.375, 12.642857, 12.8125, 12.875, 13.0625, 13, 13, 13, 13, 13, 13, 13.1875, 13.25, 13.4375, 13.625, 13.5625, 13.75, 13.875, 14.107143, 14.375, 14.520833, 14.5, 14.527778, -10, -10, 14.611111, -10, -10, -10, 28
18.125, 18, 18, 17.9375, 17.875, 17.8125, 17.5625, 17.375, 17.1875, 17, 17, 17, 16.8125, 16.5625, 16.3125, 16.0625, 16, 16, 15.9375, 15.8125, 15.625, 15.375, 15.1875, 15.0625, 15.0625, 14.910714, 14.651786, 14.5, 14.25, 14.125, 14, 13.9375, 13.875, 13.8125, 13.625, 13.375, 13.125, 13, 13, 12.9375, 12.875, 12.75, 12.553572, 12.3125, 12.1875, 12.0625, 12.0625, 12, 12, 11.866072, 11.5, 11.3125, 11.0625, 11, 10.9375, 10.8125, 10.6875, 10.5, 10.3125, 10.1875, 10.0625, 10, 10, 10, 9.8125, 9.5625, 9.3125, 9.0625, 8.9375, 8.9375, 8.875, 8.8125, 8.625, 8.375, 8.125, 7.875, 7.875, 7.875, 7.875, 7.6875, 7.4375, 7.1875, 7, 7, 7, 6.9375, 6.75, 6.5, 6.25, 6.0625, 6, 6, 6, 5.875, 5.75, 5.75, 5.75, 5.875, 6, 6, 6, 6, 6, 5.9375, 5.875, 5.75, 5.6875, 5.625, 5.6875, 5.8125, 5.875, 6, 6, 6, 6, 6, 5.875, 5.75, 5.7857141, 6, -10, -10, -10, -10, 13, 12.833334, 12.875, 12.875, 12.875, 13, 13, 13, 13, 13, 13, 13, 13, 13, 13, 13, 13.196428, 13.5125, 13.571428, 13.830357, 13.875, 14, 14.1875, 14.375, 14.625, 14.8125, 15.1875, 15.625, 16.214287, 16.625, 16.875, 17.0625, 17.1875, 17.3125, 17.5, 17.5625, 17.625, 17.6875, 17.6875, 17.875, 17.9375, 18, 18.0625, 17.9375, 17.9375, 17.9375, 18.125, 18.4375, 18.5625, 18.625, 18.491072, 18.299999, 18.491072, 18.553572, 18.839287, 18.982143, 18.919643, 18.830357, 18.741072, 19.083334, 19.285713, 19.375, 19.25, 19.080357, 18.9375, 18.8125, 19, 19.25, 19.544643, 19.6875, 19.8125, 19.8125, 19.875, 20.0625, 20.0625, 20.0625, 19.9375, 19.875, 19.875, 19.9375, 20.125, 20.125, 20.125, 20, 19.9375, 20.125, 20.267857, 20.3125, 20.303572, 19.916666, 19.955357, 19.9375, 20, 20.125, 20.0625, 20.25, 20.4375, 20.5625, 20.8125, 20.9375, 21.19643, 21.482143, 21.607143, 21.625, 21.625, 21.5, 21.65625, 21.927084, 21.96875, 22.09375, 22, 9.041667, 9.1333332, 9.0625, 9.0625, 9, 9, 9.0625, 9.0625, 8.9375, 8.8125, 8.75, 8.75, 8.875, 8.9375, 8.9375, 8.9375, 8.9375, 9, 9, 9, 9, 9, 9, 9, 9.1875, 9.4375, 9.6875, 9.9375, 10, 10, 10, 10, 10, 10, 10, 10.0625, 10.1875, 10.375, 10.625, 10.8125, 10.9375, 11, 11, 11, 10.9375, 10.9375, 10.9375, 11.0625, 11.310715, 11.214286, 11.25, 11.1875, 11.375, 11.5, 11.8125, 12.035714, 12.1875, 12.25, 12.1875, 12.1875, 12.0625, 12.1875, 12.3125, 12.4375, 12.705357, 12.875, 12.9375, 13.0625, 13, 13, 13, 13, 13, 13, 13.1875, 13.3125, 13.4375, 13.5625, 13.4375, 13.5625, 13.708333, 14.142858, 14.5, 14.694444, -10, -10, -10, -10, 27.75, 27.666668, 27.625, 27.75, 27.833334, 27.805555, 27.59375, 27.614584, 27.541668, -10, -10, -10, -10, -10, -10, -10, -10, -10, -10, -10, -10, -10, -10, -10, -10, -10, -10, -10, 21.625, 21.416668, 21.3125, 21.125, 21, 21, 21, 20.8125, 20.5625, 20.3125, 20.0625, 20, 20, 19.9375, 19.9375, 19.875, 19.75, 19.5625, 19.3125, 19.0625, 18.9375, 18.9375, 18.875, 18.6875, 18.4375, 18.1875, 18, 18, 17.875, 17.75, 17.6875, 17.4375, 17.3125, 17.1875, 17, 17, 17, 16.8125, 16.5625, 16.3125, 16.0625, 16, 16, 15.9375, 15.8125, 15.5625, 15.25, 15.0625, 14.9375, 14.9375, 14.875, 14.6875, 14.4375, 14.1875, 14, 13.8125, 13.8125, 13.75, 13.625, 13.5, 13.25, 13.0625, 13, 13, 13, 13, 12.8125, 12.553572, 12.1875, 12, 11.9375, 11.9375, 11.9375, 11.9375, 11.866072, 11.5625, 11.4375, 11.1875, 11.0625, 11.0625, 10.9375, 10.875, 10.6875, 10.4375, 10.25, 10.0625, 10, 9.9375, 9.875, 9.6875, 9.4375, 9.25, 9.0625, 8.9375, 8.9375, 8.8125, 8.75, 8.5625, 8.3125, 8.1875, 7.9375, 7.9375, 7.9375, 7.8035717, 7.5, 7.3125, 7.0625, 7, 7, 7, 7, 6.8125, 6.5625, 6.3125, 6.0625, 6, 6, 6, 5.8125, 5.625, 5.5625, 5.5, 5.6875, 5.875, 5.875, 5.9375, 5.875, 5.8125, 5.75, 5.625, 5.5, 5.5, 5.5, 5.5625, 5.75, 5.75, 5.875, 5.9375, 5.875, 5.875, 5.875, 5.75, 5.6875, 5.7857141, -10, -10, -10, -10, -10, 12.875, 12.666667, 12.6875, 12.625, 12.6875, 12.875, 12.875, 12.875, 12.875, 12.8125, 12.8125, 12.8125, 12.8125, 12.875, 12.9375, 12.96875, 13.0625, 13.1875, 13.392857, 13.758928, 13.928572, 14.125, 14.3125, 14.5625, 14.8125, 15, 15.375, 15.794643, 16.294643, 16.6875, 16.875, 17.0625, 17.125, 17.25, 17.4375, 17.4375, 17.5, 17.625, 17.71875, 18.03125, 18.21875, 18.205357, 18.0625, 17.9375, 17.875, 17.9375, 18.125, 18.4375, 18.5, 18.5, 18.375, 18.25, 18.3125, 18.375, 18.651787, 18.919643, 19.044643, 19.1875, 19.0625, 19.0625, 19.0625, 19.0625, 19, 18.9375, 18.875, 18.8125, 18.9375, 19.1875, 19.544643, 19.6875, 19.8125, 19.75, 19.6875, 19.8125, 19.8125, 19.8125, 19.75, 19.75, 19.8125, 19.9375, 20.1875, 20.25, 20.25, 20.1875, 20.0625, 20.1875, 20.285713, 20.3125, 20.375, 20.142857, 20.012501, 20.133928, 20.0625, 20.125, 20.0625, 20.3125, 20.5625, 20.8125, 21, 21, 21.089287, 21.294643, 21.294643, 21.3125, 21.3125, 21.125, 21.40625, 21.927084, 22.004463, 22.1875, 22.041666, 9.041667, 9.1333332, 9.0625, 9.0625, 9, 9, 9.0625, 9.0625, 8.9375, 8.8125, 8.75, 8.75, 8.875, 8.9375, 8.9375, 8.9375, 8.9375, 9, 9, 9, 9, 9, 9, 9, 9.1875, 9.4375, 9.6875, 9.9375, 10.0625, 10.125, 10.125, 10.125, 10.0625, 10, 10, 10.0625, 10.25, 10.5, 10.75, 10.9375, 11, 11, 11, 11, 10.9375, 10.9375, 10.9375, 11.0625, 11.248215, 11.089286, 11.125, 11.0625, 11.3125, 11.5, 11.8125, 12.035714, 12.1875, 12.25, 12.1875, 12.1875, 12.0625, 12.125, 12.3125, 12.5, 12.75, 12.875, 12.9375, 13, 13, 13, 13, 13.0625, 13.0625, 13.0625, 13.1875, 13.3125, 13.375, 13.5, 13.4375, 13.479167, 13.611111, -10, -10, -10, -10, -10, -10, -10, 27.5, 27.444445, 27.416666, 27.5, 27.625
18.1875, 18, 18, 17.8125, 17.625, 17.5, 17.25, 17.1875, 17.125, 17, 17, 16.9375, 16.8125, 16.625, 16.375, 16.1875, 16.0625, 16, 16, 15.9375, 15.6875, 15.4375, 15.1875, 15, 15, 14.9375, 14.8125, 14.5625, 14.3125, 14.0625, 13.8125, 13.8125, 13.6875, 13.5, 13.375, 13.1875, 13.125, 13.125, 13.125, 13.0625, 13, 12.8125, 12.5625, 12.3125, 12.0625, 12, 11.9375, 11.9375, 11.9375, 11.866072, 11.5625, 11.4375, 11.1875, 11, 11, 10.9375, 10.9375, 10.8125, 10.5625, 10.3125, 10.0625, 10, 9.9375, 9.8125, 9.625, 9.375, 9.1875, 9.0625, 8.9375, 8.9375, 8.8125, 8.6875, 8.5, 8.25, 8.125, 8, 8, 8, 7.9285717, 7.5625, 7.375, 7.125, 7, 7, 7, 7, 6.8125, 6.5625, 6.3125, 6.0625, 6, 6, 6, 5.75, 5.5, 5.375, 5.25, 5.4375, 5.625, 5.625, 5.6875, 5.625, 5.5625, 5.5, 5.375, 5.25, 5.3125, 5.3125, 5.375, 5.5625, 5.5, 5.6875, 5.8125, 5.75, 5.75, 5.6875, 5.5625, 5.625, 5.7261906, -10, -10, -10, -10, -10, 12.625, 12.416667, 12.4375, 12.375, 12.4375, 12.5625, 12.5625, 12.5625, 12.5625, 12.5625, 12.5625, 12.5625, 12.625, 12.75, 12.875, 12.96875, 13.0625, 13.125, 13.330357, 13.696428, 13.803572, 14.089286, 14.419643, 14.678572, 15.008928, 15.3125, 15.625, 16.044643, 16.375, 16.75, 16.875, 17.0625, 17.125, 17.25, 17.375, 17.3125, 17.3125, 17.375, 17.53125, 17.90625, 18.21875, 18.241072, 18.026787, 18, 17.875, 18.0625, 18.25, 18.5, 18.5625, 18.5, 18.375, 18.25, 18.3125, 18.4375, 18.714287, 18.982143, 19.107143, 19.1875, 19.125, 19.1875, 19.1875, 19.1875, 19.0625, 18.9375, 18.875, 18.875, 19.0625, 19.25, 19.544643, 19.625, 19.625, 19.5625, 19.5, 19.625, 19.75, 19.875, 19.9375, 19.9375, 19.875, 19.9375, 20.125, 20.1875, 20.3125, 20.375, 20.3125, 20.4375, 20.5, 20.5, 20.5625, 20.321428, 20, 20.178572, 20, 20.125, 20.125, 20.375, 20.625, 20.875, 21, 20.875, 20.901787, 21.044643, 20.919643, 20.9375, 20.875, 20.6875, 21.107143, 21.9375, 22.098213, 22.291666, 22.055555, 8.760417, 8.9562502, 8.96875, 9.0625, 9, 9, 9.0625, 9.0625, 9, 8.9375, 8.875, 8.875, 8.9375, 9, 9, 9, 9, 9, 9, 9, 9, 9, 9, 9, 9.1875, 9.4375, 9.6875, 9.9375, 10.0625, 10.125, 10.125, 10.125, 10.0625, 10, 10, 10.0625, 10.25, 10.4375, 10.6875, 10.875, 10.9375, 11, 11, 11.0625, 11, 11, 11, 11.0625, 11.185715, 10.964286, 11, 11, 11.3125, 11.5625, 11.875, 12.035714, 12.1875, 12.1875, 12.125, 12.125, 12, 12.0625, 12.3125, 12.5625, 12.8125, 13, 13, 13, 13, 13, 13, 13.0625, 13.0625, 13.0625, 13.125, 13.25, 13.3125, 13.4375, 13.5, 13.388889, -10, -10, -10, -10, -10, -10, -10, 26.875, 27.375, 27.333334, 27.3125, 27.3125, 27.25, 27.3125, 27.46875, 27.691963, 27.841667, -10, -10, -10, -10, -10, -10, -10, -10, -10, -10, -10, -10, -10, -10, -10, -10, -10, -10, -10, 21.25, 21.166668, 21.125, 21.0625, 21.0625, 21.0625, 21.0625, 20.75, 20.5, 20.25, 20, 20, 20, 19.9375, 19.875, 19.75, 19.5, 19.3125, 19.125, 18.8125, 18.75, 18.75, 18.625, 18.5625, 18.375, 18.125, 18, 18, 17.75, 17.5, 17.3125, 17.125, 17.125, 17.125, 17, 16.875, 16.75, 16.625, 16.5625, 16.375, 16.25, 16.125, 16, 16, 15.9375, 15.75, 15.5, 15.25, 15.0625, 15, 15, 14.875, 14.625, 14.375, 14.0625, 13.8125, 13.8125, 13.6875, 13.5, 13.375, 13.1875, 13.125, 13.0625, 13.0625, 13, 12.9375, 12.875, 12.625, 12.375, 12.125, 12, 11.9375, 11.9375, 11.9375, 11.803572, 11.5, 11.375, 11.125, 10.9375, 10.875, 10.8125, 10.75, 10.625, 10.4375, 10.1875, 10, 10, 9.9375, 9.8125, 9.6875, 9.4375, 9.25, 9.125, 9, 9, 8.875, 8.6875, 8.4375, 8.1875, 8.0625, 8, 8, 8, 7.9285717, 7.625, 7.4375, 7.1875, 7.0625, 7, 7, 7, 6.8125, 6.5625, 6.3125, 6.0625, 6, 6, 6, 5.75, 5.5, 5.3125, 5.125, 5.25, 5.375, 5.375, 5.5, 5.4375, 5.4375, 5.5625, 5.5, 5.3303571, 5.3214283, 5.25, 5.3125, 5.5, 5.5, 5.6875, 5.8125, 5.6875, 5.625, 5.5, 5.375, 5.5, 5.5833335, -10, -10, -10, -10, 12, 12.375, 12.25, 12.25, 12.125, 12.125, 12.1875, 12.1875, 12.25, 12.3125, 12.3125, 12.3125, 12.3125, 12.3125, 12.464286, 12.732143, 12.897322, 13, 13.0625, 13.205357, 13.571428, 13.678572, 13.901786, 14.25, 14.636905, 15.071428, 15.4375, 15.8125, 16.294643, 16.5625, 16.875, 16.9375, 17.0625, 17.0625, 17.1875, 17.3125, 17.3125, 17.375, 17.375, 17.53125, 17.78125, 18.0625, 18.209822, 18.058037, 18.15625, 18.0625, 18.25, 18.375, 18.5625, 18.6875, 18.5625, 18.375, 18.25, 18.25, 18.4375, 18.75, 18.875, 18.9375, 19.026787, 19.169643, 19.366072, 19.375, 19.3125, 19.125, 18.9375, 18.875, 18.875, 19, 19.125, 19.357143, 19.375, 19.375, 19.375, 19.375, 19.5625, 19.75, 19.875, 20, 20.0625, 20.0625, 20.125, 20.25, 20.25, 20.3125, 20.375, 20.375, 20.5, 20.625, 20.6875, 20.6875, 20.446428, 20.125, 20.303572, 20.25, 20.5, 20.482143, 20.5625, 20.75, 20.875, 21, 20.9375, 20.9375, 20.9375, 20.875, 20.9375, 20.875, 20.625, 20.898809, 21.833334, 22.035713, 8, 8.083334, 8.59375, 8.71875, 8.84375, 8.9375, 9, 9, 9.0625, 9.0625, 9.0625, 9.0625, 8.9375, 8.9375, 8.9375, 8.9375, 9, 9, 9, 9, 9, 9, 9, 9.0625, 9.125, 9.125, 9.3125, 9.5, 9.6875, 9.9375, 10.0625, 10.125, 10.125, 10.125, 10.0625, 10.0625, 10.125, 10.1875, 10.3125, 10.375, 10.4375, 10.589286, 10.723214, 10.75, 10.875, 11, 11.107143, 11.125, 11.125, 11.0625, 11.15, 11.0625, 11.125, 11.25, 11.5, 11.6875, 11.9375, 12.035714, 12.125, 12.125, 12.0625, 12.0625, 12, 12, 12.25, 12.5, 12.6875, 12.875, 12.875, 12.875, 12.9375, 13, 13, 13.0625, 13.0625, 13.0625, 13.125, 13.3125, 13.5, 13.7375, 13.666667, -10, -10, -10, -10, -10, -10, 26.25, 26.333332, 26.666666, 26.875, 26.875, 26.875, 26.8125, 26.8125
18.0625, 18, 17.9375, 17.75, 17.5, 17.25, 17.125, 17.0625, 17.0625, 17, 16.875, 16.8125, 16.723213, 16.580357, 16.383928, 16.25, 16.125, 16, 16, 15.875, 15.75, 15.5, 15.25, 15.125, 15, 15, 14.875, 14.625, 14.375, 14.125, 13.9375, 13.9375, 13.8125, 13.5625, 13.375, 13.1875, 13.125, 13.0625, 13.0625, 13, 12.9375, 12.9375, 12.6875, 12.4375, 12.1875, 12, 11.9375, 11.9375, 11.875, 11.75, 11.5625, 11.375, 11.1875, 10.875, 10.75, 10.625, 10.5, 10.4375, 10.3125, 10.125, 10, 10, 9.9375, 9.75, 9.6875, 9.4375, 9.25, 9.1875, 9, 9, 8.9375, 8.75, 8.5, 8.25, 8.0625, 8, 8, 8, 7.9285717, 7.625, 7.4375, 7.1875, 7.0625, 7, 7, 7, 6.75, 6.5, 6.25, 6, 6, 6, 6, 5.75, 5.5, 5.25, 5, 5.0625, 5.1875, 5.1875, 5.375, 5.375, 5.4375, 5.71875, 5.6428571, 5.3303571, 5.2857141, 5.1875, 5.3125, 5.5, 5.5, 5.75, 5.875, 5.71875, 5.6666665, 5.3333335, 5.1666665, 5.3333335, 5.4444447, -10, -10, -10, -10, 12, 12.125, 12.083333, 12, 11.8125, 11.75, 11.75, 11.8125, 11.9375, 12.0625, 12.0625, 12.0625, 12.125, 12.1875, 12.401786, 12.732143, 12.928572, 13, 13.0625, 13.205357, 13.477678, 13.616072, 13.776786, 14.0625, 14.449405, 14.883928, 15.3125, 15.75, 16.502977, 16.741072, 17, 17, 17, 16.9375, 17, 17.0625, 17.125, 17.25, 17.3125, 17.53125, 17.78125, 18.125, 18.334822, 18.245537, 18.40625, 18.3125, 18.5, 18.59375, 18.65625, 18.78125, 18.59375, 18.4375, 18.375, 18.3125, 18.5, 18.6875, 18.75, 18.75, 18.857143, 19.252977, 19.473215, 19.5625, 19.4375, 19.1875, 19, 19.035713, 19, 19.089287, 19.0625, 19.142857, 19.294643, 19.303572, 19.375, 19.375, 19.5625, 19.75, 19.875, 20, 20.0625, 20.125, 20.125, 20.1875, 20.1875, 20.1875, 20.375, 20.5, 20.6875, 20.875, 20.9375, 20.875, 20.633928, 20.3125, 20.553572, 20.625, 20.9375, 20.919643, 20.875, 20.9375, 20.9375, 21, 20.9375, 20.9375, 20.9375, 20.875, 20.9375, 20.8125, 20.5625, 20.791666, 21.708334, 21.935713, 8, 8.0555563, 8.4151783, 8.802083, 8.9508934, 9.0625, 9.0625, 9, 9.0625, 9.0625, 9, 8.9642859, 8.875, 8.875, 8.9375, 8.9375, 9, 9, 9, 9, 9, 9, 9.0625, 9.1875, 9.3125, 9.375, 9.5625, 9.6875, 9.8125, 10, 10.0625, 10.125, 10.125, 10.125, 10.0625, 10.0625, 10.1875, 10.1875, 10.25, 10.25, 10.125, 10.276786, 10.410714, 10.4375, 10.625, 10.821428, 11.252976, 11.366072, 11.375, 11.1875, 11.0625, 11.125, 11.25, 11.5, 11.75, 11.875, 12, 12, 12, 12, 12, 12, 12, 12, 12.1875, 12.375, 12.5, 12.6875, 12.75, 12.8125, 12.9375, 13, 13, 13.0625, 13.0625, 13.125, 13.1875, 13.375, 13.625, 13.816667, -10, -10, -10, -10, -10, -10, 26, 26.166666, 26.222221, 26.5625, 26.75, 26.75, 26.75, 26.625, 26.5625, 26.75, 27.107143, 27.410713, 27.633333, -10, -10, -10, -10, -10, -10, -10, -10, -10, -10, -10, -10, -10, -10, -10, -10, -10, -10, -10, 21.125, 21.166668, 21.125, 21.125, 21.125, 21.0625, 21.0625, 20.75, 20.5, 20.25, 20, 20, 20, 20, 19.9375, 19.75, 19.5625, 19.3125, 19.0625, 18.8125, 18.625, 18.5625, 18.4375, 18.4375, 18.3125, 18.125, 18.0625, 17.9375, 17.8125, 17.625, 17.375, 17.25, 17.125, 17.0625, 17, 16.8125, 16.6875, 16.598213, 16.517857, 16.446428, 16.4375, 16.3125, 16.125, 16.0625, 15.9375, 15.8125, 15.5625, 15.3125, 15.125, 15, 15, 14.875, 14.6875, 14.4375, 14.1875, 14.0625, 14, 13.9375, 13.6875, 13.4375, 13.25, 13.125, 13.0625, 13.0625, 13, 12.9375, 13, 12.8125, 12.5625, 12.3125, 12.0625, 12, 12, 11.875, 11.6875, 11.4375, 11.1875, 11.0625, 10.8125, 10.6875, 10.625, 10.5, 10.4375, 10.3125, 10.125, 10, 10, 10, 9.875, 9.8125, 9.5625, 9.3125, 9.1875, 9, 9, 9, 8.875, 8.625, 8.375, 8.125, 8, 8, 8, 8, 7.8125, 7.5625, 7.3125, 7.0625, 7, 7, 7, 6.75, 6.5, 6.25, 6, 6, 6, 6, 5.8125, 5.5625, 5.3125, 5.0625, 5, 5.0625, 5.1339283, 5.4375, 5.5625, 5.8125, 6.125, 6.2366071, 5.9866071, 5.6658163, 5.5, 5.6428571, 5.7857141, 5.8214288, 6.25, 6.21875, 6, 5.9166665, -10, -10, -10, -10, -10, -10, -10, -10, 11.75, 11.75, 11.75, 11.6875, 11.5625, 11.4375, 11.375, 11.5, 11.6875, 11.875, 12, 12, 12.0625, 12.1875, 12.3125, 12.544643, 12.959822, 13.133928, 13.4375, 13.598214, 13.620536, 13.6875, 13.651786, 13.9375, 14.261905, 14.696428, 15.125, 15.5625, 16.270834, 16.553572, 16.875, 16.90625, 16.90625, 16.84375, 16.84375, 16.875, 17, 17.125, 17.25, 17.5625, 17.857143, 18.15625, 18.379463, 18.433037, 18.59375, 18.5, 18.625, 18.59375, 18.59375, 18.78125, 18.65625, 18.625, 18.625, 18.5625, 18.75, 18.875, 18.8125, 18.75, 18.794643, 19.252977, 19.535715, 19.6875, 19.625, 19.3125, 19.125, 19.098213, 19, 19.089287, 19.0625, 19.142857, 19.357143, 19.428572, 19.5625, 19.625, 19.75, 19.875, 19.9375, 20, 20.0625, 20.125, 20.125, 20.125, 20.0625, 20.0625, 20.3125, 20.5625, 20.8125, 21, 20.9375, 20.8125, 20.678572, 20.549999, 20.794643, 20.9375, 21.1875, 21.169643, 21, 21, 20.9375, 21, 20.9375, 20.9375, 20.9375, 20.9375, 21, 20.8125, 20.5625, 20.684523, 21.541668, 21.799999, 8, 8.0555563, 8.2202377, 9.052083, 9.2008934, 9.25, 9.1875, 9.0625, 9.0625, 9.0625, 8.9375, 8.8392859, 8.6875, 8.6875, 8.8125, 8.875, 9, 9, 9, 9, 9, 9, 9.0625, 9.25, 9.4375, 9.5625, 9.75, 9.8125, 9.875, 10, 10, 10, 10, 10, 10, 10.0625, 10.1875, 10.1875, 10.1875, 10.125, 10, 10.151786, 10.348214, 10.4375, 10.625, 10.758928, 11.190476, 11.303572, 11.3125, 11.1875, 11.0625, 11.1875, 11.375, 11.625, 11.875, 11.9375, 12, 12, 12.0625, 12.0625, 12.0625, 12.0625, 12, 12, 12.125, 12.3125, 12.4375, 12.625, 12.6875, 12.75, 12.875, 12.9375, 13, 13, 13, 13.0625, 13.125, 13.375, 13.645833, -10, -10, -10, -10, -10, -10, -10, 25.666666, 25.875, 25.916666, 26.0625, 26.3125, 26.375, 26.4375, 26.375, 26.375
18.25, 18.125, 17.9375, 17.875, 17.6875, 17.4375, 17.3125, 17.125, 17.0625, 16.9375, 16.6875, 16.5625, 16.410713, 16.392857, 16.446428, 16.4375, 16.375, 16.1875, 16.0625, 15.9375, 15.803572, 15.4375, 15.25, 15.0625, 15, 15, 14.875, 14.75, 14.5, 14.25, 14.125, 14, 14, 13.8125, 13.5625, 13.3125, 13.0625, 12.9375, 12.9375, 12.9375, 12.9375, 13, 12.875, 12.625, 12.375, 12.125, 12, 12, 11.875, 11.625, 11.375, 11.125, 11, 10.875, 10.75, 10.6875, 10.5, 10.375, 10.25, 10.0625, 10, 10, 10, 9.9375, 9.8125, 9.5625, 9.3125, 9.125, 8.9375, 8.9642859, 9, 8.7589283, 8.5714283, 8.3125, 8.125, 8, 8, 8, 8, 7.8125, 7.5625, 7.3125, 7.0625, 7, 7, 7, 6.75, 6.5, 6.25, 6, 6, 6, 6, 5.875, 5.625, 5.375, 5.125, 5, 5.0625, 5.1964283, 5.6160717, 6.1041665, 6.4910717, 6.875, 6.9866071, 6.984694, 7.3321424, 7.0952377, 7.1785712, 7.25, 7.1666665, 6.6458335, 6.5223217, 6.25, 6.208333, -10, -10, -10, -10, -10, -10, -10, 11.25, 11.583333, 11.5625, 11.5, 11.4375, 11.3125, 11.1875, 11.1875, 11.3125, 11.5, 11.75, 11.875, 11.9375, 12.0625, 12.125, 12.125, 12.232143, 12.584822, 12.8125, 13.395833, 13.535714, 13.558036, 13.5625, 13.5, 13.705357, 14.020833, 14.375, 14.6875, 15.1875, 15.940477, 16.366072, 16.75, 16.78125, 16.84375, 16.78125, 16.78125, 16.875, 17, 17.125, 17.25, 17.571428, 18.065475, 18.334822, 18.53125, 18.59375, 18.71875, 18.625, 18.625, 18.59375, 18.53125, 18.71875, 18.71875, 18.75, 18.8125, 18.8125, 18.9375, 18.9375, 18.75, 18.5625, 18.607143, 19.002977, 19.285715, 19.5, 19.4375, 19.25, 19.0625, 18.973213, 18.75, 18.714287, 18.758928, 19.101191, 19.473215, 19.678572, 19.8125, 19.875, 19.9375, 20, 20, 20, 20.0625, 20.1875, 20.125, 20.125, 20.0625, 19.9375, 20.1875, 20.4375, 20.6875, 20.9375, 20.9375, 20.8125, 20.75, 20.75, 20.9375, 21.1875, 21.375, 21.357143, 21.1875, 21.125, 21, 21.0625, 21.0625, 21.0625, 21.0625, 21.1875, 21.1875, 21.0625, 20.8125, 20.791666, 21.482143, 21.699999, -10, -10, -10, 9.333333, 9.4404755, 9.40625, 9.3125, 9.125, 9.0625, 9, 8.8125, 8.7142859, 8.5625, 8.625, 8.8125, 8.875, 9, 9, 9, 9, 9, 9, 9.0625, 9.25, 9.5, 9.6875, 9.875, 9.9375, 9.875, 9.9375, 9.9375, 9.9375, 10, 10, 10, 10.0625, 10.1875, 10.1875, 10.1875, 10.125, 9.9375, 10.089286, 10.285714, 10.375, 10.625, 10.696428, 11.127976, 11.241072, 11.25, 11.1875, 11.0625, 11.25, 11.5, 11.75, 12, 11.9375, 11.9375, 11.96875, 12.09375, 12.15625, 12.15625, 12.1875, 12.125, 12.1875, 12.3125, 12.375, 12.375, 12.517857, 12.6375, 12.642857, 12.875, 12.875, 13, 13, 13, 13.0625, 13.125, 13.375, 13.604166, -10, -10, -10, -10, -10, -10, 24.875, 25.458334, 25.46875, 25.5, 25.625, 25.875, 26, 26.125, 26.25, 26.375, 26.6875, 27.044643, 27.1875, -10, -10, -10, -10, -10, -10, -10, -10, -10, -10, -10, -10, -10, -10, -10, -10, -10, -10, -10, -10, 21.375, 21.333334, 21.25, 21.0625, 21.0625, 21, 20.875, 20.625, 20.375, 20.125, 20, 20, 19.9375, 19.9375, 19.875, 19.75, 19.625, 19.375, 19.125, 18.9375, 18.8125, 18.75, 18.6875, 18.625, 18.4375, 18.25, 18.125, 17.9375, 17.9375, 17.75, 17.5, 17.3125, 17.0625, 17, 16.875, 16.6875, 16.5625, 16.410713, 16.330357, 16.383928, 16.375, 16.3125, 16.125, 16, 15.875, 15.741072, 15.4375, 15.25, 15.125, 15.125, 15.107143, 14.9375, 14.875, 14.5625, 14.375, 14.1875, 14, 14, 13.875, 13.625, 13.375, 13.125, 13, 13, 13, 13, 13, 12.875, 12.625, 12.375, 12.125, 12, 12, 11.875, 11.625, 11.375, 11.125, 11, 10.9375, 10.875, 10.8125, 10.625, 10.4375, 10.25, 10.0625, 10, 10, 9.9375, 9.8125, 9.625, 9.375, 9.1875, 9.0625, 8.9375, 8.9642859, 8.9375, 8.6964283, 8.5089283, 8.25, 8.125, 8, 8, 8, 8, 7.75, 7.5, 7.25, 7, 7, 7, 7, 6.75, 6.5, 6.25, 6, 6, 6, 6, 5.9375, 5.6875, 5.4375, 5.25, 5.125, 5.3125, 5.5714283, 5.9910717, 6.5416665, 6.8660717, 7.125, 7.2991071, 7.5816321, 7.9377551, 7.8673468, 7.9744897, 7.9285712, 7.8214288, 7.2529764, 6.9151788, 6.6624999, 6.4444442, -10, -10, -10, -10, -10, -10, -10, 11.166667, 11.333333, 11.3125, 11.25, 11.1875, 11.125, 11.0625, 11.0625, 11.1875, 11.3125, 11.5625, 11.75, 11.875, 12.0625, 12.1875, 12.160714, 12.0625, 12.34375, 12.5625, 13.119047, 13.348214, 13.370536, 13.375, 13.4375, 13.5625, 13.75, 14, 14.3125, 14.875, 15.672619, 16.178572, 16.625, 16.602678, 16.543751, 16.736607, 16.736607, 16.9375, 17, 17, 17.125, 17.383928, 17.949406, 18.449406, 18.544643, 18.625, 18.6875, 18.5625, 18.5625, 18.46875, 18.34375, 18.53125, 18.65625, 18.875, 19, 19, 19.0625, 18.9375, 18.6875, 18.5, 18.517857, 18.770834, 19.044643, 19.25, 19.1875, 19, 18.8125, 18.723213, 18.5, 18.464287, 18.580357, 19.184525, 19.651787, 19.928572, 20, 20, 20, 20, 20, 20, 20, 20.125, 20.125, 20.107143, 19.916666, 19.830357, 20, 20.3125, 20.625, 20.875, 20.9375, 20.875, 20.875, 20.875, 21.125, 21.25, 21.3125, 21.3125, 21.25, 21.1875, 21.125, 21.125, 21.0625, 21.125, 21.125, 21.25, 21.25, 21.0625, 20.8125, 20.791666, 21.482143, 21.699999, -10, -10, -10, 9.520833, 9.6488094, 9.53125, 9.375, 9.1875, 9.0625, 9, 8.8125, 8.7142859, 8.625, 8.6875, 8.875, 8.9375, 9, 9, 9, 9, 9, 9, 9.0625, 9.1875, 9.375, 9.5625, 9.6875, 9.75, 9.6875, 9.6875, 9.75, 9.8125, 9.9375, 10, 10, 10, 10.0625, 10.0625, 10.0625, 10.0625, 10.0625, 10.25, 10.4375, 10.625, 10.75, 10.758928, 11.020833, 11.116072, 11.1875, 11.25, 11.1875, 11.3125, 11.4375, 11.625, 11.8125, 11.75, 11.8125, 11.90625, 12.09375, 12.049107, 12.049107, 12.0625, 12.125, 12.3125, 12.375, 12.3125, 12.214286, 12.330357, 12.5125, 12.642857, 12.875, 12.875, 13, 13, 13.0625, 13.125, 13.1875, 13.4375, 13.5, -10, -10, -10, -10, -10, -10, 24.583334, 24.958334, 25.03125, 25.1875, 25.419643, 25.625, 25.75, 25.875, 26.0625, 26.3125
18.3125, 18.125, 18, 18, 17.8125, 17.5625, 17.3125, 17.0625, 17, 16.875, 16.6875, 16.4375, 16.25, 16.25, 16.3125, 16.375, 16.3125, 16.0625, 15.9375, 15.875, 15.678572, 15.4375, 15.25, 15.125, 15.160714, 15, 14.821428, 14.75, 14.5, 14.375, 14.1875, 14, 14, 13.9375, 13.75, 13.5, 13.25, 13.0625, 13, 13, 13, 13, 12.875, 12.625, 12.375, 12.125, 12, 12, 11.875, 11.625, 11.375, 11.125, 11, 11, 11, 11, 10.8125, 10.5625, 10.375, 10.125, 10.0625, 10, 9.8125, 9.75, 9.5625, 9.375, 9.25, 9.0625, 8.9375, 8.9642859, 8.875, 8.5714283, 8.3839283, 8.125, 8.0625, 8, 8, 8, 8, 7.75, 7.5, 7.25, 7, 7, 7, 7, 6.8125, 6.5625, 6.3125, 6.0625, 6, 6, 6, 6, 5.75, 5.5, 5.34375, 5.1875, 5.375, 5.7589283, 6.3452382, 6.9613094, 7.4183679, 7.5765305, 7.8214288, 8.2276783, 8.6196423, 8.5714283, 8.6339283, 8.5, 8.25, 7.7529764, 7.3526788, 7.1312499, -10, -10, -10, -10, -10, -10, -10, -10, 11.208333, 11.145833, 11.0625, 11, 11, 11, 11, 11, 11.0625, 11.125, 11.3125, 11.5, 11.6875, 11.875, 12, 11.973214, 11.875, 12.1875, 12.4375, 12.931547, 13.098214, 13.151786, 13.125, 13.25, 13.375, 13.5625, 13.8125, 14.125, 14.625, 15.089286, 15.607143, 16.375, 16.352678, 16.043751, 16.331633, 16.270407, 16.561224, 16.75, 16.964287, 17.125, 17.321428, 17.904762, 18.449406, 18.482143, 18.5625, 18.5, 18.375, 18.5, 18.5, 18.330357, 18.517857, 18.6875, 19, 19.098213, 19.026787, 19.0625, 18.875, 18.6875, 18.5, 18.5, 18.5625, 18.875, 19.0625, 19.125, 19.1875, 18.928572, 18.830357, 18.5625, 18.4375, 18.642857, 19.229168, 19.607143, 19.875, 19.9375, 20, 19.9375, 19.875, 19.875, 19.875, 19.9375, 20.125, 20.1875, 20.169643, 19.916666, 19.794643, 19.875, 20.125, 20.5, 20.75, 20.875, 20.9375, 20.9375, 20.9375, 21.125, 21.1875, 21.1875, 21.1875, 21.1875, 21.125, 21.125, 21.125, 21.0625, 21.1875, 21.25, 21.4375, 21.5, 21.375, 21.1875, 21.211309, 21.711309, 21.862499, -10, -10, -10, 9.520833, 9.604166, 9.46875, 9.3125, 9.125, 8.9375, 8.875, 8.8125, 8.75, 8.6875, 8.75, 8.875, 8.9375, 9, 9, 9, 9, 9, 9, 9, 9.0625, 9.1875, 9.3125, 9.4375, 9.5, 9.4375, 9.5089283, 9.75, 9.8125, 10, 10, 10, 10, 10, 10, 10.0625, 10.125, 10.3125, 10.5625, 10.75, 10.9375, 11, 10.9375, 10.9375, 10.9375, 11.0625, 11.25, 11.3125, 11.4375, 11.4375, 11.5, 11.625, 11.625, 11.75, 11.90625, 12.09375, 11.986607, 11.986607, 12, 12.125, 12.4375, 12.5625, 12.5625, 12.464286, 12.517857, 12.6375, 12.705357, 12.875, 12.875, 13, 13, 13.0625, 13.0625, 13.125, 13.375, 13.416667, -10, -10, -10, -10, -10, -10, 24.5625, 24.541668, 24.65625, 24.84375, 25.138393, 25.34375, 25.46875, 25.625, 25.8125, 26.125, 26.5, 26.75, 26.916666, -10, -10, -10, -10, -10, -10, -10, -10, -10, -10, -10, -10, -10, -10, -10, -10, -10, -10, -10, -10, 21.625, 21.416668, 21.3125, 21.0625, 21, 21, 20.8125, 20.625, 20.4375, 20.1875, 20.125, 20.0625, 19.9375, 19.9375, 19.9375, 19.875, 19.6875, 19.4375, 19.1875, 19, 19, 19, 18.875, 18.6875, 18.4375, 18.1875, 18.0625, 18, 18, 17.75, 17.5, 17.25, 17, 17, 16.875, 16.6875, 16.4375, 16.1875, 16.125, 16.125, 16.125, 16.125, 15.9375, 15.875, 15.875, 15.678572, 15.4375, 15.25, 15.125, 15.160714, 14.9375, 14.696428, 14.5625, 14.3125, 14.25, 14.125, 14, 14, 14, 13.8125, 13.5625, 13.3125, 13.0625, 13, 13, 12.9375, 12.875, 12.6875, 12.4375, 12.25, 12.0625, 12, 12, 11.9375, 11.6875, 11.4375, 11.1875, 11, 11, 11, 11, 10.8125, 10.5625, 10.375, 10.1875, 10.125, 10, 9.7767859, 9.6875, 9.5, 9.375, 9.25, 9.0625, 8.9375, 8.9642859, 8.875, 8.5714283, 8.3839283, 8.125, 8.0625, 8, 8, 8, 7.9375, 7.75, 7.5625, 7.3125, 7.125, 7.0625, 7, 6.9375, 6.8125, 6.5625, 6.3125, 6.125, 6, 6, 6, 6, 5.8125, 5.5625, 5.40625, 5.25, 5.375, 5.7946429, 6.5119047, 7.2321429, 8.1836729, 8.4285717, 8.6071424, 8.6339283, 9.0258923, 8.9464283, 9.0089283, 8.75, 8.4375, 7.9404764, 7.5714288, 7.4749999, -10, -10, -10, -10, -10, -10, -10, 11.75, 11.386905, 11.0625, 10.883928, 10.8125, 10.875, 10.875, 10.875, 10.8125, 10.75, 10.75, 10.9375, 11.125, 11.375, 11.6875, 11.8125, 11.8125, 11.75, 11.8125, 11.991072, 12.369047, 12.625, 12.723214, 12.625, 12.991072, 13.053572, 13.3125, 13.5, 13.8125, 14.25, 14.651786, 15.214287, 16.25, 16.339285, 16.066071, 15.696429, 15.514285, 15.857144, 16.6875, 16.964287, 17.0625, 17.133928, 17.547619, 18.074406, 18.169643, 18.3125, 18.3125, 18.3125, 18.5625, 18.723213, 18.580357, 18.705357, 18.75, 18.9375, 18.973213, 18.901787, 18.9375, 18.8125, 18.6875, 18.4375, 18.375, 18.375, 18.625, 18.8125, 18.875, 19, 19.071428, 18.705357, 18.5, 18.375, 18.580357, 19.139881, 19.419643, 19.803572, 19.866072, 19.9375, 19.8125, 19.71875, 19.71875, 19.78125, 19.90625, 20.125, 20.1875, 20.232143, 19.979166, 19.857143, 19.875, 20, 20.375, 20.625, 20.875, 21, 21, 21, 21.0625, 21.125, 21.125, 21.125, 21.1875, 21.125, 21.125, 21.125, 21.125, 21.3125, 21.4375, 21.6875, 21.678572, 21.487499, 21.419643, 21.380953, 21.815477, 21.9, 22.125, 22, 9, 9.270833, 9.354166, 9.28125, 9.1875, 9.0625, 8.9375, 8.875, 8.9375, 8.9375, 8.9375, 9, 9, 9, 9, 9, 9, 9, 9, 9.0625, 9.125, 9.125, 9.25, 9.25, 9.25, 9.3125, 9.1875, 9.3214283, 9.625, 9.75, 10, 10, 10, 10, 10, 10, 10.125, 10.25, 10.4375, 10.6875, 10.8125, 10.9375, 11, 11, 11.0625, 11.125, 11.25, 11.375, 11.375, 11.4375, 11.375, 11.375, 11.5, 11.5, 11.625, 11.84375, 11.96875, 11.861607, 11.924107, 11.9375, 12.1875, 12.5, 12.6875, 12.6875, 12.526786, 12.580357, 12.7, 12.767857, 12.9375, 12.9375, 13, 13, 13.0625, 13.0625, 13.125, 13.375, 13.416667, -10, -10, -10, -10, -10, -10, 24.4375, 24.458334, 24.59375, 24.78125, 25.138393, 25.28125, 25.34375, 25.5, 25.6875, 26
18.0625, 18, 18, 18, 17.75, 17.5625, 17.3125, 17.0625, 17.0625, 16.9375, 16.8125, 16.5625, 16.3125, 16.125, 16, 16, 16, 15.875, 15.875, 15.875, 15.75, 15.6875, 15.4375, 15.3125, 15.223214, 14.875, 14.571428, 14.375, 14.1875, 14.25, 14.1875, 14.125, 14.0625, 13.9375, 13.75, 13.5, 13.25, 13.0625, 13, 12.9375, 12.875, 12.8125, 12.5625, 12.375, 12.1875, 12, 12, 12, 11.875, 11.625, 11.375, 11.125, 11, 11, 11, 11, 10.875, 10.625, 10.4375, 10.25, 10.125, 10, 9.7142859, 9.5, 9.2767859, 9.1875, 9.125, 9.0625, 9, 9, 8.875, 8.75, 8.5, 8.25, 8.125, 8, 8, 8, 7.9375, 7.8125, 7.625, 7.375, 7.1875, 7.0625, 7, 6.9375, 6.875, 6.6875, 6.4375, 6.25, 6.0625, 6, 6, 6, 5.8125, 5.5625, 5.4270835, 5.3333335, 5.5, 5.9761906, 7.208333, 7.6071429, 8.3571434, 8.625, 8.875, 9.0625, 9.3258934, 9.375, 9.375, 9.0625, 8.6875, 8.4196434, 8.0595245, 7.7999997, -10, -10, -10, -10, -10, -10, 11.75, 11.722222, 11.369047, 10.943453, 10.821428, 10.6875, 10.75, 10.75, 10.6875, 10.625, 10.5625, 10.5, 10.6875, 10.875, 11.125, 11.5, 11.6875, 11.75, 11.75, 11.8125, 11.9375, 12.098214, 12.375, 12.348214, 12.339286, 12.785714, 12.857143, 13.125, 13.25, 13.5625, 13.9375, 14.232143, 14.821428, 16.125, 16.357143, 16.066071, 15.9375, 16.163265, 16.469389, 16.75, 17.026787, 17.125, 17.125, 17.339285, 17.833334, 17.982143, 18.1875, 18.1875, 18.25, 18.5, 18.660713, 18.580357, 18.705357, 18.75, 18.9375, 18.973213, 18.901787, 18.9375, 18.875, 18.75, 18.5, 18.4375, 18.5, 18.857143, 19, 19.0625, 19.0625, 19, 18.830357, 18.6875, 18.625, 18.821428, 19.181547, 19.428572, 19.803572, 19.866072, 19.9375, 19.8125, 19.71875, 19.71875, 19.78125, 19.90625, 20.125, 20.25, 20.232143, 19.916666, 19.794643, 19.75, 19.875, 20.3125, 20.5625, 20.8125, 21, 21, 21, 21.0625, 21.0625, 21.0625, 21.0625, 21.0625, 21.125, 21.125, 21.1875, 21.25, 21.4375, 21.625, 21.741072, 21.532738, 21.317858, 21.357143, 21.523809, 21.895834, 22, 22.083334, 22, 22, 8.833333, 8.958333, 9, 9, 9, 8.9375, 8.9375, 9.0625, 9.0625, 9.0625, 9.0625, 9, 9, 9, 9, 9, 9, 9, 9.0625, 9.0625, 9.0625, 9.125, 9.0625, 9.0625, 9.0625, 9, 9.1964283, 9.5625, 9.75, 10, 10, 10, 10.0625, 10.125, 10.1875, 10.375, 10.5, 10.6875, 10.875, 10.9375, 11, 11, 11, 11.0625, 11.1875, 11.3125, 11.4375, 11.4375, 11.375, 11.25, 11.1875, 11.25, 11.3125, 11.4375, 11.6875, 11.8125, 11.705357, 11.892857, 11.9375, 12.1875, 12.5, 12.5625, 12.625, 12.589286, 12.625, 12.75, 12.875, 12.9375, 13, 13, 13, 13.0625, 13.125, 13.1875, 13.375, 13.416667, -10, -10, -10, -10, -10, -10, 24.333334, 24.375, 24.541666, 24.71875, 25.138393, 25.21875, 25.21875, 25.3125, 25.375, 25.625, 26.071428, 26.583334, 27.023809, 27.6, -10, -10, -10, -10, -10, -10, -10, -10, -10, -10, -10, -10, -10, -10, -10, -10, -10, -10, -10, 21.875, 21.75, 21.5625, 21.375, 21.1875, 21.0625, 20.875, 20.625, 20.4375, 20.25, 20.25, 20.1875, 20, 19.767857, 19.625, 19.4375, 19.3125, 19.1875, 19.0625, 19, 19, 19, 18.875, 18.625, 18.375, 18.125, 18, 18, 18, 17.8125, 17.6875, 17.4375, 17.1875, 17.125, 17, 16.9375, 16.75, 16.5, 16.25, 16.0625, 16, 16, 15.9375, 15.9375, 15.9375, 15.8125, 15.6875, 15.4375, 15.25, 15.035714, 14.580357, 14.321428, 14.232143, 14.241072, 14.3125, 14.25, 14.1875, 14.0625, 13.9375, 13.75, 13.5, 13.25, 13.0625, 13, 12.9375, 12.875, 12.75, 12.5, 12.3125, 12.125, 12, 12, 12, 11.875, 11.6875, 11.4375, 11.1875, 11.0625, 11, 11, 11, 10.875, 10.625, 10.4375, 10.25, 10.125, 10, 9.7767859, 9.5625, 9.3392859, 9.25, 9.125, 9.0625, 9, 9, 8.9375, 8.875, 8.625, 8.375, 8.1875, 8, 8, 8, 7.9375, 7.8125, 7.625, 7.375, 7.1875, 7.0625, 7, 6.9375, 6.875, 6.6875, 6.4375, 6.25, 6.0625, 6, 6, 6, 5.8125, 5.5625, 5.385417, -10, -10, -10, 7.895833, 8.2738094, 9.0446434, 9.375, 9.625, 9.71875, 9.84375, 9.8125, 9.6875, 9.40625, 8.96875, 8.71875, 8.541667, -10, -10, -10, -10, -10, -10, -10, 11.791667, 11.770834, 11.665922, 11.302828, 11.196428, 11.008928, 10.708333, 10.571428, 10.4375, 10.375, 10.3125, 10.25, 10.375, 10.5625, 10.8125, 11.1875, 11.4375, 11.5, 11.5625, 11.625, 11.75, 11.9375, 12.1875, 12.160714, 12.089286, 12.473214, 12.544643, 12.8125, 13, 13.3125, 13.916667, 14.196428, 14.821428, 16.125, 16.473213, 16.303572, 16.204082, 16.214285, 16.397961, 16.75, 17.026787, 17.125, 17.1875, 17.392857, 17.6875, 17.9375, 18.0625, 18.0625, 18.1875, 18.4375, 18.723213, 18.767857, 18.892857, 18.875, 18.9375, 18.910713, 18.839287, 18.875, 18.8125, 18.75, 18.5625, 18.5625, 18.75, 19.044643, 19.1875, 19.25, 19.25, 19.25, 19.080357, 18.875, 18.8125, 18.9375, 19.035713, 19.3125, 19.678572, 19.803572, 19.9375, 19.8125, 19.71875, 19.71875, 19.78125, 19.90625, 20.0625, 20.125, 20.0625, 19.875, 19.714287, 19.6875, 19.75, 20.125, 20.4375, 20.6875, 20.875, 20.875, 20.875, 20.8125, 20.8125, 20.875, 20.875, 21, 21.1875, 21.25, 21.375, 21.5, 21.625, 21.8125, 21.866072, 21.532738, 21.380358, 21.482143, 21.669643, 21.9375, 22, 22.0625, 22, 8.5, 8.583333, 8.708333, 8.8125, 8.875, 8.9375, 8.9375, 8.9375, 9.0625, 9.0625, 9.0625, 9.0625, 9, 9, 9, 9, 9, 9, 9.0625, 9.1875, 9.25, 9.3125, 9.3125, 9.1875, 9.125, 9.0625, 9, 9.2589283, 9.625, 9.8125, 10.0625, 10, 10, 10.0625, 10.1875, 10.25, 10.4375, 10.5625, 10.6875, 10.8125, 10.875, 10.9375, 10.9375, 11, 11.0625, 11.25, 11.285714, 11.205357, 11.133928, 11, 11, 11.0625, 11.294643, 11.4375, 11.5625, 11.75, 11.8125, 11.8125, 12, 12.0625, 12.1875, 12.375, 12.4375, 12.625, 12.75, 12.875, 13, 13, 13, 13, 13, 13.0625, 13.125, 13.25, 13.3125, 13.40625, 13.458333, -10, -10, -10, -10, -10, -10, -10, 24.5, 24.729166, 24.78125, 25.03125, 25.09375, 25.09375, 25.25, 25.3125, 25.4375
