-10, -10, -10, -10, -10, -10, -10, -10, -10, -10, -10, -10, -10, -10, -10, -10, -10, -10, -10, -10, -10, -10, -10, -10, -10, -10, -10, -10, -10, -10, -10, -10, -10, -10, -10, -10, -10, -10, -10, -10, -10, -10, -10, -10, -10, -10, -10, -10, -10, -10, -10, -10, -10, -10, -10, -10, -10, -10, -10, -10, -10, -10, -10, -10, -10, -10, -10, -10, -10, -10, -10, -10, -10, -10, -10, -10, -10, -10, -10, -10, -10, -10, -10, -10, -10, -10, -10, -10, -10, -10, -10, -10, -10, -10, -10, -10, -10, -10, -10, -10, -10, -10, -10, -10, -10, -10, -10, -10, -10, -10, -10, 105.16666, 104.63334, 103.475, 102.73215, 101.18452, 100.66964, 99.964287, 98.516663, 97.446426, 96.428574, 95.919647, 95.011909, 94.135719, 92.863098, 91.732147, 90.648804, 89.398811, 88.625, 87.726189, 86.523811, 85.523811, 84.714279, 83.851189, 83.491074, 83.1875, 83.35714, 83.571426, 83.647957, 83.678574, 83.714287, 83.571426, 83.5, 83.5, 83.464287, 83.571426, 83.612244, 83.60714, 83.765312, 83.678574, 83.85714, 83.714287, 83.916664, 84, 84.041664, 84.041664, 83.89286, 83.89286, 83.785713, 83.89286, 83.85714, 83.714287, 83.64286, 83.5, 83.5, 83.571426, 83.714287, 83.785713, 83.785713, 83.5, 83.3125, 83.25, 83.258926, 83.678574, 83.714287, 83.785713, 83.64286, 83.571426, 83.5, 83.666664, 83.5, 83.5, 83.5, 83.591835, 83.809525, 83.918373, 83.928574, 83.85714, 83.785713, 83.714287, 83.714287, 83.714287, 83.714287, 83.714287, 83.714287, 83.64286, 83.571426, 83.28125, 83.25, 83.25, 83.25, 83.34375, 83.3125, 83.693886, 84.075005, 83.833336, 83.845238, 83.428574, 83.5, 83.612244, 83.64286, 83.5, 83.4375, 83.10714, 83.071426, 83.383926, 83.785713, 83.714287, 83.714287, 83.64286, 83.375, 83.5, 83.285713, 83.25, 83.178574, 83.071426, 83.035713, 83.3125, 83.5, 83.5625, 83.4375, 83.3125, 83.15625, 83.125, 83.428574, 83.535713, 83.553574, 83.5, 83.556114, 83.809525, 83.918373, 83.666664, 83.321426, 83.214287, 83.4375, 83.375, 83.4375, 83.4375, 83.3125, 83.1875, 82.785713, 83.403061, 83.64286, 83.678574, 83.785713, 83.785713, 83.785713, 83.5, 83.5, 83.4375, 83.714287, 83.714287, 83.714287, 83.714287, 83.64286, 83.714287, 83.714287, 83.714287, 83.714287, 83.785713, 83.755104, 83.591835, 83.455353, 83.375, 83.5, 83.625, 83.625, 83.6875, 83.5625, 83.4375, 83.071426, 83.25, 83.1875, 83.39286, 83.35714, 83.35714, 83.321426, 83.0625, 83.1875, 83.25, 83.375, 83.5625, 83.5625, 83.5, 83.571426, 83.5, 83.5, 83.571426, 83.64286, 83.678574, 83.64286, 83.464287, 83.352043, 83.285713, 83.285713, 83.35714, 83.285713, 83.285713, 83.214287, 83.14286, 83.400002, 83.25, 83.295914, 83.125, 83, 82.9375, 83.214287, 82.982147, 82.9375, 83.125, 83.107147, 83.464287, 83.469383, 83.306114, 83.295914, 83.32653, 83.341835, 83.295914, 83.0625, 83.125, 83.0625, 83.214287, 83.178574, 83.17347, 83.559525, 83.684525, 83.708336, 83.267853, 83.178574, 83.071426, 83.089287, 83.25, 83.1875, 83.438774, 83.510201, 83.571426, 83.85714, 83.901787, 83.9375, 83.85714, 83.714287, 83.714287, 84.25, 84.14286, 83.89286, 83.571426, 83.276192, -10, -10, -10, -10, -10, -10, -10, -10, -10, -10, -10, -10, -10, -10, -10, -10, -10, -10, -10, -10, -10, -10, -10, -10, -10, -10, -10, -10, -10, -10, -10, -10, -10, -10, -10, -10, -10, -10, -10, -10, -10, -10, -10, -10, -10, -10, -10, -10, -10, -10, -10, -10, -10, -10, -10, -10, -10, -10, -10, -10, -10, -10, -10, -10, -10, -10, -10, -10, -10, -10, -10, -10, -10, -10, -10, -10, -10, -10, -10, -10, -10, -10, -10, -10, -10, -10, -10, -10, -10, -10, -10, -10, -10, -10, -10, -10, -10, -10, -10, -10, -10, -10, -10, -10, -10, -10, -10, -10, -10, -10, -10, -10, -10, -10, -10, -10, -10, -10, -10, -10, -10, -10, -10, -10, -10, -10, -10, -10, -10, -10, 105.45834, 104.8, 103.75, 102.69048, 101.3512, 100.5744, 99.821426, 98.421425, 97.309525, 96.571426, 96.026787, 94.824409, 93.957146, 93, 91.791664, 90.72023, 89.48214, 88.767853, 87.666672, 86.452385, 85.607147, 84.901779, 84.455353, 84.25, 84.428574, 84.5, 84.678574, 84.535713, 84.5, 84.4375, 84.428574, 84.35714, 84.428574, 84.5, 84.5, 84.473213, 84.64286, 84.544647, 84.64286, 84.625, 84.75, 84.785713, 84.85714, 84.928574, 84.89286, 84.89286, 84.75, 84.660713, 84.75, 84.6875, 84.5, 84.4375, 84.3125, 84.3125, 84.375, 84.5, 84.5625, 84.5625, 84.5, 84.64286, 84.64286, 84.724487, 84.928574, 84.85714, 84.85714, 84.678574, 84.64286, 84.60714, 84.571426, 84.678574, 84.714287, 84.178574, 84.306114, 85.023811, 85.061226, 85, 84.85714, 84.785713, 84.714287, 84.714287, 84.714287, 84.714287, 84.714287, 84.714287, 84.678574, 84.714287, 84.64286, 84.60714, 84.571426, 84.464287, 84.34375, 84.535713, 84.765312, 84.921432, 84.714287, 84.795914, 84.678574, 84.178574, 84.32653, 84.321426, 84.6875, 84.85714, 84.958336, 85, 84.653061, 84.785713, 84.714287, 84.5, 84.4375, 84.375, 84.64286, 84.875, 84.833336, 84.875, 84.791664, 84.791664, 84.60714, 84.64286, 84.64286, 84.1875, 84, 84.044647, 84.044647, 84.1875, 84.428574, 84.25, 84.25, 84.330353, 84.809525, 84.918373, 85.166664, 85.041664, 84.916664, 84.64286, 84.571426, 84.64286, 84.64286, 84.571426, 84.428574, 84.5, 84.295914, 84.5, 84.571426, 84.714287, 84.5625, 84.5625, 84.5, 84.5, 84.4375, 84.714287, 84.75, 84.75, 84.75, 84.678574, 84.714287, 84.714287, 84.714287, 84.714287, 84.785713, 84.755104, 84.392853, 84.392853, 84.3125, 84.4375, 84.5, 84.5, 84.5, 84.571426, 84.428574, 84.5, 84.0625, 84.178574, 84.285713, 84.321426, 84.39286, 84.35714, 84.0625, 84.1875, 84.25, 84.375, 84.714287, 84.714287, 84.678574, 84.571426, 84.5, 84.5, 84.535713, 84.4375, 84.5, 84.5, 84.375, 84.276787, 84.5, 84.5, 84.535713, 84.25, 84.25, 84.5, 84.5, 84.485718, 84.377548, 84.32653, 84.321426, 84.169647, 83.846939, 84.125, 84.336739, 84.178574, 84.428574, 84.479599, 84.60714, 84.612244, 84.267853, 84.258926, 84.223213, 84.23214, 84.469383, 84.224487, 84.188774, 84.10714, 84.178574, 84.25, 84.387756, 84.622452, 84.693886, 84.678574, 84.448975, 84.583336, 84.505951, 84.102043, 84.214287, 84.285713, 84.39286, 84.3125, 84.4375, 84.6875, 85.137756, 85.10714, 85.416664, 85.291664, 85.25, 85.14286, 85.10714, 84.964287, 84.714287, 84.466667, -10
-10, -10, -10, -10, -10, -10, -10, -10, -10, -10, -10, -10, -10, -10, -10, -10, -10, -10, -10, -10, -10, -10, -10, -10, -10, -10, -10, -10, -10, -10, -10, -10, -10, -10, -10, -10, -10, -10, -10, -10, -10, -10, -10, -10, -10, -10, -10, -10, -10, -10, -10, -10, -10, -10, -10, -10, -10, -10, -10, -10, -10, -10, -10, -10, -10, -10, -10, -10, -10, -10, -10, -10, -10, -10, -10, -10, -10, -10, -10, -10, -10, -10, -10, -10, -10, -10, -10, -10, -10, -10, -10, -10, -10, -10, -10, -10, -10, -10, -10, -10, -10, -10, -10, -10, -10, -10, -10, -10, -10, -10, -10, 105.95834, 105.025, 103.94048, 102.80357, 101.68452, 100.59226, 99.785721, 98.492851, 97.345238, 96.589287, 96.026787, 94.595245, 93.814285, 92.928574, 91.821434, 90.886902, 89.696426, 88.726196, 87.595238, 86.619057, 85.875, 85.392853, 85.125, 85.321426, 85.464287, 85.60714, 85.714287, 85.714287, 85.4375, 85.375, 85.035713, 84.964287, 85.571426, 85.571426, 85.535713, 85.3125, 85.3125, 85.375, 85.4375, 85.5625, 85.5625, 85.625, 85.6875, 85.75, 85.6875, 85.625, 85.625, 85.755104, 85.785713, 85.785713, 85.64286, 85.571426, 85.5, 85.5, 85.571426, 85.64286, 85.714287, 85.714287, 85.678574, 85.714287, 85.75, 85.82653, 85.928574, 85.785713, 85.678574, 85.571426, 85.571426, 85.64286, 85.714287, 85.785713, 85.785713, 86, 86.095238, 86.023811, 85.989799, 85.928574, 85.785713, 85.64286, 85.64286, 85.64286, 85.64286, 85.785713, 85.85714, 85.85714, 85.85714, 85.85714, 85.76786, 85.75, 85.64286, 85.428574, 85.446426, 85.428574, 85.622452, 85.650002, 85.714287, 85.633926, 85.785713, 86, 86.083336, 86, 85.89286, 85.928574, 85.821426, 85.785713, 85.612244, 85.64286, 85.571426, 85.4375, 85.64286, 85.60714, 85.714287, 85.75, 85.714287, 85.785713, 85.714287, 85.714287, 85.75, 85.714287, 85.678574, 85.1875, 84.9375, 85.260201, 85.341843, 85.35714, 85.142853, 85.0625, 85.071426, 85.413696, 85.931969, 86.061226, 86, 85.821426, 85.714287, 85.64286, 85.64286, 85.75, 85.75, 85.714287, 85.60714, 85.428574, 85.133926, 85.25, 85.25, 85.3125, 85.428574, 85.428574, 85.464287, 85.535713, 85.60714, 85.714287, 85.5625, 85.5625, 85.5625, 85.714287, 85.714287, 85.714287, 85.714287, 85.714287, 85.785713, 85.755104, 85.591835, 85.591835, 85.5, 85.571426, 85.571426, 85.5, 85.464287, 85.35714, 85.25, 85.214287, 85.178574, 84.9375, 85.0625, 85.0625, 85.125, 85.25, 85.14286, 85.285713, 85.35714, 85.535713, 85.714287, 85.714287, 85.714287, 85.4375, 85.3125, 85.25, 85.1875, 85.1875, 85.428574, 85.5, 85.428574, 85.464287, 85.535713, 85.535713, 85.60714, 85.535713, 85.535713, 85.60714, 85.678574, 85.714287, 85.330353, 85.428574, 85.39286, 85.479599, 85.64286, 85.428574, 85.489799, 85.428574, 85.60714, 85.632652, 85.714287, 85.612244, 85.377548, 85.224487, 85.178574, 85.214287, 85.535713, 85.133926, 85.071426, 84.9375, 84.9375, 85, 85.089287, 85.294647, 85.419647, 85.375, 85.367348, 85.321426, 85.18367, 85.030617, 85.10714, 85.214287, 85.125, 85.25, 85.4375, 85.6875, 86.183678, 86.285713, 86.428574, 86.321426, 86.204086, 85.729164, 85.729164, 85.699997, 85.455353, 85.590469, -10, -10, -10, -10, -10, -10, -10, -10, -10, -10, -10, -10, -10, -10, -10, -10, -10, -10, -10, -10, -10, -10, -10, -10, -10, -10, -10, -10, -10, -10, -10, -10, -10, -10, -10, -10, -10, -10, -10, -10, -10, -10, -10, -10, -10, -10, -10, -10, -10, -10, -10, -10, -10, -10, -10, -10, -10, -10, -10, -10, -10, -10, -10, -10, -10, -10, -10, -10, -10, -10, -10, -10, -10, -10, -10, -10, -10, -10, -10, -10, -10, -10, -10, -10, -10, -10, -10, -10, -10, -10, -10, -10, -10, -10, -10, -10, -10, -10, -10, -10, -10, -10, -10, -10, -10, -10, -10, -10, -10, -10, -10, -10, -10, -10, -10, -10, -10, -10, -10, -10, -10, -10, -10, -10, -10, -10, -10, -10, -10, 107.5, 106.52381, 105.23334, 104.31548, 102.98691, 101.89285, 100.69941, 99.857147, 98.492851, 97.345238, 96.651787, 96, 94.208336, 93.535713, 92.803574, 91.821434, 90.886902, 89.613091, 88.65477, 87.761902, 86.886909, 86.428574, 86.125, 86, 86.35714, 86.5, 86.60714, 86.714287, 86.714287, 86.64286, 86.571426, 86.875, 86.958336, 86.785713, 86.785713, 86.4375, 86.25, 86.1875, 86.1875, 86.428574, 86.571426, 86.64286, 86.714287, 86.714287, 86.5625, 86.4375, 86.4375, 86.5625, 86.755104, 86.663261, 86.663261, 86.535713, 86.571426, 86.60714, 86.60714, 86.64286, 86.678574, 86.714287, 86.714287, 86.714287, 86.785713, 86.85714, 86.89286, 86.85714, 86.4375, 86.25, 86.21875, 86.25, 86.375, 86.714287, 86.785713, 86.821426, 86.85714, 86.938774, 86.770836, 86.741074, 86.6875, 86.5625, 86.4375, 86.375, 86.375, 86.375, 86.714287, 86.85714, 86.85714, 86.85714, 86.85714, 86.785713, 86.785713, 86.5, 86.3125, 86.3125, 86.10714, 86.265312, 86.39286, 86.39286, 86.6875, 86.89286, 86.85714, 86.928574, 86.85714, 86.928574, 86.75, 86.6875, 86.6875, 86.5, 86.4375, 86.375, 86.60714, 86.678574, 86.678574, 86.5625, 86.625, 86.625, 86.6875, 86.625, 86.85714, 86.85714, 86.85714, 86.85714, 86.60714, 86.428574, 86.510201, 86.520409, 86.464287, 86.267853, 85.85714, 85.867348, 86.819725, 86.955788, 86.803574, 86.8125, 86.6875, 86.625, 86.5625, 86.785713, 86.85714, 86.85714, 86.85714, 86.714287, 86.571426, 86.5, 86.25, 86.25, 86.25, 86, 86.25, 86.3125, 86.60714, 86.678574, 86.714287, 86.714287, 86.714287, 86.714287, 86.714287, 86.714287, 86.714287, 86.785713, 86.785713, 86.625, 86.598213, 86.653061, 86.653061, 86.678574, 86.714287, 86.678574, 86.375, 86.3125, 86, 85.928574, 86.1875, 86.125, 86.0625, 86.125, 86.0625, 86.0625, 86.0625, 86.25, 86.39286, 86.5, 86.60714, 86.64286, 86.64286, 86.64286, 86.571426, 86.3125, 86.25, 86.1875, 86.1875, 86.5, 86.5, 86.39286, 86.35714, 86.39286, 86.535713, 86.719383, 86.714287, 86.714287, 86.714287, 86.75, 86.64286, 86.448975, 86.205353, 86.535713, 86.693886, 86.729599, 86.535713, 86.5, 86.39286, 86.428574, 86.428574, 86.3125, 86.223213, 86.017853, 85.883926, 86.035713, 86.244896, 86.464287, 86.133926, 86.260201, 85.875, 85.71875, 85.71875, 85.78125, 85.84375, 86, 86.0625, 86.0625, 86.125, 86.098213, 85.744896, 85.785713, 86.125, 86.1875, 86.5, 86.64286, 86.89286, 87.132652, 87.25, 87.35714, 87.214287, 86.928574, 86.729164, 86.729164, 86.699997, 86.517853, 86.761909, -10
-10, -10, -10, -10, -10, -10, -10, -10, -10, -10, -10, -10, -10, -10, -10, -10, -10, -10, -10, -10, -10, -10, -10, -10, -10, -10, -10, -10, -10, -10, -10, -10, -10, -10, -10, -10, -10, -10, -10, -10, -10, -10, -10, -10, -10, -10, -10, -10, -10, -10, -10, -10, -10, -10, -10, -10, -10, -10, -10, -10, -10, -10, -10, -10, -10, -10, -10, -10, -10, -10, -10, -10, -10, -10, -10, -10, -10, -10, -10, -10, -10, -10, -10, -10, -10, -10, -10, -10, -10, -10, -10, -10, -10, -10, -10, -10, -10, -10, -10, -10, -10, -10, -10, -10, -10, -10, -10, -10, -10, -10, 107.44445, 106.68333, 105.58334, 104.76786, 103.0881, 101.96429, 100.63691, 99.714287, 98.184517, 97.214287, 96.598213, 96.0625, 94.517853, 93.523804, 92.76786, 91.988098, 91.101189, 89.666664, 88.690483, 87.824402, 87.366074, 87.0625, 87, 87.0625, 87.39286, 87.3125, 87.3125, 87.571426, 87.571426, 87.60714, 87.64286, 87.75, 87.821426, 87.85714, 87.821426, 87.64286, 87.464287, 87.1875, 86.964287, 87.071426, 87.214287, 87.5625, 87.785713, 87.714287, 87.714287, 87.60714, 87.60714, 87.785713, 87.598213, 87.517853, 87.517853, 87.375, 87.4375, 87.714287, 87.714287, 87.64286, 87.571426, 87.5, 87.5, 87.571426, 87.5, 87.5625, 87.53125, 87.5, 87.375, 87.061226, 87.071426, 87.10714, 87.5, 87.785713, 87.5625, 87.625, 87.6875, 87.6875, 87.625, 87.5, 87.4375, 87.64286, 87.571426, 87.375, 87.375, 87.4375, 87.5625, 87.928574, 87.928574, 87.85714, 87.625, 87.5625, 87.5625, 87.5, 87.571426, 87.571426, 87.791664, 87.875, 88, 88, 87.821426, 87.6875, 87.625, 87.625, 87.5625, 87.5625, 87.625, 87.625, 87.5625, 87.4375, 87.571426, 87.571426, 87.64286, 87.714287, 87.714287, 87.714287, 87.64286, 87.64286, 87.5, 87.5, 87.625, 87.625, 87.821426, 87.85714, 87.75, 87.64286, 87.663261, 87.67347, 87.571426, 87.556114, 87.75, 87.797615, 87.916672, 87.908165, 87.85714, 87.785713, 87.714287, 87.714287, 87.714287, 87.785713, 87.85714, 87.85714, 87.85714, 87.75, 87.64286, 87.60714, 87.535713, 87.428574, 87.321426, 87.416664, 87.295914, 87.666672, 87.738098, 87.714287, 87.714287, 87.714287, 87.785713, 87.714287, 87.591835, 87.5, 87.5, 87.64286, 87.714287, 87.785713, 87.785713, 87.714287, 87.785713, 87.85714, 87.85714, 87.785713, 87.64286, 87.5, 87.666664, 87.625, 87.428574, 87.464287, 87.35714, 87.321426, 87.25, 87.214287, 87.321426, 87.39286, 87.3125, 87.571426, 87.64286, 87.4375, 87.4375, 87.4375, 87.60714, 87.571426, 87.5, 87.428574, 87.464287, 87.571426, 87.375, 87.25, 87.1875, 87.1875, 87.3125, 87.755104, 87.714287, 87.714287, 87.5, 87.5, 87.4375, 87.267853, 87.448975, 87.60714, 87.544647, 87.607147, 87.4375, 87.375, 87.035713, 87.035713, 87.035713, 87.035713, 86.928574, 86.85714, 86.821426, 86.785713, 86.948982, 87.229164, 87.193871, 87.112244, 86.928574, 86.65625, 86.71875, 86.5, 86.571426, 86.678574, 87, 87, 87.285713, 87.285713, 87.541664, 87.541664, 87.428574, 87.5, 87.60714, 87.714287, 87.964287, 87.9375, 88.0625, 88.125, 87.9375, 87.989799, 87.690475, 87.833328, 87.942856, 87.85714, 87.809525, -10, -10, -10, -10, -10, -10, -10, -10, -10, -10, -10, -10, -10, -10, -10, -10, -10, -10, -10, -10, -10, -10, -10, -10, -10, -10, -10, -10, -10, -10, -10, -10, -10, -10, -10, -10, -10, -10, -10, -10, -10, -10, -10, -10, -10, -10, -10, -10, -10, -10, -10, -10, -10, -10, -10, -10, -10, -10, -10, -10, -10, -10, -10, -10, -10, -10, -10, -10, -10, -10, -10, -10, -10, -10, -10, -10, -10, -10, -10, -10, -10, -10, -10, -10, -10, -10, -10, -10, -10, -10, -10, -10, -10, -10, -10, -10, -10, -10, -10, -10, -10, -10, -10, -10, -10, -10, -10, -10, -10, -10, -10, -10, -10, -10, -10, -10, -10, -10, -10, -10, -10, -10, -10, -10, -10, -10, -10, -10, -10, 107.33334, 106.76666, 105.86905, 104.60119, 103.09405, 101.96429, 100.875, 99.815475, 98.434517, 97.535713, 96.622025, 95.991074, 94.589279, 93.559517, 92.839287, 92.133926, 91.184525, 89.708336, 88.761909, 88.241074, 88, 88, 88.362244, 88.535713, 88.375, 88.416664, 88.214287, 88.25, 88.214287, 88.5, 88.64286, 88.5, 88.5625, 88.5625, 88.785713, 88.714287, 88.571426, 88.5, 88.75, 88.875, 89, 88.85714, 88.85714, 88.785713, 88.785713, 88.714287, 88.714287, 88.85714, 88.785713, 88.734688, 88.806114, 88.693886, 88.547615, 88.591835, 88.571426, 88.375, 88.4375, 88.14286, 88.178574, 88.285713, 88.321426, 88.5625, 88.40625, 88.3125, 88.464287, 88.76786, 88.895836, 88.916664, 88.75, 88.785713, 88.714287, 88.64286, 88.571426, 88.3125, 88.3125, 88.535713, 88.60714, 88.678574, 88.64286, 88.60714, 88.60714, 88.678574, 88.75, 88.6875, 88.6875, 88.6875, 88.6875, 88.928574, 88.918373, 88.583328, 88.520401, 88.5, 88.535713, 88.60714, 88.64286, 88.64286, 88.678574, 88.714287, 88.4375, 88.4375, 88.4375, 88.4375, 88.4375, 88.571426, 88.535713, 88.5, 88.571426, 88.64286, 88.678574, 88.785713, 88.755104, 88.67347, 88.4375, 88.375, 88.4375, 88.4375, 88.785713, 88.85714, 88.928574, 89, 88.928574, 88.75, 88.693886, 88.473213, 88.60714, 88.724487, 88.75, 88.755104, 88.708336, 88.669647, 88.625, 88.714287, 88.678574, 88.60714, 88.535713, 88.663261, 88.708336, 88.803574, 88.571426, 88.5, 88.928574, 88.85714, 88.75, 88.571426, 88.464287, 88.35714, 88.403061, 88.738098, 88.773811, 88.714287, 88.714287, 88.714287, 88.785713, 88.714287, 88.392853, 88.3125, 88.3125, 88.375, 88.464287, 88.82653, 88.85714, 88.85714, 88.85714, 88.928574, 88.85714, 88.821426, 88.714287, 88.60714, 88.571426, 88.571426, 88.535713, 88.571426, 88.5, 88.428574, 88.464287, 88.39286, 88.535713, 88.678574, 88.714287, 88.785713, 88.678574, 88.5, 88.5, 88.5, 88.571426, 88.678574, 88.64286, 88.678574, 88.647957, 88.520401, 88.403061, 88.178574, 88.10714, 88.178574, 88.39286, 88.68367, 88.5, 88.5, 88.4375, 88.375, 88.5, 88.35714, 88.341835, 88.535713, 88.60714, 88.678574, 88.5, 88.428574, 88.625, 88.666664, 88.75, 88.75, 88.625, 88.583336, 88.625, 88.708336, 88.76786, 88.229164, 88.133926, 87.785713, 87.64286, 88.071426, 88.071426, 88.3125, 88.229164, 88.208336, 88, 88.035713, 88.178574, 88.214287, 88.35714, 88.428574, 88.535713, 88.714287, 88.75, 88.714287, 88.852043, 89, 89.229599, 89.125, 89, 88.803574, 88.738091, 88.880943, 88.971428, 88.918373, 88.809525, -10
-10, -10, -10, -10, -10, -10, -10, -10, -10, -10, -10, -10, -10, -10, -10, -10, -10, -10, -10, -10, -10, -10, -10, -10, -10, -10, -10, -10, -10, -10, -10, -10, -10, -10, -10, -10, -10, -10, -10, -10, -10, -10, -10, -10, -10, -10, -10, -10, -10, -10, -10, -10, -10, -10, -10, -10, -10, -10, -10, -10, -10, -10, -10, -10, -10, -10, -10, -10, -10, -10, -10, -10, -10, -10, -10, -10, -10, -10, -10, -10, -10, -10, -10, -10, -10, -10, -10, -10, -10, -10, -10, -10, -10, -10, -10, -10, -10, -10, -10, -10, -10, -10, -10, -10, -10, -10, -10, -10, -10, -10, 107.33334, 106.71667, 105.78571, 104.52976, 103.09405, 101.83929, 101, 100.02084, 98.696426, 97.589287, 96.604164, 95.699402, 94.577377, 93.568451, 92.901787, 92.133926, 91.297615, 89.851189, 89.303574, 88.9375, 89, 89.5, 89.755104, 89.928574, 90.166664, 90.083336, 90.041664, 90, 89.833336, 89.571426, 89.25, 89.25, 89.375, 89.4375, 89.625, 89.6875, 89.821426, 89.785713, 89.75, 89.75, 89.85714, 89.89286, 89.85714, 89.785713, 89.785713, 89.75, 89.75, 89.85714, 89.785713, 89.795914, 89.867348, 89.836739, 89.479164, 89.517853, 89.214287, 89.4375, 89.64286, 89.958336, 90.041664, 90.166664, 90.125, 89.785713, 89.696426, 89.678574, 89.714287, 89.872452, 89.910713, 89.785713, 89.678574, 89.64286, 89.571426, 89.375, 89.4375, 89.348213, 89.205353, 89.267853, 89.5, 89.571426, 89.67347, 89.719383, 89.678574, 89.821426, 89.75, 89.785713, 89.785713, 89.785713, 89.85714, 89.928574, 89.989799, 89.541664, 89.517853, 89.214287, 89.5, 89.5, 89.4375, 89.375, 89.375, 89.375, 89.571426, 89.64286, 89.64286, 89.64286, 89.714287, 89.214287, 89.25, 89.285713, 89.321426, 89.85714, 89.785713, 89.785713, 89.755104, 89.464287, 89.64286, 89.375, 89.64286, 89.64286, 89.785713, 89.85714, 89.964287, 89.969383, 89.580353, 89.455353, 89.375, 89.375, 89.4375, 89.5625, 89.625, 89.625, 89.625, 89.5, 89.64286, 89.4375, 89.5, 89.285713, 89.214287, 89.580353, 89.916672, 89.954086, 90.208336, 90.166664, 89.928574, 89.85714, 89.785713, 89.571426, 89.428574, 89.35714, 89.367348, 89.738098, 89.738098, 89.64286, 89.64286, 89.64286, 89.785713, 89.714287, 89.591835, 89.5, 89.5, 89.4375, 89.526787, 89.723213, 89.964287, 89.928574, 89.928574, 89.89286, 89.625, 89.625, 89.5, 89.571426, 89.571426, 89.571426, 89.3125, 89.375, 89.3125, 89.25, 89.5, 89.464287, 89.60714, 89.75, 89.821426, 89.785713, 89.571426, 89.1875, 89.1875, 89.25, 89.60714, 89.714287, 89.714287, 89.785713, 89.755104, 89.392853, 89.258926, 89, 88.875, 89.10714, 89.0625, 89.348213, 89.4375, 89.5, 89.64286, 89.375, 89.3125, 89.1875, 89.205353, 89.375, 89.4375, 89.5, 89.3125, 89.5, 89.464287, 89.428574, 89.428574, 89.428574, 89.428574, 89.5, 89.64286, 89.714287, 89.729599, 89.547615, 89.438774, 89.583336, 89.541664, 89.339287, 89.375, 89.48214, 89.48214, 89.125, 89.083336, 88.785713, 88.89286, 88.928574, 89.3125, 89.375, 89.5, 89.85714, 89.85714, 89.785713, 89.589287, 89.6875, 90.086739, 90.10714, 90, 89.85714, 89.5625, 89.75, 89.8125, 89.794647, 89.666672, -10, -10, -10, -10, -10, -10, -10, -10, -10, -10, -10, -10, -10, -10, -10, -10, -10, -10, -10, -10, -10, -10, -10, -10, -10, -10, -10, -10, -10, -10, -10, -10, -10, -10, -10, -10, -10, -10, -10, -10, -10, -10, -10, -10, -10, -10, -10, -10, -10, -10, -10, -10, -10, -10, -10, -10, -10, -10, -10, -10, -10, -10, -10, -10, -10, -10, -10, -10, -10, -10, -10, -10, -10, -10, -10, -10, -10, -10, -10, -10, -10, -10, -10, -10, -10, -10, -10, -10, -10, -10, -10, -10, -10, -10, -10, -10, -10, -10, -10, -10, -10, -10, -10, -10, -10, -10, -10, -10, -10, -10, -10, -10, -10, -10, -10, -10, -10, -10, -10, -10, -10, -10, -10, -10, -10, -10, -10, -10, -10, 107.55833, 106.66666, 105.61905, 104.27976, 102.82738, 101.8512, 101.07143, 100.12798, 98.904762, 97.803566, 96.791664, 95.738091, 94.702377, 93.711304, 93.026787, 92.258926, 91.476189, 90.351189, 89.9375, 89.964287, 90.25, 90.60714, 90.897957, 91.035713, 90.964287, 90.89286, 90.85714, 90.714287, 90.64286, 90.375, 90.285713, 90.1875, 90.142853, 90.1875, 90.571426, 90.785713, 90.85714, 90.785713, 90.678574, 90.5, 90.5625, 90.625, 90.5625, 90.64286, 90.571426, 90.571426, 90.64286, 90.5625, 90.5625, 90.625, 90.6875, 90.908165, 90.761902, 90.734688, 90.916664, 90.678574, 90.714287, 90.821426, 90.89286, 91, 90.964287, 90.821426, 90.785713, 90.785713, 90.821426, 90.918373, 90.75, 90.625, 90.5, 90.4375, 90.375, 90.375, 90.64286, 90.647957, 90.330353, 90.127548, 90.214287, 90.285713, 90.387756, 90.969383, 90.928574, 90.964287, 90.625, 90.625, 90.625, 90.85714, 90.928574, 91, 90.989799, 90.761902, 90.734688, 90.833336, 90.571426, 90.571426, 90.357147, 90.035713, 90.14286, 90.178574, 90.75, 90.785713, 90.714287, 90.714287, 90.75, 90.916664, 91, 91.083336, 91.041664, 90.785713, 90.714287, 90.714287, 90.68367, 90.67347, 90.678574, 90.60714, 90.678574, 90.678574, 90.714287, 90.785713, 90.85714, 90.82653, 90.392853, 90.205353, 90.125, 90.125, 90.428574, 90.571426, 90.64286, 90.714287, 90.714287, 90.4375, 90.4375, 90.375, 90.64286, 90.916664, 90.875, 90.806114, 90.952385, 90.918373, 90.761902, 90.785713, 90.765312, 90.785713, 90.785713, 90.60714, 90.571426, 90.535713, 90.540817, 90.645836, 90.614586, 90.5625, 90.5625, 90.5, 90.59375, 90.714287, 90.724487, 90.75, 90.729599, 90.64286, 90.709183, 90.82653, 90.928574, 90.928574, 90.89286, 90.625, 90.5625, 90.5625, 90.4375, 90.375, 90.375, 90.3125, 90.25, 90.3125, 90.464287, 90.5, 90.571426, 90.64286, 90.75, 90.625, 90.928574, 90.5625, 90.4375, 90.071426, 90.071426, 90.4375, 90.714287, 90.714287, 90.714287, 90.785713, 90.755104, 90.591835, 90.510201, 90.39286, 90.0625, 89.912498, 90.125, 90.241074, 90.535713, 90.535713, 90.464287, 90.39286, 90.428574, 90.428574, 90.428574, 90.428574, 90.5, 90.5, 90.5, 90.571426, 90.375, 90.375, 90.3125, 90.339287, 90.410713, 90.4375, 90.625, 90.625, 90.544647, 90.595238, 90.540817, 90.5, 90.571426, 90.535713, 90.571426, 90.64286, 90.64286, 90.9375, 90.895836, 90.791664, 90.75, 90.666664, 90.428574, 90.428574, 90.571426, 90.714287, 90.785713, 90.714287, 90.464287, 90.5625, 90.732147, 90.8125, 90.75, 90.625, 90.64286, 90.75, 90.625, 90.607147, 90.809525, -10
-10, -10, -10, -10, -10, -10, -10, -10, -10, -10, -10, -10, -10, -10, -10, -10, -10, -10, -10, -10, -10, -10, -10, -10, -10, -10, -10, -10, -10, -10, -10, -10, -10, -10, -10, -10, -10, -10, -10, -10, -10, -10, -10, -10, -10, -10, -10, -10, -10, -10, -10, -10, -10, -10, -10, -10, -10, -10, -10, -10, -10, -10, -10, -10, -10, -10, -10, -10, -10, -10, -10, -10, -10, -10, -10, -10, -10, -10, -10, -10, -10, -10, -10, -10, -10, -10, -10, -10, -10, -10, -10, -10, -10, -10, -10, -10, -10, -10, -10, -10, -10, -10, -10, -10, -10, -10, -10, -10, -10, 108.16667, 107.45715, 106.56667, 105.49405, 104.30655, 103.19048, 101.80357, 100.92857, 99.904762, 99.005951, 98.017853, 96.952377, 95.71769, 94.416672, 93.73214, 93.1875, 92.508926, 91.842262, 91.163689, 90.946426, 91.214287, 91.464287, 91.75, 91.723213, 91.78125, 91.65625, 91.53125, 91.46875, 91.25, 91.25, 91.337502, 91.219383, 91.306114, 91.234688, 91.35714, 91.375, 91.5625, 91.85714, 91.5625, 91.5, 91.4375, 91.4375, 91.464287, 91.4375, 91.375, 91.375, 91.375, 91.4375, 91.5, 91.714287, 91.5625, 91.625, 91.732147, 91.850342, 91.795914, 91.908165, 91.75, 91.625, 91.625, 91.6875, 91.75, 91.625, 91.589287, 91.660713, 91.85714, 91.928574, 91.85714, 91.785713, 91.64286, 91.571426, 91.571426, 91.5, 91.535713, 91.64286, 91.68367, 91.663261, 91.970238, 92.083336, 92.083336, 92.14286, 91.969383, 91.928574, 91.928574, 91.785713, 91.785713, 91.785713, 91.821426, 91.6875, 91.6875, 91.616074, 91.59523, 91.581627, 91.571426, 91.571426, 91.64286, 91.658165, 91.875, 92.083336, 92.041664, 91.85714, 91.89286, 91.5625, 91.5625, 91.785713, 91.785713, 91.85714, 91.928574, 91.89286, 91.5625, 91.5, 91.5, 91.473213, 91.693886, 91.64286, 91.60714, 91.64286, 91.64286, 91.5, 91.5625, 91.5625, 91.5625, 91.428566, 91.205353, 90.89286, 90.85714, 91.25, 91.3125, 91.3125, 91.571426, 91.571426, 91.571426, 91.64286, 91.60714, 91.60714, 91.64286, 91.60714, 91.724487, 91.708336, 91.803574, 91.440475, 91.5, 91.479599, 91.5, 91.75, 91.785713, 91.714287, 91.64286, 91.64286, 91.785713, 91.75, 91.785713, 91.785713, 91.714287, 91.75, 91.714287, 91.85714, 91.928574, 91.908165, 91.75, 91.693886, 91.535713, 91.625, 91.6875, 91.6875, 91.625, 91.785713, 91.785713, 91.64286, 91.571426, 91.571426, 91.3125, 91.464287, 91.535713, 91.535713, 91.60714, 91.64286, 91.714287, 91.75, 91.625, 91.6875, 91.5625, 91.64286, 91.833336, 91.833336, 91.714287, 91.75, 91.714287, 91.714287, 91.5625, 91.535713, 91.653061, 91.612244, 91.571426, 91.428574, 91.221428, 91.428574, 91.241074, 91.375, 91.375, 91.3125, 91.25, 91.5, 91.535713, 91.535713, 91.5, 91.3125, 91.3125, 91.571426, 91.64286, 91.5, 91.464287, 91.1875, 91.214287, 91.612244, 91.64286, 91.785713, 91.785713, 91.5, 91.4375, 91.330353, 91.25, 91.5, 91.223213, 91.080353, 91.111603, 91.375, 91.676025, 91.73214, 91.714287, 91.64286, 91.5, 91.39286, 91.285713, 91.1875, 91.375, 91.5, 91.5, 91.401787, 91.4375, 91.544647, 91.625, 91.6875, 91.6875, 91.321426, 91.39286, 91.625, 91.5625, 91.809525, -10, -10, -10, -10, -10, -10, -10, -10, -10, -10, -10, -10, -10, -10, -10, -10, -10, -10, -10, -10, -10, -10, -10, -10, -10, -10, -10, -10, -10, -10, -10, -10, -10, -10, -10, -10, -10, -10, -10, -10, -10, -10, -10, -10, -10, -10, -10, -10, -10, -10, -10, -10, -10, -10, -10, -10, -10, -10, -10, -10, -10, -10, -10, -10, -10, -10, -10, -10, -10, -10, -10, -10, -10, -10, -10, -10, -10, -10, -10, -10, -10, -10, -10, -10, -10, -10, -10, -10, -10, -10, -10, -10, -10, -10, -10, -10, -10, -10, -10, -10, -10, -10, -10, -10, -10, -10, -10, -10, -10, -10, -10, -10, -10, -10, -10, -10, -10, -10, -10, -10, -10, -10, -10, -10, -10, -10, -10, -10, 107.91111, 107.17143, 106.4625, 105.29166, 104.38988, 103.36905, 101.67857, 100.75, 99.767853, 98.827377, 97.875, 96.910713, 95.678566, 94.62648, 93.995537, 93.4375, 92.883926, 92.446426, 92.367348, 92.35714, 92.35714, 92.5, 92.5625, 92.6875, 92.620537, 92.46875, 92.28125, 92.21875, 91.785713, 91.85714, 92.457146, 91.973213, 92.270401, 92.163261, 92.39286, 92.544647, 92.6875, 92.75, 92.625, 92.678574, 92.64286, 92.571426, 92.401787, 92.375, 92.3125, 92.5, 92.5, 92.571426, 92.64286, 92.714287, 92.714287, 92.714287, 92.821426, 92.723213, 92.6875, 92.794647, 92.625, 92.785713, 92.5, 92.5625, 92.625, 92.321426, 92.651787, 92.723213, 92.6875, 92.6875, 92.6875, 92.6875, 92.89286, 92.583336, 92.846939, 92.628578, 92.654762, 92.291664, 92.535713, 92.714287, 92.867348, 92.928574, 92.928574, 92.979599, 92.723213, 92.928574, 92.6875, 92.785713, 92.785713, 92.785713, 92.785713, 92.714287, 92.375, 92.3125, 92.375, 92.473213, 92.5, 92.5625, 92.85714, 93.015312, 92.833336, 93.214287, 93.071426, 92.964287, 92.85714, 92.714287, 92.714287, 92.5625, 92.625, 92.75, 92.8125, 92.75, 92.625, 92.5, 92.64286, 92.64286, 92.714287, 92.4375, 92.4375, 92.4375, 92.4375, 92.64286, 92.64286, 92.4375, 92.4375, 92.622444, 92.438774, 92.541664, 92.375, 92.285713, 92.1875, 92.1875, 92.25, 92.25, 92.464287, 92.60714, 92.678574, 92.4375, 92.5, 92.4375, 92.5, 92.5625, 92.785713, 92.944435, 93.041664, 93.071434, 93.125, 92.928574, 92.821426, 92.785713, 92.714287, 92.714287, 92.89286, 92.928574, 92.964287, 92.964287, 92.821426, 92.75, 92.714287, 92.85714, 92.928574, 92.979599, 92.6875, 92.625, 92.625, 92.6875, 92.6875, 92.964287, 92.928574, 92.85714, 92.785713, 92.678574, 92.64286, 92.64286, 92.571426, 92.571426, 92.60714, 92.60714, 92.678574, 92.678574, 92.75, 92.678574, 92.678574, 92.714287, 92.60714, 92.714287, 92.785713, 92.785713, 92.821426, 92.714287, 92.571426, 92.571426, 92.571426, 92.64286, 92.714287, 92.714287, 92.821426, 92.714287, 92.507141, 92.678574, 92.489799, 92.535713, 92.428574, 92.285713, 92.285713, 92.35714, 92.5, 92.5, 92.5, 92.5, 92.5, 92.64286, 92.714287, 92.60714, 92.5, 92.39286, 92.42347, 92.612244, 92.678574, 92.785713, 92.785713, 92.714287, 92.64286, 92.392853, 92.285713, 92.205353, 92.139877, 91.853745, 91.979599, 92.10714, 92.408165, 92.6875, 92.625, 92.5, 92.375, 92.25, 92.1875, 92.285713, 92.205353, 92.330353, 92.375, 92.571426, 92.64286, 92.64286, 92.714287, 92.785713, 92.85714, 93.041664, 93.083336, 92.821426, 92.75, 92.583336, -10
-10, -10, -10, -10, -10, -10, -10, -10, -10, -10, -10, -10, -10, -10, -10, -10, -10, -10, -10, -10, -10, -10, -10, -10, -10, -10, -10, -10, -10, -10, -10, -10, -10, -10, -10, -10, -10, -10, -10, -10, -10, -10, -10, -10, -10, -10, -10, -10, -10, -10, -10, -10, -10, -10, -10, -10, -10, -10, -10, -10, -10, -10, -10, -10, -10, -10, -10, -10, -10, -10, -10, -10, -10, -10, -10, -10, -10, -10, -10, -10, -10, -10, -10, -10, -10, -10, -10, -10, -10, -10, -10, -10, -10, -10, -10, -10, -10, -10, -10, -10, -10, -10, -10, -10, -10, -10, -10, -10, 107.91667, 107.76667, 107.2, 106.33392, 105.16666, 104.31845, 103.33334, 101.5744, 100.60715, 99.598213, 98.744049, 97.833336, 96.964287, 95.970238, 94.930054, 94.370537, 93.8125, 93.4375, 93.25, 93.35714, 93.39286, 93.464287, 93.5, 93.60714, 93.632652, 93.183037, 93.285713, 93.14286, 93.214287, 93.375, 93.458336, 93.150002, 93.035713, 93.080353, 93.017853, 93.5, 93.765312, 93.821426, 93.85714, 93.75, 93.714287, 93.714287, 93.64286, 93.637756, 93.60714, 93.571426, 93.60714, 93.60714, 93.64286, 93.678574, 93.714287, 93.714287, 93.64286, 93.714287, 93.755104, 93.714287, 93.908165, 93.785713, 93.785713, 93.64286, 93.714287, 93.785713, 94, 93.887756, 93.897957, 93.714287, 93.714287, 93.714287, 93.785713, 93.928574, 94.166664, 93.918373, 93.700005, 93.690475, 93.229164, 93.5, 93.553574, 93.6875, 93.75, 93.75, 93.75, 93.6875, 93.6875, 93.625, 93.5625, 93.5625, 93.5, 93.526787, 93.535713, 93.3125, 93.214287, 93.1875, 93.469383, 93.60714, 93.75, 93.85714, 93.989799, 94.291664, 94, 93.875, 93.75, 93.625, 93.714287, 93.714287, 93.714287, 93.714287, 93.785713, 93.785713, 93.714287, 93.678574, 93.60714, 93.60714, 93.678574, 93.714287, 93.64286, 93.64286, 93.64286, 93.64286, 93.75, 93.821426, 93.75, 93.852043, 93.93367, 93.458336, 93.416664, 93.166664, 93.166664, 93.428574, 93.1875, 93.25, 93.25, 93.3125, 93.4375, 93.714287, 93.64286, 93.571426, 93.3125, 93.3125, 93.4375, 93.5, 93.738091, 93.89286, 93.918373, 93.964287, 93.928574, 93.85714, 93.625, 93.5625, 93.5625, 93.6875, 93.910713, 93.85714, 93.85714, 93.75, 93.46875, 93.714287, 93.625, 93.6875, 93.732147, 93.85714, 93.85714, 93.89286, 94, 94.14286, 94.214287, 94.14286, 94, 93.85714, 93.785713, 93.85714, 93.85714, 93.821426, 93.75, 93.678574, 93.60714, 93.571426, 93.571426, 93.5, 93.607147, 93.39286, 93.39286, 93.5, 93.455353, 93.4375, 93.375, 93.375, 93.3125, 93.25, 93.3125, 93.375, 93.4375, 93.714287, 93.714287, 93.821426, 93.85714, 93.700005, 93.614281, 93.602043, 93.525513, 93.5, 93.321426, 93.321426, 93.125, 93.25, 93.375, 93.714287, 93.714287, 93.714287, 93.75, 93.714287, 93.64286, 93.375, 93.535713, 93.276787, 93.4375, 93.836739, 93.669647, 93.928574, 93.821426, 93.678574, 93.556114, 93.362244, 93.017853, 92.952377, 93.498016, 93.708336, 93.833336, 93.821434, 93.571426, 93.571426, 93.3125, 93.25, 93.39286, 93.35714, 93.306129, 93.091835, 93.080353, 93.169647, 93.535713, 93.678574, 93.678574, 93.714287, 93.785713, 93.928574, 94.035713, 94.035713, 93.964287, 93.89286, 93.809525, -10, -10, -10, -10, -10, -10, -10, -10, -10, -10, -10, -10, -10, -10, -10, -10, -10, -10, -10, -10, -10, -10, -10, -10, -10, -10, -10, -10, -10, -10, -10, -10, -10, -10, -10, -10, -10, -10, -10, -10, -10, -10, -10, -10, -10, -10, -10, -10, -10, -10, -10, -10, -10, -10, -10, -10, -10, -10, -10, -10, -10, -10, -10, -10, -10, -10, -10, -10, -10, -10, -10, -10, -10, -10, -10, -10, -10, -10, -10, -10, -10, -10, -10, -10, -10, -10, -10, -10, -10, -10, -10, -10, -10, -10, -10, -10, -10, -10, -10, -10, -10, -10, -10, -10, -10, -10, -10, -10, -10, -10, -10, -10, -10, -10, -10, -10, -10, -10, -10, -10, -10, -10, -10, -10, -10, -10, -10, 107.94445, 107.37382, 106.74285, 106.13393, 105, 104.28274, 103.53571, 101.58333, 100.60715, 99.443451, 98.785706, 97.75, 96.839287, 95.818451, 95.15625, 94.78125, 94.4375, 94.1875, 94.1875, 94.25, 94.3125, 94.339287, 94.375, 94.4375, 94.553574, 93.994896, 93.93367, 93.822914, 94.089287, 94.035713, 94.14286, 93.900002, 94.071426, 93.955353, 94.285713, 94.535713, 94.693886, 94.64286, 94.571426, 94.571426, 94.4375, 94.4375, 94.64286, 94.622444, 94.60714, 94.678574, 94.714287, 94.714287, 94.714287, 94.714287, 94.714287, 94.714287, 94.4375, 94.5, 94.535713, 94.5, 94.607147, 94.64286, 94.4375, 94.535713, 94.678574, 94.821426, 94.785713, 94.836731, 94.598213, 94.4375, 94.5625, 94.5625, 94.625, 95, 95, 94.918373, 94.664291, 94.685371, 94.481285, 94.678574, 94.704086, 94.785713, 94.85714, 94.928574, 94.928574, 94.85714, 94.785713, 94.714287, 94.714287, 94.714287, 94.4375, 94.464287, 94.68367, 94.535713, 94.530617, 94.535713, 94.647957, 94.714287, 94.821426, 94.85714, 94.928574, 95, 94.75, 94.6875, 94.625, 94.5625, 94.714287, 94.714287, 94.714287, 94.714287, 94.785713, 94.785713, 94.5, 94.5, 94.4375, 94.4375, 94.714287, 94.714287, 94.678574, 94.678574, 94.678574, 94.75, 94.85714, 94.928574, 94.89286, 94.908157, 94.948982, 95.041664, 95.041664, 94.875, 94.791664, 94.535713, 94.5, 94.5, 94.5, 94.535713, 94.64286, 94.714287, 94.75, 94.785713, 94.714287, 94.64286, 94.5, 94.625, 94.535713, 94.9375, 94.9375, 94.875, 94.75, 94.6875, 94.5625, 94.714287, 94.785713, 94.85714, 94.928574, 94.625, 94.5625, 94.5, 94.375, 94.64286, 94.5, 94.5, 94.6875, 94.928574, 95.035713, 95.10714, 95.10714, 95.214287, 95.178574, 95.10714, 94.89286, 94.75, 94.714287, 94.785713, 94.85714, 94.85714, 94.714287, 94.64286, 94.375, 94.375, 94.410713, 94.401787, 94.765312, 94.958336, 95.041664, 94.714287, 94.392853, 94.3125, 94, 94.1875, 94.1875, 94.1875, 94.25, 94.571426, 94.64286, 94.714287, 94.714287, 94.785713, 94.85714, 94.85714, 94.474998, 94.678574, 94.334824, 94.39286, 94.03125, 94.0625, 94.125, 94.25, 94.64286, 94.785713, 94.785713, 94.714287, 94.64286, 94.571426, 94.535713, 94.535713, 94.60714, 94.535713, 94.401787, 94.836739, 94.836739, 94.89286, 94.821426, 94.714287, 94.653061, 94.505104, 94.270401, 94.28231, 94.462585, 94.64286, 94.678574, 94.561226, 94.25, 94.3125, 94.348213, 94.3125, 94.5, 94.321426, 94.117355, 93.674103, 93.861603, 94.075897, 94.3125, 94.714287, 94.714287, 94.714287, 94.5625, 94.6875, 94.875, 94.875, 94.928574, 94.852043, 94.714287, -10
-10, -10, -10, -10, -10, -10, -10, -10, -10, -10, -10, -10, -10, -10, -10, -10, -10, -10, -10, -10, -10, -10, -10, -10, -10, -10, -10, -10, -10, -10, -10, -10, -10, -10, -10, -10, -10, -10, -10, -10, -10, -10, -10, -10, -10, -10, -10, -10, -10, -10, -10, -10, -10, -10, -10, -10, -10, -10, -10, -10, -10, -10, -10, -10, -10, -10, -10, -10, -10, -10, -10, -10, -10, -10, -10, -10, -10, -10, -10, -10, -10, -10, -10, -10, -10, -10, -10, -10, -10, -10, -10, -10, -10, -10, -10, -10, -10, -10, -10, -10, -10, -10, -10, -10, -10, -10, -10, 109.91667, 108.40834, 107.49882, 106.82143, 105.95535, 104.69643, 103.79166, 103.03571, 101.55952, 100.75, 99.464287, 98.821426, 97.75, 96.928574, 96.276787, 95.736603, 95.53125, 95.1875, 95.0625, 95.321426, 95.39286, 95.5, 95.494896, 95.535713, 95.571426, 95.704086, 95.809532, 95.761902, 94.979164, 95, 94.9375, 94.9375, 94.8125, 94.9375, 95.25, 95.39286, 95.464287, 95.357147, 95.375, 95.204086, 95.214287, 95.214287, 95.4375, 95.4375, 95.4375, 95.4375, 95.714287, 95.64286, 95.571426, 95.571426, 95.571426, 95.64286, 95.714287, 95.571426, 95.5, 95.375, 95.375, 95.4375, 95.4375, 95.375, 95.375, 95.5, 95.625, 95.625, 95.625, 95.5625, 95.4375, 95.714287, 95.75, 95.625, 95.6875, 95.625, 95.553574, 95.362503, 95.443451, 95.636055, 95.714287, 95.744896, 95.785713, 95.85714, 95.928574, 95.928574, 95.85714, 95.785713, 95.714287, 95.64286, 95.64286, 95.571426, 95.602043, 95.719383, 95.64286, 95.67347, 95.678574, 95.734688, 95.625, 95.6875, 95.6875, 95.6875, 95.625, 95.5625, 95.5, 95.4375, 95.64286, 95.714287, 95.755104, 95.785713, 95.785713, 95.5625, 95.5625, 95.5, 95.5, 95.64286, 95.714287, 95.85714, 95.928574, 95.928574, 95.85714, 95.785713, 95.785713, 95.85714, 95.928574, 95.928574, 95.928574, 95.928574, 95.89286, 95.85714, 95.75, 95.75, 95.785713, 95.785713, 95.785713, 95.714287, 95.571426, 95.637756, 95.714287, 95.663261, 95.85714, 95.75, 95.75, 95.75, 95.75, 96.041664, 95.928574, 95.928574, 95.928574, 95.85714, 95.85714, 95.785713, 95.714287, 95.785713, 95.821426, 95.6875, 95.625, 95.5625, 95.5, 95.375, 95.4375, 95.4375, 95.4375, 95.89286, 95.8125, 96.214287, 96.285713, 96, 96, 95.875, 95.8125, 95.625, 95.5, 95.5, 95.5625, 95.85714, 95.85714, 95.5, 95.4375, 95.375, 95.571426, 95.612244, 95.339287, 95.658165, 95.60714, 95.678574, 95.60714, 95.520401, 95.5, 95.666664, 95.1875, 95.39286, 95.428574, 95.5, 95.64286, 95.678574, 95.714287, 95.714287, 95.5625, 95.625, 95.821426, 95.650002, 95.714287, 95.632652, 95.035713, 94.85714, 95.166664, 95.208336, 95.5, 95.571426, 95.678574, 95.678574, 95.678574, 95.4375, 95.375, 95.375, 95.60714, 95.678574, 95.535713, 95.56633, 95.765312, 95.836739, 95.928574, 95.85714, 95.785713, 95.5, 95.410713, 95.438774, 95.452377, 95.458336, 95.616074, 95.625, 95.5, 95.348213, 95.276787, 95.57653, 95.535713, 95.60714, 95.25, 94.831642, 94.520401, 94.627548, 95.040184, 95.464287, 95.64286, 95.714287, 95.785713, 95.85714, 96, 96.214287, 96.14286, 96, 95.651787, 95.5, -10, -10, -10, -10, -10, -10, -10, -10, -10, -10, -10, -10, -10, -10, -10, -10, -10, -10, -10, -10, -10, -10, -10, -10, -10, -10, -10, -10, -10, -10, -10, -10, -10, -10, -10, -10, -10, -10, -10, -10, -10, -10, -10, -10, -10, -10, -10, -10, -10, -10, -10, -10, -10, -10, -10, -10, -10, -10, -10, -10, -10, -10, -10, -10, -10, -10, -10, -10, -10, -10, -10, -10, -10, -10, -10, -10, -10, -10, -10, -10, -10, -10, -10, -10, -10, -10, -10, -10, -10, -10, -10, -10, -10, -10, -10, -10, -10, -10, -10, -10, -10, -10, -10, -10, -10, -10, -10, -10, -10, -10, -10, -10, -10, -10, -10, -10, -10, -10, -10, -10, -10, -10, -10, -10, -10, -10, 109.6, 108.41666, 107.39881, 106.4881, 105.64285, 104.42559, 103.57143, 102.71429, 101.57738, 100.85715, 99.559525, 98.928574, 97.875, 97.303574, 96.75, 96.392853, 96.25, 96.125, 96.285713, 96.285713, 96.428574, 96.5, 96.494896, 96.60714, 96.60714, 96.744896, 96.714287, 96.581627, 96.190475, 96.035713, 95.85714, 95.6875, 95.821426, 96, 96.14286, 96.25, 96.0625, 96.0625, 96.1875, 96.85714, 96.958336, 97, 96.64286, 96.64286, 96.571426, 96.571426, 96.64286, 96.375, 96.4375, 96.4375, 96.375, 96.330353, 96.571426, 96.464287, 96.3125, 96.14286, 96.14286, 96.5, 96.571426, 96.428574, 96.428574, 96.5, 96.64286, 96.64286, 96.64286, 96.64286, 96.60714, 96.75, 96.75, 96.821426, 96.535713, 96.339287, 96.375, 96.25, 96.401787, 96.755104, 96.714287, 96.785713, 96.785713, 96.85714, 96.928574, 96.85714, 96.714287, 96.64286, 96.571426, 96.375, 96.4375, 96.60714, 96.401787, 96.535713, 96.75, 96.765312, 96.678574, 96.709183, 96.82653, 96.785713, 96.85714, 96.632652, 96.125, 96.1875, 96.232147, 96.3125, 96.4375, 96.714287, 96.755104, 96.85714, 96.928574, 96.928574, 96.666664, 96.882652, 96.678574, 96.678574, 96.678574, 96.85714, 96.928574, 96.928574, 96.85714, 96.785713, 96.785713, 96.625, 96.75, 96.8125, 96.875, 96.875, 96.8125, 96.75, 96.6875, 96.89286, 96.928574, 96.928574, 96.85714, 96.785713, 96.5, 96.526787, 96.785713, 96.517853, 96.85714, 96.5625, 96.821426, 96.89286, 96.89286, 96.964287, 97, 96.928574, 96.928574, 96.85714, 96.85714, 96.85714, 96.85714, 97, 96.989799, 96.842857, 96.872452, 96.678574, 96.75, 96.60714, 96.64286, 96.64286, 96.64286, 96.85714, 96.928574, 97.10714, 97.14286, 96.875, 96.875, 96.75, 96.75, 96.6875, 96.6875, 96.6875, 96.6875, 96.6875, 96.625, 96.5, 96.64286, 96.60714, 96.571426, 96.540817, 96.352043, 96.303574, 96.4375, 96.5, 96.5, 96.653061, 96.75, 96.785713, 96.416664, 96.75, 96.714287, 96.678574, 96.714287, 96.64286, 96.571426, 96.571426, 96.571426, 96.5, 96.785713, 96.700005, 96.75, 96.709183, 96.895836, 96.895836, 96.916664, 96.791664, 96.39286, 96.151787, 96.25, 96.357147, 96.4375, 96.375, 96.5, 96.5, 96.571426, 96.714287, 96.60714, 96.401787, 96.544647, 96.607147, 96.6875, 96.821426, 96.785713, 96.678574, 96.64286, 96.60714, 96.60714, 96.64286, 96.60714, 96.571426, 96.535713, 96.469383, 96.459183, 96.540817, 96.5, 96.464287, 96.321426, 96.523811, 96.354164, 96.473213, 96.454086, 96.535713, 96.5, 96.714287, 96.85714, 97, 97.178574, 97.428574, 97.285713, 97.071426, 96.714287, 96.5, -10
-10, -10, -10, -10, -10, -10, -10, -10, -10, -10, -10, -10, -10, -10, -10, -10, -10, -10, -10, -10, -10, -10, -10, -10, -10, -10, -10, -10, -10, -10, -10, -10, -10, -10, -10, -10, -10, -10, -10, -10, -10, -10, -10, -10, -10, -10, -10, -10, -10, -10, -10, -10, -10, -10, -10, -10, -10, -10, -10, -10, -10, -10, -10, -10, -10, -10, -10, -10, -10, -10, -10, -10, -10, -10, -10, -10, -10, -10, -10, -10, -10, -10, -10, -10, -10, -10, -10, -10, -10, -10, -10, -10, -10, -10, -10, -10, -10, -10, -10, -10, -10, -10, -10, -10, -10, -10, -10, 108.9762, 108.18095, 107.62798, 106.55782, 105.71429, 104.50893, 103.56548, 102.3869, 101.47321, 100.875, 99.666664, 99.053574, 98.291664, 97.75, 97.3125, 97.295914, 97.285713, 97.35714, 97.428574, 97.1875, 97.3125, 97.375, 97.276787, 97.571426, 97.571426, 97.5, 97.625, 97.508926, 97.380943, 97.071426, 96.869041, 96.777771, 96.777771, 96.854164, 96.979164, 96.90477, 96.846939, 96.875, 97.64286, 97.913261, 98, 98, 97.714287, 97.535713, 97.39286, 97.39286, 97.375, 97.482147, 97.85714, 97.85714, 97.714287, 97.392853, 97.375, 97.3125, 97.571426, 97.916664, 97.916664, 97.75, 97.64286, 97.571426, 97.571426, 97.375, 97.5, 97.678574, 97.678574, 97.678574, 97.60714, 97.4375, 97.4375, 97.678574, 97.473213, 97.339287, 97.5, 97.39286, 97.551025, 97.410713, 97.64286, 97.5, 97.5, 97.5625, 97.5625, 97.375, 97.125, 97.0625, 97, 97.0625, 97.285713, 97.31633, 97.479599, 97.632652, 97.5, 97.4375, 97.375, 97.401787, 97.755104, 97.785713, 97.785713, 97.303574, 96.9375, 97, 97.107147, 97.25, 97.64286, 97.714287, 97.755104, 97.85714, 97.928574, 97.928574, 98.166664, 97.918373, 97.714287, 97.714287, 97.4375, 97.81633, 98.051025, 98.132652, 97.833336, 98, 97.625, 97.526787, 97.75, 97.821426, 98, 98.071426, 98.071426, 98, 97.928574, 97.928574, 97.928574, 97.928574, 97.85714, 97.785713, 97.714287, 97.81633, 97.85714, 97.770401, 97.6875, 97.625, 97.6875, 97.75, 97.75, 97.75, 97.8125, 97.75, 97.75, 97.75, 97.6875, 97.928574, 97.928574, 97.964287, 98.025513, 97.737503, 98.086739, 97.928574, 97.928574, 97.75, 97.60714, 97.535713, 97.464287, 97.375, 97.5, 97.6875, 97.75, 97.625, 97.5, 97.571426, 97.64286, 97.75, 97.89286, 97.89286, 97.821426, 97.85714, 97.85714, 97.89286, 97.882652, 97.678574, 97.5, 97.446426, 96.994896, 97.258926, 97.464287, 97.5, 97.64286, 97.714287, 97.85714, 97.928574, 98.125, 97.89286, 97.821426, 97.75, 97.714287, 97.4375, 97.4375, 97.4375, 97.4375, 97.5, 97.5625, 97.5625, 97.53125, 97.76786, 97.76786, 97.803574, 97.821426, 97.64286, 97.125, 96.964287, 97, 97.169647, 97.535713, 97.571426, 97.64286, 97.64286, 97.678574, 97.785713, 97.64286, 97.64286, 97.571426, 97.64286, 97.64286, 97.571426, 97.64286, 97.571426, 97.64286, 97.714287, 97.714287, 97.785713, 97.5, 97.678574, 97.64286, 97.540817, 97.494896, 97.348213, 97.375, 97.3125, 97.464287, 97.530617, 97.446426, 97.512756, 97.625, 97.60714, 97.714287, 97.714287, 97.85714, 98, 98.214287, 98.39286, 98.25, 98.14286, 97.979599, 97.85714, -10, -10, -10, -10, -10, -10, -10, -10, -10, -10, -10, -10, -10, -10, -10, -10, -10, -10, -10, -10, -10, -10, -10, -10, -10, -10, -10, -10, -10, -10, -10, -10, -10, -10, -10, -10, -10, -10, -10, -10, -10, -10, -10, -10, -10, -10, -10, -10, -10, -10, -10, -10, -10, -10, -10, -10, -10, -10, -10, -10, -10, -10, -10, -10, -10, -10, -10, -10, -10, -10, -10, -10, -10, -10, -10, -10, -10, -10, -10, -10, -10, -10, -10, -10, -10, -10, -10, -10, -10, -10, -10, -10, -10, -10, -10, -10, -10, -10, -10, -10, -10, -10, -10, -10, -10, -10, -10, -10, -10, -10, -10, -10, -10, -10, -10, -10, -10, -10, -10, -10, -10, -10, -10, -10, -10, -10, 108.59524, 108.38333, 107.70834, 107.15646, 106.47619, 104.55059, 103.49405, 102.24405, 101.53571, 100.9375, 99.89286, 99.303574, 98.78125, 98.375, 98.125, 98.125, 98.09375, 98.428574, 98.428574, 98.285713, 98.35714, 98.403061, 98.630959, 98.702385, 98.664291, 98.702385, 98.510201, 98.438774, 98.133926, 97.833336, 97.666664, 98.486107, 98.454369, 98.119041, 98.104164, 98.902779, 98.976196, 99.083336, 98.928574, 99.06633, 99.035713, 99, 98.5625, 98.375, 98.25, 98.25, 98.375, 98.729599, 98.928574, 98.928574, 98.785713, 98.627548, 98.571426, 98.464287, 98.571426, 98.714287, 98.714287, 98.821426, 98.714287, 98.64286, 98.714287, 98.714287, 98.785713, 98.714287, 98.571426, 98.5, 98.25, 98.25, 98.3125, 98.375, 98.505104, 98.459183, 98.428574, 98.428574, 98.60714, 98.375, 98.5, 98.5625, 98.321426, 98.35714, 98.285713, 98.071426, 97.85714, 97.821426, 97.785713, 97.821426, 97.85714, 98.089287, 98.169647, 98.303574, 98.3125, 98.3125, 98.3125, 98.401787, 98.598213, 98.5625, 98.526787, 98.303574, 97.704086, 97.821426, 98.226196, 98.416664, 98.625, 98.928574, 98.660713, 98.6875, 98.6875, 98.928574, 99, 98.918373, 98.714287, 98.785713, 98.5, 98.651787, 98.857147, 98.866074, 99.25, 98.964287, 98.785713, 98.464287, 98.5, 98.5625, 99, 99.071426, 99.071426, 99, 98.928574, 98.89286, 98.6875, 98.6875, 98.625, 98.5625, 98.75, 98.836731, 98.785713, 98.724487, 98.714287, 98.678574, 98.785713, 98.89286, 98.928574, 98.928574, 99, 98.89286, 98.89286, 98.89286, 98.821426, 98.89286, 98.928574, 98.928574, 98.989799, 98.985718, 99.193886, 99.14286, 99.214287, 99.071426, 98.321426, 98.214287, 98.10714, 98.071426, 98.4375, 98.5, 98.5625, 98.5625, 98.544647, 98.214287, 98.285713, 98.625, 98.928574, 98.928574, 98.85714, 98.85714, 98.85714, 98.928574, 98.918373, 98.714287, 98.714287, 98.612244, 98.75, 98.510201, 98.60714, 98.60714, 98.785713, 98.790817, 98.81633, 98.928574, 98.928574, 98.928574, 98.85714, 98.714287, 98.64286, 98.571426, 98.571426, 98.64286, 98.64286, 98.714287, 98.714287, 98.714287, 98.714287, 98.5625, 98.6875, 98.75, 98.75, 98.5625, 98.125, 98.030617, 98, 98.193886, 98.464287, 98.571426, 98.714287, 98.714287, 98.714287, 98.785713, 98.75, 98.75, 98.60714, 98.401787, 98.375, 98.3125, 98.4375, 98.4375, 98.5625, 98.85714, 98.85714, 98.85714, 98.714287, 98.64286, 98.4375, 98.285713, 98.151787, 98.1875, 98.39286, 98.428574, 98.5, 98.375, 98.25, 98.387756, 98.448975, 98.464287, 98.60714, 98.64286, 98.625, 98.8125, 99.0625, 99.25, 98.964287, 99.397957, 99.127548, 99.019043, -10
-10, -10, -10, -10, -10, -10, -10, -10, -10, -10, -10, -10, -10, -10, -10, -10, -10, -10, -10, -10, -10, -10, -10, -10, -10, -10, -10, -10, -10, -10, -10, -10, -10, -10, -10, -10, -10, -10, -10, -10, -10, -10, -10, -10, -10, -10, -10, -10, -10, -10, -10, -10, -10, -10, -10, -10, -10, -10, -10, -10, -10, -10, -10, -10, -10, -10, -10, -10, -10, -10, -10, -10, -10, -10, -10, -10, -10, -10, -10, -10, -10, -10, -10, -10, -10, -10, -10, -10, -10, -10, -10, -10, -10, -10, -10, -10, -10, -10, -10, -10, -10, -10, -10, -10, -10, -10, -10, 108.45834, 108.11191, 107.875, 107.32738, 106.27976, 104.65774, 103.56548, 102.42262, 101.70535, 101.08035, 100.30952, 99.75, 99.424103, 99.333336, 98.959183, 99.596939, 99.297615, 99.331627, 99.125, 99.125, 99.285713, 99.321426, 99.773811, 99.809525, 99.842857, 99.860542, 99.321426, 99.258926, 99.071426, 99.69445, 99.638885, 99.523804, 99.496597, 99.261902, 99.404762, 99.738098, 99.836739, 100, 100, 99.984688, 99.71875, 99.6875, 99.714287, 99.571426, 99.535713, 99.535713, 99.678574, 99.872452, 99.75, 99.6875, 99.714287, 99.510201, 99.438774, 99.571426, 99.4375, 99.625, 99.5625, 99.625, 99.714287, 99.714287, 99.785713, 99.85714, 99.964287, 99.85714, 99.214287, 99.10714, 99.1875, 99.1875, 99.25, 99.3125, 99.348213, 99.339287, 99.3125, 99.535713, 99.64286, 99.571426, 99.714287, 99.785713, 100.04166, 100.125, 100.08334, 99.958336, 99.833336, 99.75, 99.666664, 99.666664, 99.625, 99.214287, 99.051025, 99.410721, 99.229164, 99.133926, 99.321426, 99.479599, 99.734688, 99.85714, 99.651787, 99.452385, 100.01786, 100.16666, 100.2381, 100.25, 100.25, 99.928574, 99.85714, 99.821426, 99.625, 99.6875, 99.8125, 99.741074, 99.785713, 99.85714, 99.678574, 99.744896, 99.908165, 99.918373, 100, 100, 99.928574, 99.81633, 99.6875, 99.669647, 99.642853, 99.633926, 99.5625, 99.5625, 99.5625, 99.5625, 99.5, 99.5, 99.714287, 99.69445, 99.561226, 99.64286, 99.5, 99.5625, 99.5, 99.4375, 99.785713, 99.65625, 99.89286, 99.89286, 99.964287, 99.89286, 99.85714, 99.928574, 99.928574, 99.8125, 99.875, 99.8125, 99.803574, 100.02857, 100.27551, 100.35714, 100.46429, 100.35714, 100.29166, 100.16666, 99.958336, 99.75, 99.571426, 99.3125, 99.375, 99.64286, 99.693886, 99.916664, 99.958336, 99.625, 99.6875, 99.6875, 99.625, 99.625, 99.85714, 99.928574, 99.918373, 99.714287, 99.821426, 99.755104, 99.75, 99.755104, 99.75, 99.821426, 100, 99.816963, 99.776787, 99.8125, 99.75, 99.625, 99.5625, 99.4375, 99.375, 99.535713, 99.5, 99.571426, 99.571426, 99.678574, 99.714287, 99.714287, 99.714287, 99.714287, 99.785713, 99.85714, 99.928574, 99.801025, 99.39286, 99.265312, 99.071426, 99.044647, 99.25, 99.535713, 99.75, 99.75, 99.678574, 99.714287, 99.714287, 99.64286, 99.5, 99.214287, 99.125, 99.125, 99.5, 99.64286, 99.785713, 99.928574, 99.928574, 99.928574, 99.821426, 99.678574, 99.535713, 99.1875, 99.125, 99.35714, 99.428574, 99.464287, 99.5, 99.25, 99.125, 99.089287, 99.098213, 99.125, 99.3125, 99.375, 99.5625, 99.6875, 99.875, 100.0625, 100.58334, 100.46938, 100.2602, 100.01904, -10, -10, -10, -10, -10, -10, -10, -10, -10, -10, -10, -10, -10, -10, -10, -10, -10, -10, -10, -10, -10, -10, -10, -10, -10, -10, -10, -10, -10, -10, -10, -10, -10, -10, -10, -10, -10, -10, -10, -10, -10, -10, -10, -10, -10, -10, -10, -10, -10, -10, -10, -10, -10, -10, -10, -10, -10, -10, -10, -10, -10, -10, -10, -10, -10, -10, -10, -10, -10, -10, -10, -10, -10, -10, -10, -10, -10, -10, -10, -10, -10, -10, -10, -10, -10, -10, -10, -10, -10, -10, -10, -10, -10, -10, -10, -10, -10, -10, -10, -10, -10, -10, -10, -10, -10, -10, -10, -10, -10, -10, -10, -10, -10, -10, -10, -10, -10, -10, -10, -10, -10, -10, -10, -10, -10, 110, 108.875, 108.76191, 108.5625, 108.16071, 106.57143, 104.77381, 103.6369, 102.6637, 102, 101.39285, 100.78571, 100.375, 100.1741, 100.52381, 100.8631, 100.66837, 100.29762, 100.00893, 99.96875, 100.09375, 100.43367, 100.54591, 100.84524, 100.84524, 100.87858, 100.89626, 100.5102, 100.5102, 100.33163, 100.55952, 100.56803, 100.54166, 100.6131, 100.36111, 100.52777, 100.59524, 100.91071, 100.76041, 100.60268, 100.53125, 100.46875, 100.4375, 100.5, 100.42857, 100.53571, 100.60714, 100.75, 100.60715, 100.625, 100.5625, 100.4375, 100.375, 100.32143, 100.71429, 100.71429, 100.85714, 100.85714, 100.92857, 100.66666, 100.75, 100.75, 100.96429, 100.96429, 100.85714, 100.91666, 100.79166, 100.39286, 100.42857, 100.5, 100.5, 100.60714, 100.64286, 100.60714, 100.67857, 100.67857, 100.64286, 100.67857, 100.75, 100.82143, 100.89286, 100.92857, 100.85714, 100.78571, 100.71429, 100.64286, 100.60714, 100.60714, 100.59184, 100.7738, 100.72449, 100.33631, 99.974487, 100.07143, 100.5, 100.96429, 101, 100.9949, 101.25, 101.15816, 101.25, 101.21429, 101.10714, 101, 100.78571, 100.64286, 100.57143, 100.57143, 100.64286, 100.78571, 100.85714, 100.92857, 101, 100.89286, 100.83674, 100.73215, 100.74107, 100.8125, 100.8125, 100.89286, 100.83674, 100.89286, 100.80103, 100.51785, 100.29591, 100.27551, 100.55, 100.60715, 100.5, 100.5625, 100.5, 100.78571, 101.38889, 101.39286, 101.45834, 101.16666, 100.375, 100.375, 100.3125, 100.5, 100.59375, 100.5625, 100.78571, 100.625, 100.59375, 100.625, 100.6875, 100.89286, 100.96429, 101.03571, 100.92857, 100.96429, 100.9375, 101.125, 101.46429, 101.5, 101.39286, 101.10714, 101, 100.82143, 100.64286, 100.67857, 100.57143, 100.60714, 100.75, 100.83674, 100.85714, 100.85714, 100.75, 100.71429, 100.71429, 100.78571, 100.59821, 100.58929, 100.6875, 100.61607, 100.71429, 100.82143, 100.87755, 100.96429, 100.96429, 100.89286, 100.89286, 100.96429, 101.0051, 100.88776, 100.85714, 100.64286, 100.40179, 100.4375, 100.19643, 100.26785, 100.25, 100.25, 100.3125, 100.25, 100.25, 100.5, 100.57143, 100.64286, 100.71429, 100.78571, 100.85714, 100.92857, 100.94389, 100.61224, 100.37755, 100.19048, 100.39286, 100.375, 100.48215, 100.45535, 100.45535, 100.375, 100.4375, 100.5, 100.4375, 100.3125, 100.21429, 100.125, 100.32143, 100.42857, 100.57143, 100.67857, 100.85714, 100.92857, 100.89286, 100.82143, 100.5, 100.375, 100.46429, 100.32143, 100.39286, 100.25, 100.3125, 100.3125, 100.1875, 100.125, 100, 100, 100.125, 100.3125, 100.4375, 100.85714, 101, 100.875, 101.32143, 101.53571, 101.61224, 101.36735, 100.93333, -10
-10, -10, -10, -10, -10, -10, -10, -10, -10, -10, -10, -10, -10, -10, -10, -10, -10, -10, -10, -10, -10, -10, -10, -10, -10, -10, -10, -10, -10, -10, -10, -10, -10, -10, -10, -10, -10, -10, -10, -10, -10, -10, -10, -10, -10, -10, -10, -10, -10, -10, -10, -10, -10, -10, -10, -10, -10, -10, -10, -10, -10, -10, -10, -10, -10, -10, -10, -10, -10, -10, -10, -10, -10, -10, -10, -10, -10, -10, -10, -10, -10, -10, -10, -10, -10, -10, -10, -10, -10, -10, -10, -10, -10, -10, -10, -10, -10, -10, -10, -10, -10, -10, -10, -10, -10, -10, 110, 109.42857, 109.10204, 108.375, 107.7347, 105.95918, 104.52381, 103.67857, 103.14285, 102.625, 102.08035, 101.53571, 101.25, 101.1741, 101.7381, 101.9898, 101.93367, 101.24792, 100.85714, 100.71429, 101.16666, 101.61224, 101.71938, 101.64584, 101.64584, 101.675, 101.69048, 101.61224, 101.61224, 101.46938, 101.45834, 101.47619, 101.76191, 101.85714, 101.95834, 102.04166, 102.125, 101.67857, 101.47916, 101.25893, 101.125, 101.0625, 101.125, 101.1875, 101.3125, 101.5, 101.5625, 101.85714, 101.4375, 101.3125, 101.25, 101.1875, 101.42857, 101.5102, 101.75, 101.75, 101.89286, 101.89286, 101.92857, 102.16666, 101.92857, 101.89286, 101.89286, 101.6875, 101.78571, 101.71429, 101.60714, 101.39286, 101.42857, 101.48469, 101.70238, 101.83674, 101.85714, 101.78571, 101.75, 101.71429, 101.71429, 101.5, 101.5625, 101.625, 101.6875, 101.75, 101.75, 101.75, 101.6875, 101.625, 101.5625, 101.78571, 101.86224, 101.88776, 101.9796, 101.81293, 102.00595, 102.125, 102.29166, 102.10714, 102.14286, 102.12245, 102.14286, 102.20409, 102.0625, 102, 101.875, 101.75, 101.5625, 101.25, 101.21429, 101.25, 101.35714, 102, 102, 102, 102.03571, 102.03571, 101.96429, 101.96429, 101.85714, 101.78571, 101.85714, 101.85714, 101.85714, 101.92857, 101.90816, 101.80611, 102.04762, 102.05953, 101.77143, 101.83674, 101.78571, 101.85714, 101.78571, 101.85714, 102.2619, 102.26531, 102.21429, 101.96429, 101.3125, 101.3125, 101.25, 101.4375, 101.53125, 101.5, 101.5625, 101.5625, 101.53125, 101.5625, 101.71429, 101.71429, 101.71429, 101.78571, 101.78571, 101.92857, 102.10714, 102.21429, 102.32143, 102.125, 102.0625, 101.9375, 101.875, 101.8125, 101.92857, 101.85714, 101.75, 101.75, 101.85714, 101.73215, 101.75, 101.6875, 101.5625, 101.71429, 101.71429, 101.78571, 101.7551, 101.46429, 101.71429, 101.4375, 101.71429, 101.85714, 102, 102.07143, 102.07143, 101.96429, 101.89286, 101.65625, 101.69196, 101.83674, 101.78571, 101.67857, 101.40179, 101.64286, 101.19643, 101.26785, 101.25, 101.125, 101.125, 101, 101.00893, 101.3125, 101.375, 101.5, 101.71429, 101.5625, 101.625, 101.6875, 101.94389, 101.71938, 101.5204, 101.36904, 101.46429, 101.57143, 101.58674, 101.20535, 101.26785, 101.1875, 101.3125, 101.5625, 101.47321, 101.44897, 101.27551, 101.25, 101.32143, 101.25, 101.4375, 101.5, 101.625, 101.6875, 101.625, 101.78571, 101.60714, 101.46429, 101.42857, 101.32143, 101.42857, 101.5, 101.46429, 101.4949, 101.46938, 101.39286, 101.35714, 101.28571, 101.39286, 101.57143, 101.67857, 101.85714, 101.96429, 102, 102.17857, 102.1875, 102.22321, 102.21429, 101.9619, -10, -10, -10, -10, -10, -10, -10, -10, -10, -10, -10, -10, -10, -10, -10, -10, -10, -10, -10, -10, -10, -10, -10, -10, -10, -10, -10, -10, -10, -10, -10, -10, -10, -10, -10, -10, -10, -10, -10, -10, -10, -10, -10, -10, -10, -10, -10, -10, -10, -10, -10, -10, -10, -10, -10, -10, -10, -10, -10, -10, -10, -10, -10, -10, -10, -10, -10, -10, -10, -10, -10, -10, -10, -10, -10, -10, -10, -10, -10, -10, -10, -10, -10, -10, -10, -10, -10, -10, -10, -10, -10, -10, -10, -10, -10, -10, -10, -10, -10, -10, -10, -10, -10, -10, -10, -10, -10, -10, -10, -10, -10, -10, -10, -10, -10, -10, -10, -10, -10, -10, -10, -10, -10, -10, -10, 109.875, 109.58334, 109.21429, 107.75, 106.97144, 105.51984, 104.81548, 104.03571, 103.5625, 103.01785, 102.64285, 102.44897, 102.42857, 102.5102, 102.58334, 102.80357, 102.72322, 102.58096, 102.73215, 102.64584, 102.85416, 102.62756, 102.71429, 102.5625, 102.66965, 102.8125, 102.55103, 102.92857, 102.85714, 102.67857, 102.57143, 102.59184, 102.80952, 102.84694, 102.82143, 102.82143, 102.82143, 102.49107, 102.35416, 101.93877, 101.84694, 101.78571, 102.125, 102.125, 102.5, 102.67857, 102.67857, 102.75, 102.375, 102.25, 102.25, 102.42857, 102.46429, 102.54082, 102.71429, 102.71429, 102.625, 102.85714, 102.85714, 102.92857, 102.92857, 102.85714, 102.5625, 102.5, 102.375, 102.3125, 102.3125, 102.1875, 102.25, 102.33035, 102.77381, 102.90816, 102.85714, 102.78571, 102.71429, 102.64286, 102.71429, 102.64286, 102.57143, 102.57143, 102.57143, 102.64286, 102.78571, 102.78571, 102.78571, 102.78571, 102.71429, 102.78571, 102.86224, 102.88776, 102.9898, 102.93198, 102.89796, 102.96429, 103.07143, 103.07143, 103.07143, 102.875, 102.875, 102.875, 102.875, 102.75, 102.625, 102.5, 102.57143, 102.79166, 102.95834, 103.08334, 103.20834, 103.03571, 102.89286, 102.89286, 102.89286, 102.92857, 102.92857, 102.92857, 102.85714, 102.78571, 102.625, 102.5625, 102.5, 102.58035, 102.75298, 102.9898, 103.04082, 102.9796, 102.87858, 102.9796, 102.96429, 103.10714, 103.10714, 103.14286, 103.22916, 103.23215, 102.92857, 102.71429, 102.5, 102.5, 102.45834, 102.58334, 102.66666, 102.58334, 102.58334, 102.58334, 102.85714, 102.92857, 102.625, 102.5625, 102.32143, 102.5625, 102.625, 102.8125, 103.17857, 103, 103.0625, 103, 102.9375, 102.875, 102.8125, 102.92857, 102.89286, 102.82143, 102.78571, 102.78571, 102.85714, 102.85714, 102.85714, 102.78571, 102.78571, 102.85714, 102.85714, 102.96429, 102.93367, 102.78062, 102.82143, 102.71429, 102.71429, 102.82143, 102.89286, 102.89286, 102.82143, 102.66071, 102.46875, 102.46875, 102.59375, 102.6875, 102.6875, 102.625, 102.78062, 102.67857, 102.33163, 102.34184, 102.32143, 102.28571, 102.28571, 102, 102.00893, 102.42857, 102.5, 102.64286, 102.64286, 102.71429, 102.5625, 102.625, 102.66965, 102.68367, 102.44897, 102.33333, 102.25, 102.25, 102.04465, 101.89285, 102.05357, 102, 102.39286, 102.60714, 102.61224, 102.5204, 102.33163, 102.25, 102.21429, 102.17857, 102.28571, 102.35714, 102.375, 102.5, 102.5625, 102.5625, 102.375, 102.1875, 102.125, 102, 102.32143, 102.46429, 102.39286, 102.4949, 102.5051, 102.46429, 102.5, 102.39286, 102.39286, 102.5, 102.53571, 102.71429, 102.85714, 102.85714, 102.75, 102.75, 102.75, 102.61607, 102.61904, -10
-10, -10, -10, -10, -10, -10, -10, -10, -10, -10, -10, -10, -10, -10, -10, -10, -10, -10, -10, -10, -10, -10, -10, -10, -10, -10, -10, -10, -10, -10, -10, -10, -10, -10, -10, -10, -10, -10, -10, -10, -10, -10, -10, -10, -10, -10, -10, -10, -10, -10, -10, -10, -10, -10, -10, -10, -10, -10, -10, -10, -10, -10, -10, -10, -10, -10, -10, -10, -10, -10, -10, -10, -10, -10, -10, -10, -10, -10, -10, -10, -10, -10, -10, -10, -10, -10, -10, -10, -10, -10, -10, -10, -10, -10, -10, -10, -10, -10, -10, -10, -10, -10, -10, -10, -10, -10, 109.70834, 109.43333, 109.10714, 108.35714, 107.75511, 106.31972, 105.13691, 104.45535, 104.02679, 103.64285, 103.4375, 103.26785, 103.64286, 103.78571, 103.87245, 103.7619, 103.67857, 103.62858, 103.85205, 103.875, 103.98214, 103.80357, 103.53125, 103.71429, 103.83674, 103.92857, 104.16666, 103.92857, 103.85714, 103.75, 103.64286, 103.65306, 103.64584, 103.74107, 103.53571, 103.57143, 103.53571, 103.67857, 103.66666, 103.83929, 103.76786, 103.625, 103.39286, 103.32143, 103.53571, 103.64286, 103.67857, 103.5, 103.53571, 103.46429, 103.53571, 103.46429, 103.25, 103.3125, 103.375, 103.4375, 103.5625, 103.625, 103.625, 103.6875, 103.6875, 103.6875, 103.625, 103.21429, 103.07143, 102.96429, 103.25, 103.25, 103.3125, 103.59184, 103.80952, 103.73215, 103.75, 103.6875, 103.625, 103.5, 103.71429, 103.67857, 103.60714, 103.60714, 103.67857, 103.5625, 103.92857, 103.92857, 103.78571, 103.64286, 103.5, 103.375, 103.47321, 103.76531, 103.6875, 103.73215, 103.6875, 103.75, 103.8125, 103.6875, 103.6875, 103.5625, 103.4375, 103.5, 103.5, 103.5625, 103.85714, 103.80103, 103.54762, 103.55611, 103.67857, 103.85714, 104.03571, 104, 103.625, 103.625, 103.6875, 103.75, 103.75, 103.75, 103.625, 103.5625, 103.5625, 103.4375, 103.375, 103.39285, 103.88096, 104.01531, 104.14286, 103.91965, 103.8, 103.85715, 104, 104.07143, 104.10714, 104.10714, 104.14286, 104.17857, 104.375, 104.41666, 104.33334, 104.25, 104.16666, 104.125, 104.16666, 104.125, 104.125, 104.125, 103.89286, 103.92857, 103.78571, 103.64286, 103.875, 103.5, 103.82143, 104.07143, 103.9375, 103.875, 103.9375, 104.07143, 104.03571, 104.07143, 103.92857, 103.92857, 103.92857, 103.92857, 104, 104, 103.57143, 103.57143, 103.57143, 103.75, 103.92857, 103.92857, 103.92857, 104, 103.98469, 103.94389, 103.89286, 103.82143, 103.78571, 103.78571, 103.5625, 103.4375, 103.27679, 103.125, 103.09375, 103.125, 103.25, 103.64286, 103.75, 103.82143, 103.90816, 103.85714, 103.59184, 103.00612, 103.04762, 103.42857, 103.5102, 103.39286, 103.36735, 103.53571, 103.57143, 103.67857, 103.4375, 103.71429, 103.71429, 103.71429, 103.5625, 103.47321, 103.26785, 103.22916, 102.85714, 102.85714, 102.80103, 102.76785, 102.92857, 102.9375, 103.1875, 103.4375, 103.47321, 103.59184, 103.25893, 103.1875, 103.125, 102.78571, 102.85714, 103.1875, 103.375, 103.5625, 103.92857, 103.92857, 103.4375, 103.14285, 103, 102.8125, 102.9375, 103.125, 103.125, 103.40306, 103.32653, 103.28571, 103.28571, 103.0625, 103.0625, 103.19643, 103.19048, 103.60715, 103.75, 103.6875, 103.75, 103.53571, 103.52857, 102.91666, 102.88889, -10, -10, -10, -10, -10, -10, -10, -10, -10, -10, -10, -10, -10, -10, -10, -10, -10, -10, -10, -10, -10, -10, -10, -10, -10, -10, -10, -10, -10, -10, -10, -10, -10, -10, -10, -10, -10, -10, -10, -10, -10, -10, -10, -10, -10, -10, -10, -10, -10, -10, -10, -10, -10, -10, -10, -10, -10, -10, -10, -10, -10, -10, -10, -10, -10, -10, -10, -10, -10, -10, -10, -10, -10, -10, -10, -10, -10, -10, -10, -10, -10, -10, -10, -10, -10, -10, -10, -10, -10, -10, -10, -10, -10, -10, -10, -10, -10, -10, -10, -10, -10, -10, -10, -10, -10, -10, -10, -10, -10, -10, -10, -10, -10, -10, -10, -10, -10, -10, -10, -10, -10, -10, -10, -10, -10, 109.95834, 109.49583, 108.92857, 107.93877, 107.34694, 106.55782, 105.80952, 105.0625, 104.65179, 104.33035, 104.1875, 104.42857, 104.57143, 104.78571, 104.94389, 104.60416, 104.5625, 104.55, 104.89796, 104.96429, 105, 104.82143, 104.75, 104.71429, 104.83674, 104.92857, 105, 104.92857, 104.85714, 104.78571, 104.78571, 104.85714, 104.92857, 104.92857, 105.08334, 105.08334, 105, 104.85714, 104.92857, 104.96429, 104.83674, 104.5204, 104.39286, 104.28571, 104.3125, 104.4375, 104.4375, 104.4375, 104.53571, 104.5, 104.64286, 104.57143, 104.3125, 104.14286, 104.14286, 104.4375, 104.5204, 104.42857, 104.35714, 104.35714, 104.5102, 104.88096, 104.90816, 105.08334, 104.91666, 104.70834, 104.46429, 104.5, 104.57143, 104.58163, 104.52084, 104.60715, 104.85714, 104.89286, 104.85714, 104.78571, 104.64286, 104.57143, 104.5, 104.5, 104.64286, 104.78571, 104.92857, 104.92857, 104.78571, 104.4375, 104.10714, 104.14286, 104.32143, 104.5, 104.8125, 104.75, 104.5625, 104.5, 104.5625, 104.5, 104.5625, 104.4375, 104.3125, 104.375, 104.3125, 104.64286, 104.78571, 104.76531, 104.35416, 104.39285, 104.5, 104.625, 104.8125, 104.6875, 104.5, 104.4375, 104.67857, 104.6875, 104.8125, 104.8125, 104.75, 104.85714, 104.78571, 104.71429, 104.64286, 104.63265, 104.53869, 104.58929, 104.65625, 104.71875, 104.65625, 104.6875, 104.6875, 104.6875, 104.8125, 104.8125, 104.8125, 105.10714, 105.21429, 105.28571, 105.28571, 105.21429, 105.14286, 105.14286, 105.14286, 105.14286, 105.07143, 105, 104.92857, 104.92857, 104.82143, 104.71429, 104.75, 104.75, 104.85714, 105, 104.96429, 104.6875, 104.96429, 105, 105, 105.03571, 104.89286, 104.6875, 104.6875, 104.89286, 105.03571, 105.10714, 105.45834, 105.45834, 105.375, 105, 104.92857, 104.92857, 105, 105.10714, 105.10714, 105.17857, 105.10714, 105, 104.92857, 104.625, 104.5, 104.3125, 103.88776, 103.75, 103.82143, 103.96429, 104.14286, 104.58334, 104.92857, 104.92857, 104.92857, 104.85714, 104.69389, 104.84167, 104.98611, 104.53571, 104.65306, 104.60714, 104.61224, 104.64286, 104.64286, 104.5, 104.57143, 104.57143, 104.57143, 104.57143, 104.64286, 104.64286, 104.57143, 104.42857, 104.41666, 104.29166, 104.08334, 103.75, 103.96938, 104.17143, 104.17857, 104.25893, 104.28571, 104.5102, 104.46938, 104.39286, 104.28571, 104.375, 104.33334, 104.21429, 104.42857, 104.64286, 104.85714, 104.92857, 104.60714, 104.30611, 103.9375, 103.73215, 103.66666, 103.83035, 103.875, 104.1875, 104.03062, 104.03571, 104.07143, 104, 103.92857, 104.0102, 105.06945, 104.83674, 104.92857, 104.80952, 104.2, 104.5, 104.6625, -10, -10, -10
-10, -10, -10, -10, -10, -10, -10, -10, -10, -10, -10, -10, -10, -10, -10, -10, -10, -10, -10, -10, -10, -10, -10, -10, -10, -10, -10, -10, -10, -10, -10, -10, -10, -10, -10, -10, -10, -10, -10, -10, -10, -10, -10, -10, -10, -10, -10, -10, -10, -10, -10, -10, -10, -10, -10, -10, -10, -10, -10, -10, -10, -10, -10, -10, -10, -10, -10, -10, -10, -10, -10, -10, -10, -10, -10, -10, -10, -10, -10, -10, -10, -10, -10, -10, -10, -10, -10, -10, -10, -10, -10, -10, -10, -10, -10, -10, -10, -10, -10, -10, -10, -10, -10, -10, 111.5, 111.16667, 110.02976, 109.31726, 108.78571, 108.25893, 107.75893, 107.11309, 106.33334, 105.75, 105.40179, 105.14285, 105.125, 105.42857, 105.25, 105.4375, 105.76531, 105.61904, 105.66326, 105.71429, 105.83674, 105.92857, 105.92857, 105.82143, 105.75, 105.71429, 105.60715, 105.6875, 105.8125, 105.8125, 105.8125, 105.5, 106, 106, 106, 105.96429, 106.03571, 106.03571, 106.03571, 106.07143, 106.03571, 106, 105.60715, 105.34821, 105.11906, 105.03062, 105.17857, 105.5, 105.67857, 105.53571, 105.46429, 105.46429, 105.57143, 105.57143, 105.60714, 105.875, 105.95834, 105.75, 105.39285, 105.25, 105.0625, 105.0625, 105.25893, 106.0034, 106.08674, 106, 105.69897, 105.42857, 105.39286, 105.5, 105.60714, 105.4375, 105.4375, 105.5, 105.82143, 105.82143, 105.82143, 105.75, 105.375, 105.375, 105.3125, 105.3125, 105.67857, 105.82143, 105.75, 105.75, 105.625, 105.5, 105.79166, 105.875, 106, 106.125, 105.92857, 105.92857, 105.78571, 105.71429, 105.71429, 105.57143, 105.57143, 105.5, 105.42857, 105.5, 105.24107, 105.1875, 105.375, 105.40179, 105.29166, 105.33035, 105.375, 105.375, 105.5, 105.4375, 105.46429, 105.53571, 105.60714, 105.75, 105.92857, 105.92857, 105.92857, 105.92857, 105.92857, 105.96429, 105.92857, 105.83673, 105.53869, 105.46429, 105.53125, 105.53125, 105.40625, 105.5, 105.5, 105.5, 105.625, 105.625, 105.625, 105.75, 105.9375, 106, 106, 105.9375, 105.875, 105.875, 105.9375, 106, 105.91965, 105.75, 105.6875, 105.625, 105.625, 105.5625, 105.625, 105.85714, 105.6875, 105.75, 105.6875, 105.625, 105.6875, 105.75, 105.75, 105.75, 105.6875, 105.92857, 106, 106.07143, 106.14286, 106.14286, 106.21429, 106.28571, 106.28571, 106.14286, 105.8125, 105.75, 105.75, 105.78125, 105.78125, 106.05357, 105.98214, 106.03571, 106.07143, 105.92857, 105.75, 105.5, 105.51785, 105.54166, 105.6875, 105.875, 106.04166, 106.16666, 106.03571, 105.875, 105.64286, 106.07143, 105.9796, 105.93571, 106.05952, 105.85714, 105.90306, 105.85714, 105.85714, 105.82143, 105.82143, 105.75, 105.60714, 105.4375, 105.4375, 105.4375, 105.5, 105.67857, 105.64286, 105.53571, 105.39286, 105.04166, 104.91666, 104.83334, 104.7551, 105.2, 104.85714, 105.25893, 105.25, 105.375, 105.60714, 105.5, 105.39286, 105.28571, 105.21429, 104.78571, 105.25, 105.4375, 105.625, 105.92857, 105.75, 105.4898, 105.19897, 105, 104.60416, 104.47279, 104.25, 104.63096, 105.15179, 105.3125, 105.375, 105.375, 105.3125, 105.38393, 105.48334, 105.47144, 105.55, 105.38334, -10, -10, -10, -10, -10, -10, -10, -10, -10, -10, -10, -10, -10, -10, -10, -10, -10, -10, -10, -10, -10, -10, -10, -10, -10, -10, -10, -10, -10, -10, -10, -10, -10, -10, -10, -10, -10, -10, -10, -10, -10, -10, -10, -10, -10, -10, -10, -10, -10, -10, -10, -10, -10, -10, -10, -10, -10, -10, -10, -10, -10, -10, -10, -10, -10, -10, -10, -10, -10, -10, -10, -10, -10, -10, -10, -10, -10, -10, -10, -10, -10, -10, -10, -10, -10, -10, -10, -10, -10, -10, -10, -10, -10, -10, -10, -10, -10, -10, -10, -10, -10, -10, -10, -10, -10, -10, -10, -10, -10, -10, -10, -10, -10, -10, -10, -10, -10, -10, -10, -10, -10, -10, -10, -10, -10, -10, -10, -10, 111.77778, 111.11111, 110.33334, 109.48392, 108.84821, 108.27678, 107.82143, 107.22916, 106.83929, 106.60715, 106.44643, 106.60714, 106.60714, 106.4375, 106.17857, 106.32143, 106.44389, 106.80952, 106.79591, 106.82143, 106.60715, 106.75, 106.8125, 106.75, 106.625, 106.59184, 106.57143, 106.57143, 106.71429, 106.92857, 107.07143, 107.33334, 107.14286, 107.07143, 106.96429, 106.8125, 106.875, 106.875, 106.875, 107, 106.96429, 106.75, 106.35714, 106.21938, 107.06945, 107.07143, 107.04166, 106.82143, 106.85714, 106.48215, 106.22916, 106.13393, 106.1875, 106.46429, 106.64286, 106.78571, 106.85714, 106.75, 106.5204, 106.35714, 106.0625, 106.23215, 106.38393, 107.11054, 107.12245, 106.8125, 106.64285, 106.21429, 106.14286, 106.21429, 106.4375, 106.42857, 106.31633, 106.25, 106.41071, 106.4375, 106.5, 106.4375, 106.23215, 106.28571, 106.35714, 106.40816, 106.375, 106.5625, 106.625, 106.625, 106.78571, 106.71429, 106.67857, 106.75, 106.92857, 107.03571, 107, 107, 106.82143, 106.75, 106.82143, 106.71429, 106.67857, 106.64286, 106.53571, 106.64286, 106.63265, 106, 106.21429, 106.46429, 106.52381, 106.58163, 106.57143, 106.60714, 106.5, 106.4375, 106.375, 106.4375, 106.5625, 106.46429, 106.64286, 106.875, 107.07143, 107, 106.92857, 107, 107, 106.89796, 106.66326, 106.55103, 106.40625, 106.46875, 106.40625, 106.4375, 106.3125, 106.27679, 106.48215, 106.2449, 106.25, 106.625, 106.75, 106.75, 106.8125, 106.75, 106.6875, 106.92857, 106.92857, 107, 106.90816, 106.71429, 106.71429, 106.4375, 106.71429, 106.71429, 106.625, 106.75, 106.75, 106.6875, 106.52679, 106.64286, 106.5, 106.625, 106.6875, 106.75, 106.96429, 107.03571, 107.03571, 107, 106.9375, 106.9375, 107, 107.0625, 107, 106.875, 107, 106.96429, 106.8125, 106.53571, 106.53571, 106.875, 106.75, 107.10714, 107.10714, 107, 106.82143, 106.60714, 106.47959, 106.53571, 106.76786, 106.96429, 107.07143, 107.10714, 107.05357, 107, 107.29166, 107.14286, 107.13265, 107.12858, 106.95834, 106.92857, 106.89796, 106.85714, 106.85714, 106.85714, 106.85714, 106.78571, 106.64286, 106.64286, 106.64286, 106.64286, 106.71429, 106.71429, 106.71429, 106.64286, 106.57143, 106.1875, 106.1875, 106.1875, 106.375, 106.4, 106.1875, 106.01428, 105.9, 106, 106.1, 105.83334, 105.75, 105.66666, 105.58334, 106, 105.83334, 106, 106.16666, 106.25, 106.25, 106.07143, 105.77856, 105.6, 105.26666, 105.53869, -10, -10, -10, -10, -10, -10, -10, -10, -10, -10, -10, -10, -10, -10, -10, -10, -10, -10
-10, -10, -10, -10, -10, -10, -10, -10, -10, -10, -10, -10, -10, -10, -10, -10, -10, -10, -10, -10, -10, -10, -10, -10, -10, -10, -10, -10, -10, -10, -10, -10, -10, -10, -10, -10, -10, -10, -10, -10, -10, -10, -10, -10, -10, -10, -10, -10, -10, -10, -10, -10, -10, -10, -10, -10, -10, -10, -10, -10, -10, -10, -10, -10, -10, -10, -10, -10, -10, -10, -10, -10, -10, -10, -10, -10, -10, -10, -10, -10, -10, -10, -10, -10, -10, -10, -10, -10, -10, -10, -10, -10, -10, -10, -10, -10, -10, -10, -10, -10, -10, -10, -10, -10, 111.91667, 111.13333, 110.71429, 109.97768, 109.24554, 108.65178, 108.14285, 107.75, 107.52679, 107.69389, 107.7296, 107.71429, 107.75, 107.78571, 108.08334, 108.125, 108.20834, 107.82143, 107.75, 107.82143, 107.83674, 107.92857, 108, 107.92857, 107.78571, 107.45535, 107.21429, 107.21429, 107.625, 108.07143, 108.14286, 108.21429, 108.17857, 107.8125, 107.6875, 107.6875, 107.89286, 107.78571, 107.85714, 107.625, 107.625, 107.6875, 108.04166, 108.0238, 107.9881, 108.02551, 107.92857, 107.89286, 107.89286, 107.7296, 107.22916, 107.19643, 106.96429, 107.14286, 107.39286, 107.8125, 107.86607, 107.5625, 107.26785, 107.32143, 107.35714, 107.67348, 107.82653, 108.17007, 107.85715, 107.6875, 107.69897, 107.875, 107.875, 108, 107.78571, 107.07143, 106.92347, 107.08035, 107.16071, 107.25, 107.48215, 107.25, 107.12245, 106.96429, 107, 107.29465, 107.3125, 107.4375, 107.5625, 107.5625, 107.85714, 107.78571, 107.4375, 107.4375, 107.5625, 107.6875, 107.6875, 107.75, 107.5625, 107.64286, 107.64286, 107.5, 107.5102, 107.71429, 107.64286, 107.78571, 107.7398, 107.79166, 107.75, 107.44389, 107.46429, 107.53571, 107.60714, 107.67857, 107.71429, 107.75, 107.75, 107.89286, 107.96429, 108.25, 108.33334, 108, 107.8125, 107.8125, 107.75, 107.8125, 107.8125, 107.66071, 107.72449, 107.70409, 107.76786, 107.80357, 107.73214, 107.67857, 107.60714, 107.63776, 107.90816, 108.32143, 108.25, 107.85714, 107.78062, 107.5, 107.75, 107.82143, 107.82143, 107.6875, 107.6875, 107.8125, 107.79465, 107.92857, 107.66666, 107.58334, 107.66666, 107.92857, 107.92857, 107.92857, 107.85714, 107.78571, 107.52679, 107.5625, 107.32143, 107.92857, 108, 108.07143, 108.14286, 108.21429, 108.14286, 108, 107.96429, 107.8125, 107.8125, 107.875, 107.8125, 107.6875, 107.92857, 107.92857, 108.03571, 108.29166, 108.375, 108, 107.9375, 108.28571, 108, 108.10714, 107.92857, 107.5625, 107.5, 107.5625, 107.75, 107.8125, 107.875, 107.875, 107.41666, 107.33334, 107.7, 107.7, 107.7, 107.7, 107.6, 107.5, 107.4, 107.4, 107.4, 107.4, 107.4, 107.3, 107.15, 107.2, 107.2, 107.2, 107.25, 107.2, 107.2, 107.15, 107.1, -10, -10, -10, -10, -10, -10, -10, -10, -10, -10, -10, -10, -10, -10, -10, -10, -10, -10, -10, -10, -10, -10, -10, -10, -10, -10, -10, -10, -10, -10, -10, -10, -10, -10, -10, -10, -10, -10, -10, -10, -10, -10, -10, -10, -10, -10, -10, -10, -10, -10, -10, -10, -10, -10, -10, -10, -10, -10, -10, -10, -10, -10, -10, -10, -10, -10, -10, -10, -10, -10, -10, -10, -10, -10, -10, -10, -10, -10, -10, -10, -10, -10, -10, -10, -10, -10, -10, -10, -10, -10, -10, -10, -10, -10, -10, -10, -10, -10, -10, -10, -10, -10, -10, -10, -10, -10, -10, -10, -10, -10, -10, -10, -10, -10, -10, -10, -10, -10, -10, -10, -10, -10, -10, -10, -10, -10, -10, -10, -10, -10, -10, -10, -10, -10, -10, -10, -10, -10, -10, -10, -10, -10, -10, -10, -10, -10, -10, -10, -10, -10, -10, -10, -10, -10, -10, -10, -10, -10, -10, -10, -10, -10, -10, -10, -10, 112.20834, 111.3625, 110.78571, 110.05804, 109.4866, 109.01785, 108.71429, 108.60715, 108.58036, 108.64286, 109.01531, 109.03571, 109, 109.03571, 109.07143, 109, 109, 108.89286, 108.625, 109, 109.05103, 109.07143, 109.07143, 108.85714, 108.71429, 108.59184, 108.83334, 108.91666, 108.82143, 109, 108.9375, 109, 108.9375, 108.75, 108.625, 108.92857, 108.8125, 108.5, 108.57143, 108.5, 108.39286, 108.92857, 108.92857, 108.93877, 108.83334, 108.86607, 108.75, 108.75, 108.75, 108.87245, 108.69048, 108.58163, 108.79166, 109.04166, 109.20834, 109.14286, 109.16837, 108.625, 108.4375, 108.25, 108.64286, 108.95919, 109.03571, 109.13265, 108.75, 108.5625, 108.72449, 108.75, 108.75, 108.85714, 108.82143, 108.875, 108.7262, 108.14285, 108.16071, 108.46429, 108.7296, 109.125, 109.19643, 109.08334, 109.04166, 108.69389, 108.64286, 108.64286, 108.75, 108.75, 108.82143, 108.5625, 108.375, 108.10714, 108.21429, 108.32143, 108.42857, 108.57143, 108.39286, 108.28571, 108.25, 108.07143, 108.32143, 108.82143, 108.82143, 108.96429, 108.95918, 108.78571, 108.67857, 108.56123, 108.3125, 108.375, 108.5, 108.89286, 108.89286, 108.96429, 109, 109.03571, 109.10714, 109.10714, 109.07143, 108.92857, 108.85714, 108.89286, 108.6875, 108.75, 108.75, 108.625, 108.5625, 108.78571, 108.85714, 108.92857, 108.96429, 108.96429, 108.96429, 108.95918, 109.12245, 109.27551, 109.21429, 109.10714, 108.71429, 108.5625, 108.625, 108.82653, 108.66326, 108.62245, 108.40625, 108.59375, 108.88265, 108.92857, 109.16666, 109.125, 109.16666, 109, 109.07143, 109.07143, 109.07143, 109, 108.88776, 108.92857, 109.125, 109, 109.14286, 109.28571, 109.39286, 108.8, 108.5, 108.33334, 108.25, 108.45, 108.4, 108.45, 108.25, 108.16666, 108.25, 108.25, 108.6, 108.65, 108.75, 108.75, 108.65, 108.85, 108.7, 108.6, 108.25, 108.25, 108.2, 108.2, 108.4, 108.4, 108.4, 108.25, -10, -10, -10, -10, -10, -10, -10, -10, -10, -10, -10, -10, -10, -10, -10, -10, -10, -10, -10, -10, -10, -10, -10, -10, -10, -10, -10, -10, -10, -10, -10, -10, -10, -10, -10, -10, -10, -10, -10, -10, -10, -10, -10, -10, -10, -10, -10, -10, -10, -10, -10, -10, -10, -10, -10, -10, -10, -10, -10, -10, -10, -10, -10, -10, -10, -10
-10, -10, -10, -10, -10, -10, -10, -10, -10, -10, -10, -10, -10, -10, -10, -10, -10, -10, -10, -10, -10, -10, -10, -10, -10, -10, -10, -10, -10, -10, -10, -10, -10, -10, -10, -10, -10, -10, -10, -10, -10, -10, -10, -10, -10, -10, -10, -10, -10, -10, -10, -10, -10, -10, -10, -10, -10, -10, -10, -10, -10, -10, -10, -10, -10, -10, -10, -10, -10, -10, -10, -10, -10, -10, -10, -10, -10, -10, -10, -10, -10, -10, -10, -10, -10, -10, -10, -10, -10, -10, -10, -10, -10, -10, -10, -10, -10, -10, -10, -10, -10, -10, -10, 113, 112.5, 111.7375, 111.21429, 110.5491, 109.9866, 109.58035, 109.40179, 109.65816, 109.82653, 110.1131, 109.9898, 110, 109.85714, 109.92857, 109.8125, 109.75, 109.8125, 109.6875, 109.82143, 109.96429, 109.9796, 109.82143, 109.5625, 109.48215, 109.42857, 109.72449, 109.78571, 109.85714, 109.89286, 109.6875, 109.75, 109.75, 109.75, 109.82143, 109.78571, 109.89286, 109.96429, 110.16666, 110.25, 110.20834, 110.125, 110.03571, 109.875, 109.9375, 109.9375, 109.8125, 109.625, 109.82143, 109.75, 109.79465, 109.95238, 109.89796, 109.75, 109.85714, 110.03571, 110.26531, 110.27551, 109.96429, 109.71429, 109.5, 109.75, 109.77679, 109.8125, 109.8125, 109.625, 109.71429, 109.5625, 109.625, 109.625, 109.6875, 109.85714, 109.82143, 109.69387, 109.5204, 109.52041, 109.60714, 109.76531, 109.85714, 109.91837, 109.78571, 109.82143, 109.84694, 109.85714, 109.89286, 109.70834, 109.70834, 109.9898, 109.71429, 109.57143, 109.70834, 109.91666, 110.04166, 110.16666, 110.125, 109.875, 109.66666, 109.5, 109.21429, 109.20535, 109.82143, 109.85714, 110.03571, 109.85714, 109.5625, 109.375, 109.1875, 109.35714, 109.35714, 109.57143, 109.82143, 109.82143, 109.96429, 110.03571, 110.10714, 110, 110, 109.9375, 109.75, 109.625, 109.625, 109.78571, 109.71429, 109.64286, 109.57143, 109.64286, 109.78571, 109.81633, 110, 110.04082, 110.07143, 110.10714, 110.05102, 109.78572, 109.7381, 109.66666, 109.7, 109.49286, 109.3, 109.35, 109.13095, 108.94047, 108.89286, 108.79166, 108.95834, 109.125, 109.5, 109.6, 109.6, 109.6, 109.6, 109.65, 109.6, 109.6, 109.55, 109.47144, 109.55, 109.55, 109.6, 109.75, 109.9, 110, -10, -10, -10, -10, -10, -10, -10, -10, -10, -10, -10, -10, -10, -10, -10, -10, -10, -10, -10, -10, -10, -10, -10, -10, -10, -10, -10, -10, -10, -10, -10, -10, -10, -10, -10, -10, -10, -10, -10, -10, -10, -10, -10, -10, -10, -10, -10, -10, -10, -10, -10, -10, -10, -10, -10, -10, -10, -10, -10, -10, -10, -10, -10, -10, -10, -10, -10, -10, -10, -10, -10, -10, -10, -10, -10, -10, -10, -10, -10, -10, -10, -10, -10, -10, -10, -10, -10, -10, -10, -10, -10, -10, -10, -10, -10, -10, -10, -10, -10, -10, -10, -10, -10, -10, -10, -10, -10, -10, -10, -10, -10, -10, -10, -10, -10, -10, -10, -10, -10, -10, -10, -10, -10, -10, -10, -10, -10, -10, -10, -10, -10, -10, -10, -10, -10, -10, -10, -10, -10, -10, -10, -10, -10, -10, -10, -10, -10, -10, -10, -10, -10, -10, -10, -10, -10, -10, -10, -10, -10, -10, -10, -10, -10, -10, -10, -10, -10, -10, -10, -10, -10, -10, -10, -10, -10, -10, -10, -10, -10, -10, -10, -10, -10, -10, -10, -10, -10, -10, -10, -10, -10, -10, -10, -10, -10, -10, -10, -10, -10, -10, -10, -10, -10, -10, -10, -10, -10, -10, -10, -10, -10, -10, -10, -10, 113.33334, 112.83334, 112.3, 111.60714, 110.94196, 110.4866, 110.1875, 110.16071, 110.82483, 111.00511, 110.96429, 110.88776, 110.85714, 110.5625, 110.6875, 110.6875, 110.625, 110.625, 110.78571, 110.82143, 110.92857, 110.79465, 110.39286, 110.21429, 110.25, 110.24107, 110.60714, 110.5625, 110.6875, 110.6875, 110.625, 110.625, 110.6875, 110.6875, 110.92857, 110.92857, 110.92857, 111, 110.96429, 111.10714, 111.17857, 111.17857, 111.21429, 111.10714, 111.03571, 110.96429, 110.89286, 110.78571, 110.78571, 110.92857, 111, 111.07143, 111.03571, 110.625, 110.6875, 110.8125, 110.98215, 110.99107, 111, 110.75, 110.5, 110.57143, 110.41965, 110.4375, 110.4375, 110.375, 110.57143, 110.64286, 110.64286, 110.64286, 110.5, 110.5625, 110.6875, 110.82143, 110.72449, 110.78571, 110.82143, 110.66965, 110.75, 110.75, 110.6875, 110.6875, 110.89286, 111, 111.07143, 111.375, 111.375, 111.02551, 110.64286, 110.5, 110.46429, 110.53571, 110.71429, 110.89286, 110.625, 110.5, 110.10714, 109.87756, 110.16326, 110.20408, 110.5, 110.57143, 110.67857, 110.3125, 109.91666, 109.66666, 109.5, 109.58334, 109.58334, 109.83334, 110.08334, 110.08334, 110.25, 110.33334, 110.41666, 110.5, 110.6, 110.45, 110.3, 110.2, 110.08334, 110.08334, 110, 109.91666, 109.83334, 109.91666, 110.08334, 110.11905, 110.33334, 110.38095, 110.65, 110.75, 110.41666, -10, -10, -10, -10, -10, -10, -10, -10, -10, -10, -10, -10, -10, -10, -10, -10, -10, -10, -10, -10, -10, -10, -10, -10, -10, -10, -10, -10, -10, -10, -10, -10, -10, -10, -10, -10, -10, -10, -10, -10, -10, -10, -10, -10, -10, -10, -10, -10, -10, -10, -10, -10, -10, -10, -10, -10, -10, -10, -10, -10, -10, -10, -10, -10, -10, -10, -10, -10, -10, -10, -10, -10, -10, -10, -10, -10, -10, -10, -10, -10, -10, -10, -10, -10, -10, -10, -10, -10, -10, -10, -10, -10, -10, -10, -10, -10, -10, -10, -10, -10, -10, -10, -10, -10, -10, -10, -10, -10, -10, -10, -10, -10, -10, -10, -10, -10, -10, -10, -10, -10, -10, -10
-10, -10, -10, -10, -10, -10, -10, -10, -10, -10, -10, -10, -10, -10, -10, -10, -10, -10, -10, -10, -10, -10, -10, -10, -10, -10, -10, -10, -10, -10, -10, -10, -10, -10, -10, -10, -10, -10, -10, -10, -10, -10, -10, -10, -10, -10, -10, -10, -10, -10, -10, -10, -10, -10, -10, -10, -10, -10, -10, -10, -10, -10, -10, -10, -10, -10, -10, -10, -10, -10, -10, -10, -10, -10, -10, -10, -10, -10, -10, -10, -10, -10, -10, -10, -10, -10, -10, -10, -10, -10, -10, -10, -10, -10, -10, -10, -10, -10, -10, -10, -10, -10, -10, 113.625, 113.25, 112.89285, 112.20535, 111.59821, 111.26785, 110.82143, 110.96938, 111.75298, 111.91072, 111.75, 111.58929, 111.5625, 111.5, 111.625, 111.75, 111.71429, 111.71429, 111.5, 111.5625, 111.625, 111.625, 111.67857, 111.57143, 111.3125, 111.06123, 111.4375, 111.55611, 111.64286, 111.64286, 111.64286, 111.5625, 111.82143, 111.89286, 112.03571, 112.10714, 111.86607, 111.66666, 111.57143, 111.6875, 111.8125, 112.03571, 112.14286, 112.03571, 112, 111.92857, 111.85714, 111.78571, 111.5625, 111.89286, 111.96429, 111.75, 111.89286, 111.5, 111.5625, 111.75, 111.98215, 111.99107, 111.66666, 111.38393, 111.1875, 111.25, 111.1875, 111.1875, 111.125, 111.125, 111.25, 111.375, 111.5, 111.5625, 111.54465, 111.35416, 111.58163, 111.5, 111.5, 111.4, 111.35, 111.25, 111.08334, 111, 111, 111.08334, 111.16666, 111.55, 111.7, 111.8, 111.8, 111.58572, 110.91666, 110.83334, 110.83334, 110.91666, 111.08334, 111.25, 111.16666, 111.08334, 111.15, 110.95714, 110.5238, 110.5238, 110.75, 110.83334, 110.91666, 110.75, -10, -10, -10, -10, -10, -10, -10, -10, -10, -10, -10, -10, -10, -10, -10, -10, -10, -10, -10, -10, -10, -10, -10, -10, -10, -10, -10, -10, -10, -10, -10, -10, -10, -10, -10, -10, -10, -10, -10, -10, -10, -10, -10, -10, -10, -10, -10, -10, -10, -10, -10, -10, -10, -10, -10, -10, -10, -10, -10, -10, -10, -10, -10, -10, -10, -10, -10, -10, -10, -10, -10, -10, -10, -10, -10, -10, -10, -10, -10, -10, -10, -10, -10, -10, -10, -10, -10, -10, -10, -10, -10, -10, -10, -10, -10, -10, -10, -10, -10, -10, -10, -10, -10, -10, -10, -10, -10, -10, -10, -10, -10, -10, -10, -10, -10, -10, -10, -10, -10, -10, -10, -10, -10, -10, -10, -10, -10, -10, -10, -10, -10, -10, -10, -10, -10, -10, -10, -10, -10, -10, -10, -10, -10, -10, -10, -10, -10, -10, -10, -10, -10, -10, -10, -10, -10, -10, -10, -10, -10, -10, -10, -10, -10, -10, -10, -10, -10, -10, -10, -10, -10, -10, -10, -10, -10, -10, -10, -10, -10, -10, -10, -10, -10, -10, -10, -10, -10, -10, -10, -10, -10, -10, -10, -10, -10, -10, -10, -10, -10, -10, -10, -10, -10, -10, -10, -10, -10, -10, -10, -10, -10, -10, -10, -10, -10, -10, -10, -10, -10, -10, -10, -10, -10, -10, -10, -10, -10, -10, -10, -10, -10, -10, -10, -10, -10, -10, -10, -10, -10, -10, -10, -10, -10, -10, -10, -10, -10, -10, -10, -10, -10, -10, -10, -10, -10, -10, -10, -10, -10, -10, -10, -10, -10, -10, -10, -10, -10, -10, -10, -10, -10, -10, 113.83334, 113.70833, 113.4137, 113.00893, 112.58035, 112.65306, 113, 113.03571, 112.82143, 112.85714, 112.64286, 112.33929, 112.3125, 112.46429, 112.53571, 112.46429, 112.46429, 112.42857, 112.25, 112.25, 112.33035, 112.80103, 112.88265, 112.92857, 112.93877, 113.20238, 112.89286, 112.51785, 112.5, 112.4375, 112.4375, 112.71429, 112.78571, 112.85714, 113, 113.07143, 112.9898, 112.54166, 112.15306, 112.28571, 112.42857, 112.8125, 112.9375, 112.875, 112.875, 112.77084, 112.16666, 112.08334, 112.2, 112.16666, 112.25, 112.16666, 112.16666, 111.91666, 112.15, 112.4, 112.58572, 112.58572, 112.05555, 111.7619, 111.58334, 111.58334, 111.5, 111.5, 111.41666, 111.5, 111.66666, 111.83334, 112.2, 112.3, 112.27144, 111.80555, 111.84524, 111.75, 111.75, -10, -10, -10, -10, -10, -10, -10, -10, -10, -10, -10, -10, -10, -10, -10, -10, -10, -10, -10, -10, -10, -10, -10, -10, -10, -10, -10, -10, -10, -10, -10, -10, -10, -10, -10, -10, -10, -10, -10, -10, -10, -10, -10, -10, -10, -10, -10, -10, -10, -10, -10, -10, -10, -10, -10, -10, -10, -10, -10, -10, -10, -10, -10, -10, -10, -10, -10, -10, -10, -10, -10, -10, -10, -10, -10, -10, -10, -10, -10, -10, -10, -10, -10, -10, -10, -10, -10, -10, -10, -10, -10, -10, -10, -10, -10, -10, -10, -10, -10, -10, -10, -10, -10, -10, -10, -10, -10, -10, -10, -10, -10, -10, -10, -10, -10, -10, -10, -10, -10, -10, -10, -10, -10, -10, -10, -10, -10, -10, -10, -10, -10, -10, -10, -10, -10, -10, -10, -10, -10, -10, -10, -10, -10, -10, -10, -10, -10, -10, -10, -10, -10, -10, -10, -10, -10, -10, -10, -10, -10, -10, -10, -10, -10, -10, -10, -10, -10, -10, -10, -10, -10, -10, -10, -10, -10, -10, -10, -10, -10, -10
-10, -10, -10, -10, -10, -10, -10, -10, -10, -10, -10, -10, -10, -10, -10, -10, -10, -10, -10, -10, -10, -10, -10, -10, -10, -10, -10, -10, -10, -10, -10, -10, -10, -10, -10, -10, -10, -10, -10, -10, -10, -10, -10, -10, -10, -10, -10, -10, -10, -10, -10, -10, -10, -10, -10, -10, -10, -10, -10, -10, -10, -10, -10, -10, -10, -10, -10, -10, -10, -10, -10, -10, -10, -10, -10, -10, -10, -10, -10, -10, -10, -10, -10, -10, -10, -10, -10, -10, -10, -10, -10, -10, -10, -10, -10, -10, -10, -10, -10, -10, -10, -10, -10, -10, 114.05555, 114.0387, 113.96938, 113.79591, 113.82143, 113.92857, 114.03062, 113.75, 113.75, 113.32143, 113.20918, 113.67857, 113.14286, 113.21429, 113.14286, 113.16666, 112.66666, 112.66666, 112.66666, 112.7738, 113.32143, 113.53572, 113.7, 113.71428, 113.7, 113.5, 113.17857, 113.1, 113, 113.1, 113.2, 113.08334, 113.16666, 113.33334, 113.41666, 113.32143, 113.21666, 113.32143, 113.375, 113.5, 113.33334, 113.41666, 113.5, 113.45, 113.33334, -10, -10, -10, -10, -10, -10, -10, -10, -10, -10, -10, -10, -10, -10, -10, -10, -10, -10, -10, -10, -10, -10, -10, -10, -10, -10, -10, -10, -10, -10, -10, -10, -10, -10, -10, -10, -10, -10, -10, -10, -10, -10, -10, -10, -10, -10, -10, -10, -10, -10, -10, -10, -10, -10, -10, -10, -10, -10, -10, -10, -10, -10, -10, -10, -10, -10, -10, -10, -10, -10, -10, -10, -10, -10, -10, -10, -10, -10, -10, -10, -10, -10, -10, -10, -10, -10, -10, -10, -10, -10, -10, -10, -10, -10, -10, -10, -10, -10, -10, -10, -10, -10, -10, -10, -10, -10, -10, -10, -10, -10, -10, -10, -10, -10, -10, -10, -10, -10, -10, -10, -10, -10, -10, -10, -10, -10, -10, -10, -10, -10, -10, -10, -10, -10, -10, -10, -10, -10, -10, -10, -10, -10, -10, -10, -10, -10, -10, -10, -10, -10, -10, -10, -10, -10, -10, -10, -10, -10, -10, -10, -10, -10, -10, -10, -10, -10, -10, -10, -10, -10, -10, -10, -10, -10, -10, -10, -10, -10, -10, -10, -10, -10, -10, -10, -10, -10, -10, -10, -10, -10, -10, -10, -10, -10, -10, -10, -10, -10, -10, -10, -10, -10, -10, -10, -10, -10, -10, -10, -10, -10, -10, -10, -10, -10, -10, -10, -10, -10, -10, -10, -10, -10, -10, -10, -10, -10, -10, -10, -10, -10, -10, -10, -10, -10, -10, -10, -10, -10, -10, -10, -10, -10, -10, -10, -10, -10, -10, -10, -10, -10, -10, -10, -10, -10, -10, -10, -10, -10, -10, -10, -10, -10, -10, -10, -10, -10, -10, -10, -10, -10, -10, -10, -10, -10, -10, -10, -10, -10, -10, -10, -10, -10, -10, -10, -10, -10, -10, -10, -10, -10, -10, -10, -10, -10, -10, -10, -10, -10, -10, -10, -10, -10, -10, -10, -10, -10, -10, -10, -10, -10, -10, -10, -10, -10, -10, -10, -10, -10, -10, -10, -10, -10, -10, -10, -10, -10, -10, -10, -10, -10, -10, -10, 114.3016, 114.25, 114.4, 114.5, 114.41666, 114.4881, 114.36666, 114.32857, 114.5, 114.5, 114.25, 114.3125, 114.3125, 114.25, 114.33333, -10, -10, -10, -10, -10, -10, -10, -10, -10, -10, -10, -10, -10, -10, -10, -10, -10, -10, -10, -10, -10, -10, -10, -10, -10, -10, -10, -10, -10, -10, -10, -10, -10, -10, -10, -10, -10, -10, -10, -10, -10, -10, -10, -10, -10, -10, -10, -10, -10, -10, -10, -10, -10, -10, -10, -10, -10, -10, -10, -10, -10, -10, -10, -10, -10, -10, -10, -10, -10, -10, -10, -10, -10, -10, -10, -10, -10, -10, -10, -10, -10, -10, -10, -10, -10, -10, -10, -10, -10, -10, -10, -10, -10, -10, -10, -10, -10, -10, -10, -10, -10, -10, -10, -10, -10, -10, -10, -10, -10, -10, -10, -10, -10, -10, -10, -10, -10, -10, -10, -10, -10, -10, -10, -10, -10, -10, -10, -10, -10, -10, -10, -10, -10, -10, -10, -10, -10, -10, -10, -10, -10, -10, -10, -10, -10, -10, -10, -10, -10, -10, -10, -10, -10, -10, -10, -10, -10, -10, -10, -10, -10, -10, -10, -10, -10, -10, -10, -10, -10, -10, -10, -10, -10, -10, -10, -10, -10, -10, -10, -10, -10, -10, -10, -10, -10, -10, -10, -10, -10, -10, -10, -10, -10, -10, -10, -10, -10, -10, -10, -10, -10, -10, -10, -10, -10, -10, -10, -10, -10, -10, -10, -10, -10, -10, -10, -10, -10, -10, -10, -10, -10, -10, -10, -10, -10, -10, -10, -10, -10, -10, -10, -10, -10, -10, -10, -10, -10, -10
