-10, -10, -10, -10, -10, -10, -10, -10, -10, -10, -10, -10, -10, -10, -10, -10, -10, -10, -10, -10, -10, -10, -10, -10, -10, -10, 112.9375, 112.875, 112.84375, 112.65625, 112.4375, 112.125, 111.67411, 110.66428, 109.375, 108.5238, 107.875, 107.375, 106.8125, 106.28125, 105.85268, 105.21726, 104.69643, 104.45535, 104, 103.10416, 102.67857, 101.80059, 101.48215, 100.8363, 100.28571, 99.979164, 99.857147, 99.732147, 99.5, 99.196426, 98.595238, 97.654755, 97.321426, 96.705353, 96.383926, 95.821426, 94.895828, 94.651779, 94.25, 93.955353, 93.705353, 93.1875, 92.375, 91.928574, 91.5, 91.125, 90.413696, 89.907738, 88.985123, 88.529755, 88.1875, 87.633926, 87.41964, 86.607147, 86.023811, 85.330353, 84.875, 84.303574, 83.577377, 83.196426, 82.741074, 82.157738, 81.589287, 81.303574, 80.705353, 80.25, 79.660713, 79.25, 78.705353, 78.25, 77.526779, 76.764877, 76.366074, 75.827377, 75.464279, 75.196426, 74.803574, 74.1875, 73.767853, 73.1875, 72.723213, 72.25, 71.767853, 71.366074, 70.684525, 70.258926, 69.508926, 68.764877, 68.339279, 67.803574, 67.229164, 66.714287, 66.25, 65.8125, 65.375, 64.830353, 64.3125, 63.723213, 63.3125, 62.8125, 62.3125, 61.785713, 61.241074, 60.622025, 60.107143, 59.446426, 58.928574, 58.4375, 57.9375, 57.5, 57, 56.5, 56, 55.5, 55, 54.4375, 54.017857, 53.625, 53.25, 52.901787, 52.324402, 51.285717, 50.75, 50.3125, 50.0625, 49.482143, 48.619049, 48, 47.5, 47.017857, 46.5625, 45.958332, 45.4375, 45, 44.5, 43.809525, 43.3125, 42.875, 42.4375, 41.875, 41.455357, 40.9375, 40.375, 39.785713, 39.375, 38.9375, 38.366074, 37.595238, 37, 36.375, 35.785713, 35.375, 34.9375, 34.5625, 34.125, 33.580357, 33.1875, 32.642857, 32.25, 31.660713, 31.125, 30.535713, 30.0625, 29.5625, 29.0625, 28.517857, 28, 27.375, 26.785713, 26.375, 25.875, 25.375, 24.678572, 24.049107, 23.486607, 22.760416, 22.383928, 21.9375, 21.5, 20.955357, 20.455357, 20.0625, 19.625, 19.1875, 18.571428, 17.809523, 17.113094, 16.589287, 16.3125, 15.9375, 15.4375, 14.848213, 14.357143, 13.84375, 13.28125, 12.647322, 12.25, 11.75, 11.1875, 10.553572, 10.25, 9.75, 9.5, 9.25, 9, 9, 9, 9, 9, 9, 9.0625, 9.25, 9.375, 9.625, 9.75, 9.625, 9.5625, 9.375, 9.3125, 9.5, 9.625, 9.8392859, 10.107143, 10.241072, 10.375, 10.5, 10.5625, 10.5625, 10.830357, 11.616072, 12.044643, 12.714286, 13.291667, 13.666667, 14.400792, 14.949406, 15.419643, 15.5625, 15.6875, 15.625, 15.6875, 15.875, 15.75, 15.84375, 15.75, 15.5, 15.5625, 15.611607, 15.857143, 16.0625, 16.25, 16.25, 16.25, 16.125, 16.0625, 16.09375, 16.15625, 16.34375, 16.53125, 16.6875, 16.8125, 16.875, 16.9375, 17.25, 17.633333, -10, -10, -10, -10, -10, -10, -10, -10, -10, -10, -10, -10, -10, 35.5, 35.666668, 36, 36.140625, 36.390625, 36.779018, 37.125, 37.546875, 38.075893, 39.077381, 40.008926, 40.526787, 40.8125, 41.339287, 42.154762, 42.107143, 41.229164, 40.464287, 39.633926, 39.009525, -10, -10, -10, -10, -10, -10, -10, -10, -10, -10, -10, -10, -10, -10, -10, -10, -10, -10, -10, -10, -10, -10, -10, -10, -10, -10, -10, -10, -10, -10, -10, -10, -10, -10, -10, -10, -10, -10, -10, -10, -10, -10, -10, -10, -10, -10, -10, -10, -10, -10, -10, -10, -10, -10, -10, -10, -10, -10, -10, -10, -10, -10, -10, -10, -10, -10, -10, -10, -10, -10, -10, -10, -10, -10, -10, -10, -10, -10, 113.1875, 113.125, 113.02232, 112.65625, 112.4375, 112.0625, 111.54911, 110.48571, 109.5, 108.39285, 107.80357, 107.375, 106.95535, 106.5625, 106.13393, 105.46726, 104.76191, 104.38393, 103.92857, 103.0625, 102.64285, 101.80059, 101.35715, 100.69345, 100.33928, 100, 99.8125, 99.5625, 99.3125, 99.053574, 98.470238, 97.738091, 97.166664, 96.589287, 96.321426, 95.866074, 94.895828, 94.60714, 94.25, 94.0625, 93.767853, 93.25, 92.559517, 92.133926, 91.6875, 91.26786, 90.4375, 89.907738, 88.83036, 88.559517, 88.116074, 87.508926, 87.29464, 86.526787, 86.023811, 85.267853, 84.705353, 84.125, 83.535713, 83.125, 82.616074, 81.979164, 81.464287, 81.1875, 80.75, 80.3125, 79.678574, 79.1875, 78.642853, 78.1875, 77.300591, 76.523804, 76.25, 75.973213, 75.642853, 75.267853, 74.758926, 74.125, 73.705353, 73.1875, 72.723213, 72.25, 71.767853, 71.366074, 70.684525, 70.258926, 69.580353, 68.872025, 68.401779, 67.928574, 67.282738, 66.630951, 66.125, 65.6875, 65.3125, 64.830353, 64.4375, 63.892857, 63.455357, 62.9375, 62.375, 61.785713, 61.125, 60.598213, 60.169643, 59.508926, 58.991074, 58.455357, 58, 57.553574, 57, 56.5625, 56, 55.517857, 55, 54.4375, 54.017857, 53.5625, 53.1875, 52.839287, 52.3125, 51.285717, 50.75, 50.3125, 50.0625, 49.482143, 48.619049, 48, 47.5625, 47.125, 46.625, 45.958332, 45.3125, 44.767857, 44.3125, 43.892857, 43.491074, 42.916668, 42.508926, 41.9375, 41.517857, 41.0625, 40.491074, 39.809525, 39.383926, 38.9375, 38.366074, 37.523811, 36.892857, 36.375, 35.892857, 35.5, 35.0625, 34.580357, 34.125, 33.580357, 33.1875, 32.642857, 32.1875, 31.566963, 31.03125, 30.486607, 30.03125, 29.5625, 29.0625, 28.517857, 28, 27.375, 26.785713, 26.375, 25.875, 25.4375, 24.821428, 24.205357, 23.642857, 22.708332, 22.330357, 21.9375, 21.5625, 21.017857, 20.473213, 20, 19.5625, 19.125, 18.508928, 17.955357, 17.113094, 16.544643, 16.25, 15.9375, 15.553572, 14.872025, 14.294643, 13.78125, 13.28125, 12.691963, 12.375, 11.875, 11.25, 10.571428, 10.1875, 9.6875, 9.4375, 9.1875, 9, 9, 9, 9, 9, 9, 9.0625, 9.1875, 9.25, 9.4375, 9.5625, 9.5, 9.5, 9.4375, 9.375, 9.5625, 9.75, 9.875, 10, 10.0625, 10.125, 10.25, 10.455357, 10.809525, 11.265306, 12.775511, 13.336736, 13.821428, 14.071428, 14.321428, 14.819727, 15.157739, 15.419643, 15.4375, 15.5, 15.375, 15.5, 15.625, 15.5, 15.65625, 15.625, 15.6875, 15.875, 15.96875, 16, 16.0625, 16.125, 16.125, 16.125, 16.0625, 16.0625, 16.125, 16.25, 16.375, 16.5625, 16.6875, 16.75, 16.875, 17, 17.4375, 17.933334, -10, -10, -10, -10, -10, -10, -10, -10, -10, -10, -10, -10, -10, 35.333332, 35.5, 35.5, 35.712051, 36.223957, 36.645088, 36.96875, 37.328125
-10, -10, -10, -10, -10, -10, -10, -10, -10, -10, -10, -10, -10, -10, -10, -10, -10, -10, -10, -10, -10, -10, -10, -10, -10, -10, 113.1875, 113.125, 112.95982, 112.65625, 112.5, 112.10715, 111.45387, 110.56429, 109.75, 108.48809, 107.9375, 107.49107, 106.97916, 106.63393, 106.19643, 105.59226, 104.94941, 104.50893, 104.05357, 103.125, 102.40476, 101.6875, 101.23215, 100.69345, 100.375, 99.9375, 99.8125, 99.4375, 99.25, 98.928574, 98.345238, 97.821426, 97.011902, 96.401787, 96.071426, 95.678574, 94.979164, 94.723213, 94.375, 94.125, 93.767853, 93.25, 92.767853, 92.375, 92, 91.571434, 90.541664, 89.979164, 88.913689, 88.589279, 88.116074, 87.625, 87.285713, 86.491074, 86.107147, 85.184517, 84.651787, 84.125, 83.589287, 82.895836, 82.4375, 81.9375, 81.455353, 81.25, 80.75, 80.25, 79.642853, 79.232147, 78.571426, 78.116074, 77.238091, 76.568451, 76.3125, 76.0625, 75.875, 75.446426, 74.883926, 74.205353, 73.8125, 73.1875, 72.678574, 72.1875, 71.642853, 71.3125, 70.767853, 70.104164, 69.392853, 68.684525, 68.321426, 67.928574, 67.345238, 66.755951, 66.25, 65.604164, 65.258926, 64.767853, 64.5, 64, 63.455357, 62.892857, 62.375, 61.830357, 61.1875, 60.61607, 60.169643, 59.508926, 58.991074, 58.455357, 58, 57.553574, 57, 56.5, 55.892857, 55.455357, 54.9375, 54.4375, 53.955357, 53.5, 53.125, 52.75, 52.272324, 51.400299, 50.852676, 50.40625, 50.0625, 49.336311, 48.547623, 47.9375, 47.5625, 47.125, 46.5625, 45.851189, 45.1875, 44.705357, 44.375, 44, 43.63393, 43.041668, 42.571426, 42, 41.517857, 41.0625, 40.491074, 39.809525, 39.383926, 38.9375, 38.428574, 37.630951, 36.809525, 36.321426, 35.892857, 35.5625, 35.125, 34.598213, 34.1875, 33.705357, 33.366074, 32.684525, 32.196426, 31.566963, 31.09375, 30.59375, 29.947916, 29.508928, 29, 28.517857, 28, 27.4375, 26.892857, 26.4375, 25.9375, 25.5, 25, 24.4375, 23.892857, 22.749998, 22.339285, 22, 21.625, 21.142857, 20.598213, 19.854166, 19.446428, 19.0625, 18.625, 18.125, 17.122023, 16.5, 16.1875, 15.9375, 15.669643, 14.895834, 14.232143, 13.71875, 13.28125, 12.736607, 12.4375, 11.9375, 11.25, 10.571428, 10.1875, 9.6875, 9.4375, 9.1875, 9, 9, 9, 9, 9.0625, 9.125, 9.1875, 9.25, 9.25, 9.3125, 9.5, 9.5625, 9.625, 9.6875, 9.625, 9.75, 9.875, 9.9375, 10.0625, 10.1875, 10.428572, 10.459184, 10.724489, 12.305556, 13, 13.744898, 14.193878, 14.357142, 14.375, 14.5625, 15.020833, 15.178572, 15.3125, 15.25, 15.3125, 15.3125, 15.4375, 15.5, 15.4375, 15.5, 15.5625, 15.6875, 15.875, 16, 16, 16, 16, 16, 16, 16, 16.125, 16.25, 16.4375, 16.5625, 16.625, 16.75, 16.75, 16.9375, 17.145834, 17.5, 18.133333, -10, -10, -10, -10, -10, -10, -10, -10, -10, -10, -10, -10, -10, 35.25, 35.25, 35.25, 35.477676, 36.052082, 36.620537, 37.049107, 37.4375, 37.839287, 38.660713, 39.665176, 40.223213, 40.732143, 41.151787, 41.877975, 41.767857, 40.892857, 40.142857, 39.258926, 38.557144, 38.155552, -10, -10, -10, -10, -10, -10, -10, -10, -10, -10, -10, -10, -10, -10, -10, -10, -10, -10, -10, -10, -10, -10, -10, -10, -10, -10, -10, -10, -10, -10, -10, -10, -10, -10, -10, -10, -10, -10, -10, -10, -10, -10, -10, -10, -10, -10, -10, -10, -10, -10, -10, -10, -10, -10, -10, -10, -10, -10, -10, -10, -10, -10, -10, -10, -10, -10, -10, -10, -10, -10, -10, -10, -10, -10, -10, -10, -10, 113.1875, 113.125, 112.95982, 112.6875, 112.59375, 112.15625, 111.23959, 110.5, 109.875, 108.66666, 108.125, 107.61607, 106.89583, 106.57143, 106.17857, 105.59226, 104.94941, 104.57143, 104.16071, 103.16666, 102.33334, 101.75893, 101.30357, 100.81845, 100.5625, 100.125, 100.00893, 99.416664, 99.1875, 98.8125, 98.491074, 98, 97.190475, 96.380951, 96.017853, 95.616074, 95.1875, 94.830353, 94.4375, 94.125, 93.6875, 93.071426, 92.535713, 92.1875, 91.875, 91.508934, 90.541664, 89.916664, 88.642853, 88.285713, 87.928574, 87.660713, 87.190475, 86.502975, 86.178574, 85.309517, 84.89286, 84.229164, 83.696426, 82.904762, 82.291664, 81.8125, 81.375, 81.1875, 80.6875, 80.25, 79.75, 79.348221, 78.467262, 77.991074, 77.059525, 76.443451, 76.3125, 76.125, 76, 75.517853, 74.747025, 74.142853, 73.6875, 73.1875, 72.660713, 72.1875, 71.642853, 71.3125, 70.696426, 69.934525, 69.214279, 68.705353, 68.375, 68.053574, 67.532738, 66.988091, 66.5, 65.845238, 65.279762, 64.803574, 64.5, 64, 63.392857, 62.785713, 62.3125, 61.8125, 61.25, 60.61607, 60.1875, 59.6875, 59.125, 58.535713, 58.0625, 57.491074, 56.892857, 56.4375, 55.830357, 55.392857, 54.830357, 54.4375, 54, 53.5625, 53.1875, 52.6875, 52.165176, 51.382439, 50.915176, 50.46875, 50.133926, 49.232143, 48.476189, 47.875, 47.5625, 47.125, 46.5625, 45.851189, 45.1875, 44.705357, 44.3125, 43.892857, 43.57143, 42.979168, 42.571426, 42.0625, 41.580357, 41.125, 40.508926, 39.809525, 39.383926, 38.875, 38.3125, 37.607143, 36.809525, 36.383926, 36, 35.625, 35.25, 34.660713, 34.25, 33.723213, 33.303574, 32.622025, 32.196426, 31.611607, 31.21875, 30.71875, 29.802082, 29.392857, 28.875, 28.5, 28, 27.4375, 26.892857, 26.4375, 25.9375, 25.5, 25, 24.4375, 23.892857, 22.749998, 22.267857, 21.9375, 21.625, 21.1875, 20.598213, 19.809523, 19.383928, 19, 18.625, 18.1875, 17.238094, 16.523809, 16.125, 15.8125, 15.4375, 14.708334, 14.044643, 13.59375, 13.28125, 12.78125, 12.5, 12, 11.25, 10.571428, 10.125, 9.625, 9.375, 9.125, 9, 9.0625, 9.0625, 9.0625, 9.125, 9.125, 9.1875, 9.1875, 9.125, 9.125, 9.3125, 9.5, 9.6875, 9.875, 9.875, 9.9375, 10, 10.0625, 10.25, 10.604167, 11.220239, 12.142858, 12.654762, 13.190476, 13.785714, 14.25, 14.428572, 14.401786, 14.4375, 14.4375, 14.625, 14.75, 14.919643, 15.0625, 15.1875, 15.25, 15.375, 15.3125, 15.25, 15.375, 15.5, 15.6875, 15.9375, 15.9375, 15.875, 15.8125, 15.75, 15.8125, 15.875, 15.9375, 16.1875, 16.375, 16.5625, 16.625, 16.5625, 16.625, 16.6875, 17, 17.320833, -10, -10, -10, -10, -10, -10, -10, -10, -10, -10, -10, -10, -10, -10, -10, 35.25, 35.166668, 35.1875, 35.383926, 35.958332, 36.651787, 37.1875, 37.5625
-10, -10, -10, -10, -10, -10, -10, -10, -10, -10, -10, -10, -10, -10, -10, -10, -10, -10, -10, -10, -10, -10, -10, -10, -10, -10, 112.9375, 112.95834, 112.83482, 112.6875, 112.61607, 112.04167, 111.14584, 110.41965, 109.69643, 108.64285, 108.1875, 107.66965, 106.74999, 106.35714, 105.90625, 105.60268, 105.05209, 104.69643, 104.29465, 103.33334, 102.22024, 101.65179, 101.25, 101.00893, 100.57441, 100.11607, 99.946426, 99.354164, 99.1875, 98.75, 98.375, 97.964287, 97.136902, 96.550591, 96.196426, 95.758926, 95.145836, 94.651779, 94.3125, 94, 93.553574, 92.800598, 92.160713, 91.8125, 91.5625, 91.232147, 90.583328, 90, 88.874992, 88.526779, 88.241074, 87.910713, 87.369049, 86.413696, 85.928574, 85.229164, 84.89286, 84.083328, 83.625, 82.842262, 82.291664, 81.84375, 81.40625, 81.15625, 80.65625, 80.1875, 79.79464, 79.357147, 78.238098, 77.857147, 77.113091, 76.657738, 76.416664, 76.125, 75.729164, 75.214287, 74.497025, 74.205353, 73.785713, 73.330353, 72.767853, 72.3125, 71.767853, 71.3125, 70.651787, 69.872025, 69.267853, 68.8125, 68.4375, 68.1875, 67.803574, 67.291664, 66.8125, 66.032738, 65.360115, 64.928574, 64.5625, 64.125, 63.517857, 62.702381, 62.1875, 61.6875, 61.1875, 60.598213, 60.25, 59.75, 59.25, 58.660713, 58.125, 57.508926, 56.892857, 56.4375, 55.830357, 55.392857, 54.830357, 54.4375, 54, 53.5625, 53.125, 52.625, 52.102676, 51.364582, 50.915176, 50.46875, 50.071426, 49.17857, 48.559525, 48, 47.625, 47.125, 46.5625, 45.955357, 45.330357, 44.830357, 44.3125, 43.785713, 43.44643, 42.791668, 42.446426, 42.0625, 41.625, 41.1875, 40.589287, 39.916668, 39.446426, 38.9375, 38.3125, 37.607143, 36.872025, 36.4375, 35.916668, 35.571426, 35.1875, 34.660713, 34.25, 33.723213, 33.241074, 32.559525, 32.133926, 31.59375, 31.28125, 30.84375, 29.980654, 29.392857, 28.839287, 28.46875, 27.96875, 27.375, 26.785713, 26.3125, 25.8125, 25.4375, 24.9375, 24.5, 24.0625, 22.92857, 22.309523, 21.875, 21.5625, 21.125, 20.517857, 19.702381, 19.321428, 18.9375, 18.625, 18.21875, 17.477678, 16.733629, 16.21875, 15.705357, 15.25, 14.520834, 13.9375, 13.5, 13.1875, 12.6875, 12.4375, 11.9375, 11.25, 10.571428, 10.0625, 9.5625, 9.3125, 9.0625, 9, 9.0625, 9.0625, 9.0625, 9.125, 9.125, 9.1875, 9.1875, 9.125, 9.0625, 9.25, 9.4375, 9.625, 9.875, 9.875, 10, 10.125, 10.25, 10.607143, 11.354167, 12.414966, 13.051021, 13.561225, 13.979167, 14.459822, 14.65625, 14.522322, 14.245536, 14.1875, 14.0625, 14.25, 14.375, 14.607143, 15.145833, 15.232143, 15.3125, 15.3125, 15.125, 15.125, 15.25, 15.4375, 15.625, 15.8125, 15.75, 15.625, 15.625, 15.5625, 15.625, 15.75, 15.8125, 16.1875, 16.5, 16.625, 16.625, 16.4375, 16.375, 16.5625, 16.991072, 17.300001, -10, -10, -10, -10, -10, -10, -10, -10, -10, -10, -10, -10, -10, -10, -10, 35.625, 35.5, 35.53125, 35.665176, 36.239582, 36.888393, 37.4375, 37.75, 38.125, 38.5625, 39.272324, 39.834824, 40.482143, 40.90625, 41.34375, 41.285713, 40.630955, 40, 39.25, 38.369049, 37.795834, -10, -10, -10, -10, -10, -10, -10, -10, -10, -10, -10, -10, -10, -10, -10, -10, -10, -10, -10, -10, -10, -10, -10, -10, -10, -10, -10, -10, -10, -10, -10, -10, -10, -10, -10, -10, -10, -10, -10, -10, -10, -10, -10, -10, -10, -10, -10, -10, -10, -10, -10, -10, -10, -10, -10, -10, -10, -10, -10, -10, -10, -10, -10, -10, -10, -10, -10, -10, -10, -10, -10, -10, -10, -10, -10, -10, -10, 112.875, 112.91667, 112.8125, 112.75, 112.50893, 111.97917, 111.02084, 110.33929, 109.51785, 108.70238, 108.32143, 107.79465, 106.82143, 106.06548, 105.54018, 105.28125, 105.03125, 104.75, 104.36607, 103.41667, 102.29166, 101.50595, 101.11607, 100.79465, 100.34227, 99.866074, 99.633926, 99.166664, 99, 98.625, 98.3125, 97.89286, 97.136902, 96.622025, 96.258926, 95.821426, 95.226196, 94.758926, 94.3125, 93.892853, 93.366074, 92.613098, 92.080353, 91.6875, 91.375, 90.946426, 90.416664, 89.8125, 88.922615, 88.642853, 88.4375, 88.285713, 87.681549, 86.517853, 85.928574, 85.166664, 84.928574, 83.976189, 83.571426, 82.779762, 82.291664, 81.84375, 81.375, 81.0625, 80.5625, 80.09375, 79.776787, 79.357147, 78.029762, 77.714287, 77.290176, 76.907738, 76.461304, 75.919647, 75.372025, 75.017853, 74.416664, 74.205353, 73.848213, 73.330353, 72.767853, 72.3125, 71.839287, 71.357147, 70.535713, 69.738091, 69.1875, 68.75, 68.4375, 68.125, 67.8125, 67.5, 67.0625, 66.116074, 65.369041, 64.866074, 64.5, 64.125, 63.553574, 62.619049, 62.133926, 61.625, 61.1875, 60.598213, 60.25, 59.75, 59.3125, 58.767857, 58.125, 57.473213, 56.892857, 56.375, 55.892857, 55.4375, 54.892857, 54.455357, 53.9375, 53.5, 53, 52.5, 52.03125, 51.53125, 51.09375, 50.53125, 49.964287, 49.0625, 48.642853, 48.1875, 47.8125, 47.267857, 46.6875, 46.017857, 45.410713, 44.9375, 44.166668, 43.607143, 43.267857, 42.8125, 42.5, 42.125, 41.625, 41.125, 40.327381, 39.821426, 39.375, 39, 38.428574, 37.702381, 37.050594, 36.5625, 35.979168, 35.526787, 35.125, 34.642857, 34.25, 33.723213, 33.241074, 32.559525, 32.196426, 31.6875, 31.4375, 31.0625, 30.190475, 29.351191, 28.767857, 28.40625, 27.90625, 27.375, 26.785713, 26.25, 25.705357, 25.375, 24.875, 24.5, 24.0625, 23.136904, 22.488094, 21.9375, 21.517857, 21.0625, 20.5, 19.702381, 19.321428, 18.875, 18.5625, 18.1875, 17.5625, 16.934523, 16.370537, 15.622024, 15.142858, 14.541667, 14.0625, 13.625, 13.21875, 12.71875, 12.34375, 11.84375, 11.1875, 10.553572, 10.0625, 9.5625, 9.3125, 9.0625, 9, 9.0625, 9.0625, 9.0625, 9.125, 9.125, 9.1875, 9.1875, 9.1875, 9.1875, 9.375, 9.625, 9.8125, 10, 10, 10.205357, 10.52381, 10.775511, 11.265306, 12.583334, 13.113095, 13.732143, 14.169643, 14.419643, 14.447917, 14.352678, 14.15625, 13.995536, 13.9375, 13.9375, 14.125, 14.3125, 14.544643, 15.083333, 15.169643, 15.25, 15.25, 15.0625, 15.0625, 15.1875, 15.375, 15.5, 15.625, 15.5, 15.375, 15.375, 15.375, 15.5, 15.6875, 15.8125, 16.1875, 16.4375, 16.5, 16.5, 16.1875, 16.151787, 16.446428, 16.803572, 17.112501, -10, -10, -10, -10, -10, -10, -10, -10, -10, -10, -10, -10, -10, -10, -10, 36.375, 36.166668, 36.15625, 36.15625, 36.46875, 37.084824, 37.6875, 38.125
-10, -10, -10, -10, -10, -10, -10, -10, -10, -10, -10, -10, -10, -10, -10, -10, -10, -10, -10, -10, -10, -10, -10, -10, -10, -10, 112.75, 112.83334, 112.73215, 112.5625, 112.32143, 111.74702, 111.0625, 110.41071, 109.51785, 109.03571, 108.60715, 108.11607, 107.2619, 106.03571, 105.49553, 105.15625, 104.90625, 104.625, 104.0625, 103.05952, 102.20833, 101.32738, 100.99107, 100.54465, 100.05655, 99.678574, 99.383926, 99.041664, 98.803574, 98.375, 98.1875, 97.75, 97.220238, 96.800598, 96.276779, 95.830353, 95.226196, 94.758926, 94.3125, 93.892853, 93.157738, 92.434525, 91.955353, 91.5625, 91.25, 90.767853, 90.321426, 89.520836, 88.827377, 88.633926, 88.473213, 88.241074, 87.619049, 86.5, 85.991074, 85.4375, 85.232147, 84.226189, 83.559517, 82.946426, 82.416664, 82, 81.46875, 81.03125, 80.53125, 80.03125, 79.625, 79.214287, 78.083336, 77.785721, 77.433029, 76.970238, 76.398804, 75.857147, 75.184525, 74.892853, 74.416664, 74.25, 73.910713, 73.410713, 72.9375, 72.428574, 71.901787, 71.375, 70.327377, 69.75, 69.1875, 68.767853, 68.375, 68, 67.6875, 67.375, 66.991074, 66.116074, 65.369041, 64.866074, 64.5, 64.125, 63.616074, 62.726192, 62.196426, 61.75, 61.303574, 60.622025, 60.25, 59.75, 59.375, 58.830357, 58.25, 57.598213, 56.955357, 56.455357, 56.0625, 55.5625, 55.017857, 54.473213, 54, 53.625, 53.178574, 52.541668, 52, 51.5, 51.0625, 50.5, 49.964287, 49.270832, 48.883926, 48.4375, 48, 47.410713, 46.875, 46.041668, 45.48214, 44.928574, 43.958336, 43.5, 43.1875, 42.8125, 42.517857, 42.125, 41.625, 41.125, 40.327381, 39.821426, 39.375, 39, 38.428574, 37.702381, 37.227676, 36.709824, 36.072918, 35.558037, 35.125, 34.642857, 34.25, 33.660713, 33.125, 32.535713, 32.125, 31.625, 31.3125, 31, 30.380953, 29.422619, 28.830357, 28.40625, 27.96875, 27.428572, 26.702379, 26.125, 25.580357, 25.3125, 24.8125, 24.4375, 23.955357, 23.282738, 22.604166, 22, 21.473213, 20.9375, 20.375, 19.816963, 19.40625, 18.90625, 18.53125, 18.1875, 17.669643, 16.891666, 16.141369, 15.372024, 14.901786, 14.5625, 14.1875, 13.75, 13.21875, 12.674107, 12.21875, 11.71875, 11.125, 10.535714, 10, 9.5, 9.25, 9, 9, 9.0625, 9.0625, 9.0625, 9.0625, 9, 9, 9, 9.125, 9.25, 9.5, 9.75, 9.875, 10.142857, 10.380952, 10.724489, 12.305556, 12.642858, 12.946429, 13.238096, 13.497024, 13.834822, 14.15625, 14.325893, 14.229167, 14.040178, 13.790178, 13.816964, 14.020833, 14.116072, 14.25, 14.375, 14.544643, 15.020833, 15.107143, 15.125, 15.125, 15, 15.0625, 15.25, 15.375, 15.4375, 15.4375, 15.25, 15.125, 15.125, 15.1875, 15.375, 15.625, 15.8125, 16.125, 16.375, 16.375, 16.375, 16.125, 16.026787, 16.383928, 16.616072, 16.841667, 16.291668, -10, -10, -10, 18.1, -10, -10, -10, -10, -10, -10, -10, -10, -10, -10, 37.5, 37.238094, 37, 36.90625, 37.03125, 37.40625, 37.901787, 38.583332, 38.946426, 39.21875, 39.522324, 39.825893, 40.241074, 40.947918, 41.441963, 41.580357, 41.107143, 39.916668, 39.05357, 38.023808, 37.012501, -10, -10, -10, -10, -10, -10, -10, -10, -10, -10, -10, -10, -10, -10, -10, -10, -10, -10, -10, -10, -10, -10, -10, -10, -10, -10, -10, -10, -10, -10, -10, -10, -10, -10, -10, -10, -10, -10, -10, -10, -10, -10, -10, -10, -10, -10, -10, -10, -10, -10, -10, -10, -10, -10, -10, -10, -10, -10, -10, -10, -10, -10, -10, -10, -10, -10, -10, -10, -10, -10, -10, -10, -10, -10, -10, -10, -10, 113, 113.08334, 112.91072, 112.47916, 112.14285, 111.60416, 111.25, 110.66071, 109.43452, 108.99405, 108.68214, 108.0744, 107.2619, 105.96429, 105.43303, 105.15625, 104.90625, 104.625, 104.02678, 102.9762, 102.1369, 101.30952, 100.99107, 100.42857, 99.577377, 99.125, 98.8125, 98.6875, 98.491074, 98.0625, 97.75, 97.3125, 96.854164, 96.669647, 96.098206, 95.642853, 94.976196, 94.571426, 94.1875, 93.892853, 93.273811, 92.446426, 92.0625, 91.6875, 91.375, 90.901779, 90.154762, 89.342262, 88.910713, 88.8125, 88.589287, 88.122025, 87.607147, 86.604164, 86.053574, 85.392853, 85.053574, 84.122025, 83.452377, 82.875, 82.5, 82.0625, 81.53125, 81.03125, 80.53125, 79.96875, 79.5, 79.098213, 78.1875, 77.848221, 77.504463, 77.178574, 76.523804, 75.982147, 75.184525, 74.946426, 74.6875, 74.5, 74.160713, 73.553574, 73.0625, 72.428574, 71.785713, 71.133926, 70.22023, 69.794647, 69.294647, 68.747025, 68.321426, 67.875, 67.5625, 67.3125, 66.857147, 65.854164, 65.285713, 64.8125, 64.5, 64.125, 63.678574, 62.833336, 62.321426, 61.875, 61.303574, 60.648811, 60.232143, 59.714287, 59.491074, 58.830357, 58.25, 57.660713, 57.125, 56.580357, 56.1875, 55.642857, 55.125, 54.535713, 54.125, 53.75, 53.357147, 52.583336, 52, 51.5, 51, 50.375, 49.785713, 49.375, 49, 48.625, 48.125, 47.535713, 47.125, 46.291668, 45.565475, 44.964287, 43.958336, 43.5, 43.1875, 42.8125, 42.455357, 41.955357, 41.5, 41, 40.309525, 39.821426, 39.375, 39, 38.428574, 37.702381, 37.290176, 36.772324, 36.135418, 35.575893, 35.0625, 34.580357, 34.1875, 33.642857, 33.1875, 32.598213, 32.125, 31.580357, 31.25, 30.9375, 30.526787, 29.494047, 28.892857, 28.375, 27.9375, 27.397322, 26.715773, 26.0625, 25.517857, 25.25, 24.75, 24.4375, 23.955357, 23.428572, 22.747025, 22.1875, 21.598213, 21.0625, 20.455357, 19.924107, 19.46875, 18.96875, 18.53125, 18.1875, 17.678572, 17.1, 16.391369, 15.476191, 15.080357, 14.6875, 14.375, 13.875, 13.072917, 12.558035, 12.09375, 11.65625, 11.125, 10.535714, 10, 9.5, 9.25, 9, 9, 9, 9, 9, 9.0625, 9.125, 9.1875, 9.1875, 9.3125, 9.4375, 9.625, 10.017857, 10.309525, 10.653061, 12.222222, 12.613095, 13.119048, 13.301021, 13.418367, 13.4375, 13.455357, 13.65625, 13.78125, 13.825893, 13.684524, 13.602678, 13.415178, 13.602678, 13.940476, 14.241072, 14.4375, 14.5625, 14.6875, 15.020833, 15.044643, 15.0625, 15.0625, 15, 15.125, 15.25, 15.3125, 15.3125, 15.125, 15.026786, 15.035714, 15.125, 15.375, 15.4375, 15.6875, 15.8125, 16, 16.3125, 16.375, 16.4375, 16.25, 16.151787, 16.446428, 16.491072, 16.684525, 16.765873, 17.196428, 17.5625, 18.107143, 18.1, -10, -10, -10, -10, -10, -10, -10, -10, -10, -10, 38.285713, 38.095238, 38.017857, 37.71875, 37.78125, 38.03125, 38.482143, 39.252975
-10, -10, -10, -10, -10, -10, -10, -10, -10, -10, -10, -10, -10, -10, -10, -10, -10, -10, -10, -10, -10, -10, -10, -10, -10, -10, 113.1875, 113.29166, 113.0491, 112.37202, 112.03571, 111.625, 111.375, 110.8125, 109.36309, 108.95833, 108.61964, 108.08334, 107.40773, 106, 105.41965, 105.125, 104.76785, 104.35714, 103.73469, 102.64285, 102.11607, 101.29166, 100.86607, 100.19643, 99.494049, 98.863098, 98.571426, 98.375, 98.0625, 97.333336, 97.080353, 96.660721, 96.354164, 96.294647, 95.785706, 95.508926, 95.142853, 94.8125, 94.366074, 93.726196, 93.023811, 92.342262, 92.0625, 91.75, 91.375, 90.785713, 89.922615, 89.154762, 88.785713, 88.8125, 88.589287, 87.892853, 87.428574, 86.666664, 86.25, 85.580353, 85.116074, 84.348213, 83.630951, 83.008926, 82.333336, 81.852676, 81.34375, 80.90625, 80.46875, 79.9375, 79.4375, 79.089287, 78.416664, 77.982147, 77.522324, 77.196426, 76.669647, 76.294647, 75.767853, 75.291664, 74.9375, 74.5625, 74.125, 73.535713, 73.0625, 72.366074, 71.60714, 70.964287, 70.077377, 69.669647, 69.169647, 68.622025, 68.258926, 67.75, 67.5, 67.1875, 66.732147, 65.791664, 65.267853, 64.75, 64.375, 63.892857, 63.428574, 62.791668, 62.383926, 61.9375, 61.366074, 60.738098, 60.294643, 59.776787, 59.324406, 58.651787, 58.125, 57.642857, 57.125, 56.580357, 56.1875, 55.642857, 55.125, 54.535713, 54.1875, 53.875, 53.535713, 52.541668, 51.928574, 51.4375, 50.9375, 50.3125, 49.678574, 49.25, 48.875, 48.625, 48.160713, 47.55357, 47.196426, 46.479168, 45.815475, 44.964287, 44.002979, 43.544643, 43.25, 42.875, 42.455357, 41.892857, 41.229168, 40.758926, 40.104168, 39.696426, 39.25, 38.9375, 38.473213, 37.702381, 37.299107, 36.78125, 36.28125, 35.647324, 35.0625, 34.517857, 34.1875, 33.6875, 33.28125, 32.691963, 32.15625, 31.611607, 31.1875, 30.8125, 30.348215, 29.494047, 28.928572, 28.40625, 27.96875, 27.459822, 26.822916, 26.1875, 25.642857, 25.3125, 24.8125, 24.4375, 23.892857, 23.375, 22.830357, 22.3125, 21.723213, 21.125, 20.535713, 20.03125, 19.53125, 19.03125, 18.53125, 18.15625, 17.647322, 17.13125, 16.476191, 15.5, 15.151786, 14.75, 14.5, 14, 13.135417, 12.575893, 12.09375, 11.65625, 11.125, 10.535714, 10, 9.5, 9.25, 9, 9, 9, 9, 9, 9.0625, 9.1875, 9.3125, 9.375, 9.5625, 9.8303566, 10.166667, 10.653061, 12.222222, 12.571429, 13.04762, 13.275511, 13.541667, 13.607143, 13.625, 13.5625, 13.5, 13.53125, 13.53125, 13.513393, 13.340774, 13.383928, 13.321428, 13.571428, 13.940476, 14.366072, 14.625, 14.75, 14.875, 14.875, 14.875, 14.9375, 15, 15.0625, 15.1875, 15.25, 15.25, 15.1875, 15, 14.964286, 15.035714, 15.125, 15.375, 15.4375, 15.705357, 15.9375, 15.9375, 16.151787, 16.25, 16.419643, 16.375, 16.276787, 16.446428, 16.375, 16.517857, 16.761906, 17.083334, 17.517859, 17.938095, -10, -10, -10, -10, -10, -10, -10, -10, -10, -10, -10, 38.6875, 38.541668, 38.46875, 38.375, 38.3125, 38.375, 38.669643, 39.431545, 39.863094, 40.03125, 39.96875, 39.875, 40.178574, 40.791668, 41.223213, 41.366074, 40.880951, 39.516666, 38.345238, 37.369045, 36.583336, -10, -10, -10, -10, -10, -10, -10, -10, -10, -10, -10, -10, -10, -10, -10, -10, -10, -10, -10, -10, -10, -10, -10, -10, -10, -10, -10, -10, -10, -10, -10, -10, -10, -10, -10, -10, -10, -10, -10, -10, -10, -10, -10, -10, -10, -10, -10, -10, -10, -10, -10, -10, -10, -10, -10, -10, -10, -10, -10, -10, -10, -10, -10, -10, -10, -10, -10, -10, -10, -10, -10, -10, -10, -10, -10, -10, -10, 113.25, 113.23333, 112.89285, 112.30952, 112.08035, 111.75, 111.5, 110.83334, 109.25, 108.8869, 108.55714, 108.20834, 107.5506, 106.08333, 105.49107, 105.125, 104.76785, 104.07143, 103.42857, 102.55952, 101.97321, 101.375, 100.9375, 100.32143, 99.601196, 98.863098, 98.464279, 98.1875, 97.9375, 96.94445, 96.544212, 96.102043, 96.0625, 95.901787, 95.223206, 95.071426, 94.785713, 94.625, 94.303574, 93.770836, 93.130951, 92.288689, 91.928574, 91.625, 91.25, 90.767853, 89.922615, 89.217262, 88.946426, 88.910713, 88.535713, 87.696426, 87.241074, 86.6875, 86.375, 85.830353, 85.25, 84.66964, 83.880951, 83.029762, 82.315475, 81.790176, 81.375, 80.9375, 80.5, 79.96875, 79.4375, 79.089287, 78.625, 78.125, 77.553574, 77.1875, 76.75, 76.625, 76.232147, 75.559525, 75.125, 74.625, 74.125, 73.535713, 73.0625, 72.303574, 71.642853, 70.964287, 70.089287, 69.669647, 69.107147, 68.434525, 68.071426, 67.5625, 67.3125, 66.9375, 66.544647, 65.833328, 65.383926, 64.875, 64.321426, 63.723213, 63.25, 62.75, 62.375, 61.9375, 61.428574, 60.907742, 60.482143, 60.01786, 59.282738, 58.58036, 58.125, 57.6875, 57.1875, 56.598213, 56.125, 55.580357, 55.0625, 54.517857, 54.1875, 53.875, 53.598213, 52.604168, 51.991074, 51.383926, 50.830357, 50.25, 49.660713, 49.25, 48.8125, 48.625, 48.205357, 47.482143, 47.125, 46.541668, 45.922615, 44.922615, 44.193455, 43.660713, 43.3125, 42.830357, 42.330357, 41.705357, 40.997025, 40.571426, 40.1875, 39.8125, 39.375, 39, 38.473213, 37.702381, 37.299107, 36.78125, 36.34375, 35.754463, 35.1875, 34.642857, 34.25, 33.75, 33.28125, 32.691963, 32.125, 31.580357, 31.125, 30.6875, 30.263393, 29.629463, 29.0625, 28.486607, 28.03125, 27.459822, 26.822916, 26.25, 25.75, 25.375, 24.875, 24.375, 23.785713, 23.25, 22.705357, 22.3125, 21.830357, 21.303572, 20.577381, 20.03125, 19.53125, 19.03125, 18.53125, 18.125, 17.616072, 17.1, 16.440477, 15.5, 15.080357, 14.6875, 14.4375, 13.9375, 13.104167, 12.5, 12.125, 11.6875, 11.1875, 10.553572, 10, 9.5, 9.25, 9, 9, 9, 9, 9, 9.0625, 9.25, 9.5, 9.7321434, 10.035714, 10.37755, 11.996033, 12.571429, 13.04762, 13.346939, 13.604167, 13.669643, 13.6875, 13.5, 13.375, 13.3125, 13.3125, 13.28125, 13.21875, 13.21875, 13.245536, 13.5625, 13.5, 13.633928, 13.940476, 14.241072, 14.5, 14.5625, 14.6875, 14.75, 14.8125, 14.9375, 15, 15.0625, 15.1875, 15.25, 15.25, 15.1875, 15, 14.964286, 15.035714, 15.1875, 15.4375, 15.5, 15.767857, 15.9375, 15.8125, 16.026787, 16.125, 16.294643, 16.4375, 16.3125, 16.4375, 16.4375, 16.580357, 16.928572, 17.125, 17.471727, 17.938095, -10, -10, -10, -10, -10, -10, -10, -10, -10, -10, -10, 38.854168, 38.6875, 38.558037, 38.5625, 38.607143, 38.625, 38.794643, 39.306545
-10, -10, -10, -10, -10, -10, -10, -10, -10, -10, -10, -10, -10, -10, -10, -10, -10, -10, -10, -10, -10, -10, -10, -10, -10, -10, 113.5, 113.44167, 113.03571, 112.26786, 112.00893, 111.6875, 111.375, 110.65476, 109.07143, 108.52975, 108.2625, 107.95834, 107.3363, 106.04166, 105.45535, 105.125, 104.76785, 104.25, 103.75, 102.58333, 101.97321, 101.29166, 100.82143, 100.32143, 99.645836, 98.863098, 98.357132, 97.9375, 97.571426, 97.078232, 96.413689, 96.035713, 95.875, 95.556549, 94.788689, 94.571426, 94.285713, 94.1875, 93.928574, 93.458336, 93.089287, 92.279762, 91.866074, 91.5625, 91.125, 90.580353, 89.744049, 89.321426, 89.0625, 88.973213, 88.5, 87.678574, 87.241074, 86.6875, 86.3125, 85.705353, 85.017853, 84.48214, 83.89286, 82.946426, 82.261909, 81.696426, 81.34375, 80.90625, 80.46875, 79.96875, 79.5, 79.125, 78.625, 78.125, 77.598213, 77.294647, 76.767853, 76.705353, 76.357147, 75.684525, 75.145836, 74.395836, 73.883926, 73.392853, 72.9375, 72.25, 71.642853, 70.946426, 70.297623, 69.803574, 69.178574, 68.434525, 68.071426, 67.5625, 67.25, 66.75, 66.33036, 65.854164, 65.419647, 64.854164, 64.196426, 63.598213, 63.125, 62.625, 62.3125, 61.8125, 61.375, 60.991074, 60.544643, 60.035717, 59.220238, 58.51786, 58.0625, 57.625, 57.25, 56.705357, 56.125, 55.535713, 55, 54.5, 54.125, 53.75, 53.419643, 52.5625, 51.991074, 51.321426, 50.723213, 50.1875, 49.598213, 49.1875, 48.642857, 48.4375, 47.955357, 47.232143, 46.9375, 46.625, 45.994045, 44.827377, 44.276787, 43.642857, 43.375, 42.892857, 42.375, 41.830357, 41.122025, 40.633926, 40.205357, 39.8125, 39.3125, 38.892857, 38.348213, 37.577381, 37.267857, 36.75, 36.375, 35.785713, 35.25, 34.75, 34.25, 33.705357, 33.28125, 32.736607, 32.1875, 31.598213, 31.125, 30.625, 30.15625, 29.549107, 28.955357, 28.424107, 27.90625, 27.40625, 26.90625, 26.375, 25.875, 25.4375, 24.9375, 24.375, 23.785713, 23.1875, 22.642857, 22.3125, 21.875, 21.428572, 20.702381, 20.0625, 19.446428, 18.892857, 18.4375, 18, 17.5625, 17.3125, 16.794643, 15.8125, 15.214285, 14.642857, 14.375, 13.875, 13.104167, 12.5, 12.15625, 11.71875, 11.21875, 10.584822, 10, 9.5, 9.25, 9, 9, 9, 9, 9, 9.0625, 9.25, 9.5, 9.875, 10.723214, 12.053571, 12.818028, 13.275511, 13.604167, 13.794643, 13.8125, 13.6875, 13.4375, 13.214286, 13.294643, 13.366072, 13.5, 13.5625, 13.4375, 13.3125, 13.303572, 13.625, 13.625, 13.8125, 13.857143, 14.0625, 14.25, 14.3125, 14.4375, 14.5625, 14.6875, 14.875, 15, 15.0625, 15.125, 15.25, 15.25, 15.1875, 15.125, 15.026786, 15.098214, 15.3125, 15.5, 15.5, 15.767857, 15.875, 15.75, 15.964286, 16.0625, 16.232143, 16.375, 16.3125, 16.375, 16.375, 16.517857, 16.928572, 17.25, 17.584229, -10, -10, -10, -10, -10, -10, -10, -10, -10, -10, -10, 39, 38.916668, 38.741074, 38.464287, 38.5625, 38.714287, 38.732143, 38.6875, 38.622448, 38.833336, 39.142857, 39.5, 39.6875, 39.9375, 40.25, 40.5, 40.491074, 40.095238, 39.233929, 38.059525, 37.142857, 36.733334, -10, -10, -10, -10, -10, -10, -10, -10, -10, -10, -10, -10, -10, -10, -10, -10, -10, -10, -10, -10, -10, -10, -10, -10, -10, -10, -10, -10, -10, -10, -10, -10, -10, -10, -10, -10, -10, -10, -10, -10, -10, -10, -10, -10, -10, -10, -10, -10, -10, -10, -10, -10, -10, -10, -10, -10, -10, -10, -10, -10, -10, -10, -10, -10, -10, -10, -10, -10, -10, -10, -10, -10, -10, -10, -10, -10, -10, -10, 113.10833, 112.79465, 112.10119, 112.00893, 111.60416, 111.0625, 110.33333, 109.02976, 108.53571, 108.1875, 108.0625, 107.73215, 106.50595, 105.64285, 105.16965, 104.70535, 104.125, 103.66965, 102.7619, 101.9875, 101.08333, 100.57143, 100.1875, 99.9375, 99.220238, 98.523804, 98, 97.363098, 96.744049, 96.226189, 95.785713, 95.455353, 95.020836, 94.270836, 93.903061, 93.68367, 93.678574, 93.741074, 93.208336, 92.702377, 92.113091, 91.58036, 91.375, 90.875, 90.321426, 89.678574, 89.3125, 89, 88.848213, 88.321426, 87.511909, 87.107147, 86.5625, 86.25, 85.625, 84.910713, 84.48214, 83.928574, 82.779762, 82.136909, 81.571426, 81.28125, 80.90625, 80.46875, 79.96875, 79.5, 79.0625, 78.5625, 78.125, 77.642853, 77.357147, 76.785713, 76.705353, 76.357147, 75.684525, 75.083336, 74.125, 73.642853, 73.1875, 72.75, 72.080353, 71.633926, 71.0625, 70.458336, 69.866074, 69.133926, 68.410713, 68, 67.5, 67.125, 66.5625, 66.151787, 65.8125, 65.482147, 64.916664, 64.196426, 63.553574, 63.0625, 62.5625, 62.3125, 61.8125, 61.4375, 61.026787, 60.5, 59.964283, 59.104164, 58.5625, 58.125, 57.642857, 57.1875, 56.642857, 56.0625, 55.517857, 55, 54.5, 54.0625, 53.625, 53.241074, 52.520832, 51.991074, 51.321426, 50.723213, 50.25, 49.705357, 49.1875, 48.598213, 48.3125, 47.830357, 47.107143, 46.6875, 46.375, 45.910713, 44.791664, 44.339287, 43.75, 43.4375, 43.017857, 42.5, 42.0625, 41.309525, 40.613094, 40.151787, 39.8125, 39.366074, 38.809525, 38.285713, 37.559525, 37.267857, 36.75, 36.4375, 35.892857, 35.375, 34.875, 34.3125, 33.723213, 33.28125, 32.799107, 32.303574, 31.622023, 31.0625, 30.5625, 30.09375, 29.53125, 28.955357, 28.455357, 27.9375, 27.5, 27, 26.5, 26, 25.5, 25, 24.3125, 23.67857, 23.125, 22.625, 22.3125, 21.875, 21.491072, 20.809523, 20.125, 19.392857, 18.785713, 18.375, 17.875, 17.5, 17.1875, 16.669643, 15.895834, 15.205357, 14.598213, 14.3125, 13.8125, 13.25, 12.571428, 12.15625, 11.65625, 11.21875, 10.629464, 10.125, 9.625, 9.3125, 9.0625, 9, 9, 9.0625, 9.125, 9.25, 9.5625, 9.7448978, 10.275511, 11.755102, 12.724489, 13.247025, 13.4375, 13.5, 13.4375, 13.3125, 13.1875, 12.875, 12.714286, 12.857143, 13.053572, 13.583333, 13.741072, 13.75, 13.6875, 13.660714, 13.8125, 13.875, 14, 13.9375, 14.0625, 14.125, 14.1875, 14.25, 14.4375, 14.625, 14.8125, 15, 15.0625, 15.0625, 15.125, 15.0625, 15, 15.0625, 15, 15.0625, 15.25, 15.375, 15.5, 15.767857, 15.9375, 15.8125, 15.901786, 15.9375, 16.044643, 16.1875, 16.1875, 16.25, 16.3125, 16.375, 16.5625, 16.797619, 17.320635, -10, -10, -10, -10, -10, -10, -10, -10, -10, -10, -10, 39, 38.916668, 38.669643, 38.214287, 38.3125, 38.401787, 38.419643, 38.25, 38.303574
-10, -10, -10, -10, -10, -10, -10, -10, -10, -10, -10, -10, -10, -10, -10, -10, -10, -10, -10, -10, -10, -10, -10, -10, -10, -10, -10, 112.69167, 112.4375, 111.95834, 111.9375, 111.55952, 110.77084, 110.04762, 109.02976, 108.57143, 108.1875, 108, 107.66965, 106.35119, 105.57143, 105.04465, 104.6875, 104.375, 103.9375, 103.0119, 102.1125, 101.10119, 100.57143, 100.1875, 100, 99.482147, 98.619049, 98.0625, 97.341667, 97.119049, 96.333336, 95.723213, 95.151787, 94.520836, 93.708336, 93.508926, 93.285713, 93.3125, 93.25, 92.9375, 92.416672, 91.863091, 91.33036, 91.116074, 90.479164, 90.071426, 89.535706, 89.25, 88.9375, 88.660713, 88.133926, 87.482147, 86.916664, 86.446426, 86.0625, 85.4375, 84.741074, 84.401787, 83.866074, 82.779762, 82.220238, 81.8125, 81.5625, 81.071426, 80.553574, 80, 79.5, 79, 78.5, 78.125, 77.75, 77.410721, 76.639877, 76.392853, 75.982147, 75.580353, 75.011909, 73.916664, 73.464287, 73, 72.625, 72.142853, 71.848213, 71.383926, 70.886909, 70.0625, 69.241074, 68.428574, 68, 67.5, 67.0625, 66.455353, 66.089287, 65.75, 65.428574, 64.708328, 64.071426, 63.473213, 63.125, 62.625, 62.375, 61.875, 61.5, 61.0625, 60.4375, 59.857143, 59.145832, 58.616074, 58.25, 57.705357, 57.25, 56.660713, 56.125, 55.580357, 55.0625, 54.517857, 54, 53.5, 53.0625, 52.5625, 52.0625, 51.321426, 50.67857, 50.25, 49.75, 49.3125, 48.723213, 48.25, 47.6875, 46.964283, 46.491074, 46.125, 45.642857, 44.791664, 44.148811, 43.633926, 43.3125, 43.017857, 42.553574, 41.979168, 41.464287, 40.729168, 40.339287, 39.9375, 39.428574, 38.764881, 38.178574, 37.541668, 37.258926, 36.75, 36.5, 36, 35.5, 35, 34.375, 33.785713, 33.3125, 32.830357, 32.397324, 31.715773, 31.1875, 30.6875, 30.15625, 29.549107, 28.955357, 28.455357, 27.9375, 27.4375, 26.892857, 26.4375, 25.9375, 25.5, 25, 24.25, 23.571428, 23, 22.5, 22.25, 21.8125, 21.553572, 20.916666, 20.1875, 19.410715, 18.785713, 18.3125, 17.767857, 17.4375, 17.0625, 16.616072, 15.979167, 15.196428, 14.553572, 14.25, 13.75, 13.25, 12.571428, 12.09375, 11.59375, 11.1875, 10.642857, 10.15625, 9.65625, 9.3125, 9.0625, 9, 9, 9.125, 9.25, 9.4375, 9.8571434, 10.846939, 11.666667, 12.285714, 13.0625, 13.267857, 13.205357, 13.0625, 12.785714, 12.8125, 12.75, 12.4375, 12.339286, 12.482143, 12.678572, 13.479166, 13.732143, 13.875, 13.8125, 13.723214, 13.75, 13.75, 13.875, 13.875, 14, 14, 14.125, 14.1875, 14.4375, 14.6875, 14.8125, 14.9375, 14.875, 14.875, 14.9375, 15, 15.0625, 15.125, 15.0625, 15.0625, 15.1875, 15.375, 15.5625, 15.8125, 15.9375, 15.875, 15.9375, 15.9375, 15.9375, 16, 16, 16.0625, 16.125, 16.25, 16.5625, 16.883333, -10, -10, -10, -10, -10, -10, -10, -10, -10, -10, -10, 39, 39, 38.916668, 38.607143, 38.089287, 38.125, 38.151787, 38.232143, 38.125, 38.1875, 38.25, 38.5625, 38.9375, 39.125, 39.28125, 39.59375, 39.825893, 39.90625, 39.8125, 39.196426, 38.25, 37.017857, 36.362499, -10, -10, -10, -10, -10, -10, -10, -10, -10, -10, -10, -10, -10, -10, -10, -10, -10, -10, -10, -10, -10, -10, -10, -10, -10, -10, -10, -10, -10, -10, -10, -10, -10, -10, -10, -10, -10, -10, -10, -10, -10, -10, -10, -10, -10, -10, -10, -10, -10, -10, -10, -10, -10, -10, -10, -10, -10, -10, -10, -10, -10, -10, -10, -10, -10, -10, -10, -10, -10, -10, -10, -10, -10, -10, -10, -10, -10, -10, 112.90476, 112.64584, 112.06548, 112, 111.55952, 110.77084, 110.10714, 109.32143, 108.66666, 108.1875, 107.8125, 107.45535, 106.14286, 105.35715, 104.85715, 104.5, 104.25, 103.875, 103.16666, 102.07083, 101.04762, 100.57143, 100.25, 100.07143, 99.377975, 98.547623, 98, 97.279167, 97.047623, 96.208336, 95.544647, 94.919647, 94.270836, 93.583336, 93.258926, 92.9375, 92.875, 92.75, 92.375, 91.872025, 91.479164, 91.089287, 90.928574, 90.354164, 90.008926, 89.473206, 89.25, 88.8125, 88.5, 88.125, 87.553574, 87.032738, 86.425591, 86.008926, 85.375, 84.741074, 84.258926, 83.6875, 82.883926, 82.291664, 81.791664, 81.580353, 81.196426, 80.785721, 80.083336, 79.482147, 78.821426, 78.339287, 78.0625, 77.75, 77.410721, 76.595238, 76.205353, 75.625, 75.375, 74.761909, 73.684525, 73.276787, 72.8125, 72.5, 72.205353, 71.785713, 71.401787, 71.053574, 70.196426, 69.383926, 68.678574, 68.25, 67.794647, 67.205353, 66.580353, 66.151787, 65.8125, 65.428574, 64.708328, 64.071426, 63.473213, 63.1875, 62.6875, 62.375, 61.830357, 61.4375, 60.9375, 60.3125, 59.67857, 59.125, 58.580357, 58.25, 57.705357, 57.3125, 56.830357, 56.303574, 55.538689, 54.991074, 54.455357, 53.9375, 53.5, 53, 52.4375, 51.892857, 51.3125, 50.723213, 50.375, 49.875, 49.375, 48.785713, 48.125, 47.473213, 46.892857, 46.4375, 46, 45.580357, 44.904758, 44, 43.55357, 43.25, 43.125, 42.732143, 42.083336, 41.642857, 40.916668, 40.526787, 40.071426, 39.261906, 38.523811, 38, 37.5625, 37.3125, 36.8125, 36.5, 36, 35.5, 35, 34.3125, 33.67857, 33.3125, 32.875, 32.491074, 31.809523, 31.1875, 30.642857, 30.125, 29.517857, 28.955357, 28.455357, 28, 27.491072, 26.809523, 26.383928, 25.875, 25.5, 25, 24.3125, 23.67857, 23.0625, 22.517857, 22.25, 21.75, 21.5, 21, 20.25, 19.428572, 18.785713, 18.25, 17.660713, 17.375, 16.9375, 16.5625, 16.125, 15.383928, 14.803572, 14.4375, 13.875, 13.330357, 12.678572, 12.09375, 11.549107, 11.1875, 10.678572, 10.072917, 9.6026783, 9.25, 9.0625, 9.0625, 9.0625, 9.2678566, 9.6071434, 9.9375, 10.627976, 11.693878, 12.153061, 12.625, 12.9375, 12.9375, 12.767857, 12.625, 12.4375, 12.375, 12.4375, 12.1875, 12.089286, 12.196428, 12.428572, 13.273809, 13.607143, 13.8125, 13.75, 13.651786, 13.5, 13.5625, 13.6875, 13.8125, 14, 14, 14.125, 14.25, 14.5, 14.6875, 14.8125, 14.8125, 14.6875, 14.75, 14.75, 14.875, 15, 15.125, 15.1875, 15.25, 15.375, 15.5, 15.5625, 15.6875, 15.75, 15.6875, 15.75, 15.8125, 15.875, 15.9375, 16, 16, 15.9375, 15.9375, 16.145832, 16.76111, -10, -10, -10, -10, -10, -10, -10, -10, -10, -10, -10, 39, 39, 39, 38.794643, 38.3125, 38.25, 38.107143, 38.107143, 37.9375, 38
-10, -10, -10, -10, -10, -10, -10, -10, -10, -10, -10, -10, -10, -10, -10, -10, -10, -10, -10, -10, -10, -10, -10, -10, -10, -10, 113.91667, 112.87618, 112.46726, 112.10715, 112.07143, 111.68452, 110.83334, 110.10714, 109.32143, 108.66666, 108.125, 107.6875, 107.375, 106.22449, 105.64285, 104.85715, 104.49107, 104.125, 103.66666, 103.25, 102.17798, 101.29762, 100.82143, 100.4375, 100.25893, 99.565475, 98.571426, 98, 97.341667, 97.145836, 96.208336, 95.482147, 94.678574, 94.080353, 93.625, 93.25, 92.830353, 92.6875, 92.4375, 92.0625, 91.559525, 91.166664, 90.839287, 90.741074, 90.229164, 89.946426, 89.473206, 89.25, 88.8125, 88.5, 88.1875, 87.616074, 87.157738, 86.550591, 85.925591, 85.455353, 84.883926, 84.267853, 83.6875, 82.967262, 82.282738, 81.818451, 81.642853, 81.267853, 80.660721, 80.011909, 79.544647, 78.988091, 78.255951, 78.026787, 77.6875, 77.410721, 76.619049, 76.133926, 75.5625, 75.303574, 74.595238, 73.726189, 73.330353, 72.8125, 72.4375, 72.111603, 71.691963, 71.370537, 71.022324, 70.196426, 69.455353, 68.785713, 68.375, 67.982147, 67.392853, 66.830353, 66.330353, 65.875, 65.446426, 64.791664, 64.133926, 63.49107, 63.25, 62.75, 62.375, 61.785713, 61.375, 60.875, 60.375, 59.785713, 59.25, 58.705357, 58.25, 57.660713, 57.25, 56.767857, 56.303574, 55.538689, 54.991074, 54.455357, 53.9375, 53.5, 53, 52.375, 51.785713, 51.3125, 50.767857, 50.375, 49.830357, 49.375, 48.830357, 48.1875, 47.55357, 47.0625, 46.5625, 46.0625, 45.580357, 45.133926, 44.142857, 43.42857, 43.053574, 42.9375, 42.651787, 41.875004, 41.464287, 40.791668, 40.508926, 40.071426, 39.116074, 38.452381, 38, 37.6875, 37.428574, 36.791668, 36.446426, 35.9375, 35.446426, 34.708332, 34.071426, 33.535713, 33.1875, 32.8125, 32.428574, 31.791666, 31.1875, 30.642857, 30.125, 29.580357, 29.0625, 28.517857, 28.0625, 27.491072, 26.809523, 26.383928, 25.875, 25.5, 25.0625, 24.428572, 23.702379, 23.0625, 22.517857, 22.1875, 21.6875, 21.375, 20.875, 20.25, 19.544643, 18.955357, 18.258928, 17.61607, 17.3125, 16.8125, 16.5, 16.125, 15.5, 14.982142, 14.333333, 13.758928, 13.267857, 12.723214, 12.125, 11.535713, 11.21875, 10.772322, 10.251489, 9.6443453, 9.2589283, 9.125, 9.25, 9.4910717, 9.875, 10.294643, 10.6875, 11.377976, 12.107143, 12.4375, 12.625, 12.6875, 12.5, 12.330357, 12.25, 12.09375, 12.09375, 12.241072, 12.1875, 12.053572, 11.880953, 12, 12.711309, 13.107143, 13.375, 13.4375, 13.4375, 13.3125, 13.4375, 13.5625, 13.75, 14, 14, 14.125, 14.25, 14.5, 14.6875, 14.8125, 14.75, 14.5625, 14.625, 14.5625, 14.75, 14.9375, 15, 15.125, 15.25, 15.375, 15.5, 15.5625, 15.5625, 15.5625, 15.5, 15.5, 15.625, 15.6875, 15.75, 15.8125, 15.75, 15.6875, 15.6875, 15.833333, -10, -10, -10, -10, -10, -10, -10, -10, -10, -10, -10, -10, 39, 39, 39, 38.928574, 38.598213, 38.330357, 38.071426, 37.9375, 37.875, 37.875, 38.07143, 38.577381, 38.75, 38.776787, 38.78125, 39.013393, 39.200893, 39.40625, 39.366074, 38.800598, 37.807144, 36.333336, 35.662498, -10, -10, -10, -10, -10, -10, -10, -10, -10, -10, -10, -10, -10, -10, -10, -10, -10, -10, -10, -10, -10, -10, -10, -10, -10, -10, -10, -10, -10, -10, -10, -10, -10, -10, -10, -10, -10, -10, -10, -10, -10, -10, -10, -10, -10, -10, -10, -10, -10, -10, -10, -10, -10, -10, -10, -10, -10, -10, -10, -10, -10, -10, -10, -10, -10, -10, -10, -10, -10, -10, -10, -10, -10, -10, -10, -10, -10, 113.77778, 112.93333, 112.52976, 112.23215, 112.125, 111.80357, 111.02976, 110.25, 109.40476, 108.41071, 107.82143, 107.375, 106.99107, 105.83334, 105.32143, 104.5625, 104.30357, 103.92857, 103.35416, 103.00893, 102.12798, 101.5238, 101.07143, 100.625, 100.32143, 99.565475, 98.571426, 98, 97.550003, 97.324409, 96.320831, 95.752975, 94.85714, 94.401779, 94, 93.580353, 92.830353, 92.473213, 92, 91.625, 91.330353, 91.035713, 90.839287, 90.741074, 90.229164, 90.008926, 89.580353, 89.375, 88.982147, 88.589287, 88.366074, 87.758926, 87.291664, 86.666664, 85.842255, 85.464279, 84.928574, 84.267853, 83.651787, 83.133926, 82.199402, 81.764877, 81.580353, 81.205353, 80.598221, 79.904762, 79.419647, 78.863091, 78.130951, 77.785713, 77.208336, 77.153061, 76.226189, 75.821426, 75.34375, 75.084824, 74.438988, 73.778275, 73.383926, 72.875, 72.5, 72.21875, 71.754463, 71.433037, 71.022324, 70.196426, 69.517853, 68.955353, 68.5625, 68.232147, 67.642853, 67.017853, 66.473213, 66, 65.508926, 64.854164, 64.196426, 63.660713, 63.375, 62.875, 62.321426, 61.67857, 61.25, 60.75, 60.3125, 59.767857, 59.25, 58.705357, 58.25, 57.660713, 57.3125, 56.830357, 56.366074, 55.556545, 55.053574, 54.517857, 54, 53.517857, 53, 52.375, 51.785713, 51.3125, 50.767857, 50.375, 49.830357, 49.4375, 48.9375, 48.3125, 47.67857, 47.1875, 46.75, 46.241074, 45.622025, 45.133926, 44.142857, 43.42857, 43.053574, 42.9375, 42.642857, 41.666668, 41.214287, 40.75, 40.4375, 39.946426, 38.9375, 38.410713, 38.0625, 37.75, 37.428574, 36.747025, 36.383926, 35.9375, 35.5, 34.541664, 33.9375, 33.455357, 33.0625, 32.6875, 32.25, 31.75, 31.1875, 30.642857, 30.125, 29.580357, 29.09375, 28.549107, 28.09375, 27.522322, 26.809523, 26.383928, 25.875, 25.5, 25.125, 24.544643, 23.726191, 23.0625, 22.517857, 22.125, 21.625, 21.25, 20.75, 20.25, 19.660713, 19.125, 18.267857, 17.571428, 17.25, 16.75, 16.5, 16.125, 15.5625, 15.151785, 14.449405, 13.738095, 13.276785, 12.767857, 12.1875, 11.553572, 11.1875, 10.741072, 10.157739, 9.5505953, 9.1964283, 9.125, 9.4375, 9.9196434, 10.586736, 11.051021, 11.392858, 11.690476, 12.178572, 12.330357, 12.375, 12.375, 12.25, 12.1875, 12.25, 12.15625, 12.15625, 12.303572, 12.25, 12.178572, 12.005953, 12.0625, 12.440475, 12.678572, 12.875, 12.9375, 13.008928, 13.208333, 13.428572, 13.625, 13.8125, 14, 13.9375, 13.9375, 14.080357, 14.458333, 14.678572, 14.875, 14.6875, 14.4375, 14.375, 14.339286, 14.732143, 14.991072, 15.125, 15.1875, 15.25, 15.375, 15.4375, 15.4375, 15.375, 15.3125, 15.1875, 15.125, 15.1875, 15.25, 15.4375, 15.598214, 15.5625, 15.5, 15.4375, 15.520833, -10, -10, -10, -10, -10, -10, -10, -10, -10, -10, -10, -10, 39, 39, 39, 39, 38.848213, 38.517857, 38.258926, 37.96875, 37.8125, 37.6875
-10, -10, -10, -10, -10, -10, -10, -10, -10, -10, -10, -10, -10, -10, -10, -10, -10, -10, -10, -10, -10, -10, -10, -10, -10, -10, 113.58334, 113.18333, 112.71726, 112.41965, 112.3125, 112.01786, 111.27976, 110.5, 109.71726, 108.69643, 107.90476, 107.42857, 106.99107, 106.04167, 105.5, 104.45834, 104.10715, 103.74107, 103.22916, 102.94643, 102.12798, 101.5238, 101.07143, 100.41666, 100.15179, 99.422623, 98.547615, 98, 97.625, 97.241074, 96.508331, 96.110123, 95.178574, 94.785706, 94.375, 93.910713, 92.830353, 92.33036, 91.75, 91.4375, 91.25, 90.973213, 90.839287, 90.8125, 90.5, 90.3125, 89.892853, 89.625, 89.223213, 88.630951, 88.303574, 87.705353, 87.375, 86.657738, 85.797615, 85.401779, 84.910713, 84.267853, 83.651787, 83.1875, 82.470238, 81.880951, 81.497025, 81.133926, 80.482147, 79.869049, 79.401787, 78.755951, 78.148804, 77.723213, 76.833336, 76.397957, 75.934525, 75.633926, 75.21875, 74.897324, 74.291664, 73.767853, 73.34375, 72.84375, 72.4375, 72.03125, 71.59375, 71.21875, 70.71875, 70.1875, 69.660713, 69.25, 68.875, 68.544647, 67.892853, 67.196426, 66.553574, 66.125, 65.616074, 64.979164, 64.330353, 63.785713, 63.375, 62.830357, 62.196426, 61.55357, 61.125, 60.625, 60.3125, 59.8125, 59.375, 58.830357, 58.25, 57.61607, 57.3125, 56.875, 56.366074, 55.511906, 55.053574, 54.5625, 54.0625, 53.535713, 53, 52.375, 51.848213, 51.4375, 50.9375, 50.383926, 49.785713, 49.375, 48.875, 48.375, 47.785713, 47.3125, 46.9375, 46.419643, 45.663692, 45.133926, 44.351189, 43.607143, 43.178574, 42.9375, 42.589287, 41.750004, 41.267857, 40.8125, 40.375, 39.767857, 38.767857, 38.330357, 38, 37.75, 37.366074, 36.684525, 36.321426, 35.9375, 35.553574, 34.458332, 33.8125, 33.330357, 32.9375, 32.5625, 32.1875, 31.6875, 31.125, 30.535713, 30.0625, 29.5625, 29.09375, 28.549107, 28.09375, 27.584822, 26.916666, 26.238094, 25.758928, 25.375, 25.0625, 24.544643, 23.65476, 22.955357, 22.455357, 22, 21.5625, 21.1875, 20.6875, 20.3125, 19.767857, 19.1875, 18.276787, 17.571428, 17.25, 16.75, 16.5, 16.125, 15.625, 15.321428, 14.565476, 13.717262, 13.285714, 12.8125, 12.25, 11.571428, 11.15625, 10.709822, 10.126489, 9.5193453, 9.1964283, 9.2321434, 9.9375, 10.5625, 11.107143, 11.482143, 11.75, 12.083333, 12.178572, 12.1875, 12.125, 12.125, 12.125, 12.1875, 12.3125, 12.28125, 12.21875, 12.303572, 12.3125, 12.241072, 12.139881, 12.2625, 12.178572, 12.321428, 12.375, 12.508928, 12.904762, 13.261905, 13.553572, 13.75, 13.875, 14, 14, 14, 14.142857, 14.458333, 14.491072, 14.517857, 14.375, 14.125, 14.142857, 14.25, 14.482143, 14.741072, 14.8125, 14.875, 15.0625, 15.25, 15.3125, 15.3125, 15.1875, 15.0625, 14.875, 14.75, 14.8125, 14.875, 15.125, 15.348214, 15.3125, 15.25, 15.125, 15.083333, -10, -10, -10, -10, -10, -10, -10, -10, -10, -10, -10, -10, 39, 39, 39, 39.0625, 38.973213, 38.705357, 38.508926, 38.15625, 37.875, 37.517857, 37.44643, 37.733631, 37.767857, 38, 38.09375, 38.357143, 38.5, 38.75, 38.772324, 38.309525, 37.116669, 35.994049, 35.533333, -10, -10, -10, -10, -10, -10, -10, -10, -10, -10, -10, -10, -10, -10, -10, -10, -10, -10, -10, -10, -10, -10, -10, -10, -10, -10, -10, -10, -10, -10, -10, -10, -10, -10, -10, -10, -10, -10, -10, -10, -10, -10, -10, -10, -10, -10, -10, -10, -10, -10, -10, -10, -10, -10, -10, -10, -10, -10, -10, -10, -10, -10, -10, -10, -10, -10, -10, -10, -10, -10, -10, -10, -10, -10, -10, -10, -10, 113.33334, 113.01667, 112.75893, 112.4375, 112.3125, 111.95536, 111.21726, 110.41964, 109.68155, 108.8869, 107.97619, 107.48215, 106.99107, 106.33334, 105.82143, 104.5625, 104.25, 103.77679, 103.18452, 102.94643, 102.34822, 101.61904, 101.07143, 100.22916, 100.00893, 99.428574, 98.654762, 97.892853, 97.446426, 97, 96.550003, 96.252975, 95.410713, 95.035706, 94.625, 94.160713, 93.071426, 92.372025, 91.75, 91.4375, 91.25, 91.035713, 90.901787, 90.9375, 90.6875, 90.4375, 90.080353, 89.8125, 89.401787, 88.672615, 88.3125, 87.633926, 87.113091, 86.5625, 85.663689, 85.276779, 84.741074, 84.258926, 83.696426, 83.25, 82.604164, 82.14286, 81.4375, 80.9375, 80.125, 79.535713, 79.232147, 78.747025, 78.247025, 77.723213, 76.779762, 76.314285, 75.833328, 75.383926, 75.21875, 74.834824, 74.354164, 73.767853, 73.28125, 72.78125, 72.375, 71.90625, 71.53125, 71.09375, 70.59375, 70.1875, 69.767853, 69.4375, 69.0625, 68.6875, 68.0625, 67.279762, 66.386902, 65.883926, 65.366074, 64.791664, 64.321426, 63.892857, 63.5625, 63.071426, 62.217262, 61.589283, 61.125, 60.625, 60.3125, 59.875, 59.491074, 58.854168, 58.1875, 57.49107, 57.080357, 56.625, 56.125, 55.55357, 55.1875, 54.6875, 54.1875, 53.553574, 53, 52.4375, 52.017857, 51.553574, 50.916668, 50.258926, 49.660713, 49.3125, 48.8125, 48.375, 47.785713, 47.3125, 46.9375, 46.482143, 45.663692, 45.125, 44.535713, 43.8125, 43.366074, 43, 42.553574, 41.833336, 41.258926, 40.705357, 40.1875, 39.571426, 38.809525, 38.383926, 38, 37.6875, 37.241074, 36.559525, 36.258926, 35.875, 35.5, 34.166664, 33.571426, 33.1875, 32.8125, 32.5, 32.0625, 31.5625, 31.0625, 30.517857, 30, 29.5, 29.03125, 28.53125, 28.03125, 27.53125, 27, 26.083332, 25.642857, 25.1875, 24.9375, 24.419643, 23.46726, 22.857143, 22.4375, 21.9375, 21.517857, 21.09375, 20.59375, 20.34375, 19.84375, 19.25, 18.357143, 17.678572, 17.3125, 16.8125, 16.5, 16.0625, 15.5625, 15.258928, 14.494047, 13.571428, 13.178572, 12.71875, 12.28125, 11.647322, 11.15625, 10.674107, 10.272322, 9.760417, 9.5714283, 9.7321434, 10.5, 11.1875, 11.642857, 11.625, 11.8125, 11.785714, 11.875, 11.9375, 12, 12.0625, 12.125, 12.1875, 12.25, 12.28125, 12.21875, 12.241072, 12.25, 12.303572, 12.363095, 12.619642, 12.571428, 12.492347, 12.5, 12.653061, 13.217262, 13.543155, 13.741072, 13.9375, 14, 14.0625, 14.0625, 14.0625, 14.205357, 14.458333, 14.4375, 14.122024, 14.0625, 13.919643, 13.955357, 14.125, 14.294643, 14.491072, 14.5, 14.5, 14.625, 14.8125, 14.9375, 15.0625, 15.0625, 15, 14.8125, 14.625, 14.5625, 14.5, 14.6875, 14.848214, 14.875, 14.9375, 14.9375, 15, -10, -10, -10, -10, -10, -10, -10, -10, -10, -10, -10, -10, -10, 39, 39, 39.083332, 39.035713, 38.830357, 38.696426, 38.334824, 37.854168, 37.464287
-10, -10, -10, -10, -10, -10, -10, -10, -10, -10, -10, -10, -10, -10, -10, -10, -10, -10, -10, -10, -10, -10, -10, -10, -10, -10, 113.375, 113.25001, 112.9375, 112.5625, 112.3125, 111.89286, 111.21726, 110.59821, 110.0387, 109.07738, 108.08333, 107.5, 106.92857, 106.20834, 105.67857, 104.625, 104.28571, 103.88393, 103.21428, 102.875, 102.24107, 101.57738, 101, 100.16666, 99.883926, 99.303574, 98.738098, 98.017853, 97.571426, 96.854164, 96.362503, 96.065475, 95.339287, 95.017853, 94.65625, 94.254463, 93.209824, 92.465775, 91.875, 91.5, 91.3125, 91.098213, 90.901787, 90.875, 90.6875, 90.5, 90.1875, 89.892853, 89.464287, 88.672615, 88.3125, 87.758926, 87.238091, 86.520836, 85.854172, 85.321426, 84.767853, 84.294647, 83.736603, 83.28125, 82.697914, 82.178574, 81.3125, 80.758926, 80.125, 79.35714, 78.982147, 78.392853, 78.267853, 77.758926, 76.904762, 76.278572, 75.416664, 74.955353, 74.754463, 74.46875, 74.1875, 73.642853, 73.15625, 72.65625, 72.3125, 71.8125, 71.5, 71, 70.5, 70.1875, 69.8125, 69.5625, 69.1875, 68.75, 68.125, 67.288689, 66.285713, 65.821426, 65.303574, 64.791664, 64.383926, 64, 63.625, 63.133926, 62.279762, 61.758926, 61.241074, 60.604168, 60.1875, 59.75, 59.366074, 58.729168, 58.125, 57.410713, 56.910713, 56.5, 56, 55.535713, 55.1875, 54.6875, 54.25, 53.616074, 53.0625, 52.517857, 52.125, 51.553574, 50.872025, 50.258926, 49.767857, 49.4375, 48.9375, 48.455357, 47.892857, 47.3125, 46.892857, 46.482143, 45.708336, 45.125, 44.535713, 44.0625, 43.625, 43.25, 42.69643, 41.988098, 41.258926, 40.660713, 40.0625, 39.446426, 38.955357, 38.5625, 38.178574, 37.520832, 36.991074, 36.455357, 36.125, 35.8125, 35.428574, 34.270832, 33.642857, 33.25, 32.8125, 32.5, 32.0625, 31.5625, 31.0625, 30.517857, 30, 29.5, 29.09375, 28.59375, 28.09375, 27.549107, 27, 26.083332, 25.642857, 25.125, 24.767857, 24.241072, 23.425594, 22.857143, 22.4375, 21.9375, 21.517857, 21.09375, 20.59375, 20.34375, 19.84375, 19.25, 18.428572, 17.785713, 17.375, 16.9375, 16.553572, 15.916667, 15.446428, 15.125, 14.660714, 13.75, 13.241072, 12.674107, 12.28125, 11.754464, 11.272322, 10.590774, 10.236607, 10.03125, 10.035714, 10.294643, 11, 11.415178, 11.723214, 11.5625, 11.625, 11.566964, 11.625, 11.75, 11.875, 12, 12.0625, 12.125, 12.125, 12.125, 12.0625, 11.9375, 11.875, 12.0625, 12.5, 12.941071, 12.977678, 13.297619, 13.291667, 13.380952, 13.404762, 13.793155, 13.991072, 14.1875, 14.1875, 14.1875, 14.125, 14.0625, 14.205357, 14.395833, 14.241072, 13.684524, 13.5625, 13.419643, 13.517857, 13.75, 13.982143, 14.178572, 14.25, 14.25, 14.3125, 14.4375, 14.5625, 14.6875, 14.75, 14.6875, 14.5, 14.3125, 14.1875, 14.25, 14.5, 14.723214, 14.8125, 14.875, 14.84375, 14.875, 14.75, 14.625, 14.5625, -10, -10, -10, -10, -10, -10, -10, -10, -10, -10, -10, -10, -10, 39, 38.916668, 38.833332, 38.529762, 37.666668, 37.339287, 37, 36.90625, 36.955357, 37.160713, 37.40625, 37.625, 37.6875, 37.57143, 37.607143, 37.57143, 36.773811, 35.785713, 35.433334, -10, -10, -10, -10, -10, -10, -10, -10, -10, -10, -10, -10, -10, -10, -10, -10, -10, -10, -10, -10, -10, -10, -10, -10, -10, -10, -10, -10, -10, -10, -10, -10, -10, -10, -10, -10, -10, -10, -10, -10, -10, -10, -10, -10, -10, -10, -10, -10, -10, -10, -10, -10, -10, -10, -10, -10, -10, -10, -10, -10, -10, -10, -10, -10, -10, -10, -10, -10, -10, -10, -10, -10, -10, -10, -10, -10, -10, 113.375, 113.25001, 112.9375, 112.5625, 112.25, 111.79465, 111.27084, 110.80357, 110.39286, 109.69048, 108.3869, 107.67857, 107, 106.5, 106, 104.88393, 104.32738, 103.95535, 103.40178, 103.08036, 102.24107, 101.54166, 100.9375, 100.16666, 99.821426, 99.25, 98.821426, 98.142853, 97.696426, 96.916664, 96.455353, 96.044647, 95.446426, 94.863098, 94.40625, 93.778275, 93.03125, 92.430061, 92, 91.6875, 91.5, 91.3125, 91.116074, 90.875, 90.8125, 90.482147, 90.104164, 89.776779, 89.294647, 88.583328, 88.196426, 87.866074, 87.345238, 86.508926, 86.008926, 85.5, 85.008926, 84.315475, 83.772324, 83.28125, 82.78125, 82.357147, 81.4375, 80.883926, 80.145836, 79.255951, 78.919647, 78.392853, 78.392853, 77.9375, 77.410713, 76.814285, 75.738091, 75.133926, 74.785713, 74.5, 74.200897, 73.495529, 72.959824, 72.46875, 72.1875, 71.75, 71.5, 71, 70.5, 70.25, 69.875, 69.625, 69.25, 68.75, 68.1875, 67.476189, 66.535713, 65.821426, 65.214287, 64.666664, 64.321426, 63.875, 63.5, 62.964287, 62.270832, 61.866074, 61.419647, 60.645836, 60.1875, 59.75, 59.303574, 58.666668, 58.0625, 57.392857, 56.848213, 56.5, 56.0625, 55.642857, 55.196426, 54.642857, 54.25, 53.660713, 53.125, 52.535713, 52.125, 51.553574, 50.872025, 50.258926, 49.767857, 49.375, 48.830357, 48.392857, 47.830357, 47.25, 46.723213, 46.366074, 45.729168, 45.25, 44.660713, 44.125, 43.642857, 43.25, 42.69643, 41.988098, 41.258926, 40.660713, 40.125, 39.508926, 39.080357, 38.6875, 38.241074, 37.583332, 36.845238, 36.383926, 36.0625, 35.75, 35.3125, 34.330357, 33.714287, 33.25, 32.767857, 32.4375, 32, 31.5625, 31.0625, 30.517857, 30, 29.46875, 29.03125, 28.53125, 28.03125, 27.517857, 27, 26.083332, 25.642857, 25.0625, 24.598213, 24.0625, 23.383928, 22.919643, 22.5625, 22.116072, 21.559523, 21.09375, 20.59375, 20.28125, 19.78125, 19.1875, 18.482141, 17.892857, 17.4375, 17, 16.553572, 15.916667, 15.446428, 15.0625, 14.607143, 13.833334, 13.232142, 12.629463, 12.28125, 11.799107, 11.366072, 10.684524, 10.361607, 10.28125, 10.379464, 10.882653, 11.3125, 11.486607, 11.553572, 11.3125, 11.3125, 11.254464, 11.375, 11.571428, 11.875, 11.9375, 12.026786, 12.0625, 12, 12, 11.875, 11.6875, 11.625, 11.75, 12.1875, 12.896939, 12.852678, 13.1875, 13.325893, 13.508928, 13.833333, 13.959822, 14.0625, 14.1875, 14.125, 14, 13.830357, 13.8125, 14, 14.169643, 13.919643, 13.184524, 13.0625, 12.857143, 13.080357, 13.357143, 13.708333, 13.928572, 14, 14, 14.0625, 14.1875, 14.3125, 14.4375, 14.5, 14.5, 14.375, 14.3125, 14.3125, 14.34375, 14.46875, 14.59375, 14.59375, 14.625, 14.65625, 14.625, 14.5, 14.416667, 14.375, 14.125, 14.166666, -10, -10, -10, -10, -10, -10, -10, -10, -10, -10, -10, -10, -10, -10, -10, 37.479168, 37.214287
-10, -10, -10, -10, -10, -10, -10, -10, -10, -10, -10, -10, -10, -10, -10, -10, -10, -10, -10, -10, -10, -10, -10, -10, -10, -10, 113.375, 113.25001, 113, 112.5625, 112.1875, 111.6875, 111.3125, 110.83929, 110.23036, 109.67857, 108.30357, 107.67857, 107, 106.5, 106, 105.12202, 104.44048, 104.14285, 103.58928, 103.28571, 102.26191, 101.57738, 100.9375, 100.29166, 99.866074, 99.339287, 99.035713, 98.214279, 97.75, 96.916664, 96.392853, 95.9375, 95.366074, 94.684525, 94.15625, 93.510414, 93.03125, 92.447914, 92.125, 91.8125, 91.6875, 91.419647, 90.942177, 90.482147, 90.482147, 90.294647, 89.979164, 89.651779, 89.116074, 88.541664, 88.258926, 87.991074, 87.523811, 86.613098, 86.1875, 85.75, 85.3125, 84.352982, 83.668152, 83.15625, 82.575897, 82.178574, 81.377975, 80.605431, 79.726189, 78.854164, 78.625, 78.3125, 78.25, 77.8125, 77.535713, 76.903572, 75.863091, 75.196426, 74.848213, 74.625, 74.419647, 73.732147, 72.928574, 72.491074, 72.1875, 71.8125, 71.517853, 71, 70.5, 70.25, 69.803574, 69.354164, 68.946426, 68.5, 68.0625, 67.529762, 66.705353, 65.9375, 65.119049, 64.75, 64.4375, 64.044647, 63.604168, 63.071426, 62.395832, 62.053574, 61.598213, 60.687504, 60.125, 59.6875, 59.178574, 58.541668, 58, 57.375, 56.785713, 56.4375, 56, 55.625, 55.133926, 54.580357, 54.1875, 53.580357, 53.017857, 52.473213, 52, 51.428574, 50.702381, 50.1875, 49.75, 49.3125, 48.767857, 48.267857, 47.705357, 47.125, 46.535713, 46.1875, 45.6875, 45.3125, 44.723213, 44.25, 43.767857, 43.375, 42.82143, 41.904762, 41.205357, 40.598213, 40.125, 39.580357, 39.25, 38.8125, 38.428574, 37.770832, 37.023811, 36.425594, 36, 35.625, 35.133926, 34.288689, 33.776787, 33.3125, 32.892857, 32.625, 32.116074, 31.541666, 31, 30.5, 30, 29.46875, 29.03125, 28.53125, 28.03125, 27.517857, 27, 26.291666, 25.821428, 25.1875, 24.723213, 24.178572, 23.479166, 23.026787, 22.6875, 22.366072, 21.755953, 21.03125, 20.513393, 20.09375, 19.65625, 19.125, 18.535713, 18.03125, 17.53125, 17.15625, 16.647322, 16.041666, 15.571428, 14.916667, 14.5, 13.854167, 13.223214, 12.584822, 12.25, 11.8125, 11.459822, 10.840774, 10.611607, 10.65625, 10.816964, 11.09375, 11.3125, 11.28125, 11.178572, 10.875, 10.875, 10.879464, 11.0625, 11.352678, 11.71875, 11.84375, 11.933036, 11.875, 11.75, 11.6875, 11.625, 11.5625, 11.5625, 11.6875, 12.053572, 12.202381, 12.729592, 13.366072, 13.638393, 13.75, 13.875, 13.84375, 13.875, 14, 13.875, 13.6875, 13.392857, 13.25, 13.383928, 13.815476, 13.714286, 13.166667, 13, 12.732143, 12.8125, 12.883928, 13.279762, 13.616072, 13.75, 13.8125, 13.75, 13.8125, 13.946428, 14.1875, 14.25, 14.375, 14.25, 14.25, 14.25, 14.21875, 14.28125, 14.34375, 14.34375, 14.375, 14.40625, 14.375, 14.375, 14.3125, 14.21875, 14, 14.027778, 14, 14.25, 14.5, 14.666666, -10, -10, -10, -10, -10, -10, -10, -10, -10, -10, -10, 37.222225, 37.071426, 36.729168, 36.625, 36.5625, 36.625, 36.875, 37.0625, 37.25, 37.3125, 37.294643, 36.979168, 36.428574, 35.383926, 35, -10, -10, -10, -10, -10, -10, -10, -10, -10, -10, -10, -10, -10, -10, -10, -10, -10, -10, -10, -10, -10, -10, -10, -10, -10, -10, -10, -10, -10, -10, -10, -10, -10, -10, -10, -10, -10, -10, -10, -10, -10, -10, -10, -10, -10, -10, -10, -10, -10, -10, -10, -10, -10, -10, -10, -10, -10, -10, -10, -10, -10, -10, -10, -10, -10, -10, -10, -10, -10, -10, -10, -10, -10, -10, -10, -10, -10, 113.25, 113.16667, 112.9375, 112.5625, 112.25, 111.75, 111.5, 111.09821, 110.22441, 109.60715, 108.29465, 107.64285, 107, 106.5, 106, 105.26785, 104.44048, 104.16965, 103.69643, 103.35715, 102.08334, 101.51785, 100.875, 100.41666, 99.9375, 99.425003, 99.190475, 98.321426, 97.821426, 96.947914, 96.361603, 95.90625, 95.366074, 94.684525, 93.947914, 93.269341, 92.790176, 92.40625, 92.1875, 91.9375, 91.803574, 91.336311, 90.363945, 90.169647, 90.169647, 89.982147, 89.791664, 89.526779, 89.044647, 88.541664, 88.258926, 88.0625, 87.794647, 86.916664, 86.5, 85.9375, 85.598213, 84.361908, 83.659225, 83.09375, 82.513397, 82.142853, 81.294647, 80.226196, 79.663689, 78.979164, 78.75, 78.4375, 78.25, 77.767853, 77.464287, 76.991074, 75.928574, 75.339287, 74.91964, 74.75, 74.607147, 74.026787, 73.25, 72.657738, 72.3125, 71.875, 71.351189, 70.821426, 70.3125, 70.125, 69.660721, 69.130951, 68.758926, 68.3125, 68.0625, 67.633926, 67.059525, 66.1875, 65.324402, 64.875, 64.5, 64.044647, 63.416668, 62.785713, 62.3125, 62, 61.535713, 60.625004, 60.0625, 59.553574, 58.916668, 58.446426, 57.9375, 57.4375, 56.955357, 56.553574, 56.0625, 55.678574, 54.964287, 54.464287, 54.125, 53.616074, 52.934525, 52.419643, 51.866074, 51.166668, 50.607143, 50.125, 49.75, 49.3125, 48.758926, 48.205357, 47.75, 47.125, 46.55357, 46.125, 45.416668, 45.071426, 44.580357, 44.125, 43.705357, 43.375, 42.866074, 41.967262, 41.214287, 40.598213, 40.125, 39.580357, 39.25, 38.8125, 38.491074, 37.895832, 37.202381, 36.467262, 35.9375, 35.5625, 35.0625, 34.517857, 34.0625, 33.455357, 33.026787, 32.75, 32.303574, 31.729166, 31.071428, 30.517857, 30, 29.46875, 29.03125, 28.53125, 28.03125, 27.517857, 27, 26.5, 26, 25.375, 24.848213, 24.303572, 23.666666, 23.1875, 22.8125, 22.428572, 21.755953, 21, 20.482143, 20, 19.5625, 19.0625, 18.517857, 18.0625, 17.5625, 17.25, 16.736607, 15.958334, 15.446428, 14.729167, 14.383928, 13.875, 13.25, 12.571428, 12.21875, 11.78125, 11.522322, 11.010417, 10.799107, 10.84375, 10.941964, 11.03125, 11.0625, 10.90625, 10.75, 10.696428, 10.8125, 10.84375, 11, 11.165178, 11.46875, 11.59375, 11.745536, 11.6875, 11.625, 11.5625, 11.5, 11.5, 11.5625, 11.5625, 11.803572, 12.133928, 12.566964, 13.129465, 13.370536, 13.375, 13.5625, 13.5, 13.625, 13.625, 13.5, 13.3125, 12.955357, 12.8125, 12.901785, 13.523809, 13.5, 13.25, 13, 12.625, 12.5625, 12.508928, 12.904762, 13.178572, 13.3125, 13.375, 13.321428, 13.666667, 13.821428, 14.0625, 14.0625, 14.125, 14.0625, 14.125, 14.1875, 14.21875, 14.28125, 14.34375, 14.28125, 14.25, 14.21875, 14.125, 14.125, 14.0625, 13.96875, 14, 14.020833, 14, 14.166667, 14.416667, 14.555554, -10, -10, -10, -10, -10, -10, -10, -10, -10, -10, -10, -10, 36.875
-10, -10, -10, -10, -10, -10, -10, -10, -10, -10, -10, -10, -10, -10, -10, -10, -10, -10, -10, -10, -10, -10, -10, -10, -10, -10, 113.25, 113.16667, 112.9375, 112.5625, 112.3125, 111.8125, 111.625, 111.16964, 109.92084, 109.4881, 108.1875, 107.71429, 107.16666, 106.375, 105.96429, 105.33035, 104.58333, 104.22916, 103.875, 103.61607, 102.52084, 101.96428, 101.04166, 100.57738, 100.00893, 99.400002, 99.315475, 98.125, 97.678574, 96.96875, 96.486603, 96.03125, 95.366074, 94.809525, 94.023804, 93.279755, 92.758926, 92.375, 92.125, 91.666664, 91.5, 91.023811, 90.345238, 90.044647, 90.044647, 89.888397, 89.697914, 89.540176, 89.138397, 88.666664, 88.267853, 87.892853, 87.607147, 86.895828, 86.464279, 85.708336, 85.35714, 84.192261, 83.627975, 83.133926, 82.315475, 82, 81.125, 80.04464, 79.413689, 78.916664, 78.75, 78.5, 78.1875, 77.642853, 77.214287, 76.857147, 76.285713, 75.589287, 75.092262, 74.64286, 74.469383, 73.92347, 73.125, 72.720238, 72.428574, 71.770836, 71.154762, 70.571426, 70.0625, 69.875, 69.410721, 68.880951, 68.571426, 68.1875, 68, 67.625, 67.160713, 66.3125, 65.449402, 64.9375, 64.446426, 63.9375, 63.354168, 62.785713, 62.366074, 61.854168, 61.428574, 60.708336, 60.3125, 59.82143, 58.916668, 58.42857, 57.875, 57.5, 57.0625, 56.553574, 56.089287, 55.660717, 54.857143, 54.410713, 54, 53.491074, 52.764881, 52.339287, 51.803574, 51.166668, 50.607143, 50.125, 49.75, 49.3125, 48.758926, 48.205357, 47.75, 47.125, 46.55357, 46.125, 45.416668, 45.133926, 44.6875, 44.25, 43.767857, 43.3125, 42.75893, 41.958336, 41.321426, 40.622025, 40.125, 39.580357, 39.1875, 38.6875, 38.3125, 37.9375, 37.336311, 36.592262, 36.125, 35.6875, 35.125, 34.598213, 34.169643, 33.517857, 33.089287, 32.75, 32.366074, 31.791666, 31.133928, 30.535713, 30, 29.46875, 28.96875, 28.46875, 27.96875, 27.5, 27, 26.5, 26, 25.4375, 24.955357, 24.428572, 23.791666, 23.3125, 22.9375, 22.491072, 21.773809, 21.0625, 20.544643, 20, 19.446428, 18.892857, 18.4375, 18, 17.5625, 17.1875, 16.683037, 16.041668, 15.5, 14.791667, 14.383928, 13.875, 13.28125, 12.647322, 12.1875, 11.6875, 11.40625, 11.09375, 10.90625, 10.90625, 10.84375, 10.78125, 10.6875, 10.5, 10.3125, 10.321428, 10.5, 10.625, 10.875, 11.040178, 11.34375, 11.46875, 11.683036, 11.6875, 11.6875, 11.625, 11.625, 11.75, 11.875, 11.803572, 11.625, 11.875, 12.258928, 12.910715, 13.214286, 13.1875, 13.375, 13.25, 13.3125, 13.25, 13.125, 12.9375, 12.642857, 12.5625, 12.651785, 13.273809, 13.321428, 13.1875, 13, 12.6875, 12.625, 12.633928, 12.967262, 13.169643, 12.979167, 12.946428, 12.883928, 13.354167, 13.678572, 14, 14.0625, 14.125, 14, 14.0625, 14.125, 14.09375, 14.15625, 14.15625, 14.09375, 14.0625, 14.0625, 14, 14, 14, 13.9375, 13.9375, 13.9375, 14, 14.1875, 14.4375, 14.604166, -10, -10, -10, -10, -10, -10, -10, -10, -10, -10, -10, -10, 36.625, 36.4375, 36.3125, 36.1875, 36.25, 36.375, 36.5625, 36.75, 36.8125, 36.794643, 36.416668, 35.883926, 35.196426, 34.766666, -10, -10, -10, -10, -10, -10, -10, -10, -10, -10, -10, -10, -10, -10, -10, -10, -10, -10, -10, -10, -10, -10, -10, -10, -10, -10, -10, -10, -10, -10, -10, -10, -10, -10, -10, -10, -10, -10, -10, -10, -10, -10, -10, -10, -10, -10, -10, -10, -10, -10, -10, -10, -10, -10, -10, -10, -10, -10, -10, -10, -10, -10, -10, -10, -10, -10, -10, -10, -10, -10, -10, -10, -10, -10, -10, -10, -10, 113.25, 113.16667, 112.9375, 112.5625, 112.3125, 111.8125, 111.625, 111.07143, 109.48334, 109.02381, 108.0625, 107.78571, 107.41666, 106.67857, 106.04762, 105.50893, 104.89882, 104.30059, 103.86607, 103.53571, 102.77084, 102.28571, 101.1875, 100.63095, 100.00893, 99.191658, 99.065475, 97.875, 97.491074, 96.84375, 96.46875, 95.96875, 95.104164, 94.714287, 93.961304, 93.488091, 92.9375, 92.5, 92.1875, 91.595238, 91.166664, 90.523811, 89.791664, 89.669647, 89.607147, 89.59375, 89.59375, 89.53125, 89.236603, 88.684525, 88.205353, 87.767853, 87.491074, 86.916664, 86.455353, 85.601189, 85.178574, 84.171425, 83.592262, 83.133926, 82.377975, 81.892853, 81.0625, 79.910713, 79.330353, 79.0625, 78.875, 78.625, 78.1875, 77.642853, 77.125, 76.75, 76.130951, 75.48214, 75.029762, 74.166664, 73.809525, 73.470238, 73.258926, 72.907738, 72.571426, 71.5, 70.815483, 70.196426, 69.75, 69.625, 69.160721, 68.693451, 68.508926, 68.169647, 67.854164, 67.375, 66.892853, 66.375, 65.601196, 65.125, 64.455353, 63.892857, 63.354168, 62.830357, 62.366074, 61.747025, 61.3125, 60.791668, 60.491074, 59.863094, 58.916668, 58.42857, 57.875, 57.5, 57.125, 56.544643, 55.880955, 55.482143, 54.723213, 54.330353, 53.830357, 53.366074, 52.639881, 52.258926, 51.696426, 51.041668, 50.419643, 49.892857, 49.5625, 49.25, 48.803574, 48.267857, 47.8125, 47.125, 46.55357, 46.125, 45.416668, 45.071426, 44.651787, 44.258926, 43.666668, 43.178574, 42.642857, 42.104168, 41.508926, 40.872025, 40.3125, 39.705357, 39.133926, 38.580357, 38.25, 37.875, 37.482143, 36.663692, 36.1875, 35.6875, 35.125, 34.598213, 34.169643, 33.580357, 33.196426, 32.8125, 32.491074, 31.854166, 31.196428, 30.55357, 30, 29.4375, 28.892857, 28.4375, 27.9375, 27.5, 27, 26.5, 26, 25.5, 25.0625, 24.553572, 23.916666, 23.3125, 22.830357, 22.3125, 21.732141, 21.0625, 20.482143, 19.892857, 19.383928, 18.830357, 18.4375, 18, 17.5625, 17.1875, 16.683037, 16.041668, 15.5, 14.791667, 14.321428, 13.767857, 13.28125, 12.691964, 12.1875, 11.642857, 11.34375, 11.09375, 10.9375, 10.875, 10.75, 10.5625, 10.4375, 10.25, 10.125, 10.133928, 10.3125, 10.4375, 10.6875, 10.84375, 11.03125, 11.28125, 11.53125, 11.625, 11.71875, 11.78125, 11.90625, 12.15625, 12.375, 12.241072, 12, 12.125, 12.321428, 12.732143, 12.857143, 12.75, 12.8125, 12.625, 12.6875, 12.6875, 12.794643, 12.8125, 12.8125, 12.75, 12.776785, 13.229166, 13.183036, 13.09375, 12.90625, 12.6875, 12.65625, 12.78125, 12.977678, 13.178572, 12.916667, 12.821428, 12.696428, 13.104167, 13.491072, 13.875, 13.9375, 13.9375, 13.75, 13.75, 13.8125, 13.875, 14, 14, 14, 14, 14, 14, 14, 14, 13.9375, 13.9375, 13.9375, 14, 14.25, 14.5, 14.708333, 15, -10, -10, -10, -10, -10, -10, -10, -10, -10, -10, -10, 36.125
-10, -10, -10, -10, -10, -10, -10, -10, -10, -10, -10, -10, -10, -10, -10, -10, -10, -10, -10, -10, -10, -10, -10, -10, -10, -10, 113.375, 113.25001, 112.9375, 112.5, 112.25, 111.75, 111.6875, 111.14285, 109.45834, 108.82143, 108.125, 107.85714, 107.54166, 106.86607, 106.22619, 105.52084, 105.03572, 104.30059, 103.80357, 103.39285, 102.8125, 102.35715, 101.3125, 100.83929, 100.13393, 99.209526, 98.958336, 97.866074, 97.455353, 96.84375, 96.46875, 95.96875, 94.958328, 94.642853, 93.898804, 93.425591, 92.758926, 92.267853, 92, 91.407738, 90.979164, 90.416664, 89.791664, 89.705353, 89.5625, 89.46875, 89.46875, 89.34375, 89.111603, 88.622025, 88.080353, 87.642853, 87.375, 87, 86.5625, 85.51786, 85, 84.133926, 83.651787, 83.133926, 82.1875, 81.714287, 80.955353, 80.297623, 79.604164, 79.321426, 79.125, 78.848213, 78.330353, 77.767853, 77.1875, 76.767853, 76.193451, 75.54464, 75.029762, 74.267853, 73.857147, 73.5, 73.401787, 73.079163, 72.425598, 71.321426, 70.610123, 70.053574, 69.541664, 69.383926, 68.919647, 68.651787, 68.5, 68.107147, 67.791664, 67.3125, 66.767853, 66.321426, 65.767853, 65.196426, 64.226189, 63.607143, 63.125, 62.705357, 62.241074, 61.559525, 61.133926, 60.75, 60.553574, 59.925594, 58.979168, 58.44643, 57.875, 57.5, 57.125, 56.482143, 55.773811, 55.419643, 54.660713, 54.267853, 53.723213, 53.366074, 52.747025, 52.383926, 51.883926, 51.229168, 50.443455, 49.964287, 49.625, 49.375, 48.928574, 48.330357, 47.830357, 47.1875, 46.61607, 46.25, 45.541668, 45.071426, 44.607143, 44.133926, 43.541668, 43.053574, 42.517857, 42.1875, 41.5625, 40.934525, 40.375, 39.8125, 39.133926, 38.535713, 38.1875, 37.75, 37.366074, 36.639881, 36.1875, 35.6875, 35.1875, 34.660713, 34.169643, 33.535713, 33.071426, 32.625, 32.3125, 31.8125, 31.196428, 30.55357, 30.0625, 29.5, 28.955357, 28.383928, 27.830357, 27.4375, 26.9375, 26.5, 26, 25.4375, 24.892857, 24.4375, 23.9375, 23.375, 22.857143, 22.232143, 21.55357, 21.0625, 20.4375, 19.848213, 19.321428, 18.767857, 18.4375, 17.96875, 17.53125, 17.09375, 16.589287, 15.979167, 15.428572, 14.791667, 14.321428, 13.767857, 13.34375, 12.799107, 12.28125, 11.736607, 11.375, 11.0625, 10.8125, 10.6875, 10.5, 10.3125, 10.1875, 10.0625, 10, 10.008928, 10.125, 10.205357, 10.5, 10.5625, 10.8125, 11, 11.3125, 11.5625, 11.78125, 11.96875, 12.03125, 12.15625, 12.25, 12.053572, 11.875, 12, 12.151786, 12.482143, 12.544643, 12.4375, 12.4375, 12.3125, 12.375, 12.375, 12.607143, 12.75, 12.8125, 12.8125, 12.736607, 12.802083, 12.732143, 12.625, 12.53125, 12.5625, 12.65625, 12.90625, 13.15625, 13.241072, 12.979167, 12.821428, 12.758928, 13.104167, 13.419643, 13.6875, 13.75, 13.625, 13.5, 13.5, 13.625, 13.8125, 14, 14, 14, 14, 14, 14, 14, 14, 14, 14, 14, 14, 14.1875, 14.4375, 14.645833, 15, -10, -10, -10, -10, -10, -10, -10, -10, -10, -10, -10, 35.833332, 35.833332, 35.875, 35.875, 36, 36, 35.9375, 35.875, 35.75, 35.75, 35.6875, 35.46875, 35.03125, 34.691669, -10, -10, -10, -10, -10, -10, -10, -10, -10, -10, -10, -10, -10, -10, -10, -10, -10, -10, -10, -10, -10, -10, -10, -10, -10, -10, -10, -10, -10, -10, -10, -10, -10, -10, -10, -10, -10, -10, -10, -10, -10, -10, -10, -10, -10, -10, -10, -10, -10, -10, -10, -10, -10, -10, -10, -10, -10, -10, -10, -10, -10, -10, -10, -10, -10, -10, -10, -10, -10, -10, -10, -10, -10, -10, -10, -10, -10, 113.5, 113.33334, 113, 112.5, 112.25, 111.75, 111.5625, 110.96428, 109.5, 108.85714, 108.02084, 107.78571, 107.47916, 106.86607, 106.22619, 105.58334, 105.14285, 104.30059, 103.69643, 103.25, 102.9375, 102.5, 101.5, 101.08929, 100.38393, 99.367859, 98.910713, 97.991074, 97.5625, 96.9375, 96.517853, 96, 94.833328, 94.571426, 93.875, 93.3125, 92.321426, 91.75, 91.508926, 91.157738, 90.800591, 90.5, 89.791664, 89.767853, 89.5, 89.40625, 89.174103, 88.96875, 88.754463, 88.455353, 87.946426, 87.517853, 87.25, 86.875, 86.491074, 85.434525, 84.821426, 84.1875, 83.723213, 83.133926, 82.151787, 81.678574, 81.026779, 80.297623, 79.630951, 79.383926, 79.25, 79.089287, 78.434525, 77.875, 77.25, 76.723213, 76.148804, 75.651779, 75.136909, 74.184525, 73.678574, 73.3125, 73.392853, 73.323212, 72.559525, 71.5, 70.901787, 70.303574, 69.5625, 69.267853, 68.75, 68.5625, 68.375, 67.982147, 67.604164, 67.1875, 66.705353, 66.4375, 65.946426, 65.154762, 64.101189, 63.482143, 63.0625, 62.6875, 62.241074, 61.559525, 61.133926, 60.75, 60.553574, 59.934525, 59.125, 58.517857, 57.9375, 57.4375, 56.955357, 56.303574, 55.648811, 55.24107, 54.642857, 54.196426, 53.598213, 53.1875, 52.767857, 52.4375, 52.017857, 51.5625, 50.747025, 50.276787, 49.666668, 49.383926, 48.9375, 48.392857, 47.785713, 47.25, 46.660713, 46.375, 45.875, 45.3125, 44.75, 44.196426, 43.541668, 42.991074, 42.455357, 42.125, 41.616074, 41.041668, 40.5, 40, 39.321426, 38.723213, 38.267857, 37.75, 37.3125, 36.723213, 36.25, 35.705357, 35.25, 34.660713, 34.1875, 33.642857, 33.0625, 32.517857, 32.125, 31.625, 31.1875, 30.598213, 30.1875, 29.625, 29.017857, 28.330357, 27.723213, 27.375, 26.875, 26.5, 26, 25.375, 24.785713, 24.375, 23.875, 23.3125, 22.75, 22.169643, 21.535713, 21.0625, 20.375, 19.741072, 19.258928, 18.705357, 18.4375, 17.9375, 17.5, 17, 16.5, 16.125, 15.607143, 14.916667, 14.4375, 13.723214, 13.352678, 12.84375, 12.34375, 11.799107, 11.3125, 10.892857, 10.625, 10.4375, 10.25, 10.125, 10.0625, 10, 10.0625, 9.9732141, 9.8392859, 9.9553566, 10.125, 10.3125, 10.5625, 10.75, 11.0625, 11.4375, 11.78125, 11.96875, 12.03125, 12.03125, 12, 11.866072, 11.6875, 11.8125, 11.910714, 12.232143, 12.3125, 12.3125, 12.25, 12.125, 12.125, 12.1875, 12.482143, 12.75, 12.9375, 12.830357, 12.665178, 12.46875, 12.375, 12.3125, 12.28125, 12.375, 12.59375, 12.90625, 13.138393, 13.095239, 12.833334, 12.842261, 12.866072, 12.9375, 13.169643, 13.375, 13.4375, 13.375, 13.3125, 13.375, 13.5625, 13.8125, 14, 14, 14, 14, 14, 14, 14, 14, 14, 14, 14, 14, 14.1875, 14.375, 14.625, 14.875, 14.75, -10, -10, -10, -10, -10, -10, -10, -10, -10, -10, -10
-10, -10, -10, -10, -10, -10, -10, -10, -10, -10, -10, -10, -10, -10, -10, -10, -10, -10, -10, -10, -10, -10, -10, -10, -10, -10, 113.4375, 113.29166, 113.03125, 112.625, 112.4375, 111.99107, 111.45834, 110.82143, 109.6875, 109.14285, 108.44941, 107.90476, 107.49107, 107.11607, 106.3244, 105.52976, 104.92857, 104.13393, 103.57143, 103.0625, 102.625, 102.17857, 101.39584, 100.94643, 100.375, 99.45536, 98.910713, 98.375, 97.955353, 97.428574, 96.809517, 96.25, 94.916664, 94.428574, 93.73214, 93.270836, 92.095238, 91.511902, 91.571426, 91.428574, 91.104164, 90.8125, 89.979164, 89.892853, 89.5, 89.25, 88.910706, 88.625, 88.410713, 88.142853, 87.75, 87.4375, 87.1875, 86.875, 86.482147, 85.619049, 85, 84.321426, 83.494049, 82.883926, 82.255951, 81.857147, 81.348213, 80.901787, 80.130951, 79.839279, 79.625, 79.39286, 78.601189, 78.142853, 77.535713, 76.928574, 76.291664, 75.830353, 75.136909, 74.505951, 74.071426, 73.6875, 73.580353, 73.278564, 72.380951, 71.666672, 71.035713, 70.491074, 69.8125, 69.517853, 68.991074, 68.604164, 68.383926, 67.919647, 67.541664, 67.125, 66.75, 66.5, 66.008926, 65.050598, 64.029762, 63.464287, 63.0625, 62.6875, 62.241074, 61.559525, 61.133926, 60.6875, 60.366074, 59.684525, 59.125, 58.535713, 58.0625, 57.491074, 56.788689, 56.169647, 55.559525, 55.196426, 54.75, 54.267857, 53.660713, 53.041668, 52.696426, 52.375, 52.017857, 51.625, 50.916668, 50.39286, 49.583336, 49.196426, 48.75, 48.25, 47.660713, 47.25, 46.705357, 46.4375, 45.9375, 45.25, 44.642857, 44.071426, 43.416668, 42.928574, 42.4375, 42.0625, 41.5, 41.017857, 40.5625, 40.0625, 39.383926, 38.741074, 38.330357, 37.8125, 37.375, 36.785713, 36.25, 35.705357, 35.3125, 34.767857, 34.3125, 33.767857, 33.1875, 32.705357, 32.241074, 31.604166, 31.196428, 30.642857, 30.25, 29.642857, 29.017857, 28.330357, 27.723213, 27.375, 26.875, 26.5, 26, 25.375, 24.785713, 24.375, 23.875, 23.3125, 22.75, 22.232143, 21.642857, 21.125, 20.4375, 19.741072, 19.330357, 18.8125, 18.4375, 17.892857, 17.4375, 16.9375, 16.5, 16.1875, 15.669643, 15.041667, 14.5625, 13.785714, 13.330357, 12.767857, 12.375, 11.830357, 11.3125, 10.785713, 10.4375, 10.1875, 10.0625, 10, 10, 10, 10.0625, 9.9732141, 9.8392859, 9.8303566, 9.9375, 10.0625, 10.25, 10.5, 10.8125, 11.1875, 11.59375, 11.78125, 11.71875, 11.620536, 11.285714, 11.375, 11.4375, 11.5, 11.6875, 11.919643, 11.9375, 11.9375, 11.75, 11.625, 11.6875, 11.8125, 12.232143, 12.625, 12.8125, 12.705357, 12.477678, 12.21875, 12.125, 12.1875, 12.15625, 12.25, 12.46875, 12.566964, 12.59375, 12.389457, 12.440476, 12.877975, 12.991072, 13, 13.0625, 13.1875, 13.1875, 13.1875, 13.25, 13.375, 13.625, 13.875, 14, 14, 14, 14, 14, 14, 14, 14, 14, 14, 14, 14, 14.125, 14.25, 14.5, 14.6875, 14.583333, 14.583334, -10, -10, -10, -10, -10, -10, -10, -10, -10, -10, -10, -10, 35.875, 35.8125, 35.71875, 35.40625, 35.21875, 35.116074, 34.854168, 34.785713, 34.602676, 34.28125, 34.158337, -10, -10, -10, -10, -10, -10, -10, -10, -10, -10, -10, -10, -10, -10, -10, -10, -10, -10, -10, -10, -10, -10, -10, -10, -10, -10, -10, -10, -10, -10, -10, -10, -10, -10, -10, -10, -10, -10, -10, -10, -10, -10, -10, -10, -10, -10, -10, -10, -10, -10, -10, -10, -10, -10, -10, -10, -10, -10, -10, -10, -10, -10, -10, -10, -10, -10, -10, -10, -10, -10, -10, -10, -10, -10, -10, -10, -10, 113.375, 113.25, 113.0625, 112.75, 112.55357, 111.97024, 111.40476, 110.75, 109.8375, 109.53571, 108.78275, 108.07143, 107.49107, 107, 106.38393, 105.52976, 104.7381, 104.0625, 103.51785, 103, 102.5, 102, 101.5, 101.125, 100.44643, 99.717262, 99.160713, 98.6875, 98.330353, 97.8125, 97.01786, 96.5, 95.357147, 94.690475, 93.973213, 93.395836, 92.653061, 92.102036, 91.508926, 91.5, 91.3125, 91.1875, 90.354164, 90.142853, 89.6875, 89.3125, 88.848206, 88.4375, 88.125, 87.964287, 87.75, 87.383926, 87.125, 86.8125, 86.419647, 85.538681, 84.892853, 84.321426, 83.601189, 83.026787, 82.193451, 81.89286, 81.348213, 81.035721, 80.380951, 79.964279, 79.705353, 79.39286, 78.601189, 78.205353, 77.660713, 77.178574, 76.8125, 76.383926, 75.513611, 74.761902, 74.196426, 73.741074, 73.642853, 73.314285, 72.309525, 71.803574, 71.3125, 70.834824, 70.15625, 69.799103, 69.26786, 68.583328, 68.267853, 67.75, 67.4375, 67.017853, 66.6875, 66.375, 65.946426, 64.988098, 64.020828, 63.464287, 63, 62.625, 62.178574, 61.541668, 61.071426, 60.5625, 60.1875, 59.642857, 59.125, 58.535713, 58.125, 57.553574, 56.797619, 55.949402, 55.535713, 55.1875, 54.8125, 54.276783, 53.589287, 52.800594, 52.401787, 52.1875, 51.9375, 51.625, 50.997025, 50.5, 49.437504, 49.017857, 48.5625, 48.125, 47.598213, 47.25, 46.705357, 46.4375, 45.9375, 45.3125, 44.67857, 44.0625, 43.517857, 43, 42.5, 42, 41.375, 40.785713, 40.375, 39.9375, 39.4375, 38.848213, 38.392857, 37.9375, 37.5, 36.955357, 36.330357, 35.767857, 35.375, 34.875, 34.4375, 33.955357, 33.4375, 33.00893, 32.261902, 31.595238, 31.133928, 30.625, 30.25, 29.705357, 29.125, 28.330357, 27.678572, 27.3125, 26.8125, 26.5, 26, 25.375, 24.785713, 24.375, 23.875, 23.375, 22.857143, 22.357143, 21.767857, 21.1875, 20.517857, 19.910713, 19.455357, 19, 18.5625, 17.955357, 17.455357, 16.9375, 16.5, 16.25, 15.732143, 15.104167, 14.642858, 13.892857, 13.330357, 12.723213, 12.375, 11.9375, 11.428572, 10.702381, 10.321428, 10, 9.875, 9.875, 9.875, 9.875, 10, 9.8482141, 9.6517859, 9.6428566, 9.6875, 9.8125, 10.0625, 10.375, 10.6875, 11.0625, 11.4375, 11.473214, 11.205357, 10.973214, 10.75, 10.6875, 10.8125, 11, 11.3125, 11.607143, 11.6875, 11.75, 11.6875, 11.625, 11.6875, 11.6875, 11.8125, 12.285714, 12.357142, 12.234694, 11.915178, 11.78125, 11.84375, 11.96875, 11.9375, 12.080357, 12.458333, 12.526786, 12.4375, 12.247025, 12.291667, 12.627975, 12.866072, 13, 13, 13.0625, 13.0625, 13.0625, 13.1875, 13.375, 13.5625, 13.8125, 13.9375, 13.9375, 14, 14, 14, 14, 14, 14, 14, 14, 14, 14, 14.0625, 14.125, 14.3125, 14.4375, 14.4375, 14.388889, 14.166666, -10, -10, -10, -10, -10, -10, -10, -10, -10
-10, -10, -10, -10, -10, -10, -10, -10, -10, -10, -10, -10, -10, -10, -10, -10, -10, -10, -10, -10, -10, -10, -10, -10, -10, -10, 113.25, 113.16666, 113, 112.75, 112.49107, 111.90774, 111.21726, 110.53572, 109.75417, 109.63393, 108.97025, 108.21429, 107.61607, 106.85416, 106.20535, 105.50893, 104.70238, 104.0625, 103.51785, 103, 102.44643, 101.79166, 101.375, 101, 100.44643, 99.717262, 99.223213, 98.875, 98.580353, 97.8125, 97.071426, 96.535713, 95.583336, 94.869049, 94.160713, 93.583336, 93, 92.581627, 91.821426, 91.8125, 91.5, 91.3125, 90.6875, 90.375, 89.9375, 89.4375, 88.973206, 88.607147, 88.142853, 88.04464, 87.848213, 87.330353, 86.919647, 86.455353, 86.053574, 85.372025, 84.830353, 84.321426, 83.601189, 83.026787, 82.193451, 81.964287, 81.410713, 81.232147, 80.821426, 80.285713, 79.892853, 79.419647, 78.601189, 78.267853, 77.848213, 77.473213, 77.125, 76.696426, 76.108841, 75.251701, 74.339287, 73.991074, 73.714287, 73.005951, 72.285713, 71.732147, 71.375, 70.977676, 70.427086, 70.040176, 69.401787, 68.529762, 68.098213, 67.625, 67.25, 66.830353, 66.625, 66.25, 65.738091, 64.845245, 64.0625, 63.535713, 63.0625, 62.625, 62.178574, 61.541668, 61.133926, 60.625, 60.25, 59.705357, 59.1875, 58.642857, 58.1875, 57.5, 56.690475, 55.949402, 55.580357, 55.1875, 54.767857, 54.276783, 53.696426, 52.925594, 52.526787, 52.25, 51.729168, 51.375, 50.892857, 50.321426, 49.250004, 48.767857, 48.3125, 47.9375, 47.517857, 47.125, 46.642857, 46.3125, 45.8125, 45.3125, 44.723213, 44.1875, 43.642857, 43.0625, 42.517857, 42, 41.375, 40.785713, 40.375, 39.9375, 39.5, 38.955357, 38.455357, 38, 37.5625, 37.0625, 36.392857, 35.785713, 35.375, 34.875, 34.5, 34.0625, 33.5625, 33.13393, 32.324402, 31.613094, 31.133928, 30.625, 30.1875, 29.642857, 29.0625, 28.175594, 27.607143, 27.1875, 26.75, 26.4375, 25.9375, 25.4375, 24.892857, 24.4375, 23.9375, 23.4375, 22.892857, 22.375, 21.875, 21.25, 20.598213, 20.017857, 19.517857, 19.125, 18.625, 18.017857, 17.401787, 16.830357, 16.4375, 16.125, 15.678572, 15.25, 14.821428, 14.133928, 13.372024, 12.723213, 12.375, 12, 11.491072, 10.764881, 10.339286, 9.9375, 9.75, 9.6875, 9.625, 9.625, 9.75, 9.6607141, 9.5267859, 9.5, 9.5, 9.6875, 9.9375, 10.375, 10.625, 10.9375, 11.25, 11.160714, 10.892857, 10.629464, 10.375, 10.3125, 10.375, 10.59375, 10.982143, 11.232143, 11.3125, 11.392857, 11.4375, 11.375, 11.5, 11.366072, 11.25, 11.125, 11.226192, 11.261905, 11.633928, 11.625, 11.6875, 11.8125, 11.75, 11.767857, 12.083333, 12.089286, 12, 11.809525, 11.979167, 12.440475, 12.741072, 13, 13, 13, 13, 13, 13.125, 13.375, 13.5, 13.6875, 13.8125, 13.8125, 13.9375, 14, 14, 14, 14, 14, 14, 14, 14, 14, 14, 14, 14.125, 14.1875, 14.1875, 14.354167, 14.222221, -10, -10, -10, -10, -10, -10, -10, -10, -10, -10, -10, 36.1875, 36.083332, 35.875, 35.53125, 35.040176, 34.696426, 34.229168, 33.973213, 33.758926, 33.5, 33.333336, 32.458336, -10, -10, -10, -10, -10, -10, -10, -10, -10, -10, -10, -10, -10, -10, -10, -10, -10, -10, -10, -10, -10, -10, -10, -10, -10, -10, -10, -10, -10, -10, -10, -10, -10, -10, -10, -10, -10, -10, -10, -10, -10, -10, -10, -10, -10, -10, -10, -10, -10, -10, -10, -10, -10, -10, -10, -10, -10, -10, -10, -10, -10, -10, -10, -10, -10, -10, -10, -10, -10, -10, -10, -10, -10, -10, -10, -10, 113.25, 113.16666, 113, 112.75, 112.42857, 111.84524, 111.15476, 110.30952, 109.57559, 109.49107, 108.92857, 108.28571, 107.71429, 106.87202, 106.27679, 105.63393, 104.88095, 104.08334, 103.55357, 103.0625, 102.5, 101.70833, 101.25, 100.75, 100.19643, 99.633926, 99.25, 99, 98.758926, 97.833336, 97.178566, 96.642853, 95.726189, 94.940475, 94.45536, 93.982147, 93.392853, 93.026779, 92.4375, 92.25, 91.857147, 91.455353, 91.008926, 90.625, 90.375, 89.875, 89.372025, 88.961311, 88.285713, 88.116066, 87.848213, 87.267853, 86.678574, 86.098213, 85.6875, 85.205353, 84.767853, 84.267853, 83.39286, 82.964287, 82.104164, 81.98214, 81.651787, 81.5625, 81.232147, 80.5625, 79.705353, 79.098213, 78.434525, 78.267853, 77.973213, 77.705353, 77.3125, 76.821426, 76.020836, 75.276787, 74.410713, 73.991074, 73.464287, 72.613098, 71.964287, 71.366074, 71.017853, 70.71875, 70.397324, 69.885414, 69.285713, 68.404762, 68.035713, 67.6875, 67.303574, 66.684525, 66.517853, 66.0625, 65.458328, 64.886909, 64.169647, 63.577381, 63.0625, 62.625, 62.178574, 61.541668, 61.133926, 60.625, 60.25, 59.69643, 59.041668, 58.571426, 58.125, 57.5, 56.690475, 55.949402, 55.642857, 55.294643, 54.785713, 54.348213, 53.821426, 53.113094, 52.714287, 52.375, 51.791668, 51.375, 50.684525, 50.071426, 49.208336, 48.758926, 48.303574, 47.791668, 47.446426, 47, 46.580357, 46.1875, 45.6875, 45.25, 44.705357, 44.25, 43.705357, 43.125, 42.535713, 42, 41.375, 40.785713, 40.375, 39.875, 39.4375, 38.892857, 38.375, 37.892857, 37.5, 37, 36.455357, 35.892857, 35.375, 34.830357, 34.375, 33.9375, 33.5625, 33.178574, 32.386902, 31.630951, 31.133928, 30.625, 30.125, 29.535713, 29, 28.020832, 27.535715, 27.0625, 26.6875, 26.3125, 25.8125, 25.4375, 24.9375, 24.5, 24, 23.5, 23, 22.5, 22, 21.375, 20.785713, 20.1875, 19.598213, 19.25, 18.6875, 18.080357, 17.348215, 16.723213, 16.375, 16, 15.625, 15.3125, 14.830357, 14.303572, 13.443453, 12.785713, 12.375, 12, 11.553572, 10.872025, 10.339286, 9.8303566, 9.5625, 9.4375, 9.375, 9.375, 9.4375, 9.375, 9.3125, 9.25, 9.375, 9.5625, 9.875, 10.375, 10.625, 10.875, 11.0625, 10.848214, 10.410714, 10.191964, 10, 10, 10.0625, 10.15625, 10.4375, 10.625, 10.6875, 10.946428, 11.291667, 11.303572, 11.392857, 11.241072, 10.82653, 10.816327, 10.908164, 11.125, 11.3125, 11.375, 11.4375, 11.5, 11.4375, 11.455357, 11.708333, 11.714286, 11.642857, 11.642857, 11.875, 12.232143, 12.5, 12.8125, 12.875, 12.9375, 13, 13, 13.0625, 13.3125, 13.375, 13.5, 13.6875, 13.6875, 13.875, 14, 14, 14, 14, 14, 14, 14, 14, 14, 14, 14, 14.0625, 14.0625, 14.0625, 14.25, 14.249999, -10, -10, -10, -10, -10, -10, -10, -10, -10
-10, -10, -10, -10, -10, -10, -10, -10, -10, -10, -10, -10, -10, -10, -10, -10, -10, -10, -10, -10, -10, -10, -10, -10, -10, -10, 113.0625, 113.04166, 112.84375, 112.625, 112.30357, 111.70238, 111.15476, 110.13095, 109.26309, 109.11607, 108.5, 108.13988, 107.66071, 106.87202, 106.35715, 105.875, 105.13095, 104.08334, 103.53572, 103, 102.5625, 101.77975, 101.14584, 100.71429, 100.07143, 99.571426, 99.1875, 98.875, 98.571426, 97.476189, 96.904755, 96.392853, 95.767853, 95.083336, 94.553574, 94.071434, 93.517853, 93.133926, 92.517853, 92.375, 91.919647, 91.517853, 91.133926, 90.75, 90.6875, 90.3125, 89.770828, 89.398811, 88.660713, 88.491066, 88.04464, 87.276779, 86.571426, 86.035713, 85.660713, 85.205353, 84.839287, 84.383926, 83.809525, 83.392853, 82.354164, 82.160713, 81.875, 81.732147, 81.398811, 80.66964, 79.559525, 78.991074, 78.455353, 78.25, 77.9375, 77.6875, 77.3125, 76.8125, 76.205353, 75.455353, 74.473213, 73.946426, 73.464287, 72.657738, 72.089287, 71.491074, 70.872025, 70.602676, 70.200897, 69.489578, 68.928566, 68.238098, 67.964287, 67.75, 67.357147, 66.601189, 66.401787, 65.875, 65.333328, 64.928574, 64.294647, 63.702381, 62.916668, 62.446426, 61.9375, 61.5, 61.0625, 60.5625, 60.25, 59.732147, 58.958336, 58.517853, 58.0625, 57.5, 56.773811, 56.092262, 55.767857, 55.410713, 54.702381, 54.276787, 53.758926, 53.321426, 52.892857, 52.5, 51.916668, 51.4375, 50.684525, 49.964287, 49.184525, 48.821426, 48.357147, 47.708336, 47.392853, 46.875, 46.517857, 46.125, 45.625, 45.25, 44.705357, 44.25, 43.705357, 43.1875, 42.598213, 42.0625, 41.455357, 40.892857, 40.4375, 39.9375, 39.5, 39, 38.375, 37.848213, 37.4375, 36.9375, 36.455357, 35.892857, 35.3125, 34.794643, 34.357143, 33.830357, 33.508926, 33.053574, 32.270832, 31.607141, 31.0625, 30.5625, 30.0625, 29.517857, 29, 28.020832, 27.535715, 27, 26.580357, 26.1875, 25.6875, 25.34375, 24.84375, 24.40625, 23.90625, 23.375, 22.875, 22.375, 21.875, 21.3125, 20.723213, 20.1875, 19.598213, 19.3125, 18.803572, 18.104166, 17.357143, 16.723213, 16.375, 15.9375, 15.5625, 15.25, 14.767857, 14.303572, 13.514881, 12.892857, 12.4375, 12.0625, 11.616072, 11.041667, 10.455358, 9.7470236, 9.3839283, 9.1875, 9.125, 9.1875, 9.3125, 9.3125, 9.25, 9.1875, 9.3125, 9.5625, 10.044643, 10.5, 10.75, 10.9375, 10.9375, 10.723214, 10.348214, 10.102678, 9.9375, 9.875, 9.75, 9.8705359, 10.232143, 10.419643, 10.5, 10.696428, 11.041667, 11.053572, 11.080357, 10.866072, 10.473214, 10.401786, 10.544643, 10.625, 11, 11.1875, 11.25, 11.25, 11.125, 11.142857, 11.333333, 11.428572, 11.5, 11.5, 11.75, 12, 12.3125, 12.6875, 12.8125, 12.9375, 13, 13, 13, 13.1875, 13.1875, 13.25, 13.5, 13.5625, 13.8125, 14, 14, 14, 14, 14, 14, 14, 14, 14, 14, 14, 14, 14, 14, 14.125, 14.222221, -10, -10, -10, -10, -10, -10, -10, -10, -10, -10, -10, 36.583332, 36.708332, 36.422321, 35.770836, 35.071426, 34.424107, 33.924107, 33.46875, 33.15625, 32.875, 32.5, 32.193455, 31.85, 31.875, 32.125, 31.946428, 31.619047, -10, -10, -10, -10, -10, -10, -10, -10, -10, -10, -10, -10, -10, -10, -10, -10, -10, -10, -10, -10, -10, -10, -10, -10, -10, -10, -10, -10, -10, -10, -10, -10, -10, -10, -10, -10, -10, -10, -10, -10, -10, -10, -10, -10, -10, -10, -10, -10, -10, -10, -10, -10, -10, -10, -10, -10, -10, -10, -10, -10, -10, -10, -10, -10, -10, -10, -10, -10, -10, -10, -10, 113, 113, 112.75, 112.5, 112.1875, 111.72321, 111.15476, 109.94643, 109.18452, 108.86607, 108.30952, 107.80655, 107.41071, 106.68452, 106.28571, 105.58334, 104.96428, 103.95834, 103.53572, 103.03571, 102.65179, 101.96725, 101.20834, 100.67857, 100.08334, 99.351189, 99.080353, 98.75, 98.383926, 97.226189, 96.714279, 96.205353, 95.598213, 95.1875, 94.75, 94.321434, 93.601196, 93.133926, 92.642853, 92.5, 92.169647, 91.75, 91.300591, 90.946426, 90.866074, 90.354164, 89.842255, 89.586311, 88.946426, 88.66964, 88.04464, 87.330353, 86.633926, 86.160713, 85.839287, 85.309525, 85.017853, 84.571426, 83.988091, 83.416664, 82.604164, 82.35714, 82.0625, 81.794647, 81.398811, 80.523811, 79.488091, 79.053574, 78.642853, 78.4375, 77.895836, 77.508926, 77.125, 76.6875, 76.133926, 75.217262, 74.526779, 74.017853, 73.401787, 72.514877, 72.080353, 71.491074, 70.726189, 70.455353, 70.013397, 69.333328, 68.839279, 68.321426, 68.017853, 67.78125, 67.388397, 66.672615, 66.389282, 66.020836, 65.279762, 64.928574, 64.357147, 63.809525, 62.979168, 62.464287, 62, 61.6875, 61.348213, 60.758926, 60.428574, 59.857147, 58.833336, 58.35714, 57.84375, 57.28125, 56.577381, 56.133926, 55.75, 55.348213, 54.577381, 54.267853, 53.9375, 53.75, 53.428574, 52.791668, 52.104168, 51.5625, 50.791668, 49.880951, 49.339283, 48.9375, 48.482147, 47.708336, 47.330353, 46.8125, 46.5, 46.125, 45.625, 45.25, 44.705357, 44.25, 43.705357, 43.1875, 42.598213, 42.0625, 41.517857, 41, 40.5, 40, 39.5, 39.0625, 38.4375, 37.848213, 37.392857, 36.875, 36.375, 35.785713, 35.25, 34.732143, 34.294643, 33.660713, 33.321426, 32.8125, 32.25, 31.571428, 31.125, 30.6875, 30.241072, 29.559523, 29, 28.083332, 27.642857, 27, 26.535713, 26.0625, 25.5625, 25.21875, 24.65625, 24.174107, 23.71875, 23.25, 22.8125, 22.3125, 21.767857, 21.25, 20.705357, 20.125, 19.535713, 19.25, 18.732143, 17.958332, 17.214285, 16.598213, 16.3125, 15.8125, 15.5, 15.1875, 14.75, 14.303572, 13.577381, 13, 12.4375, 11.955357, 11.5, 11.125, 10.5625, 9.7261906, 9.3303566, 9.0625, 9, 9.0625, 9.125, 9.25, 9.25, 9.1875, 9.3928566, 9.6875, 10.044643, 10.5, 10.625, 10.75, 10.75, 10.5625, 10.392857, 10.21875, 10.0625, 9.9375, 9.75, 9.8080359, 10.044643, 10.169643, 10.1875, 10.321428, 10.666667, 10.678572, 10.705357, 10.616072, 10.410714, 10.464286, 10.669643, 10.75, 11, 11.0625, 11.0625, 11.0625, 11, 11, 11, 11, 11.0625, 11.125, 11.375, 11.625, 11.946428, 12.520833, 12.741072, 12.9375, 13, 13, 13, 13.125, 13.1875, 13.25, 13.4375, 13.5, 13.625, 13.8125, 13.875, 13.9375, 14, 14, 14.0625, 14.0625, 14.0625, 14.0625, 14, 14, 14, 14, 14, 14.125, -10, -10, -10, -10, -10, -10, -10, -10, -10, -10
