-10, -10, -10, -10, -10, -10, -10, -10, -10, -10, -10, -10, -10, -10, -10, -10, -10, -10, -10, 47.875, 47.916668, 47.9375, 47.75, 47.625, 47.303574, 46.729168, 46.383926, 46, 45.6875, 45.375, 45.1875, 44.9375, 44.75, 44.625, 44.375, 44.125, 43.803574, 43.5, 43.25, 43.125, 42.9375, 42.875, 42.6875, 42.375, 41.955357, 41.5625, 41.25, 41.0625, 40.8125, 40.5625, 40.3125, 40.0625, 39.9375, 39.75, 39.5, 39.25, 38.8125, 38.5, 38.25, 37.9375, 37.8125, 37.6875, 37.4375, 37.25, 36.9375, 36.5625, 36.3125, 36, 35.75, 35.5, 35.1875, 34.875, 34.6875, 34.4375, 34.25, 33.9375, 33.5625, 33.3125, 33.0625, 32.9375, 32.6875, 32.3125, 31.955357, 31.625, 31.5, 31.357143, 30.955357, 30.633928, 30.3125, 30.125, 29.75, 29.5, 29.25, 29, 28.9375, 28.6875, 28.4375, 28.0625, 27.6875, 27.4375, 27.1875, 27, 26.9375, 26.6875, 26.4375, 26.1875, 25.9375, 25.6875, 25.4375, 25.25, 24.875, 24.625, 24.375, 24.125, 24, 23.75, 23.5, 23.1875, 22.6875, 22.4375, 22.1875, 22, 21.75, 21.5, 21.3125, 21.0625, 20.9375, 20.6875, 20.375, 19.9375, 19.625, 19.375, 19.125, 19, 18.6875, 18.4375, 18.1875, 17.75, 17.5, 17.1875, 16.84375, 16.59375, 16.34375, 16.03125, 15.75, 15.5, 15.25, 15.125, 15, 14.875, 14.625, 14.375, 14.0625, 13.6875, 13.4375, 13.1875, 13, 12.875, 12.625, 12.375, 12, 11.625, 11.375, 11.125, 11, 10.75, 10.5, 10.25, 9.9375, 9.6875, 9.4375, 9.1875, 8.875, 8.625, 8.375, 8.125, 8, 8, 8, 8, 8, 8, 8, 8, 8, 8, 8, 8, 8, 8, 8, 8, 8, 7.9375, 7.9375, 7.9375, 7.9375, 8.0625, 8.0625, 8, 8, 7.9375, 7.9375, 7.875, 7.8125, 7.84375, 7.9508929, 8.2276783, 8.4812498, 8.2589283, 8.1964283, 8, 7.9375, 8, 8, 8, 8, 8.0625, 8.125, 8.1875, 8.1875, 8.25, 8.2232141, 8.0178566, 8.0178566, 7.9375, 7.9375, 8.0625, 8.3125, 8.5625, 8.75, 9, 9.3303566, 10.091667, -10, -10, -10, -10, -10, -10, -10, -10, -10, -10, -10, -10, -10, -10, -10, -10, -10, -10, -10, -10, -10, -10, -10, -10, -10, 33.6875, 34.17083, 35.151787, 35.51667, -10, -10, -10, -10, -10, -10, -10, -10, -10, -10, -10, -10, -10, -10, -10, -10, -10, -10, -10, -10, -10, -10, -10, -10, -10, -10, 60.708336, 61.107143, 61.53125, 61.977676, 62.760418, 63.091663, -10, -10, -10, -10, -10, -10, -10, -10, -10, -10, -10, -10, -10, -10, -10, -10, -10, -10, -10, 84, 84, 84, 84, 84.125, 84.375, 84.625, 84.875, 85, 85, 84.9375, 85.026787, 85.098213, 85.125, 85.1875, 85.0625, 85.330353, 85.5625, 85.6875, 85.892853, 85.848213, 85.860123, 86.083336, 86.041664, 86.375, 86.388893, -10, -10, -10, 86.833336, -10, -10, -10, -10, -10, 87.583336, -10, -10, -10, -10, -10, -10, -10, -10, -10, -10, -10, -10, -10, -10, -10, -10, -10, -10, -10, -10, -10, -10, -10, -10, -10, -10, -10, -10, -10, -10, -10, -10, -10, -10, -10, -10, -10, -10, -10, -10, -10, -10, -10, -10, -10, 47.875, 47.916668, 47.9375, 47.8125, 47.6875, 47.303574, 46.684525, 46.321426, 45.9375, 45.625, 45.3125, 45.125, 44.875, 44.8125, 44.75, 44.5, 44.1875, 43.75893, 43.4375, 43.1875, 43.125, 42.9375, 42.875, 42.6875, 42.375, 41.955357, 41.5625, 41.25, 41.0625, 40.8125, 40.5625, 40.3125, 40.0625, 39.9375, 39.75, 39.5, 39.25, 38.8125, 38.5, 38.25, 37.9375, 37.75, 37.5625, 37.25, 37.0625, 36.8125, 36.5, 36.3125, 36, 35.75, 35.5, 35.1875, 34.8125, 34.625, 34.3125, 34.0625, 33.75, 33.375, 33.1875, 33, 33, 32.75, 32.4375, 32.080357, 31.625, 31.5, 31.294643, 30.892857, 30.633928, 30.3125, 30.125, 29.8125, 29.5625, 29.3125, 29.0625, 28.9375, 28.6875, 28.4375, 28.0625, 27.6875, 27.4375, 27.1875, 27, 26.875, 26.625, 26.375, 26.1875, 26, 25.75, 25.5, 25.25, 24.875, 24.625, 24.375, 24.125, 24, 23.75, 23.5, 23.25, 22.75, 22.5, 22.25, 22, 21.75, 21.5, 21.25, 21, 20.8125, 20.5625, 20.3125, 19.9375, 19.6875, 19.4375, 19.1875, 18.9375, 18.625, 18.375, 18.125, 17.75, 17.5, 17.25, 16.96875, 16.71875, 16.46875, 16.15625, 15.875, 15.6875, 15.4375, 15.25, 15.0625, 14.8125, 14.5625, 14.25, 13.875, 13.5625, 13.3125, 13.125, 13, 12.8125, 12.5625, 12.3125, 12, 11.6875, 11.4375, 11.1875, 10.9375, 10.6875, 10.4375, 10.1875, 9.875, 9.625, 9.375, 9.125, 8.875, 8.625, 8.375, 8.125, 8, 8, 8, 8, 8, 8, 8, 8, 8, 8, 8, 8, 8, 8, 8, 8, 8, 7.9375, 7.9375, 7.9375, 7.9375, 8.0625, 8.0625, 8, 8, 7.9375, 7.9375, 7.9375, 7.875, 7.78125, 7.78125, 8.0401783, 8.266964, 8.1339283, 8.1339283, 7.9375, 7.9375, 8, 8, 8, 8, 8, 8.125, 8.1875, 8.1875, 8.25, 8.25, 8.1875, 8.1875, 8.125, 8, 8.0625, 8.25, 8.5, 8.75, 9.0625, 9.5178566, 10.1, -10, -10, -10, -10, -10, -10, -10, -10, -10, -10, -10, -10, -10, -10, -10, -10, -10, -10, -10, -10, -10, -10, -10, -10, -10, 33.375, 33.85833, 34.669643, 35.466667, -10, -10, -10, -10, -10, -10, -10, -10, -10, -10, -10, -10, -10, -10, -10, -10, -10, -10, -10, -10, -10, -10, -10, -10, -10, -10, 61.055557, 61.5, 61.697918, 62.120537, 62.772324, 63.091663, -10, -10, -10, -10, -10, -10, -10, -10, -10, -10, -10, -10, -10, -10, -10, -10, -10, -10, -10, 84, 84, 84, 84, 84.125, 84.375, 84.625, 84.875, 85, 85, 85, 85.0625, 85.0625, 85.125, 85.125, 85.0625, 85.267853, 85.5, 85.5625, 85.642853, 85.625, 85.645836, -10, -10
-10, -10, -10, -10, -10, -10, -10, -10, -10, -10, -10, -10, -10, -10, -10, -10, -10, -10, -10, 48, 48, 47.9375, 47.8125, 47.625, 47.178574, 46.559525, 46.258926, 45.848213, 45.517857, 45.330357, 45.125, 44.9375, 44.901787, 44.875, 44.625, 44.25, 43.714287, 43.375, 43.125, 43.125, 42.875, 42.75, 42.5, 42.1875, 41.767857, 41.4375, 41.1875, 41, 40.8125, 40.5625, 40.3125, 40.0625, 39.9375, 39.75, 39.5, 39.25, 38.8125, 38.5, 38.25, 37.9375, 37.6875, 37.4375, 37.0625, 36.875, 36.75, 36.5, 36.375, 36, 35.625, 35.375, 35.0625, 34.75, 34.5625, 34.25, 33.9375, 33.625, 33.3125, 33.125, 32.9375, 32.875, 32.625, 32.375, 32.1875, 31.75, 31.625, 31.357143, 30.892857, 30.633928, 30.3125, 30.125, 29.875, 29.625, 29.375, 29.125, 28.9375, 28.6875, 28.4375, 28.0625, 27.6875, 27.4375, 27.1875, 27, 26.8125, 26.5625, 26.3125, 26.125, 26, 25.75, 25.5, 25.25, 24.9375, 24.6875, 24.4375, 24.1875, 24, 23.75, 23.5, 23.25, 22.75, 22.5, 22.25, 21.9375, 21.6875, 21.4375, 21.1875, 21, 20.8125, 20.5625, 20.25, 19.875, 19.625, 19.375, 19.125, 18.8125, 18.5, 18.25, 18.0625, 17.75, 17.5, 17.25, 17, 16.75, 16.5, 16.1875, 15.8125, 15.6875, 15.5, 15.294643, 14.979167, 14.633928, 14.375, 14.125, 13.75, 13.5, 13.25, 13.0625, 13, 12.8125, 12.5625, 12.3125, 12.0625, 11.75, 11.5, 11.25, 10.875, 10.625, 10.375, 10.125, 9.8125, 9.5625, 9.3125, 9.0625, 8.875, 8.625, 8.375, 8.125, 8, 8, 8, 8, 8, 8, 8, 8, 8, 8, 8, 8, 8, 8, 8, 8, 8.0625, 8.0625, 8.0625, 8.0625, 8, 8, 8, 7.9375, 7.9375, 7.9375, 7.9375, 8, 8, 7.9375, 7.9375, 8.1339283, 8.298214, 8.1964283, 8.1964283, 8, 8, 8, 8, 8, 8.0625, 8.125, 8.2321434, 8.1875, 8.1875, 8.125, 8.1875, 8.1875, 8.25, 8.25, 8.125, 8.125, 8.1875, 8.4375, 8.6875, 9, 9.5178566, 10.1, -10, -10, -10, -10, -10, -10, -10, -10, -10, -10, -10, -10, -10, -10, -10, -10, -10, -10, -10, -10, -10, -10, -10, -10, -10, 33.270832, 33.683334, 34.107143, -10, -10, -10, -10, -10, -10, -10, -10, -10, -10, -10, -10, -10, -10, -10, -10, -10, -10, -10, -10, -10, -10, -10, -10, -10, -10, -10, -10, 61.625, 61.822918, 62.227676, 62.772324, 63.041664, -10, -10, -10, -10, -10, -10, -10, -10, -10, -10, -10, -10, -10, -10, -10, -10, -10, -10, -10, 84, 84, 84, 84, 84.125, 84.375, 84.625, 84.875, 85, 85, 85, 85.0625, 85.125, 85.1875, 85.1875, 85.125, 85.205353, 85.4375, 85.5, 85.517853, 85.5625, 85.541672, -10, -10, -10, -10, -10, -10, -10, -10, -10, -10, -10, -10, -10, -10, -10, -10, -10, -10, -10, -10, -10, -10, -10, -10, -10, -10, -10, -10, -10, -10, -10, -10, -10, -10, -10, -10, -10, -10, -10, -10, -10, -10, -10, -10, -10, -10, -10, -10, -10, -10, -10, -10, -10, -10, -10, -10, -10, -10, -10, 48, 48, 47.875, 47.75, 47.5625, 47.107147, 46.434525, 46.321426, 45.973213, 45.598213, 45.401787, 45.125, 44.875, 44.776787, 44.6875, 44.4375, 44.125, 43.625, 43.3125, 43.0625, 43, 42.75, 42.5625, 42.3125, 42.0625, 41.705357, 41.4375, 41.1875, 41, 40.8125, 40.5625, 40.3125, 40.0625, 39.875, 39.6875, 39.4375, 39.1875, 38.875, 38.5625, 38.3125, 38, 37.6875, 37.4375, 37, 36.8125, 36.6875, 36.5, 36.428574, 35.854168, 35.508926, 35.25, 35.0625, 34.875, 34.625, 34.3125, 33.9375, 33.5625, 33.3125, 33.125, 32.875, 32.75, 32.5, 32.25, 32.125, 31.8125, 31.625, 31.357143, 30.892857, 30.571428, 30.3125, 30.125, 29.9375, 29.6875, 29.4375, 29.1875, 29, 28.75, 28.5, 28.1875, 27.8125, 27.5625, 27.3125, 27.0625, 26.75, 26.5, 26.25, 26.0625, 26, 25.75, 25.5, 25.25, 24.9375, 24.6875, 24.4375, 24.1875, 24, 23.75, 23.5, 23.25, 22.8125, 22.5625, 22.3125, 22, 21.75, 21.5, 21.25, 21.0625, 20.8125, 20.553572, 20.041666, 19.696428, 19.5, 19.3125, 19.0625, 18.75, 18.4375, 18.1875, 18.0625, 17.8125, 17.5625, 17.3125, 17.0625, 16.75, 16.5, 16.25, 15.8125, 15.6875, 15.5625, 15.267858, 14.872025, 14.517857, 14.25, 14.0625, 13.75, 13.5, 13.25, 13.0625, 13, 12.75, 12.5, 12.25, 12, 11.75, 11.5, 11.25, 10.8125, 10.5625, 10.3125, 10.0625, 9.8125, 9.5625, 9.3125, 9.0625, 8.8125, 8.5625, 8.3125, 8.0625, 8, 8, 8, 8, 8, 8, 8, 8, 8, 8, 8, 8, 8, 8, 8, 8, 8, 8, 8, 8, 8, 7.9375, 7.9375, 7.9375, 7.9375, 8, 8, 8, 8, 8, 8, 8.125, 8.1607141, 8.125, 8.125, 8, 8, 8, 8, 8, 8.125, 8.25, 8.3571434, 8.3125, 8.25, 8.125, 8.25, 8.3125, 8.4375, 8.4285717, 8.125, 8.125, 8.0625, 8.3839283, 8.833333, 9.1071434, 9.6607141, 10.150001, -10, -10, -10, -10, -10, -10, -10, -10, -10, -10, -10, -10, -10, -10, -10, -10, -10, -10, -10, -10, -10, -10, -10, -10, 33.583336, 33.383331, 33.599998, 33.958332, -10, -10, -10, -10, -10, -10, -10, 43, -10, -10, -10, -10, -10, -10, -10, -10, -10, -10, -10, -10, -10, -10, -10, -10, -10, -10, -10, -10, 61.541668, 61.816666, 62.363094, 62.866074, 63.166664, -10, -10, -10, -10, -10, -10, -10, -10, -10, -10, -10, -10, -10, -10, -10, -10, -10, -10, -10, -10, 84, 84, 84, 84.0625, 84.3125, 84.5625, 84.8125, 85, 85, 85, 85.0625, 85.1875, 85.3125, 85.3125, 85.25, 85.205353, 85.375, 85.375, 85.330353, 85.3125, 85.238098, -10, -10
-10, -10, -10, -10, -10, -10, -10, -10, -10, -10, -10, -10, -10, -10, -10, -10, -10, -10, -10, 48, 47.916668, 47.75, 47.5625, 47.3125, 46.857147, 46.267857, 46.321426, 46.185715, 45.723213, 45.589287, 45.25, 44.9375, 44.776787, 44.5625, 44.3125, 44.0625, 43.660713, 43.4375, 43.178574, 42.854168, 42.571426, 42.3125, 42.125, 42, 41.75, 41.5, 41.25, 40.9375, 40.6875, 40.4375, 40.1875, 40, 39.875, 39.625, 39.375, 39.125, 38.875, 38.625, 38.375, 38.125, 37.75, 37.5, 37.0625, 36.8125, 36.75, 36.625, 36.553574, 35.916668, 35.464287, 35.1875, 35, 34.9375, 34.6875, 34.375, 34, 33.5625, 33.3125, 33.125, 32.8125, 32.625, 32.375, 32.125, 32.0625, 31.875, 31.625, 31.375, 31.0625, 30.6875, 30.4375, 30.1875, 30, 29.8125, 29.5625, 29.3125, 29.0625, 28.75, 28.5625, 28.3125, 28, 27.8125, 27.5, 27.25, 26.8125, 26.5, 26.25, 26, 26, 25.75, 25.5, 25.25, 24.875, 24.625, 24.375, 24.125, 23.9375, 23.6875, 23.4375, 23.1875, 22.8125, 22.5625, 22.3125, 22, 21.8125, 21.625, 21.375, 21.1875, 20.9375, 20.607143, 19.895832, 19.517857, 19.25, 19.125, 18.9375, 18.625, 18.375, 18.125, 18, 17.875, 17.625, 17.375, 17.125, 16.8125, 16.5625, 16.3125, 16, 15.848214, 15.714286, 15.455358, 14.872025, 14.473213, 14.1875, 14, 13.8125, 13.5625, 13.3125, 13.125, 12.9375, 12.6875, 12.4375, 12.1875, 12, 11.75, 11.5, 11.1875, 10.6875, 10.4375, 10.1875, 10, 9.875, 9.625, 9.375, 9.125, 8.75, 8.5, 8.25, 8, 8, 8, 8, 8, 8, 8, 8, 8, 8, 8, 8, 8, 8, 8, 8, 8, 7.9375, 7.875, 7.875, 7.875, 7.9375, 7.875, 7.8125, 7.8125, 7.8125, 8, 8.0625, 8.0625, 8.0625, 8.0625, 8.0625, 8.125, 8.1607141, 8.0625, 8.0625, 8, 8, 8, 8, 8, 8.125, 8.25, 8.2946434, 8.1875, 8.125, 8, 8.1875, 8.375, 8.5625, 8.6160717, 8.3125, 8.1875, 8.0625, 8.3214283, 8.770833, 9.0446434, 9.4732141, 9.8500004, -10, -10, -10, -10, -10, -10, -10, -10, -10, -10, -10, -10, -10, -10, -10, -10, -10, -10, -10, -10, -10, -10, -10, -10, 33.444447, 33.526188, 33.8125, 33.874996, -10, -10, -10, -10, -10, -10, -10, 42.777775, -10, -10, -10, -10, -10, -10, -10, -10, -10, -10, -10, -10, -10, -10, -10, -10, -10, -10, -10, -10, 61.375, 61.716667, 62.488094, 63.08036, 63.416664, -10, -10, -10, -10, -10, -10, -10, -10, -10, -10, -10, -10, -10, -10, -10, -10, -10, -10, -10, -10, 84, 84, 84, 84.0625, 84.3125, 84.5625, 84.8125, 85, 85, 85, 85, 85.0625, 85.125, 85.125, 85.0625, 85, 85.0625, 85.0625, 85.125, 85.1875, 85.261902, 86.041672, 86.300003, -10, -10, -10, -10, -10, -10, -10, -10, -10, -10, -10, -10, -10, -10, -10, -10, -10, -10, -10, -10, -10, -10, -10, -10, -10, -10, -10, -10, -10, -10, -10, -10, -10, -10, -10, -10, -10, -10, -10, -10, -10, -10, -10, -10, -10, -10, -10, -10, -10, -10, -10, -10, -10, -10, -10, -10, -10, 48, 47.833336, 47.6875, 47.4375, 47.1875, 46.857147, 46.3125, 46.321426, 46.150002, 45.660713, 45.526787, 45.25, 44.9375, 44.776787, 44.5, 44.25, 44, 43.705357, 43.5625, 43.303574, 43.041668, 42.741074, 42.330357, 42.133926, 42, 41.8125, 41.5625, 41.3125, 41, 40.6875, 40.4375, 40.1875, 40, 39.8125, 39.5625, 39.3125, 39, 38.8125, 38.5625, 38.3125, 38.125, 37.75, 37.5, 37.125, 36.8125, 36.75, 36.625, 36.491074, 35.979168, 35.589287, 35.3125, 35.125, 35, 34.6875, 34.4375, 34.125, 33.75, 33.5, 33.25, 32.875, 32.5625, 32.3125, 32.125, 32.035713, 31.830357, 31.571428, 31.3125, 31.125, 30.75, 30.5, 30.25, 30, 29.875, 29.625, 29.375, 29.125, 28.8125, 28.6875, 28.4375, 28.1875, 27.9375, 27.5625, 27.3125, 26.8125, 26.5, 26.25, 26, 26, 25.75, 25.5, 25.25, 24.8125, 24.5625, 24.3125, 24.0625, 23.9375, 23.6875, 23.4375, 23.1875, 22.8125, 22.5625, 22.3125, 22, 21.8125, 21.625, 21.375, 21.125, 20.875, 20.482143, 19.708332, 19.330357, 19.0625, 19, 18.875, 18.6875, 18.5, 18.25, 18.125, 17.9375, 17.625, 17.375, 17.125, 16.875, 16.625, 16.375, 16.0625, 15.785714, 15.651786, 15.392858, 14.809525, 14.473213, 14.1875, 14.0625, 13.9375, 13.6875, 13.4375, 13.1875, 12.875, 12.625, 12.375, 12.125, 11.9375, 11.6875, 11.4375, 11.125, 10.6875, 10.4375, 10.1875, 10, 9.9375, 9.6875, 9.4375, 9.1875, 8.75, 8.5, 8.25, 8, 8, 8, 8, 8, 8, 8, 8, 8, 7.9375, 7.9375, 7.9375, 7.9375, 8, 8, 8, 8, 7.9375, 7.875, 7.875, 7.875, 7.9375, 7.875, 7.8125, 7.8125, 7.8125, 8.0625, 8.1875, 8.1875, 8.1875, 8.1875, 8.1875, 8.1875, 8.1875, 8.0625, 8, 8, 8.0625, 8.0625, 8.0625, 8.0625, 8.125, 8.25, 8.2321434, 8.125, 8.0625, 7.9375, 8.125, 8.375, 8.625, 8.6785717, 8.4375, 8.25, 8.125, 8.3839283, 8.833333, 9.0446434, 9.2857141, 9.7333336, -10, -10, -10, -10, -10, -10, -10, -10, -10, -10, -10, -10, -10, -10, -10, -10, -10, -10, 27.25, 27.333332, 27.375, 28.071428, 30.166668, 31.25, 33.458336, 33.919048, 34.237499, 34, -10, -10, -10, -10, -10, -10, 41.333336, 42.783333, -10, -10, -10, -10, -10, -10, -10, -10, -10, -10, -10, -10, -10, -10, -10, -10, -10, -10, -10, -10, 61.166668, 61.733334, 62.698414, 63.202381, 63.916664, -10, -10, -10, -10, -10, -10, -10, -10, -10, -10, -10, -10, -10, -10, -10, -10, -10, -10, -10, -10, 84, 84, 84, 84.125, 84.375, 84.625, 84.875, 85, 85, 85, 85, 85.0625, 85.125, 85.125, 85.125, 85.125, 85.125, 85.0625, 85.026787, 85.125, 85.369049, 86.027779, 86.366669
-10, -10, -10, -10, -10, -10, -10, -10, -10, -10, -10, -10, -10, -10, -10, -10, -10, -10, -10, 48, 47.833336, 47.75, 47.5, 47.25, 46.982147, 46.375, 46.321426, 46.176788, 45.69643, 45.383926, 45.125, 44.75, 44.625, 44.3125, 44.125, 43.875, 43.6875, 43.625, 43.366074, 43.104168, 42.803574, 42.330357, 42.133926, 42, 41.875, 41.625, 41.375, 41.0625, 40.75, 40.491074, 40.125, 40, 39.8125, 39.625, 39.375, 39.0625, 38.8125, 38.5625, 38.3125, 38.0625, 37.6875, 37.4375, 37.125, 36.803574, 36.5625, 36.5, 36.303574, 35.979168, 35.651787, 35.375, 35.1875, 34.9375, 34.625, 34.375, 34.125, 33.875, 33.625, 33.375, 33, 32.625, 32.375, 32.1875, 31.973213, 31.767857, 31.508928, 31.25, 31.0625, 30.6875, 30.4375, 30.1875, 30, 29.9375, 29.6875, 29.4375, 29.1875, 28.8125, 28.6875, 28.4375, 28.125, 27.875, 27.5, 27.1875, 26.75, 26.4375, 26.1875, 26, 26, 25.75, 25.5, 25.25, 24.8125, 24.5625, 24.3125, 24.0625, 23.9375, 23.6875, 23.4375, 23.1875, 22.8125, 22.5625, 22.3125, 22.0625, 21.875, 21.6875, 21.4375, 21.125, 20.875, 20.482143, 19.708332, 19.392857, 19.125, 19.0625, 19, 18.8125, 18.6875, 18.4375, 18.25, 18, 17.625, 17.375, 17.125, 16.875, 16.625, 16.375, 16.125, 15.785714, 15.589286, 15.348214, 14.892857, 14.651785, 14.375, 14.1875, 14, 13.6875, 13.4375, 13.1875, 12.8125, 12.5625, 12.3125, 12, 11.8125, 11.5625, 11.3125, 11.0625, 10.75, 10.5, 10.25, 10.0625, 10, 9.75, 9.5, 9.25, 8.75, 8.5, 8.25, 8, 8, 8, 8, 8, 8, 8, 8, 8, 7.9375, 7.9375, 7.9375, 7.9375, 8, 8, 7.9375, 7.9375, 7.875, 7.8125, 7.875, 7.875, 7.9375, 7.875, 7.8125, 7.8125, 7.8125, 8.125, 8.25, 8.25, 8.25, 8.1875, 8.25, 8.25, 8.25, 8.125, 8, 8, 8.125, 8.125, 8.125, 8.125, 8.0625, 8.125, 8.1875, 8.1875, 8.125, 8.0625, 8.0625, 8.3125, 8.5625, 8.6160717, 8.4375, 8.25, 8.1875, 8.4464283, 8.833333, 9.0446434, 9.1309528, -10, -10, -10, -10, -10, -10, -10, -10, -10, -10, -10, -10, -10, -10, -10, -10, -10, -10, -10, 27.666666, 27.888887, 28.154762, 28.6, 30.682541, 31.738096, 33.440479, 34.085712, 34.612499, -10, -10, -10, -10, -10, -10, -10, 41.222225, 42.633331, 42.685715, -10, -10, -10, -10, -10, -10, -10, 50, 50, -10, -10, -10, -10, -10, -10, -10, -10, -10, -10, -10, -10, -10, -10, 64.791664, -10, -10, -10, -10, -10, -10, -10, -10, -10, -10, -10, -10, -10, -10, -10, -10, -10, -10, -10, -10, 84, 84, 84, 84.1875, 84.4375, 84.6875, 84.9375, 85, 85, 85, 85, 85.0625, 85.125, 85.125, 85.125, 85.1875, 85.125, 85, 84.901787, 84.875, 85.160721, 85.708336, 86.132141, 86.208336, 86.5, 86.666664, 86.626984, 86.083328, 85.285713, 85, -10, -10, -10, -10, -10, -10, -10, -10, -10, -10, -10, -10, -10, -10, -10, -10, -10, -10, -10, -10, -10, -10, -10, -10, -10, -10, -10, -10, -10, -10, -10, -10, -10, -10, -10, -10, -10, -10, -10, -10, -10, -10, -10, -10, -10, -10, -10, -10, -10, -10, 48, 47.833336, 47.75, 47.5, 47.25, 47.053574, 46.625, 46.508926, 46.426788, 45.991074, 45.625, 45.267857, 44.875, 44.75, 44.4375, 44.25, 44, 43.875, 43.875, 43.616074, 43.238094, 42.821426, 42.330357, 42.133926, 42, 41.9375, 41.75, 41.5, 41.1875, 40.8125, 40.491074, 40.125, 40, 39.8125, 39.625, 39.375, 39.0625, 38.75, 38.5, 38.25, 37.9375, 37.625, 37.375, 37.125, 36.803574, 36.5, 36.375, 36.125, 36, 35.705357, 35.4375, 35.1875, 34.9375, 34.625, 34.375, 34.125, 33.9375, 33.6875, 33.4375, 33.125, 32.75, 32.5, 32.25, 31.866072, 31.580357, 31.321428, 31.0625, 30.875, 30.625, 30.375, 30.1875, 30, 29.875, 29.625, 29.375, 29.1875, 28.8125, 28.6875, 28.4375, 28.125, 27.875, 27.5, 27.125, 26.6875, 26.375, 26.125, 26, 26, 25.75, 25.5, 25.25, 24.875, 24.625, 24.375, 24.125, 23.875, 23.625, 23.375, 23.125, 22.8125, 22.5625, 22.3125, 22.0625, 21.8125, 21.625, 21.375, 21.0625, 20.8125, 20.428572, 19.854166, 19.508928, 19.25, 19.125, 19, 18.875, 18.8125, 18.5625, 18.375, 18, 17.5625, 17.3125, 17.0625, 16.875, 16.625, 16.375, 16.1875, 15.910714, 15.651786, 15.4375, 15.0625, 14.767857, 14.5, 14.25, 14, 13.6875, 13.4375, 13.1875, 12.8125, 12.5625, 12.3125, 12, 11.75, 11.5, 11.25, 11, 10.75, 10.5, 10.25, 10.0625, 9.9375, 9.6875, 9.4375, 9.125, 8.6875, 8.4375, 8.1875, 8, 8, 8, 8, 8, 8, 8, 8, 8, 7.9375, 8, 8, 8, 8.0625, 8, 7.9375, 7.9375, 7.875, 7.8125, 7.875, 7.875, 7.9375, 7.9375, 7.875, 7.875, 7.875, 8.125, 8.25, 8.25, 8.25, 8.125, 8.1875, 8.1875, 8.1875, 8.125, 8, 8, 8.1875, 8.25, 8.2321434, 8.125, 8, 7.9375, 8.0625, 8.0625, 8.0625, 8.0625, 8, 8.1875, 8.375, 8.4375, 8.5, 8.3125, 8.3125, 8.4375, 8.5714283, 9.104167, 9.166667, -10, -10, -10, -10, -10, -10, -10, -10, -10, -10, -10, -10, -10, -10, -10, -10, -10, -10, -10, 28.125, 28.619047, 29.051022, 30.166664, 31.119047, 32.053574, 33.461311, 34.214287, 34.912498, -10, -10, -10, -10, -10, -10, -10, 41.333336, 42.533333, 42.846035, 43.777775, -10, -10, -10, -10, -10, -10, 50, 50, -10, -10, -10, -10, -10, -10, -10, -10, -10, -10, -10, -10, -10, -10, 65.466667, 66.5, -10, -10, -10, -10, -10, -10, -10, -10, -10, -10, -10, -10, -10, -10, -10, -10, -10, -10, -10, 84, 84, 84, 84.25, 84.5, 84.75, 85, 85, 85, 85, 85, 85, 85, 85, 85, 85.125, 85.1875, 85.0625, 84.964287, 84.9375, 85.089287, 85.4375, 85.857147
-10, -10, -10, -10, -10, -10, -10, -10, -10, -10, -10, -10, -10, -10, -10, -10, -10, -10, -10, 48, 47.916668, 47.8125, 47.5625, 47.3125, 47.125, 46.875, 46.6875, 46.464287, 46.116074, 45.625, 45.267857, 44.8125, 44.6875, 44.5, 44.3125, 44.0625, 43.696426, 43.589287, 43.375, 43.258926, 42.9375, 42.455357, 42.258926, 42.0625, 42.0625, 41.875, 41.5625, 41.3125, 40.9375, 40.616074, 40.25, 40.0625, 39.75, 39.5625, 39.3125, 39, 38.6875, 38.4375, 38.1875, 37.8125, 37.5625, 37.3125, 37.0625, 36.803574, 36.4375, 36.25, 36, 35.875, 35.6875, 35.4375, 35.1875, 34.9375, 34.625, 34.375, 34.125, 34, 33.75, 33.5, 33.25, 32.875, 32.625, 32.375, 31.928572, 31.517857, 31.258928, 30.9375, 30.6875, 30.5625, 30.3125, 30.125, 29.892857, 29.6875, 29.4375, 29.25, 29.125, 28.8125, 28.625, 28.375, 28.0625, 27.75, 27.4375, 27.0625, 26.6875, 26.4375, 26.1875, 26.0625, 26, 25.75, 25.5, 25.25, 24.875, 24.625, 24.375, 24.125, 23.875, 23.625, 23.375, 23.125, 22.8125, 22.5625, 22.3125, 22, 21.6875, 21.4375, 21.1875, 20.9375, 20.6875, 20.375, 20, 19.6875, 19.4375, 19.1875, 18.892857, 18.75, 18.6875, 18.5, 18.375, 17.928572, 17.291666, 17.080357, 16.875, 16.75, 16.5625, 16.3125, 16.0625, 15.8125, 15.5625, 15.3125, 15.0625, 14.8125, 14.5625, 14.3125, 14, 13.6875, 13.4375, 13.1875, 12.875, 12.625, 12.375, 12.0625, 11.6875, 11.4375, 11.1875, 11, 10.875, 10.625, 10.375, 10.0625, 9.8125, 9.5625, 9.3125, 9.0625, 8.6875, 8.4375, 8.1875, 8, 8, 8, 8, 8, 8, 8, 8, 8, 7.9375, 8, 8, 7.9375, 7.9375, 7.875, 7.8125, 7.875, 7.9375, 7.9375, 8, 8, 8, 8, 8, 8, 8, 8.125, 8.1875, 8.1875, 8.1875, 8.0625, 8.125, 8.125, 8.125, 8.125, 8, 8, 8.1875, 8.1875, 8.1071434, 8, 7.875, 7.9375, 8.1875, 8.1875, 8.1875, 8.125, 8, 8.125, 8.25, 8.25, 8.3125, 8.1875, 8.2589283, 8.645833, 8.8125, 9.291667, 9.333334, -10, -10, -10, -10, -10, -10, -10, -10, -10, -10, -10, -10, -10, -10, -10, -10, -10, -10, -10, 28.928572, 29.380951, 30.005102, 30.87755, 31.802721, 32.449406, 33.598213, 34.5, 35.149998, -10, -10, -10, -10, -10, -10, -10, 41.25, 42.485714, 42.920238, 44.73333, 45.599998, -10, -10, -10, -10, 50, 50, 50, -10, -10, -10, -10, -10, -10, -10, -10, -10, -10, -10, -10, -10, -10, -10, -10, -10, -10, -10, -10, -10, -10, -10, -10, -10, -10, -10, -10, -10, -10, -10, -10, -10, -10, -10, 84, 84, 84, 84.25, 84.5, 84.75, 85, 85, 85, 85, 85, 84.9375, 84.9375, 84.9375, 85, 85.1875, 85.25, 85.1875, 85.026787, 84.875, 84.946426, 85.428574, 85.815483, 85.955353, 86.291664, 86.583336, 86.661903, -10, -10, -10, -10, -10, -10, -10, -10, -10, -10, -10, -10, -10, -10, -10, -10, -10, -10, -10, -10, -10, -10, -10, -10, -10, -10, -10, -10, -10, -10, -10, -10, -10, -10, -10, -10, -10, -10, -10, -10, -10, -10, -10, -10, -10, -10, -10, -10, -10, -10, -10, -10, -10, 48, 47.916668, 47.75, 47.5, 47.25, 47.0625, 46.875, 46.75, 46.5625, 46.241074, 45.75, 45.330357, 44.875, 44.549999, 44.553574, 44.357143, 44.125, 43.651787, 43.464287, 43.25, 43.071426, 42.767857, 42.4375, 42.25, 42, 42, 41.875, 41.5625, 41.375, 41.0625, 40.678574, 40.3125, 40.125, 39.75, 39.5625, 39.3125, 39.0625, 38.8125, 38.5625, 38.3125, 37.8125, 37.5, 37.25, 37, 36.866074, 36.5625, 36.375, 36.125, 35.9375, 35.625, 35.375, 35.125, 34.875, 34.625, 34.375, 34.125, 33.9375, 33.6875, 33.4375, 33.1875, 32.875, 32.625, 32.3125, 31.892857, 31.5625, 31.3125, 31, 30.6875, 30.625, 30.375, 30.1875, 29.955357, 29.625, 29.375, 29.1875, 29.0625, 28.75, 28.5, 28.25, 27.9375, 27.6875, 27.4375, 27.0625, 26.75, 26.5, 26.25, 26.125, 26, 25.75, 25.5, 25.25, 24.875, 24.625, 24.375, 24.125, 23.875, 23.625, 23.375, 23.0625, 22.75, 22.5, 22.25, 22, 21.6875, 21.4375, 21.1875, 21, 20.75, 20.5, 20.1875, 19.8125, 19.5625, 19.25, 18.892857, 18.6875, 18.5625, 18.375, 18.25, 17.866072, 17.291666, 17.080357, 16.875, 16.75, 16.5625, 16.3125, 16.0625, 15.8125, 15.5625, 15.3125, 15.0625, 14.875, 14.625, 14.375, 14.0625, 13.6875, 13.4375, 13.1875, 12.9375, 12.6875, 12.4375, 12.125, 11.75, 11.5, 11.25, 11.0625, 10.9375, 10.6875, 10.4375, 10.125, 9.75, 9.5, 9.25, 9, 8.6875, 8.4375, 8.1875, 8, 8, 8, 8, 8, 8, 8, 8, 8, 8, 8.0625, 8.0625, 8, 7.9375, 7.875, 7.8125, 7.875, 7.9375, 7.9375, 8, 8, 8, 8, 8, 8, 8, 8.0625, 8.0625, 8.0625, 8.0625, 8, 8.0625, 8.0625, 8.0625, 8.0625, 8, 7.9375, 8, 8.0178566, 8.1279755, 8.0446434, 8, 8.0625, 8.3125, 8.3125, 8.3125, 8.25, 8.125, 8.1875, 8.25, 8.125, 8.125, 8.0625, 8.1964283, 8.645833, 8.8125, 9.291667, 9.333334, -10, -10, -10, -10, -10, -10, -10, -10, -10, -10, -10, -10, -10, -10, -10, -10, -10, -10, -10, 29.208334, 29.6875, 30.392857, 31.151787, 31.892857, 32.866074, 33.6875, 34.544643, 35.149998, -10, -10, -10, -10, 39.75, 39.833332, 40.232143, 41.42857, 42.392857, 42.907738, 44.360542, 45.511108, -10, -10, -10, -10, 49.809525, 49.9375, 50, 50.42857, 51.75, -10, -10, -10, -10, -10, -10, -10, -10, -10, -10, -10, -10, -10, -10, -10, -10, -10, -10, -10, -10, -10, -10, -10, -10, -10, -10, -10, -10, -10, -10, -10, -10, -10, 84, 84, 84, 84.25, 84.5, 84.75, 85, 85, 85, 85.0625, 85.0625, 84.9375, 84.901787, 84.875, 84.875, 85.0625, 85.125, 85.125, 85.0625, 84.9375, 84.901787, 85.303574, 85.627983
-10, -10, -10, -10, -10, -10, -10, -10, -10, -10, -10, -10, -10, -10, -10, -10, -10, -10, -10, 47.875, 47.833336, 47.625, 47.375, 47.1875, 47, 46.875, 46.75, 46.5625, 46.25, 45.875, 45.455357, 45.0625, 44.674999, 44.678574, 44.419643, 44.1875, 43.714287, 43.464287, 43.25, 43.008926, 42.705357, 42.375, 42.1875, 42, 41.892857, 41.875, 41.5, 41.375, 41.0625, 40.6875, 40.4375, 40.1875, 39.75, 39.5, 39.25, 39, 38.875, 38.6875, 38.4375, 38, 37.625, 37.3125, 37, 36.875, 36.75, 36.5625, 36.375, 36.0625, 35.75, 35.4375, 35.1875, 34.9375, 34.625, 34.375, 34.125, 33.875, 33.625, 33.375, 33.125, 32.9375, 32.6875, 32.375, 32.017857, 31.625, 31.375, 31.0625, 30.75, 30.75, 30.5, 30.3125, 30.017857, 29.625, 29.366072, 29.0625, 29, 28.6875, 28.5, 28.25, 28, 27.75, 27.5, 27.1875, 26.8125, 26.5625, 26.3125, 26.125, 26, 25.75, 25.5, 25.25, 24.8125, 24.5625, 24.3125, 24.0625, 23.875, 23.625, 23.375, 23.0625, 22.75, 22.5, 22.25, 22, 21.6875, 21.4375, 21.1875, 21, 20.75, 20.5, 20.25, 19.8125, 19.5625, 19.25, 18.830357, 18.6875, 18.5, 18.3125, 18.125, 17.741072, 17.229166, 17.017857, 16.875, 16.75, 16.5625, 16.3125, 16.0625, 15.8125, 15.5625, 15.3125, 15.0625, 14.875, 14.625, 14.375, 14.125, 13.75, 13.5, 13.25, 13, 12.75, 12.5, 12.25, 11.875, 11.625, 11.375, 11.125, 10.9375, 10.6875, 10.4375, 10.125, 9.6875, 9.4375, 9.1875, 8.9375, 8.75, 8.5, 8.25, 8.0625, 8, 8, 8, 8, 8, 8, 8, 8, 8, 8.0625, 8.0625, 8, 7.9375, 7.875, 7.875, 7.9375, 8, 8, 8, 8, 8, 8, 8, 8, 8, 8, 8, 8, 8, 8, 8, 8, 8, 8, 8, 8, 7.9375, 7.805357, 8.0654755, 7.9107141, 8.0625, 8.25, 8.6071434, 8.625, 8.5625, 8.4017859, 8.3125, 8.25, 8.25, 8, 7.9375, 7.9375, 8.1339283, 8.583333, 8.75, 9.229167, 9.25, -10, -10, -10, -10, -10, -10, -10, -10, -10, -10, -10, -10, -10, -10, -10, -10, -10, -10, 29.25, 29.583334, 29.987499, 30.619047, 31.297621, 31.952379, 33.1875, 33.930359, 34.794643, 35.200001, -10, -10, -10, -10, 39.833332, 40.126984, 40.726192, 41.785713, 42.542854, 43.202381, 44.547619, 45.383331, 46.321426, 47.071426, 47.8125, 48.669643, 49.714287, 49.875, 50, 50.42857, 51.833332, 52.400002, -10, -10, -10, -10, -10, -10, -10, -10, -10, -10, -10, -10, -10, -10, -10, -10, -10, -10, -10, -10, -10, -10, -10, -10, -10, -10, -10, -10, -10, -10, -10, 84, 84, 84, 84, 84.25, 84.5, 84.75, 85, 85, 85, 85.125, 85.125, 84.9375, 84.866074, 84.8125, 84.8125, 84.9375, 85, 85, 85, 85.125, 85.151787, 85.553574, 85.770836, 85.830353, 86.166664, 86.520836, 86.79583, -10, -10, -10, -10, -10, -10, -10, -10, -10, -10, -10, -10, -10, -10, -10, -10, -10, -10, -10, -10, -10, -10, -10, -10, -10, -10, -10, -10, -10, -10, -10, -10, -10, -10, -10, -10, -10, -10, -10, -10, -10, -10, -10, -10, -10, -10, -10, -10, -10, -10, -10, -10, -10, 47.75, 47.666668, 47.5, 47.25, 47.125, 47.0625, 46.9375, 46.8125, 46.5625, 46.1875, 45.875, 45.5, 45.125, 44.674999, 44.616074, 44.357143, 44.125, 43.589287, 43.276787, 43.0625, 42.875, 42.6875, 42.375, 42.1875, 41.9375, 41.830357, 41.8125, 41.4375, 41.375, 41.125, 40.8125, 40.5625, 40.25, 39.705357, 39.4375, 39.1875, 39, 38.875, 38.6875, 38.4375, 38.0625, 37.6875, 37.375, 37, 36.875, 36.75, 36.5625, 36.4375, 36.125, 35.875, 35.5625, 35.3125, 35, 34.625, 34.375, 34.125, 33.8125, 33.5625, 33.3125, 33, 32.8125, 32.5625, 32.3125, 32.125, 31.75, 31.5, 31.1875, 30.875, 30.875, 30.625, 30.375, 30.080357, 29.75, 29.491072, 29.1875, 29, 28.625, 28.4375, 28.125, 27.875, 27.625, 27.375, 27.1875, 26.9375, 26.75, 26.5, 26.25, 26.0625, 25.75, 25.5, 25.1875, 24.6875, 24.4375, 24.1875, 24, 23.875, 23.625, 23.375, 23.0625, 22.6875, 22.4375, 22.1875, 21.875, 21.625, 21.375, 21.125, 21, 20.75, 20.5, 20.25, 19.875, 19.625, 19.3125, 18.955357, 18.6875, 18.4375, 18.25, 17.9375, 17.678572, 17.229166, 17.017857, 16.9375, 16.75, 16.5625, 16.3125, 16.0625, 15.8125, 15.5625, 15.3125, 15.0625, 14.875, 14.625, 14.375, 14.0625, 13.6875, 13.4375, 13.1875, 13, 12.75, 12.5, 12.25, 11.9375, 11.6875, 11.4375, 11.1875, 10.9375, 10.6875, 10.4375, 10.125, 9.75, 9.5, 9.25, 9.0625, 8.875, 8.625, 8.375, 8.125, 8, 8, 8.0625, 8.0625, 8.0625, 8.0625, 8, 8, 8, 8, 8, 7.9375, 7.875, 7.875, 7.875, 7.9375, 8, 7.9375, 7.875, 7.875, 7.875, 7.9375, 8, 8, 8, 8, 8, 8, 8, 8, 8, 8, 8, 8, 8.0625, 8.125, 8.0625, 7.867857, 8.145833, 8.0357141, 8.1875, 8.5, 8.7946434, 8.8125, 8.625, 8.3660717, 8.25, 8.1875, 8.25, 8, 7.875, 7.875, 8.1339283, 8.583333, 8.7410717, 8.9375, 8.833333, -10, -10, -10, -10, -10, -10, -10, -10, -10, -10, -10, -10, -10, -10, -10, -10, -10, -10, 29.166666, 29.611113, 29.983332, -10, -10, -10, 33.25, 33.990475, 34.82143, -10, -10, -10, -10, 39.5, 39.875, 40.386906, 41.234692, 42.056545, 42.785713, 43.410713, 44.339287, 45.183334, 46.380951, 47.436508, 48.255951, 48.988098, 49.683037, 49.9375, 50.1875, 50.75, 52.017857, 52.544445, -10, -10, -10, -10, -10, -10, -10, -10, -10, -10, -10, -10, -10, -10, -10, -10, -10, -10, -10, -10, -10, -10, -10, -10, -10, -10, -10, -10, -10, -10, -10, -10, 84, 84, 84, 84.25, 84.5, 84.75, 85, 85, 85, 85.125, 85.125, 84.9375, 84.866074, 84.8125, 84.8125, 85, 84.973213, 84.901787, 85.008926, 85.270836, 85.464287, 85.866074, 85.958336
-10, -10, -10, -10, -10, -10, -10, -10, -10, -10, -10, -10, -10, -10, -10, -10, -10, -10, -10, 47.625, 47.5, 47.4375, 47.1875, 47.125, 47.125, 46.9375, 46.75, 46.5, 46.125, 45.875, 45.5625, 45.25, 44.799999, 44.616074, 44.357143, 44.125, 43.705357, 43.4375, 43.1875, 42.875, 42.625, 42.3125, 42.0625, 41.875, 41.767857, 41.8125, 41.5, 41.4375, 41.1875, 40.8125, 40.5625, 40.25, 39.767857, 39.5, 39.25, 39.0625, 38.875, 38.6875, 38.4375, 38.125, 37.75, 37.4375, 37, 36.75, 36.625, 36.4375, 36.375, 36.1875, 36, 35.6875, 35.4375, 35.0625, 34.625, 34.375, 34.125, 33.75, 33.5, 33.25, 32.875, 32.6875, 32.4375, 32.1875, 32.0625, 31.75, 31.5, 31.25, 31, 30.9375, 30.6875, 30.4375, 30.1875, 29.9375, 29.678572, 29.3125, 29, 28.5625, 28.375, 28, 27.75, 27.5, 27.25, 27.125, 26.9375, 26.75, 26.5, 26.25, 26.0625, 25.75, 25.5, 25.1875, 24.75, 24.5, 24.25, 24.0625, 23.875, 23.625, 23.375, 23.0625, 22.6875, 22.4375, 22.1875, 21.875, 21.625, 21.375, 21.125, 21, 20.75, 20.5, 20.25, 19.8125, 19.5625, 19.3125, 19.0625, 18.8125, 18.5625, 18.3125, 17.875, 17.625, 17.375, 17.125, 17.0625, 16.8125, 16.5625, 16.3125, 16.0625, 15.875, 15.625, 15.375, 15.125, 14.875, 14.625, 14.375, 14.0625, 13.6875, 13.4375, 13.1875, 13, 12.75, 12.5, 12.25, 12, 11.75, 11.5, 11.25, 10.875, 10.625, 10.375, 10.125, 9.875, 9.6875, 9.4375, 9.1875, 8.9375, 8.625, 8.375, 8.125, 8, 8, 8, 7.9375, 7.9375, 7.9375, 7.9375, 8, 8, 8, 8, 8, 8, 8, 8, 8, 8, 7.875, 7.75, 7.6875, 7.6875, 7.8125, 7.9375, 8, 8, 8, 8, 8, 8, 8, 8, 8.0625, 8.125, 8.125, 8.1875, 8.25, 8.125, 7.992857, 8.333333, 8.1607141, 8.375, 8.625, 8.7946434, 8.8125, 8.5625, 8.3035717, 8.25, 8.25, 8.3125, 8.0625, 7.9375, 7.875, 8.125, 8.375, 8.4375, 8.6875, 8.604166, -10, -10, -10, -10, -10, -10, -10, -10, -10, -10, -10, -10, -10, -10, -10, -10, -10, -10, 29.375, -10, -10, -10, -10, -10, -10, -10, -10, -10, -10, -10, -10, 39, 39.714287, 40.428577, 41.366074, 42.223213, 43, 43.5, 44.089287, 45.047619, 46.577381, 47.648811, 48.473213, 49.147324, 49.683037, 50.03125, 50.40625, 51.049107, 52.321426, 52.708332, -10, -10, -10, -10, -10, -10, -10, -10, -10, -10, -10, -10, -10, -10, -10, -10, -10, -10, -10, -10, -10, -10, -10, -10, -10, -10, -10, -10, -10, -10, -10, -10, 84, 84, 84.0625, 84.3125, 84.5625, 84.8125, 85, 85, 85, 85.125, 85.125, 85, 84.928574, 84.875, 84.875, 85, 84.973213, 84.901787, 85.071426, 85.458336, 85.6875, 85.9375, 86, 86.125, 86.3125, 86.625, 86.952377, 87.047615, 86.940468, 86.761902, 86.666664, 87, 87, 87.0625, 87.0625, 86.9375, 86.8125, 86.857147, 86.833336, 86.833336, -10, -10, -10, -10, -10, -10, -10, -10, -10, -10, -10, -10, -10, -10, -10, -10, -10, -10, -10, -10, -10, -10, -10, -10, -10, -10, -10, -10, -10, -10, -10, -10, -10, -10, -10, -10, -10, -10, -10, -10, 47.625, 47.583332, 47.5625, 47.3125, 47.25, 47.1875, 47, 46.8125, 46.5625, 46.1875, 45.9375, 45.625, 45.375, 45.0625, 44.625, 44.375, 44.125, 43.8125, 43.5625, 43.3125, 42.9375, 42.625, 42.3125, 42.0625, 41.875, 41.705357, 41.6875, 41.375, 41.3125, 41.125, 40.8125, 40.5625, 40.25, 39.830357, 39.5625, 39.3125, 39.125, 38.8125, 38.625, 38.375, 38.125, 37.8125, 37.5, 37, 36.6875, 36.5, 36.3125, 36.25, 36.0625, 36, 35.6875, 35.5, 35.1875, 34.6875, 34.4375, 34.1875, 33.75, 33.5, 33.3125, 33, 32.857143, 32.479168, 32.196426, 32, 31.6875, 31.4375, 31.1875, 31, 30.9375, 30.6875, 30.4375, 30.1875, 29.9375, 29.678572, 29.3125, 29, 28.5625, 28.375, 28, 27.6875, 27.4375, 27.1875, 27.0625, 26.875, 26.6875, 26.4375, 26.1875, 26.0625, 25.75, 25.5, 25.1875, 24.75, 24.5, 24.25, 24.0625, 23.8125, 23.5625, 23.3125, 23.0625, 22.8125, 22.5625, 22.3125, 21.875, 21.5625, 21.3125, 21, 20.875, 20.625, 20.375, 20.1875, 19.8125, 19.5625, 19.3125, 19.0625, 18.8125, 18.5625, 18.3125, 17.875, 17.625, 17.375, 17.125, 17.0625, 16.75, 16.5, 16.25, 16, 15.9375, 15.6875, 15.4375, 15.1875, 14.8125, 14.5625, 14.3125, 14, 13.6875, 13.4375, 13.1875, 13, 12.75, 12.5, 12.25, 12, 11.75, 11.5, 11.25, 10.8125, 10.5625, 10.3125, 10.0625, 9.9375, 9.75, 9.5, 9.25, 8.9375, 8.625, 8.375, 8.125, 8, 8, 7.9375, 7.8125, 7.75, 7.75, 7.8125, 7.9375, 8, 8, 8, 8, 8, 8, 8, 8, 8, 7.875, 7.6875, 7.625, 7.625, 7.75, 7.9375, 8, 8, 8, 8, 8, 8, 8, 8, 8.0625, 8.1875, 8.1875, 8.25, 8.375, 8.25, 8.1000004, 8.25, 8.0535717, 8.25, 8.5, 8.6696434, 8.6875, 8.4375, 8.1785717, 8.125, 8.125, 8.1875, 8.0625, 8, 7.9375, 8.1875, 8.375, 8.4375, 8.6875, 8.604166, 8.666667, -10, -10, -10, -10, -10, -10, -10, -10, -10, -10, -10, -10, -10, -10, -10, -10, -10, 29.5, -10, -10, -10, -10, -10, -10, -10, -10, -10, -10, -10, -10, 39, 39, 40.30476, 41.845238, 42.482143, 43.25, 43.979168, 44.482143, 45.107143, 46.691669, 47.940475, 48.821426, 49.4375, 49.982143, 50.450893, 50.90625, 51.629463, 52.621429, 52.811111, -10, -10, -10, -10, -10, -10, -10, -10, -10, -10, -10, -10, -10, -10, -10, -10, -10, -10, -10, -10, -10, -10, -10, -10, -10, -10, -10, -10, -10, -10, -10, -10, 84, 84, 84.0625, 84.3125, 84.5625, 84.8125, 85, 85, 85, 85.0625, 85.0625, 85, 84.964287, 84.9375, 84.9375, 85, 84.973213, 84.964287, 85.196426, 85.583336, 85.875, 86.0625, 86.125
-10, -10, -10, -10, -10, -10, -10, -10, -10, -10, -10, -10, -10, -10, -10, -10, -10, -10, -10, 47.75, 47.666664, 47.625, 47.375, 47.25, 47.1875, 47.0625, 46.875, 46.625, 46.3125, 46, 45.6875, 45.4375, 45.125, 44.6875, 44.4375, 44.1875, 43.875, 43.625, 43.375, 43, 42.625, 42.4375, 42.1875, 41.875, 41.705357, 41.5625, 41.3125, 41.25, 41.125, 40.8125, 40.5625, 40.25, 39.830357, 39.5625, 39.3125, 39.125, 38.75, 38.5, 38.25, 38, 37.8125, 37.5625, 37.125, 36.8125, 36.5625, 36.3125, 36.1875, 36, 35.875, 35.625, 35.4375, 35.1875, 34.75, 34.5, 34.25, 33.8125, 33.625, 33.4375, 33.125, 32.857143, 32.416668, 32.133926, 31.875, 31.625, 31.375, 31.125, 31, 30.9375, 30.6875, 30.4375, 30.1875, 29.875, 29.625, 29.375, 29, 28.625, 28.375, 28, 27.6875, 27.4375, 27.1875, 27.0625, 26.875, 26.6875, 26.4375, 26.1875, 26.0625, 25.75, 25.5, 25.1875, 24.75, 24.5, 24.25, 24.0625, 23.75, 23.5, 23.25, 23, 22.8125, 22.5625, 22.3125, 21.8125, 21.5, 21.25, 20.9375, 20.8125, 20.5625, 20.3125, 20.125, 19.8125, 19.5625, 19.3125, 19.0625, 18.8125, 18.5625, 18.3125, 17.9375, 17.75, 17.5, 17.25, 17.125, 16.8125, 16.5625, 16.3125, 16.0625, 15.9375, 15.6875, 15.4375, 15.125, 14.6875, 14.4375, 14.1875, 13.9375, 13.6875, 13.4375, 13.1875, 13, 12.75, 12.5, 12.25, 12, 11.75, 11.5, 11.25, 10.8125, 10.5625, 10.3125, 10.0625, 9.9375, 9.75, 9.5, 9.25, 8.9375, 8.625, 8.375, 8.125, 8, 8, 7.875, 7.6875, 7.5625, 7.5625, 7.6875, 7.875, 8, 8, 8, 8, 8, 8, 8, 8, 7.9375, 7.8125, 7.625, 7.5625, 7.625, 7.75, 7.9375, 8, 8, 8, 8, 8, 8, 8, 8, 8.0625, 8.1875, 8.1875, 8.25, 8.3125, 8.25, 8.25, 8.25, 8.125, 8.1875, 8.3125, 8.3125, 8.3125, 8.125, 7.9642859, 7.9375, 8, 8.0625, 8.0625, 8.0625, 8, 8.25, 8.4375, 8.5625, 8.8125, 8.770833, -10, -10, -10, -10, -10, -10, -10, -10, -10, -10, -10, -10, -10, -10, -10, -10, -10, -10, -10, -10, -10, -10, -10, -10, -10, -10, -10, -10, -10, -10, -10, -10, -10, 41.557827, 42.041668, 42.5, 43.333332, 44.055557, 44.75, 45.273811, 46.504169, 47.855442, 48.770409, 49.481251, 50.291668, 51.013393, 51.489582, 52.029766, 52.828571, -10, -10, -10, -10, -10, -10, -10, -10, -10, -10, -10, -10, -10, -10, -10, -10, -10, -10, -10, -10, -10, -10, -10, -10, -10, -10, -10, -10, -10, -10, -10, -10, -10, 84, 84, 84.0625, 84.3125, 84.5625, 84.8125, 85, 85, 85, 85, 85, 85, 85.0625, 85.125, 85.1875, 85.3125, 85.223213, 85.151787, 85.321426, 85.583336, 85.875, 86.0625, 86.125, 86.1875, 86.3125, 86.625, 86.910713, 87.0625, 87.1875, 87.125, 87.0625, 87.125, 87.125, 87.28125, 87.40625, 87.40625, 87.34375, 87.704086, 88.338432, 88.367348, 88.96032, 88.666664, 88.583336, 88.555565, -10, -10, -10, -10, -10, -10, -10, -10, -10, -10, -10, -10, -10, -10, -10, -10, -10, -10, -10, -10, -10, -10, -10, -10, -10, -10, -10, -10, -10, -10, -10, -10, -10, -10, -10, -10, 47.875, 47.833332, 47.8125, 47.5625, 47.375, 47.1875, 46.9375, 46.6875, 46.4375, 46.1875, 45.875, 45.625, 45.375, 45.125, 44.75, 44.5, 44.1875, 43.8125, 43.5625, 43.3125, 43, 42.625, 42.4375, 42.1875, 41.9375, 41.767857, 41.5625, 41.3125, 41.1875, 41, 40.6875, 40.4375, 40.1875, 39.875, 39.625, 39.375, 39.125, 38.8125, 38.5625, 38.3125, 38.0625, 37.8125, 37.5625, 37.1875, 36.875, 36.625, 36.375, 36.1875, 36, 35.8125, 35.5625, 35.375, 35.125, 34.75, 34.5, 34.25, 33.875, 33.75, 33.5625, 33.3125, 33.044643, 32.604168, 32.321426, 31.9375, 31.651787, 31.375, 31.125, 31.0625, 30.875, 30.625, 30.375, 30.125, 29.8125, 29.5625, 29.3125, 29, 28.6875, 28.4375, 28.125, 27.8125, 27.5625, 27.3125, 27.125, 26.8125, 26.5625, 26.3125, 26.0625, 25.9375, 25.6875, 25.4375, 25.1875, 24.875, 24.625, 24.375, 24.125, 23.75, 23.5, 23.25, 23, 22.8125, 22.5625, 22.3125, 21.875, 21.5625, 21.3125, 21, 20.8125, 20.5625, 20.25, 19.955357, 19.625, 19.375, 19.1875, 19, 18.875, 18.625, 18.375, 18.0625, 17.8125, 17.5625, 17.3125, 17.125, 16.875, 16.625, 16.375, 16.125, 15.875, 15.625, 15.375, 15.0625, 14.6875, 14.4375, 14.1875, 14, 13.75, 13.5, 13.25, 13, 12.75, 12.5, 12.25, 11.9375, 11.6875, 11.4375, 11.1875, 10.8125, 10.5625, 10.3125, 10.0625, 9.875, 9.6875, 9.4375, 9.1875, 8.9375, 8.625, 8.375, 8.125, 8, 8, 7.75, 7.5, 7.375, 7.375, 7.625, 7.875, 8, 8, 8, 8, 8, 8, 8, 8, 7.9375, 7.875, 7.75, 7.6875, 7.75, 7.8125, 7.9375, 8, 8, 8, 8, 8, 8, 8, 8, 8.0625, 8.1875, 8.1875, 8.1875, 8.1875, 8.0625, 8.0625, 8.0625, 8, 8.0625, 8.125, 8.125, 8.125, 8.0625, 8, 8, 8.0625, 8.0625, 8.0625, 8.0625, 8, 8.25, 8.5, 8.6875, 8.9375, 8.9375, -10, -10, -10, -10, -10, -10, -10, -10, -10, -10, -10, -10, -10, -10, -10, -10, -10, -10, -10, -10, -10, -10, -10, -10, -10, -10, -10, -10, -10, -10, -10, -10, -10, 41.986397, 42.375, -10, -10, -10, 45.125, 45.523811, 46.379169, 46.988098, 47.85268, 49.433334, 50.822918, 51.267857, 51.736111, -10, -10, -10, -10, -10, -10, -10, -10, -10, -10, -10, -10, -10, -10, -10, -10, -10, -10, -10, -10, -10, -10, -10, -10, -10, -10, -10, -10, -10, -10, -10, -10, -10, -10, 84, 84, 84, 84.125, 84.375, 84.625, 84.875, 85, 85, 85, 85, 85, 85, 85.125, 85.25, 85.375, 85.5, 85.4375, 85.4375, 85.4375, 85.5625, 85.75, 85.875, 86.0625
-10, -10, -10, -10, -10, -10, -10, -10, -10, -10, -10, -10, -10, -10, -10, -10, -10, -10, -10, 48, 47.916668, 47.875, 47.6875, 47.4375, 47.25, 46.9375, 46.625, 46.375, 46.0625, 45.75, 45.5, 45.25, 45.0625, 44.75, 44.5, 44.125, 43.75, 43.5, 43.25, 43, 42.625, 42.4375, 42.1875, 41.9375, 41.705357, 41.4375, 41.1875, 41.0625, 40.875, 40.625, 40.375, 40.125, 39.8125, 39.5625, 39.3125, 39.0625, 38.8125, 38.5625, 38.25, 37.9375, 37.6875, 37.4375, 37.125, 36.9375, 36.75, 36.5, 36.3125, 36.0625, 35.75, 35.5, 35.3125, 35.0625, 34.8125, 34.5625, 34.3125, 34, 33.875, 33.6875, 33.5, 33.169643, 32.666668, 32.383926, 31.9375, 31.714287, 31.5, 31.25, 31.1875, 31, 30.6875, 30.4375, 30.1875, 29.75, 29.5, 29.25, 29, 28.75, 28.5, 28.25, 27.875, 27.625, 27.375, 27.125, 26.75, 26.5, 26.25, 26, 25.875, 25.625, 25.375, 25.125, 24.875, 24.625, 24.375, 24.125, 23.75, 23.5, 23.25, 23, 22.875, 22.6875, 22.4375, 22.0625, 21.6875, 21.375, 21.0625, 20.8125, 20.5625, 20.1875, 19.785713, 19.5625, 19.375, 19.25, 19.125, 19, 18.6875, 18.4375, 18.1875, 17.875, 17.625, 17.375, 17.125, 16.875, 16.625, 16.375, 16.125, 15.803572, 15.4375, 15.25, 14.9375, 14.6875, 14.4375, 14.1875, 14, 13.75, 13.5, 13.25, 13, 12.75, 12.5, 12.25, 11.875, 11.625, 11.375, 11.125, 10.8125, 10.5625, 10.3125, 10.0625, 9.875, 9.625, 9.375, 9.125, 8.9375, 8.6875, 8.4375, 8.1875, 7.9375, 7.875, 7.625, 7.375, 7.3125, 7.375, 7.625, 7.875, 8, 8, 8, 8, 8, 8, 8, 8.0625, 8, 8, 8, 7.9375, 8, 7.9375, 7.9375, 7.9375, 7.9375, 8, 8, 8, 8, 8, 8, 8, 8.0625, 8.0625, 8.0625, 8.0625, 8, 8, 8, 8, 8, 8, 8, 8, 8, 8, 8, 8, 8, 8, 8, 8, 8.25, 8.5, 8.8125, 9.0625, 9.083333, -10, -10, -10, -10, -10, -10, -10, -10, -10, -10, -10, -10, -10, -10, -10, -10, -10, -10, -10, -10, -10, -10, -10, -10, -10, -10, -10, -10, -10, -10, -10, -10, -10, 42.583336, 42.958332, -10, -10, -10, 45.625, 45.746033, 46.116669, -10, -10, -10, 51.097225, -10, -10, -10, -10, -10, -10, -10, -10, -10, -10, -10, -10, -10, -10, -10, -10, -10, -10, -10, -10, -10, -10, -10, -10, -10, -10, -10, -10, -10, -10, -10, -10, -10, -10, -10, -10, 84, 84, 84, 84.125, 84.375, 84.625, 84.875, 85, 85, 85, 85, 85, 85, 85.1875, 85.375, 85.5625, 85.75, 85.6875, 85.6875, 85.5625, 85.625, 85.75, 85.8125, 86.0625, 86.0625, 86.25, 86.4375, 86.758926, 87.270836, 87.395836, 87.3125, 87.1875, 87.125, 87.25, 87.5, 87.75, 87.9375, 87.9375, 88.0625, 88.327377, 88.321426, 88.553574, 88.428574, 88.508926, 88.791672, 89.175003, -10, -10, -10, -10, -10, -10, -10, -10, -10, -10, -10, -10, -10, -10, -10, -10, -10, -10, -10, -10, -10, -10, -10, -10, -10, -10, -10, -10, -10, -10, -10, -10, -10, -10, -10, 48, 47.833336, 47.8125, 47.625, 47.375, 47.25, 46.875, 46.5625, 46.3125, 45.9375, 45.625, 45.375, 45.125, 44.9375, 44.6875, 44.4375, 44.0625, 43.75, 43.5, 43.25, 43, 42.625, 42.4375, 42.1875, 41.9375, 41.705357, 41.4375, 41.1875, 41.0625, 40.875, 40.625, 40.375, 40.125, 39.75, 39.5, 39.25, 38.9375, 38.75, 38.5, 38.1875, 37.875, 37.625, 37.375, 37.0625, 36.9375, 36.8125, 36.5625, 36.4375, 36.1875, 35.8125, 35.5625, 35.3125, 35.0625, 34.875, 34.625, 34.375, 34.125, 33.9375, 33.6875, 33.4375, 33.0625, 32.6875, 32.4375, 32.0625, 31.839287, 31.625, 31.375, 31.25, 30.9375, 30.625, 30.375, 30.125, 29.8125, 29.5625, 29.3125, 29, 28.6875, 28.4375, 28.1875, 27.875, 27.625, 27.375, 27.125, 26.75, 26.5, 26.25, 26, 25.875, 25.625, 25.375, 25.0625, 24.8125, 24.5625, 24.3125, 24.125, 23.75, 23.5, 23.25, 23, 22.8125, 22.625, 22.375, 22.0625, 21.8125, 21.5, 21.25, 21, 20.6875, 20.3125, 19.848213, 19.625, 19.5, 19.375, 19.25, 19.125, 18.75, 18.5, 18.25, 17.875, 17.625, 17.375, 17.125, 16.875, 16.625, 16.375, 16.09375, 15.741072, 15.375, 15.1875, 14.90625, 14.6875, 14.4375, 14.1875, 14, 13.75, 13.5, 13.25, 13, 12.75, 12.5, 12.25, 11.875, 11.625, 11.375, 11.125, 10.875, 10.625, 10.375, 10.125, 9.875, 9.625, 9.375, 9.125, 9, 8.75, 8.5, 8.25, 7.9375, 7.875, 7.6875, 7.5, 7.5, 7.5625, 7.75, 7.9375, 8, 8, 7.9375, 7.9375, 7.9375, 7.9375, 8, 8.0625, 8, 8, 8.0625, 8, 8.0625, 8, 7.9375, 7.9375, 7.9375, 8, 8, 8, 8, 8, 8, 8, 8, 8, 8, 8, 8, 8, 8, 8, 8, 8, 7.9375, 7.9375, 7.9375, 7.9375, 8, 8, 8, 8, 8, 8, 8.1875, 8.4375, 8.8125, 9.0982141, 9.208333, -10, -10, -10, -10, -10, -10, -10, -10, -10, -10, -10, -10, -10, -10, -10, -10, -10, -10, -10, -10, -10, -10, -10, -10, -10, -10, -10, -10, -10, -10, -10, -10, -10, 42.375004, 42.874996, -10, -10, -10, 45.833332, -10, -10, -10, -10, -10, -10, -10, -10, -10, -10, -10, -10, -10, -10, -10, -10, -10, -10, -10, -10, -10, -10, -10, -10, -10, -10, -10, -10, -10, -10, -10, -10, -10, -10, -10, -10, -10, -10, -10, -10, -10, -10, -10, 84, 84, 84.125, 84.375, 84.625, 84.875, 85, 85, 85.0625, 85.0625, 85.0625, 85.0625, 85.25, 85.5, 85.75, 86, 85.9375, 85.8125, 85.59375, 85.5625, 85.625, 85.75, 85.96875
-10, -10, -10, -10, -10, -10, -10, -10, -10, -10, -10, -10, -10, -10, -10, -10, -10, -10, -10, 47.875, 47.666668, 47.75, 47.5625, 47.375, 47.3125, 46.8125, 46.5, 46.25, 45.8125, 45.5625, 45.3125, 45.0625, 44.875, 44.625, 44.375, 44, 43.6875, 43.4375, 43.1875, 42.9375, 42.625, 42.375, 42.125, 41.9375, 41.8125, 41.5625, 41.3125, 41.125, 40.8125, 40.5625, 40.3125, 40.0625, 39.75, 39.5, 39.25, 38.875, 38.6875, 38.4375, 38.125, 37.8125, 37.5, 37.25, 36.9375, 36.875, 36.8125, 36.5625, 36.4375, 36.1875, 35.875, 35.625, 35.375, 35.125, 34.9375, 34.6875, 34.4375, 34.1875, 33.875, 33.625, 33.375, 33.0625, 32.8125, 32.5625, 32.25, 32.026787, 31.75, 31.5, 31.25, 30.8125, 30.5, 30.25, 30.0625, 29.875, 29.625, 29.375, 29.0625, 28.75, 28.5, 28.25, 27.875, 27.5625, 27.3125, 27.0625, 26.75, 26.5, 26.25, 26, 25.8125, 25.5625, 25.3125, 24.9375, 24.75, 24.5, 24.25, 24.125, 23.75, 23.5, 23.25, 23, 22.8125, 22.625, 22.375, 22.125, 21.875, 21.5625, 21.3125, 21, 20.6875, 20.3125, 19.848213, 19.625, 19.5, 19.375, 19.25, 19.125, 18.75, 18.5, 18.1875, 17.75, 17.5, 17.25, 17.0625, 16.8125, 16.5625, 16.3125, 16.03125, 15.772322, 15.40625, 15.21875, 14.9375, 14.6875, 14.4375, 14.1875, 14, 13.75, 13.5, 13.25, 13, 12.75, 12.5, 12.25, 11.875, 11.625, 11.375, 11.125, 10.8125, 10.5625, 10.3125, 10.0625, 9.9375, 9.6875, 9.4375, 9.1875, 8.9375, 8.6875, 8.4375, 8.1875, 7.9375, 7.875, 7.75, 7.625, 7.6875, 7.75, 7.875, 8, 8, 8, 7.875, 7.875, 7.875, 7.875, 8, 8.0625, 8.0625, 8.0625, 8.125, 8.0625, 8.0625, 8, 7.9375, 7.875, 7.875, 7.9375, 8, 8.0625, 8.0625, 8.0625, 8, 8, 8, 8, 8, 8, 8, 8, 8, 8, 8, 8, 7.9375, 7.9375, 7.9375, 7.9375, 8, 8, 8, 8, 8, 8, 8.125, 8.375, 8.75, 9.0357141, 9.270833, 9.583334, -10, -10, -10, -10, -10, -10, -10, -10, -10, -10, -10, -10, -10, -10, -10, -10, -10, -10, -10, -10, -10, -10, -10, -10, -10, -10, -10, -10, -10, -10, -10, -10, 42.375004, 42.999996, -10, -10, -10, -10, -10, -10, -10, -10, -10, -10, -10, -10, -10, -10, -10, -10, -10, -10, -10, -10, -10, -10, -10, -10, -10, -10, -10, -10, -10, -10, -10, -10, -10, -10, -10, -10, -10, -10, -10, -10, -10, -10, -10, -10, -10, -10, -10, 84, 84, 84.125, 84.375, 84.625, 84.875, 85, 85, 85.125, 85.1875, 85.1875, 85.1875, 85.3125, 85.5, 85.75, 86, 86, 85.875, 85.65625, 85.5625, 85.5, 85.625, 85.84375, 85.9375, 86.0625, 86.1875, 86.446426, 86.895836, 87.083336, 87.0625, 87.0625, 87, 87.125, 87.392853, 87.875, 88, 88.0625, 88, 88.0625, 88.232147, 88.375, 88.375, 88.446426, 88.645836, 88.587502, 88.369049, 88.125, 87.75, 87.833328, -10, -10, -10, -10, -10, -10, -10, -10, -10, -10, -10, -10, -10, -10, -10, -10, -10, -10, -10, -10, -10, -10, -10, -10, -10, -10, -10, -10, -10, -10, -10, 47.875, 47.666668, 47.75, 47.625, 47.4375, 47.375, 46.875, 46.5, 46.25, 45.8125, 45.5625, 45.3125, 45.0625, 44.8125, 44.625, 44.375, 44, 43.705357, 43.4375, 43.1875, 43, 42.75, 42.5, 42.25, 41.9375, 41.75, 41.5, 41.25, 41.0625, 40.75, 40.5625, 40.3125, 40.125, 39.8125, 39.5, 39.25, 38.875, 38.625, 38.375, 38.0625, 37.6875, 37.4375, 37.1875, 36.875, 36.875, 36.8125, 36.5625, 36.4375, 36.1875, 35.875, 35.625, 35.375, 35.125, 34.9375, 34.6875, 34.4375, 34.125, 33.8125, 33.5625, 33.3125, 33.0625, 32.8125, 32.5625, 32.3125, 32.125, 31.8125, 31.5625, 31.25, 30.875, 30.625, 30.375, 30.1875, 30, 29.75, 29.5, 29.125, 28.776787, 28.5, 28.25, 27.9375, 27.5625, 27.3125, 27.0625, 26.75, 26.5, 26.25, 26, 25.8125, 25.5625, 25.3125, 24.9375, 24.6875, 24.4375, 24.1875, 24.0625, 23.75, 23.5, 23.25, 23, 22.8125, 22.625, 22.375, 22.125, 21.875, 21.5625, 21.3125, 20.96875, 20.65625, 20.34375, 19.986607, 19.75, 19.625, 19.4375, 19.25, 19.0625, 18.6875, 18.4375, 18.0625, 17.625, 17.375, 17.125, 17, 16.8125, 16.5625, 16.3125, 16.03125, 15.772322, 15.40625, 15.21875, 14.875, 14.625, 14.375, 14.125, 14, 13.75, 13.5, 13.25, 13, 12.75, 12.5, 12.25, 11.9375, 11.75, 11.5625, 11.303572, 10.791667, 10.508928, 10.25, 10.0625, 10, 9.75, 9.5, 9.25, 8.9375, 8.6875, 8.4375, 8.1875, 7.9375, 7.875, 7.8125, 7.75, 7.8125, 7.875, 7.9375, 8, 8, 8, 7.875, 7.875, 7.875, 7.875, 8, 8.0625, 8.0625, 8.0625, 8.1875, 8.125, 8.125, 8.0625, 7.9375, 7.875, 7.875, 7.9375, 8, 8.0625, 8.125, 8.125, 8.0625, 8.0625, 8, 8, 8, 8, 8, 8, 8, 8, 8, 8, 7.9375, 7.9375, 7.9375, 8, 8.0625, 8.125, 8.1875, 8.1875, 8.25, 8.25, 8.3125, 8.5, 8.8125, 9.0357141, 9.333333, 9.5, 9.666667, -10, -10, -10, -10, -10, -10, -10, -10, -10, -10, -10, -10, -10, -10, -10, -10, -10, -10, -10, -10, -10, -10, -10, -10, -10, -10, -10, -10, -10, -10, -10, 42.277782, 43.041664, 43.349998, -10, -10, -10, -10, -10, -10, -10, -10, -10, -10, -10, -10, -10, -10, -10, -10, -10, -10, -10, -10, -10, -10, -10, -10, -10, -10, -10, -10, -10, -10, -10, -10, -10, -10, -10, -10, -10, -10, -10, -10, -10, -10, -10, -10, -10, -10, 84, 84, 84.125, 84.375, 84.625, 84.875, 85, 85, 85.1875, 85.3125, 85.3125, 85.3125, 85.3125, 85.4375, 85.6875, 85.9375, 86, 85.875, 85.647324, 85.425003, 85.491074, 85.616074, 85.90625
-10, -10, -10, -10, -10, -10, -10, -10, -10, -10, -10, -10, -10, -10, -10, -10, -10, -10, -10, 47.875, 47.75, 47.8125, 47.625, 47.4375, 47.25, 46.75, 46.4375, 46.1875, 45.875, 45.625, 45.375, 45.125, 44.75, 44.5625, 44.3125, 43.9375, 43.705357, 43.4375, 43.1875, 43.0625, 42.875, 42.625, 42.375, 41.9375, 41.75, 41.5, 41.25, 41.0625, 40.6875, 40.5, 40.25, 40.125, 39.8125, 39.5, 39.25, 38.875, 38.625, 38.375, 38.125, 37.8125, 37.5625, 37.3125, 37, 36.9375, 36.8125, 36.5625, 36.375, 36.125, 35.9375, 35.6875, 35.4375, 35.125, 34.8125, 34.5625, 34.3125, 34, 33.6875, 33.4375, 33.125, 32.9375, 32.75, 32.5, 32.25, 32.0625, 31.6875, 31.4375, 31.1875, 30.8125, 30.625, 30.375, 30.1875, 30, 29.75, 29.5, 29.0625, 28.714287, 28.4375, 28.1875, 28, 27.625, 27.375, 27.125, 26.8125, 26.625, 26.375, 26.125, 25.875, 25.5625, 25.3125, 24.9375, 24.625, 24.375, 24.125, 24, 23.75, 23.5, 23.25, 23, 22.75, 22.5, 22.25, 22, 21.8125, 21.5625, 21.3125, 20.96875, 20.65625, 20.40625, 20.15625, 19.875, 19.75, 19.5, 19.25, 19, 18.625, 18.375, 18, 17.625, 17.375, 17.125, 17, 16.8125, 16.5625, 16.3125, 16.03125, 15.84375, 15.59375, 15.34375, 15, 14.625, 14.375, 14.125, 14, 13.75, 13.5, 13.25, 12.9375, 12.6875, 12.4375, 12.1875, 12, 11.8125, 11.625, 11.303572, 10.729167, 10.446428, 10.1875, 10.0625, 9.9375, 9.6875, 9.4375, 9.1875, 8.875, 8.625, 8.375, 8.125, 8, 7.9375, 7.875, 7.8125, 7.8125, 7.875, 7.875, 7.875, 7.875, 7.875, 7.8125, 7.875, 7.875, 7.875, 8, 8, 8, 8, 8.0625, 8.0625, 8.0625, 8.0625, 8, 7.9375, 7.9375, 7.9375, 8, 8.0625, 8.125, 8.125, 8.0625, 8.0625, 8, 8, 8, 8, 8, 8, 8, 8, 8, 8, 7.9375, 8, 8.0625, 8.125, 8.1875, 8.1875, 8.25, 8.25, 8.375, 8.4375, 8.4375, 8.625, 8.875, 9.0357141, 9.40625, 9.583333, -10, -10, -10, -10, -10, -10, -10, -10, -10, -10, -10, -10, -10, -10, -10, -10, -10, -10, -10, -10, -10, -10, -10, -10, -10, -10, -10, -10, -10, -10, -10, -10, -10, 42.958332, 43.349998, -10, -10, -10, -10, -10, -10, -10, -10, -10, -10, -10, -10, -10, -10, -10, -10, -10, -10, -10, -10, -10, -10, -10, -10, -10, -10, -10, -10, -10, -10, -10, -10, -10, -10, -10, -10, -10, -10, -10, -10, -10, -10, -10, -10, -10, 83.666672, 83.875, 83.9375, 84.125, 84.375, 84.625, 84.875, 85, 85, 85.25, 85.4375, 85.5, 85.5, 85.375, 85.375, 85.5625, 85.8125, 85.9375, 85.875, 85.709824, 85.487503, 85.553574, 85.678574, 85.96875, 86.1875, 86.375, 86.5625, 86.625, 86.6875, 86.75, 86.8125, 86.875, 86.9375, 87, 87.205353, 87.6875, 87.875, 88.020836, 87.849998, 87.928574, 87.991074, 88.348213, 88.3125, 88.375, 88.1875, 87.9375, 88.026787, 88.0625, 87.875, 88, -10, -10, -10, -10, -10, -10, -10, -10, -10, -10, -10, -10, -10, -10, -10, -10, -10, -10, -10, -10, -10, -10, -10, -10, -10, -10, -10, -10, -10, -10, -10, 47.875, 47.75, 47.75, 47.5625, 47.375, 47.1875, 46.8125, 46.5, 46.25, 45.9375, 45.625, 45.375, 45.125, 44.8125, 44.6875, 44.4375, 44.0625, 43.767857, 43.4375, 43.1875, 43.0625, 42.9375, 42.6875, 42.4375, 42, 41.75, 41.5, 41.25, 41, 40.5625, 40.4375, 40.1875, 40.125, 39.875, 39.5, 39.25, 38.9375, 38.6875, 38.4375, 38.1875, 37.875, 37.6875, 37.4375, 37.1875, 37, 36.625, 36.4375, 36.1875, 36.0625, 35.9375, 35.6875, 35.4375, 35.125, 34.8125, 34.5625, 34.3125, 34, 33.6875, 33.4375, 33.0625, 32.8125, 32.625, 32.4375, 32.3125, 32.1875, 31.8125, 31.455357, 31.1875, 30.8125, 30.625, 30.375, 30.1875, 29.9375, 29.6875, 29.4375, 29.0625, 28.776787, 28.5, 28.25, 28.0625, 27.75, 27.5625, 27.3125, 27, 26.75, 26.4375, 26.1875, 25.8125, 25.5, 25.25, 24.9375, 24.75, 24.5, 24.25, 24.0625, 23.8125, 23.5625, 23.3125, 23.0625, 22.75, 22.5, 22.25, 21.9375, 21.6875, 21.4375, 21.1875, 20.90625, 20.65625, 20.40625, 20.15625, 19.8125, 19.625, 19.375, 19.125, 18.875, 18.5625, 18.3125, 17.9375, 17.625, 17.375, 17.125, 16.9375, 16.75, 16.5, 16.25, 16.0625, 15.90625, 15.65625, 15.40625, 15.03125, 14.625, 14.375, 14.125, 14, 13.75, 13.5, 13.25, 12.875, 12.625, 12.375, 12.125, 12, 11.8125, 11.625, 11.241072, 10.604167, 10.321428, 10.0625, 10, 9.875, 9.625, 9.375, 9.125, 8.8125, 8.5625, 8.3125, 8.0625, 8, 7.875, 7.8125, 7.75, 7.75, 7.875, 7.8125, 7.8125, 7.8125, 7.8125, 7.875, 7.875, 7.875, 7.875, 7.9375, 8, 8, 8, 8.0625, 8.0625, 8.0625, 8.125, 8.0625, 8, 8, 7.9375, 8, 8.0625, 8.125, 8.125, 8.0625, 8.0625, 8, 8, 8, 8, 8, 8.0625, 8.125, 8.1875, 8.1875, 8.125, 8.0625, 8.0625, 8.1875, 8.3125, 8.3125, 8.25, 8.25, 8.2857141, 8.4375, 8.625, 8.625, 8.8125, 9, 9.0625, 9.4375, 9.624999, -10, -10, -10, -10, -10, -10, -10, -10, -10, -10, -10, -10, -10, -10, -10, -10, -10, -10, -10, -10, -10, -10, -10, -10, -10, -10, -10, -10, -10, -10, -10, -10, -10, 43.166668, -10, -10, -10, -10, -10, -10, -10, -10, -10, -10, -10, -10, -10, -10, -10, -10, -10, -10, -10, -10, -10, -10, -10, -10, -10, -10, -10, -10, -10, -10, -10, -10, -10, -10, -10, -10, -10, -10, -10, -10, -10, -10, -10, -10, -10, 83, 83.555565, 83.8125, 84.044647, 84.3125, 84.5625, 84.75, 84.9375, 85, 85, 85.25, 85.5, 85.625, 85.6875, 85.5, 85.4375, 85.5625, 85.75, 85.9375, 85.9375, 85.803574, 85.612503, 85.678574, 85.741074, 86.0625
-10, -10, -10, -10, -10, -10, -10, -10, -10, -10, -10, -10, -10, -10, -10, -10, -10, -10, -10, 48, 47.916668, 47.875, 47.6875, 47.4375, 47.1875, 46.8125, 46.5, 46.3125, 46.035713, 45.642857, 45.383926, 45.0625, 44.8125, 44.6875, 44.4375, 44.125, 43.767857, 43.4375, 43.1875, 43.0625, 43, 42.75, 42.5, 42.0625, 41.75, 41.5, 41.25, 41, 40.5625, 40.4375, 40.1875, 40.0625, 39.8125, 39.4375, 39.1875, 39, 38.75, 38.5, 38.25, 37.9375, 37.75, 37.5, 37.25, 36.9375, 36.5, 36.3125, 36, 35.9375, 35.8125, 35.5625, 35.375, 35.0625, 34.75, 34.5, 34.25, 33.9375, 33.75, 33.5, 33.0625, 32.705357, 32.4375, 32.3125, 32.223213, 32.017857, 31.696428, 31.267857, 31.0625, 30.75, 30.5625, 30.375, 30.1875, 29.875, 29.625, 29.375, 29, 28.714287, 28.4375, 28.1875, 28.0625, 27.875, 27.75, 27.5, 27.125, 26.767857, 26.4375, 26.1875, 25.8125, 25.5, 25.25, 25, 24.875, 24.625, 24.375, 24.125, 23.875, 23.625, 23.375, 23.125, 22.8125, 22.5625, 22.3125, 21.9375, 21.6875, 21.4375, 21.1875, 21.03125, 20.78125, 20.522322, 20.072916, 19.696428, 19.5, 19.3125, 19.125, 18.875, 18.5625, 18.3125, 18, 17.6875, 17.375, 17.089287, 16.8125, 16.625, 16.4375, 16.1875, 16.0625, 15.875, 15.625, 15.375, 15, 14.625, 14.375, 14.125, 13.9375, 13.6875, 13.4375, 13.1875, 12.8125, 12.5625, 12.3125, 12.0625, 12, 11.8125, 11.625, 11.241072, 10.604167, 10.321428, 10.0625, 10, 9.875, 9.625, 9.375, 9.125, 8.8125, 8.5625, 8.3125, 8.0625, 8, 7.8125, 7.75, 7.6875, 7.6875, 7.875, 7.8125, 7.8125, 7.8125, 7.8125, 7.9375, 7.875, 7.875, 7.875, 7.875, 8, 8, 8, 8.0625, 8.0625, 8.0625, 8.125, 8.0625, 8.0625, 8.0625, 8, 8, 8, 8.0625, 8.0625, 8.0625, 8.0625, 8, 8, 8, 8, 8, 8.125, 8.1875, 8.25, 8.25, 8.125, 8.0625, 8.0625, 8.1875, 8.25, 8.25, 8.25, 8.3571434, 8.4732141, 8.6875, 8.875, 8.875, 9.0625, 9.25, 9.3125, 9.6875, 9.833333, -10, -10, -10, -10, -10, -10, -10, -10, -10, -10, -10, -10, -10, -10, -10, -10, -10, -10, -10, -10, -10, -10, -10, -10, -10, -10, -10, -10, -10, -10, -10, -10, -10, -10, -10, -10, -10, -10, -10, -10, -10, -10, -10, -10, -10, -10, -10, -10, -10, -10, -10, -10, -10, -10, -10, -10, -10, -10, -10, -10, -10, -10, -10, -10, -10, -10, -10, -10, -10, -10, -10, -10, -10, -10, -10, -10, -10, -10, -10, 82.904762, 83.479172, 83.75, 84.151787, 84.5, 84.75, 84.875, 85, 85, 85, 85.25, 85.5, 85.6875, 85.8125, 85.625, 85.5625, 85.625, 85.75, 85.9375, 85.9375, 85.866074, 85.737503, 85.866074, 85.928574, 86.1875, 86.285713, 86.267853, 86.455353, 86.4375, 86.5625, 86.6875, 86.866074, 87.074997, 86.946426, 87.017853, 87.125, 87.419647, 87.75, 87.958336, 87.849998, 87.866074, 87.758926, 87.973213, 87.9375, 88.0625, 88, 87.9375, 88, 88, 87.910713, 87.866669, -10, -10, -10, -10, -10, -10, -10, -10, -10, -10, -10, -10, -10, -10, -10, -10, -10, -10, -10, -10, -10, -10, -10, -10, -10, -10, -10, -10, -10, -10, -10, 48.125, 48, 47.9375, 47.6875, 47.375, 47.125, 46.75, 46.5, 46.3125, 45.973213, 45.580357, 45.321426, 45, 44.875, 44.75, 44.5, 44.25, 43.875, 43.5, 43.1875, 43, 42.875, 42.625, 42.4375, 42.0625, 41.75, 41.5, 41.25, 41, 40.625, 40.4375, 40.1875, 39.9375, 39.6875, 39.375, 39.125, 39, 38.8125, 38.5625, 38.3125, 38.0625, 37.8125, 37.5625, 37.3125, 36.9375, 36.5625, 36.375, 36, 35.830357, 35.6875, 35.4375, 35.3125, 35.0625, 34.75, 34.5, 34.25, 34, 33.75, 33.5, 33, 32.517857, 32.25, 32.125, 32.035713, 31.830357, 31.571428, 31.142857, 30.9375, 30.625, 30.375, 30.1875, 30.0625, 29.8125, 29.5625, 29.3125, 29, 28.75, 28.5, 28.25, 28.0625, 27.9375, 27.875, 27.625, 27.25, 26.785713, 26.4375, 26.1875, 25.8125, 25.5, 25.25, 25, 24.9375, 24.6875, 24.4375, 24.1875, 23.875, 23.625, 23.375, 23.125, 22.875, 22.625, 22.375, 21.9375, 21.625, 21.375, 21.125, 21.0625, 20.875, 20.616072, 20.166666, 19.758928, 19.5, 19.3125, 19.0625, 18.875, 18.5625, 18.3125, 18.0625, 17.5625, 17.3125, 17.026787, 16.8125, 16.625, 16.4375, 16.1875, 16.0625, 15.875, 15.625, 15.375, 15.0625, 14.75, 14.5, 14.25, 14, 13.6875, 13.4375, 13.1875, 12.75, 12.5, 12.25, 12, 12, 11.75, 11.5, 11.125, 10.6875, 10.428572, 10.0625, 10, 9.75, 9.5625, 9.3125, 9.0625, 8.75, 8.5, 8.25, 8, 8, 7.75, 7.6875, 7.625, 7.625, 7.875, 7.8125, 7.8125, 7.8125, 7.8125, 7.9375, 7.875, 7.875, 7.875, 7.875, 8, 8, 8, 8, 8, 8.0625, 8.125, 8.125, 8.125, 8.125, 8.0625, 8.0625, 8.0625, 8, 8, 8, 8, 8, 8, 8, 8, 8.0625, 8.1875, 8.25, 8.3125, 8.25, 8.125, 8.0625, 8.0625, 8.25, 8.3125, 8.375, 8.375, 8.4196434, 8.5357141, 8.6875, 8.875, 8.875, 9, 9.1875, 9.3125, 9.8035717, 10.049999, -10, -10, -10, -10, -10, -10, -10, -10, -10, -10, -10, -10, -10, -10, -10, -10, -10, -10, -10, -10, -10, -10, -10, -10, -10, -10, -10, -10, -10, -10, -10, -10, -10, -10, -10, -10, -10, -10, -10, -10, -10, -10, -10, -10, -10, -10, -10, -10, -10, -10, -10, -10, -10, -10, -10, -10, -10, -10, -10, -10, -10, -10, -10, -10, -10, -10, -10, -10, -10, -10, -10, -10, -10, -10, -10, -10, 80.357147, 80.914291, 81.666672, 82.616074, 83.145836, 83.791664, 84.33036, 84.6875, 84.875, 84.9375, 85, 85, 85, 85.25, 85.5, 85.6875, 85.875, 85.75, 85.6875, 85.75, 85.8125, 85.875, 85.8125, 85.8125, 85.8125, 85.875, 86, 86.125
-10, -10, -10, -10, -10, -10, -10, -10, -10, -10, -10, -10, -10, -10, -10, -10, -10, -10, -10, 48.125, 48, 47.9375, 47.6875, 47.375, 47.125, 46.8125, 46.5625, 46.375, 45.973213, 45.517857, 45.258926, 44.9375, 44.875, 44.8125, 44.5625, 44.375, 44, 43.5625, 43.1875, 42.875, 42.6875, 42.4375, 42.3125, 42.0625, 41.8125, 41.5625, 41.3125, 41.0625, 40.75, 40.5625, 40.3125, 39.9375, 39.625, 39.3125, 39.0625, 39, 38.875, 38.75, 38.5, 38.104168, 37.875, 37.5625, 37.375, 36.9375, 36.5, 36.3125, 35.875, 35.705357, 35.5, 35.25, 35.1875, 35.0625, 34.8125, 34.5625, 34.3125, 34.0625, 33.8125, 33.5625, 33.125, 32.580357, 32.3125, 32.1875, 32.098213, 31.892857, 31.633928, 31.205357, 30.9375, 30.5625, 30.3125, 30.125, 30, 29.875, 29.6875, 29.4375, 29.1875, 28.875, 28.5625, 28.3125, 28.0625, 27.9375, 27.875, 27.625, 27.1875, 26.660713, 26.3125, 26, 25.6875, 25.4375, 25.1875, 25, 25, 24.75, 24.5, 24.25, 23.9375, 23.75, 23.5, 23.25, 23, 22.75, 22.5, 22.0625, 21.75, 21.4375, 21.1875, 21.125, 20.875, 20.616072, 20.166666, 19.696428, 19.375, 19.1875, 18.9375, 18.8125, 18.5625, 18.3125, 18, 17.5, 17.25, 16.964287, 16.8125, 16.6875, 16.5, 16.25, 16.125, 15.8125, 15.5625, 15.3125, 15, 14.75, 14.5, 14.25, 14, 13.6875, 13.4375, 13.1875, 12.75, 12.5, 12.25, 12, 11.9375, 11.6875, 11.4375, 11.125, 10.8125, 10.616072, 10.3125, 10.1875, 9.9375, 9.6875, 9.375, 9.125, 8.75, 8.5, 8.25, 8, 8, 7.75, 7.6875, 7.6875, 7.6875, 7.9375, 7.9375, 7.9375, 7.9375, 7.9375, 8, 7.875, 7.875, 7.875, 7.875, 8, 8, 8, 8, 8.0625, 8.1875, 8.25, 8.25, 8.1875, 8.1875, 8.125, 8.125, 8.1875, 8.0625, 8.0625, 8.0625, 8, 8, 8, 8, 8, 8.0625, 8.1875, 8.25, 8.3125, 8.3125, 8.25, 8.25, 8.1875, 8.25, 8.25, 8.25, 8.3125, 8.4196434, 8.5982141, 8.75, 8.9375, 8.875, 8.875, 9, 9.125, 9.6473217, 9.9249992, -10, -10, -10, -10, -10, -10, -10, -10, -10, -10, -10, -10, -10, -10, -10, -10, -10, -10, -10, -10, -10, -10, -10, -10, -10, -10, -10, -10, -10, -10, -10, -10, -10, -10, -10, -10, -10, -10, -10, -10, -10, -10, -10, -10, -10, -10, -10, -10, -10, -10, -10, -10, -10, -10, -10, -10, -10, -10, -10, -10, -10, -10, -10, -10, -10, -10, -10, -10, -10, -10, -10, -10, -10, -10, 78.5, 79.25, 80.126984, 80.609528, 81.361115, 82.223221, 82.75, 83.523804, 84.39286, 84.767853, 84.9375, 84.9375, 84.9375, 84.9375, 85, 85.1875, 85.375, 85.5, 85.6875, 85.625, 85.6875, 85.8125, 85.875, 85.9375, 85.8125, 85.8125, 85.8125, 85.875, 86, 86.0625, 86.035713, 85.955353, 86.142853, 86.25, 86.5625, 86.8125, 86.991074, 87.262497, 87.071426, 87.142853, 87.1875, 87.383934, 87.732147, 87.928574, 88, 88, 88, 88, 88, 88.125, 88.1875, 88.1875, 88.151787, 88.1875, 88.205353, 88.116661, -10, -10, -10, -10, -10, -10, -10, -10, -10, -10, -10, -10, -10, -10, -10, -10, -10, -10, -10, -10, -10, -10, -10, -10, -10, -10, -10, -10, -10, -10, -10, 48.166668, 47.833332, 47.8125, 47.625, 47.375, 47.125, 46.8125, 46.553574, 46.25, 45.973213, 45.517857, 45.321426, 45, 44.8125, 44.6875, 44.4375, 44.25, 43.875, 43.5, 43.125, 42.75, 42.5625, 42.3125, 42.1875, 42, 41.8125, 41.5625, 41.3125, 41.125, 40.875, 40.625, 40.375, 39.875, 39.5, 39.25, 39, 39, 38.875, 38.75, 38.5, 38.104168, 37.8125, 37.5, 37.3125, 36.9375, 36.6875, 36.4375, 35.9375, 35.580357, 35.3125, 35.0625, 35.0625, 34.9375, 34.6875, 34.4375, 34.1875, 33.9375, 33.75, 33.5, 33.125, 32.642857, 32.375, 32.1875, 31.910713, 31.705357, 31.446428, 31.125, 30.9375, 30.5625, 30.3125, 30.0625, 29.875, 29.75, 29.5625, 29.375, 29.1875, 28.875, 28.5625, 28.3125, 28.0625, 27.875, 27.75, 27.5, 27.0625, 26.589285, 26.1875, 25.866072, 25.464287, 25.3125, 25.0625, 25, 25, 24.8125, 24.5625, 24.3125, 24, 23.8125, 23.5625, 23.3125, 23.0625, 22.75, 22.5, 22.125, 21.875, 21.5625, 21.3125, 21.1875, 20.875, 20.616072, 20.166666, 19.758928, 19.5, 19.3125, 19.0625, 18.875, 18.5625, 18.25, 17.875, 17.4375, 17.1875, 16.964287, 16.9375, 16.8125, 16.625, 16.375, 16.1875, 15.8125, 15.625, 15.375, 15.0625, 14.8125, 14.5, 14.25, 14, 13.6875, 13.4375, 13.1875, 12.75, 12.5, 12.25, 12, 11.875, 11.625, 11.375, 11.125, 10.9375, 10.741072, 10.4375, 10.25, 9.9375, 9.6875, 9.375, 9.125, 8.8125, 8.5625, 8.3125, 8.0625, 8, 7.8125, 7.75, 7.75, 7.75, 7.9375, 8, 8, 8, 8, 8, 7.9375, 7.9375, 7.9375, 7.9375, 8, 8, 8, 8, 8.0625, 8.25, 8.25, 8.25, 8.1875, 8.125, 8.125, 8.125, 8.25, 8.125, 8.125, 8.125, 8, 8, 8, 8, 8, 8.0625, 8.125, 8.125, 8.125, 8.125, 8.125, 8.25, 8.25, 8.25, 8.1875, 8.125, 8.25, 8.4821434, 8.6875, 8.875, 9, 8.9375, 8.875, 8.875, 9, 9.4285717, 9.6333332, -10, -10, -10, -10, -10, -10, -10, -10, -10, -10, -10, -10, -10, -10, -10, -10, -10, -10, -10, -10, -10, -10, -10, -10, -10, -10, -10, -10, -10, -10, -10, -10, -10, -10, -10, -10, -10, -10, -10, -10, -10, -10, -10, -10, -10, -10, -10, -10, -10, -10, -10, -10, -10, -10, -10, -10, -10, -10, -10, -10, -10, -10, -10, -10, -10, -10, -10, -10, -10, -10, -10, -10, -10, -10, -10, 79.333336, 80.011902, 80.457138, 81.177086, 81.723221, 82.260414, 83.086304, 84.244049, 84.705353, 84.875, 84.875, 84.875, 84.875, 85, 85.125, 85.25, 85.3125, 85.4375, 85.5, 85.625, 85.8125, 85.9375, 85.9375, 85.8125, 85.8125, 85.8125, 85.875, 86, 86
-10, -10, -10, -10, -10, -10, -10, -10, -10, -10, -10, -10, -10, -10, -10, -10, -10, -10, -10, -10, 47.583332, 47.5625, 47.4375, 47.25, 47.0625, 46.875, 46.616074, 46.25, 46, 45.5625, 45.375, 45.125, 44.8125, 44.6875, 44.4375, 44.1875, 43.875, 43.5, 43.125, 42.75, 42.5, 42.25, 42.125, 41.875, 41.6875, 41.4375, 41.1875, 41.0625, 40.875, 40.625, 40.375, 39.9375, 39.5625, 39.3125, 39.0625, 39, 38.875, 38.75, 38.5, 38.104168, 37.8125, 37.5, 37.3125, 37, 36.75, 36.4375, 35.892857, 35.455357, 35.1875, 35, 34.9375, 34.8125, 34.5625, 34.3125, 34.125, 33.875, 33.625, 33.375, 33.0625, 32.6875, 32.4375, 32.1875, 31.875, 31.8125, 31.5625, 31.3125, 31.125, 30.6875, 30.4375, 30.125, 29.8125, 29.6875, 29.5, 29.3125, 29.1875, 28.9375, 28.625, 28.375, 28.125, 27.8125, 27.625, 27.375, 26.9375, 26.571428, 26.1875, 25.866072, 25.464287, 25.3125, 25.0625, 25, 24.9375, 24.75, 24.5, 24.25, 24, 23.8125, 23.5625, 23.3125, 23, 22.6875, 22.4375, 22.125, 21.875, 21.5625, 21.3125, 21.125, 20.875, 20.625, 20.375, 20, 19.75, 19.5, 19.125, 18.767857, 18.4375, 18.125, 17.75, 17.4375, 17.3125, 17.125, 17.1875, 17, 16.6875, 16.4375, 16.1875, 15.875, 15.6875, 15.4375, 15.1875, 14.875, 14.5625, 14.3125, 14.0625, 13.75, 13.5, 13.25, 12.75, 12.5, 12.25, 12, 11.875, 11.625, 11.375, 11.125, 10.9375, 10.741072, 10.4375, 10.25, 9.875, 9.625, 9.3125, 9.0625, 8.8125, 8.5625, 8.3125, 8.0625, 8, 7.875, 7.8125, 7.8125, 7.8125, 7.9375, 8, 8, 8, 7.9375, 7.9375, 7.9375, 7.9375, 8, 8, 8, 8, 8, 8, 8.0625, 8.25, 8.25, 8.25, 8.1875, 8.125, 8.125, 8.1875, 8.3125, 8.1875, 8.1875, 8.125, 8, 8, 8, 8, 8, 8.125, 8.1875, 8.1875, 8.1875, 8.125, 8.125, 8.3125, 8.3125, 8.3125, 8.3125, 8.1875, 8.25, 8.375, 8.5625, 8.75, 8.9375, 8.9375, 8.8125, 8.6875, 8.75, 9.1160717, 9.4875002, -10, -10, -10, -10, -10, -10, -10, -10, -10, -10, -10, -10, -10, -10, -10, -10, -10, -10, -10, -10, -10, -10, -10, -10, -10, -10, -10, -10, -10, -10, -10, -10, -10, -10, -10, -10, -10, -10, -10, -10, -10, -10, -10, -10, -10, -10, -10, -10, -10, -10, -10, -10, -10, -10, -10, -10, -10, -10, -10, -10, -10, -10, -10, -10, -10, -10, -10, -10, -10, -10, -10, -10, -10, -10, -10, 79.375, 79.678566, 80.107147, 80.71875, 81.232147, 81.697914, 82.309517, 84.053574, 84.625, 84.875, 84.875, 84.875, 84.875, 85, 85.0625, 85.125, 85.125, 85.1875, 85.25, 85.375, 85.5625, 85.6875, 85.75, 85.75, 85.8125, 85.875, 86, 86.125, 86.125, 86.1875, 86.383926, 86.836311, 87.0625, 87.375, 87.3125, 87.21875, 87.1875, 87.0625, 87.125, 87.09375, 87.245537, 87.513397, 87.709824, 87.9375, 87.9375, 88, 88, 88, 88.125, 88.1875, 88.1875, 88.29464, 88.770836, 88.773804, 88.658333, -10, -10, -10, -10, -10, -10, -10, -10, -10, -10, -10, -10, -10, -10, -10, -10, -10, -10, -10, -10, -10, -10, -10, -10, -10, -10, -10, -10, -10, -10, -10, -10, 47.375, 47.333332, 47.25, 47.125, 47, 46.9375, 46.678574, 46.3125, 46.125, 45.625, 45.4375, 45.1875, 44.75, 44.5625, 44.3125, 44.0625, 43.875, 43.5625, 43.25, 42.875, 42.625, 42.375, 42.1875, 41.9375, 41.6875, 41.4375, 41.1875, 41, 40.8125, 40.5625, 40.3125, 40, 39.625, 39.375, 39.125, 39, 38.8125, 38.6875, 38.4375, 38.041668, 37.8125, 37.5, 37.3125, 37, 36.6875, 36.3125, 35.723213, 35.375, 35.125, 35.0625, 34.973213, 34.705357, 34.446426, 34.1875, 34.0625, 33.8125, 33.5625, 33.3125, 33.0625, 32.8125, 32.5625, 32.3125, 32, 31.9375, 31.6875, 31.4375, 31.25, 30.75, 30.5, 30.1875, 29.8125, 29.625, 29.4375, 29.25, 29.0625, 28.8125, 28.5, 28.25, 28, 27.6875, 27.4375, 27.1875, 26.8125, 26.553572, 26.1875, 25.866072, 25.464287, 25.3125, 25.0625, 24.9375, 24.8125, 24.625, 24.375, 24.1875, 24, 23.8125, 23.5625, 23.3125, 22.9375, 22.625, 22.375, 22.125, 21.9375, 21.625, 21.375, 21.125, 20.8125, 20.5625, 20.3125, 19.9375, 19.75, 19.5, 19.1875, 18.767857, 18.4375, 18.125, 17.75, 17.6875, 17.5, 17.3125, 17.25, 16.9375, 16.625, 16.375, 16.125, 15.875, 15.6875, 15.4375, 15.125, 14.75, 14.4375, 14.1875, 14, 13.75, 13.5, 13.25, 12.8125, 12.5625, 12.3125, 12.0625, 11.8125, 11.5625, 11.3125, 11.0625, 10.875, 10.6875, 10.5, 10.25, 10, 9.6875, 9.375, 9.125, 8.8125, 8.5625, 8.3125, 8.0625, 8, 7.9375, 7.8125, 7.75, 7.75, 7.8125, 7.875, 7.875, 7.8125, 7.6875, 7.6875, 7.75, 7.8125, 7.9375, 8, 8, 8, 8, 8.03125, 8.15625, 8.28125, 8.28125, 8.25, 8.125, 8.0625, 8.0625, 8.1875, 8.3125, 8.25, 8.25, 8.125, 8, 8, 8, 8, 8, 8.125, 8.1875, 8.1875, 8.1875, 8.125, 8.125, 8.3125, 8.3125, 8.25, 8.1875, 8, 8, 8.125, 8.375, 8.625, 8.875, 8.9375, 8.875, 8.6875, 8.7142859, 9.1160717, 9.4375, -10, -10, -10, -10, -10, -10, -10, -10, -10, -10, -10, -10, -10, -10, -10, -10, -10, -10, -10, -10, -10, -10, -10, -10, -10, -10, -10, -10, -10, -10, -10, -10, -10, -10, -10, -10, -10, -10, -10, -10, -10, -10, -10, -10, -10, -10, -10, -10, -10, -10, -10, -10, -10, -10, -10, -10, -10, -10, -10, -10, -10, -10, -10, -10, -10, -10, -10, -10, -10, -10, -10, -10, -10, -10, -10, 79.5, 79.75, 80.107147, 80.65625, 81.044647, 81.388397, 82.333328, 83.910713, 84.5625, 84.875, 84.875, 84.875, 84.875, 85, 85, 85, 85, 85, 85.0625, 85.1875, 85.3125, 85.4375, 85.5625, 85.6875, 85.8125, 85.9375, 86.0625, 86.125, 86.125
-10, -10, -10, -10, -10, -10, -10, -10, -10, -10, -10, -10, -10, -10, -10, -10, -10, -10, -10, -10, 47.291668, 47.208332, 47.125, 47, 46.875, 46.8125, 46.553574, 46.25, 46.0625, 45.625, 45.4375, 45.1875, 44.75, 44.5, 44.25, 44, 43.875, 43.625, 43.375, 43.0625, 42.75, 42.5, 42.25, 41.9375, 41.6875, 41.4375, 41.1875, 40.9375, 40.6875, 40.4375, 40.1875, 40, 39.6875, 39.4375, 39.1875, 39, 38.75, 38.5, 38.25, 38, 37.8125, 37.5625, 37.3125, 37.0625, 36.8125, 36.428574, 35.702381, 35.321426, 35.0625, 35.0625, 34.973213, 34.642857, 34.383926, 34.125, 34, 33.8125, 33.5625, 33.3125, 33.0625, 32.875, 32.625, 32.375, 32.0625, 31.9375, 31.6875, 31.4375, 31.25, 30.75, 30.5, 30.1875, 29.8125, 29.625, 29.375, 29.1875, 29, 28.75, 28.5, 28.25, 28, 27.6875, 27.4375, 27.125, 26.75, 26.491072, 26.125, 25.866072, 25.464287, 25.3125, 25.0625, 24.9375, 24.8125, 24.6875, 24.4375, 24.25, 24.0625, 23.75, 23.5, 23.1875, 22.75, 22.4375, 22.1875, 22, 21.875, 21.625, 21.375, 21.125, 20.8125, 20.5625, 20.3125, 19.9375, 19.75, 19.5, 19.1875, 18.767857, 18.4375, 18.125, 17.8125, 17.75, 17.5625, 17.375, 17.25, 16.9375, 16.6875, 16.4375, 16.1875, 15.9375, 15.6875, 15.4375, 15.125, 14.75, 14.4375, 14.1875, 13.9375, 13.6875, 13.4375, 13.1875, 12.875, 12.625, 12.375, 12.125, 11.875, 11.625, 11.375, 11.125, 10.8125, 10.5625, 10.3125, 10.0625, 9.875, 9.6875, 9.4375, 9.1875, 8.9375, 8.625, 8.375, 8.125, 8, 7.9375, 7.8125, 7.6875, 7.625, 7.6875, 7.75, 7.8125, 7.8125, 7.625, 7.5625, 7.625, 7.6875, 7.875, 8, 8, 8, 8, 8.09375, 8.1294641, 8.1205359, 8.21875, 8.1607141, 8.125, 8.0625, 8, 8.125, 8.1875, 8.1875, 8.1875, 8.0625, 8, 8, 8, 8, 8, 8.125, 8.1875, 8.1875, 8.1875, 8.125, 8.0625, 8.1875, 8.1875, 8.1875, 8.25, 8.1875, 8.1875, 8.1875, 8.375, 8.5, 8.6875, 8.8125, 8.75, 8.5, 8.5535717, 8.9160719, 9.4722223, -10, -10, -10, -10, -10, -10, -10, -10, -10, -10, -10, -10, -10, -10, -10, -10, -10, -10, -10, -10, -10, -10, -10, -10, -10, -10, -10, -10, -10, -10, -10, -10, -10, -10, -10, -10, -10, -10, -10, -10, -10, -10, -10, -10, -10, -10, -10, -10, -10, -10, -10, -10, -10, -10, -10, -10, -10, -10, -10, -10, -10, -10, -10, -10, -10, -10, -10, -10, -10, -10, -10, -10, -10, -10, -10, 79.5, 79.958328, 80.273811, 80.71875, 81.0625, 81.388397, 82.333328, 83.910713, 84.5625, 84.9375, 85, 85, 85, 85.0625, 85, 85, 85, 85, 85.0625, 85.125, 85.1875, 85.25, 85.375, 85.5625, 85.75, 85.9375, 86, 86.0625, 86.0625, 86.1875, 86.549103, 87.180061, 87.40625, 87.65625, 87.4375, 87.34375, 87.25, 87.125, 87.1875, 87.15625, 87.21875, 87.370537, 87.638397, 87.9375, 88, 88.0625, 87.9375, 87.875, 87.875, 87.875, 88, 88.205353, 88.708336, 88.604164, 88.491661, -10, -10, -10, -10, -10, -10, -10, -10, -10, -10, -10, -10, -10, -10, -10, -10, -10, -10, -10, -10, -10, -10, -10, -10, -10, -10, -10, -10, -10, -10, -10, 47.75, 47.541668, 47.395832, 47.25, 47, 46.75, 46.625, 46.375, 46.1875, 45.9375, 45.625, 45.375, 45.1875, 44.8125, 44.5, 44.25, 44, 43.875, 43.625, 43.375, 43.125, 42.8125, 42.5625, 42.3125, 42, 41.8125, 41.5625, 41.3125, 41, 40.625, 40.375, 40.125, 39.9375, 39.6875, 39.4375, 39.1875, 39, 38.75, 38.5, 38.25, 38, 37.8125, 37.5625, 37.3125, 37.0625, 36.875, 36.553574, 35.889881, 35.508926, 35.142857, 35.125, 34.973213, 34.705357, 34.446426, 34.1875, 34.0625, 33.875, 33.6875, 33.428574, 32.979168, 32.830357, 32.5625, 32.375, 32.1875, 32, 31.8125, 31.5625, 31.3125, 30.8125, 30.5, 30.25, 29.9375, 29.75, 29.5, 29.25, 28.9375, 28.6875, 28.4375, 28.1875, 28, 27.6875, 27.5, 27.1875, 26.75, 26.455357, 26.1875, 25.875, 25.625, 25.375, 25.125, 24.9375, 24.8125, 24.625, 24.375, 24.1875, 24, 23.6875, 23.4375, 23.0625, 22.625, 22.375, 22.125, 22, 21.8125, 21.5625, 21.3125, 21, 20.75, 20.5, 20.25, 19.9375, 19.6875, 19.4375, 19.125, 18.767857, 18.5, 18.25, 18, 17.8125, 17.625, 17.375, 17.1875, 16.9375, 16.6875, 16.4375, 16.1875, 15.9375, 15.625, 15.375, 15.0625, 14.6875, 14.4375, 14.1875, 13.875, 13.625, 13.375, 13.125, 12.9375, 12.6875, 12.4375, 12.1875, 11.9375, 11.6875, 11.4375, 11.1875, 10.75, 10.5, 10.25, 10, 9.9375, 9.75, 9.5, 9.25, 8.9375, 8.625, 8.375, 8.125, 8, 7.875, 7.6875, 7.5, 7.4375, 7.5625, 7.6875, 7.8125, 7.8125, 7.625, 7.5, 7.5, 7.5, 7.6875, 7.875, 7.9375, 8, 8, 8.09375, 8.1294641, 8.0580359, 8.15625, 8.0982141, 8.0625, 8.0625, 8, 8.125, 8.125, 8.125, 8.125, 8, 8, 8, 8, 8, 8, 8.125, 8.1875, 8.1875, 8.1875, 8.1875, 8.1875, 8.25, 8.25, 8.25, 8.3125, 8.3125, 8.3125, 8.1875, 8.3125, 8.375, 8.5, 8.625, 8.5, 8.3125, 8.4285717, 8.8119049, -10, -10, -10, -10, -10, -10, -10, -10, -10, -10, -10, -10, -10, -10, -10, -10, -10, -10, -10, -10, -10, -10, -10, -10, -10, -10, -10, -10, -10, -10, -10, -10, -10, -10, -10, -10, -10, -10, -10, -10, -10, -10, -10, -10, -10, -10, -10, -10, -10, -10, -10, -10, -10, -10, -10, -10, -10, -10, -10, -10, -10, -10, -10, -10, -10, -10, -10, -10, -10, -10, -10, -10, -10, -10, -10, -10, -10, 80.166664, 80.440475, 80.8125, 81.25, 81.723221, 82.761902, 84.059525, 84.625, 85, 85.0625, 85.0625, 85.0625, 85.0625, 85, 85, 85, 85, 85, 85.0625, 85.125, 85.1875, 85.375, 85.5625, 85.75, 85.9375, 86, 86.0625, 86.0625
-10, -10, -10, -10, -10, -10, -10, -10, -10, -10, -10, -10, -10, -10, -10, -10, -10, -10, -10, 47.666668, 47.625, 47.458332, 47.25, 46.9375, 46.625, 46.4375, 46.1875, 46.0625, 45.875, 45.6875, 45.428574, 45.174999, 44.982143, 44.5625, 44.330357, 44.0625, 43.875, 43.625, 43.375, 43.0625, 42.8125, 42.5625, 42.375, 42.1875, 42, 41.75, 41.4375, 41.0625, 40.625, 40.375, 40.125, 39.875, 39.625, 39.375, 39.125, 39, 38.75, 38.5, 38.25, 37.9375, 37.75, 37.5, 37.25, 37.0625, 36.875, 36.616074, 36.059525, 35.696426, 35.330357, 35.25, 35.098213, 34.767857, 34.508926, 34.25, 34.0625, 33.9375, 33.8125, 33.616074, 33.157738, 32.892857, 32.6875, 32.4375, 32.3125, 32, 31.75, 31.5, 31.25, 30.875, 30.5625, 30.3125, 30.0625, 29.875, 29.625, 29.375, 28.9375, 28.5625, 28.3125, 28.0625, 27.9375, 27.6875, 27.5, 27.1875, 26.75, 26.455357, 26.1875, 25.8125, 25.5625, 25.3125, 25.0625, 24.9375, 24.875, 24.6875, 24.4375, 24.25, 23.9375, 23.625, 23.375, 23, 22.625, 22.375, 22.125, 22, 21.875, 21.625, 21.375, 21.0625, 20.6875, 20.4375, 20.1875, 19.875, 19.625, 19.375, 19.125, 18.875, 18.625, 18.375, 18.125, 17.875, 17.6875, 17.5, 17.25, 17.0625, 16.8125, 16.5, 16.25, 15.9375, 15.625, 15.375, 15.0625, 14.75, 14.5, 14.25, 13.875, 13.5625, 13.3125, 13.0625, 13, 12.75, 12.5, 12.25, 11.9375, 11.6875, 11.4375, 11.1875, 10.75, 10.5, 10.25, 10, 10, 9.8125, 9.5625, 9.3125, 9, 8.6875, 8.4375, 8.1875, 7.9375, 7.8125, 7.625, 7.4375, 7.4375, 7.5625, 7.6875, 7.875, 7.875, 7.75, 7.625, 7.5625, 7.5625, 7.75, 7.9107141, 7.9017859, 8, 8, 8.21875, 8.2544641, 8.1830359, 8.21875, 8.0982141, 8, 8, 7.875, 7.9375, 8, 8, 8.0625, 8, 8, 8, 8, 8, 8, 8.0625, 8.0625, 8.0625, 8.0625, 8.1875, 8.25, 8.25, 8.25, 8.25, 8.375, 8.4375, 8.4375, 8.25, 8.25, 8.3125, 8.4375, 8.5, 8.4375, 8.25, 8.3839283, 8.8619051, -10, -10, -10, -10, -10, -10, -10, -10, -10, -10, -10, -10, -10, -10, -10, -10, -10, -10, -10, -10, -10, -10, -10, -10, -10, -10, -10, -10, -10, -10, -10, -10, -10, -10, -10, -10, -10, -10, -10, -10, -10, -10, -10, -10, -10, -10, -10, -10, -10, -10, -10, -10, -10, -10, -10, -10, -10, -10, -10, -10, -10, -10, -10, -10, -10, -10, -10, -10, -10, -10, -10, -10, -10, -10, -10, -10, -10, 80.166664, 80.64048, 80.973213, 81.46875, 81.941971, 82.976196, 84.14286, 84.660713, 85, 85.0625, 85.0625, 85.0625, 85.0625, 85, 85, 85, 85.0625, 85.125, 85.25, 85.375, 85.4375, 85.5625, 85.6875, 85.875, 86.0625, 86.125, 86.1875, 86.1875, 86.3125, 86.602676, 86.96875, 87.21875, 87.34375, 87.25, 87.25, 87.25, 87.3125, 87.5, 87.5625, 87.589287, 87.75, 87.857147, 88.0625, 88.0625, 88.0625, 88, 88, 88, 88, 88.0625, 88.151787, 88.357147, 88.491074, 88.583328, -10, -10, -10, -10, -10, -10, -10, -10, -10, -10, -10, -10, -10, -10, -10, -10, -10, -10, -10, -10, -10, -10, -10, -10, -10, -10, -10, -10, -10, -10, -10, 47.625, 47.583332, 47.4375, 47.1875, 46.9375, 46.5625, 46.3125, 46.0625, 45.9375, 45.8125, 45.75, 45.553574, 45.299999, 45.169643, 44.6875, 44.392857, 44.0625, 43.75, 43.5, 43.25, 42.9375, 42.75, 42.5, 42.3125, 42.1875, 42, 41.75, 41.4375, 41.0625, 40.625, 40.375, 40.125, 39.8125, 39.5625, 39.3125, 39.0625, 39, 38.75, 38.5, 38.25, 37.875, 37.6875, 37.4375, 37.1875, 37.0625, 36.875, 36.678574, 36.229168, 35.821426, 35.455357, 35.25, 35.0625, 34.8125, 34.5625, 34.3125, 34.0625, 34, 33.9375, 33.803574, 33.345238, 32.955357, 32.642857, 32.375, 32.25, 31.9375, 31.6875, 31.4375, 31.1875, 30.875, 30.5625, 30.3125, 30.0625, 29.9375, 29.6875, 29.4375, 29, 28.5625, 28.3125, 28.0625, 28, 27.8125, 27.625, 27.3125, 26.8125, 26.455357, 26.125, 25.6875, 25.4375, 25.1875, 25, 25, 25, 24.875, 24.625, 24.375, 24.0625, 23.6875, 23.4375, 23.0625, 22.6875, 22.4375, 22.1875, 22.0625, 21.9375, 21.6875, 21.4375, 21.125, 20.6875, 20.4375, 20.125, 19.8125, 19.5625, 19.3125, 19.125, 18.875, 18.625, 18.375, 18.125, 17.875, 17.6875, 17.5, 17.25, 17.125, 16.875, 16.5625, 16.3125, 15.9375, 15.625, 15.375, 15.125, 14.8125, 14.5625, 14.3125, 13.8125, 13.5, 13.25, 13, 13, 12.75, 12.5, 12.25, 12, 11.75, 11.5, 11.25, 10.75, 10.5, 10.25, 10, 10, 9.8125, 9.5625, 9.3125, 9.0625, 8.8125, 8.5625, 8.25, 7.8303571, 7.6875, 7.5625, 7.5, 7.5, 7.5625, 7.625, 7.75, 7.8125, 7.75, 7.6875, 7.625, 7.625, 7.8125, 7.9107141, 7.9017859, 8, 8, 8.1875, 8.1607141, 8.0267859, 8, 7.8482141, 7.75, 7.8125, 7.8125, 7.9821429, 8.125, 8.1160717, 8, 8, 7.9375, 8, 8, 8, 8, 8, 8, 8, 8, 8.25, 8.3125, 8.3125, 8.375, 8.375, 8.5625, 8.6875, 8.625, 8.375, 8.25, 8.25, 8.375, 8.4375, 8.5, 8.375, 8.4821424, 8.8083334, -10, -10, -10, -10, -10, -10, -10, -10, -10, -10, -10, -10, -10, -10, -10, -10, -10, -10, -10, -10, -10, -10, -10, -10, -10, -10, -10, -10, -10, -10, -10, -10, -10, -10, -10, -10, -10, -10, -10, -10, -10, -10, -10, -10, -10, -10, -10, -10, -10, -10, -10, -10, -10, -10, -10, -10, -10, -10, -10, -10, -10, -10, -10, -10, -10, -10, -10, -10, -10, -10, -10, -10, -10, -10, -10, -10, -10, 79.833328, 80.430954, 80.642853, 81.552086, 82.168159, 83.184525, 84.285713, 84.723213, 85, 85.0625, 85.0625, 85.0625, 85.0625, 85, 85, 85, 85.0625, 85.1875, 85.375, 85.5625, 85.6875, 85.8125, 85.875, 86.0625, 86.25, 86.3125, 86.375, 86.3125
-10, -10, -10, -10, -10, -10, -10, -10, -10, -10, -10, -10, -10, -10, -10, -10, -10, -10, -10, 47.75, 47.583332, 47.4375, 47.25, 47, 46.75, 46.5, 46.1875, 46, 45.875, 45.875, 45.678574, 45.424999, 45.294643, 44.8125, 44.517857, 44.125, 43.642857, 43.375, 43.125, 42.875, 42.75, 42.5, 42.3125, 42.1875, 42, 41.75, 41.4375, 41.125, 40.75, 40.5, 40.25, 39.875, 39.5625, 39.3125, 39.0625, 38.9375, 38.6875, 38.4375, 38.1875, 37.875, 37.625, 37.375, 37.1875, 37.0625, 36.875, 36.642857, 36.375, 36, 35.642857, 35.375, 35.125, 34.8125, 34.5625, 34.3125, 34.0625, 34, 33.928574, 33.678574, 33.220238, 32.767857, 32.517857, 32.25, 32.1875, 31.875, 31.625, 31.3125, 31, 30.75, 30.4375, 30.25, 30.0625, 29.875, 29.625, 29.375, 28.9375, 28.625, 28.375, 28.125, 28.0625, 27.8125, 27.625, 27.375, 26.9375, 26.580357, 26.25, 25.75, 25.4375, 25.1875, 25, 25, 25, 24.875, 24.625, 24.375, 24.0625, 23.6875, 23.375, 22.955357, 22.625, 22.375, 22.1875, 22.0625, 21.9375, 21.6875, 21.4375, 21.125, 20.6875, 20.4375, 20.125, 19.875, 19.625, 19.375, 19.1875, 18.875, 18.625, 18.375, 18.125, 17.875, 17.6875, 17.5, 17.25, 17.125, 16.8125, 16.5, 16.1875, 15.8125, 15.5625, 15.3125, 15.125, 14.875, 14.6875, 14.4375, 13.9375, 13.517857, 13.25, 13, 13, 12.75, 12.5, 12.25, 11.9375, 11.6875, 11.4375, 11.1875, 10.8125, 10.5625, 10.3125, 10.0625, 10, 9.75, 9.5, 9.25, 9, 8.8125, 8.5625, 8.25, 7.8303571, 7.75, 7.625, 7.5625, 7.5625, 7.5, 7.5, 7.5625, 7.5625, 7.6339283, 7.895833, 7.8571429, 7.875, 7.9375, 7.9107141, 7.9017859, 8, 7.9375, 8.0625, 8.0625, 8, 7.875, 7.6875, 7.5, 7.5625, 7.6875, 7.9821429, 8.25, 8.2410717, 8.125, 8.0625, 7.9375, 8, 8, 8, 8, 8, 8.0625, 8.0625, 8.0625, 8.25, 8.25, 8.25, 8.3125, 8.3125, 8.4375, 8.5, 8.5, 8.375, 8.3125, 8.4375, 8.5625, 8.625, 8.75, 8.6875, 8.7678566, 9.0708332, 9.333333, -10, -10, -10, -10, -10, -10, -10, -10, -10, -10, -10, -10, -10, -10, -10, -10, -10, -10, -10, -10, -10, -10, -10, -10, -10, -10, -10, -10, -10, -10, -10, -10, -10, -10, -10, -10, -10, -10, -10, -10, -10, -10, -10, -10, -10, -10, -10, -10, -10, -10, -10, -10, -10, -10, -10, -10, -10, -10, -10, -10, -10, -10, -10, -10, -10, -10, -10, -10, -10, -10, -10, -10, -10, -10, -10, 78.5, 79.770828, 80.090469, 80.611603, 81.583336, 82.409233, 83.505951, 84.392853, 84.767853, 85, 85, 85, 85, 85, 85, 85, 85, 85.0625, 85.25, 85.5, 85.75, 85.9375, 86, 86.0625, 86.1875, 86.3125, 86.4375, 86.4375, 86.375, 86.5, 86.625, 86.8125, 87.0625, 87.1875, 87.3125, 87.5, 87.535713, 87.455353, 87.446426, 87.375, 87.526787, 87.723213, 87.8125, 88, 88, 88, 88.0625, 88.0625, 88.0625, 88.0625, 88, 88.214287, 88.419647, 88.678574, 88.833328, -10, -10, -10, -10, -10, -10, -10, -10, -10, -10, -10, -10, -10, -10, -10, -10, -10, -10, -10, -10, -10, -10, -10, -10, -10, -10, -10, -10, -10, -10, -10, 47.75, 47.583332, 47.5, 47.3125, 47.125, 46.9375, 46.6875, 46.375, 46.1875, 46.0625, 45.9375, 45.741074, 45.424999, 45.232143, 44.8125, 44.517857, 44.125, 43.642857, 43.375, 43.125, 42.875, 42.8125, 42.625, 42.5, 42.375, 42.125, 41.8125, 41.4375, 41.125, 40.8125, 40.5625, 40.3125, 39.9375, 39.5625, 39.3125, 39.0625, 38.875, 38.625, 38.375, 38.125, 37.875, 37.625, 37.375, 37.1875, 37, 36.75, 36.455357, 36.1875, 35.9375, 35.6875, 35.4375, 35.1875, 34.75, 34.5, 34.25, 33.9375, 33.9375, 33.785713, 33.392857, 33.125, 32.625, 32.455357, 32.1875, 32.125, 31.8125, 31.5, 31.125, 30.75, 30.5625, 30.3125, 30.1875, 30.0625, 29.875, 29.625, 29.3125, 28.875, 28.625, 28.375, 28.1875, 28.125, 27.8125, 27.5625, 27.3125, 26.875, 26.5625, 26.25, 25.8125, 25.5, 25.25, 25.0625, 25, 25, 24.875, 24.625, 24.375, 24, 23.625, 23.25, 22.830357, 22.5625, 22.3125, 22.1875, 22.0625, 21.9375, 21.6875, 21.4375, 21.1875, 20.8125, 20.5625, 20.25, 19.9375, 19.625, 19.375, 19.1875, 18.875, 18.625, 18.375, 18.125, 17.9375, 17.75, 17.5625, 17.3125, 17.0625, 16.75, 16.4375, 16.125, 15.75, 15.5, 15.25, 15.0625, 14.9375, 14.75, 14.5, 14, 13.517857, 13.25, 13, 13, 12.8125, 12.625, 12.366072, 11.854167, 11.571428, 11.3125, 11.125, 10.875, 10.625, 10.375, 10.125, 10, 9.75, 9.5, 9.25, 9, 8.8125, 8.5625, 8.25, 7.8303571, 7.75, 7.625, 7.625, 7.6875, 7.625, 7.4553571, 7.3839283, 7.375, 7.5089283, 7.958333, 8.1071434, 8.1875, 8.25, 8.0982141, 7.9642859, 8, 7.9375, 8.0625, 8.0625, 8, 7.8125, 7.625, 7.375, 7.4553571, 7.7946429, 8.0892859, 8.375, 8.3035717, 8.125, 8.0625, 7.9375, 8, 8, 8, 8, 8, 8.125, 8.125, 8.125, 8.25, 8.125, 8.125, 8.1875, 8.1875, 8.3125, 8.375, 8.375, 8.375, 8.375, 8.5625, 8.75, 8.8125, 9, 8.9375, 8.9553566, 9.2375002, 9.333333, -10, -10, -10, -10, -10, -10, -10, -10, -10, -10, -10, -10, -10, -10, -10, -10, 36.5, -10, -10, -10, -10, -10, -10, -10, -10, -10, -10, -10, -10, -10, -10, -10, -10, -10, -10, -10, -10, -10, -10, -10, -10, -10, -10, -10, -10, -10, -10, -10, -10, -10, -10, -10, -10, -10, -10, -10, -10, -10, -10, -10, -10, -10, -10, -10, -10, -10, -10, -10, -10, -10, -10, -10, -10, -10, -10, -10, 79.645828, 80.112503, 80.694946, 81.574409, 82.230659, 83.184525, 84.285721, 84.723213, 85, 85, 85, 85, 85, 85, 85, 85, 85.125, 85.375, 85.625, 85.875, 86, 86, 86.0625, 86.1875, 86.3125, 86.4375, 86.46875, 86.46875
-10, -10, -10, -10, -10, -10, -10, -10, -10, -10, -10, -10, -10, -10, -10, -10, -10, -10, -10, 47.75, 47.583332, 47.5, 47.3125, 47.1875, 47.0625, 46.875, 46.5625, 46.3125, 46.0625, 45.8125, 45.625, 45.3125, 45, 44.6875, 44.375, 44.0625, 43.642857, 43.375, 43.125, 42.9375, 42.8125, 42.625, 42.4375, 42.25, 42.0625, 41.8125, 41.5, 41.1875, 40.875, 40.5625, 40.3125, 40, 39.625, 39.375, 39.125, 38.875, 38.625, 38.375, 38.125, 37.9375, 37.75, 37.5, 37.3125, 37.0625, 36.75, 36.455357, 36.1875, 35.9375, 35.6875, 35.4375, 35.1875, 34.75, 34.5, 34.25, 33.875, 33.875, 33.660713, 33.205357, 32.946426, 32.5, 32.267857, 32.0625, 32, 31.8125, 31.5625, 31.1875, 30.75, 30.4375, 30.1875, 30.0625, 30, 29.8125, 29.5625, 29.1875, 28.75, 28.5625, 28.25, 28.0625, 28, 27.75, 27.5625, 27.375, 26.9375, 26.5625, 26.25, 25.875, 25.625, 25.375, 25.1875, 25.0625, 24.9375, 24.8125, 24.5625, 24.3125, 24, 23.625, 23.25, 22.767857, 22.5, 22.25, 22.125, 22, 21.8125, 21.5625, 21.3125, 21.0625, 20.8125, 20.625, 20.3125, 20.0625, 19.75, 19.428572, 19.041666, 18.696428, 18.5, 18.3125, 18.125, 17.9375, 17.625, 17.375, 17.125, 16.9375, 16.6875, 16.4375, 16.125, 15.75, 15.5, 15.25, 15.0625, 14.9375, 14.75, 14.5, 14.0625, 13.611607, 13.34375, 13.09375, 13.03125, 12.875, 12.678572, 12.303572, 11.791667, 11.446428, 11.25, 11.0625, 10.9375, 10.6875, 10.4375, 10.1875, 10, 9.8125, 9.625, 9.375, 9.125, 8.875, 8.5625, 8.25, 7.8928571, 7.8125, 7.6875, 7.6875, 7.6875, 7.625, 7.3928571, 7.2589283, 7.25, 7.3839283, 7.895833, 8.1071434, 8.1875, 8.1875, 8.0625, 8, 8, 7.9375, 7.9375, 7.9375, 7.875, 7.75, 7.625, 7.375, 7.4553571, 7.8571429, 8.1517859, 8.375, 8.3035717, 8.0625, 8, 7.9375, 7.9375, 7.9375, 7.9375, 7.9375, 8, 8.125, 8.125, 8.125, 8.1875, 8.0625, 8.0625, 8.125, 8.125, 8.1875, 8.25, 8.25, 8.3125, 8.4375, 8.625, 8.8125, 9, 9.125, 9.125, 9.125, 9.1875, -10, -10, -10, -10, -10, -10, -10, -10, -10, -10, -10, -10, -10, -10, -10, 37, 37, 36.666668, -10, -10, -10, -10, -10, -10, -10, -10, -10, -10, -10, -10, -10, -10, -10, -10, -10, -10, -10, -10, -10, -10, -10, -10, -10, -10, -10, -10, -10, -10, -10, -10, -10, -10, -10, -10, -10, -10, -10, -10, -10, -10, -10, -10, -10, -10, -10, -10, -10, -10, -10, -10, -10, -10, -10, -10, -10, -10, -10, 79.791664, 80.079163, 80.596725, 81.418159, 82.043159, 82.970238, 84.202377, 84.6875, 85, 85, 85, 85, 85.0625, 85.125, 85.125, 85.125, 85.1875, 85.375, 85.625, 85.8125, 85.875, 85.875, 85.9375, 86.0625, 86.1875, 86.25, 86.15625, 86.183037, 86.450897, 86.647324, 86.9375, 87.125, 87.25, 87.5, 87.660713, 87.473213, 87.047623, 86.915176, 86.78125, 86.96875, 87.25, 87.375, 87.5, 87.625, 87.6875, 87.6875, 87.625, 87.705353, 87.895836, 88.053574, 88.4375, 88.5625, 88.75, 88.916664, -10, -10, -10, -10, -10, -10, -10, -10, -10, -10, -10, -10, -10, -10, -10, -10, -10, -10, -10, -10, -10, -10, -10, -10, -10, -10, -10, -10, -10, -10, -10, 47.75, 47.583332, 47.5, 47.3125, 47.1875, 47.125, 47, 46.6875, 46.375, 45.955357, 45.625, 45.375, 45.0625, 44.75, 44.5, 44.25, 44.0625, 43.705357, 43.4375, 43.1875, 43, 42.8125, 42.625, 42.4375, 42.1875, 42.125, 41.9375, 41.625, 41.375, 41.0625, 40.6875, 40.4375, 40.125, 39.75, 39.5, 39.25, 38.9375, 38.6875, 38.4375, 38.1875, 38, 37.8125, 37.5625, 37.375, 37.125, 36.75, 36.455357, 36.1875, 35.9375, 35.6875, 35.4375, 35.1875, 34.75, 34.5, 34.25, 33.875, 33.875, 33.598213, 33.080357, 32.758926, 32.3125, 32.1875, 32, 32, 31.803572, 31.4375, 31.125, 30.6875, 30.5, 30.25, 30.125, 30.0625, 29.75, 29.5, 29.125, 28.6875, 28.5625, 28.25, 28.0625, 28, 27.75, 27.5625, 27.375, 26.9375, 26.5625, 26.3125, 26, 25.8125, 25.5625, 25.3125, 25.125, 24.875, 24.6875, 24.4375, 24.1875, 23.875, 23.5625, 23.1875, 22.642857, 22.375, 22.125, 22, 21.9375, 21.75, 21.5, 21.1875, 20.875, 20.6875, 20.5, 20.3125, 20.1875, 19.875, 19.553572, 19.104166, 18.758928, 18.5625, 18.375, 18.1875, 17.9375, 17.625, 17.375, 17.125, 16.875, 16.625, 16.375, 16.0625, 15.8125, 15.5625, 15.3125, 15.125, 15, 14.8125, 14.5625, 14.1875, 13.674107, 13.40625, 13.15625, 13.03125, 12.90625, 12.709822, 12.334822, 11.822917, 11.446428, 11.25, 11.0625, 11, 10.75, 10.5, 10.25, 10, 9.875, 9.6875, 9.4375, 9.125, 8.75, 8.4375, 8.1875, 8, 7.9375, 7.75, 7.6875, 7.625, 7.625, 7.5178571, 7.4464283, 7.5, 7.6339283, 8.083333, 8.2321434, 8.25, 8.1875, 8.0625, 8, 8, 7.9375, 7.9375, 7.9375, 7.9375, 7.875, 7.8125, 7.625, 7.6428571, 7.8571429, 8.0089283, 8.2946434, 8.2321434, 8.1875, 8.0625, 8, 7.9375, 7.9375, 7.9375, 7.9375, 8.0625, 8.1875, 8.25, 8.3125, 8.3125, 8.1875, 8.125, 8.0625, 8, 8, 8.0625, 8.1875, 8.3125, 8.5625, 8.75, 8.875, 9.125, 9.125, 9.125, 9.125, 9.0625, -10, -10, -10, -10, -10, -10, -10, -10, -10, -10, -10, -10, -10, -10, -10, -10, 37, 36.75, -10, -10, -10, -10, -10, -10, -10, -10, -10, -10, -10, -10, -10, -10, -10, -10, -10, -10, -10, -10, -10, -10, -10, -10, -10, -10, -10, -10, -10, -10, -10, -10, -10, -10, -10, -10, -10, -10, -10, -10, -10, -10, -10, -10, -10, -10, -10, -10, -10, -10, -10, -10, -10, -10, -10, -10, -10, -10, -10, 80.1875, 80.558334, 80.989586, 81.513397, 82.180275, 82.666664, 84.211304, 84.6875, 85, 85, 85, 85, 85.0625, 85.125, 85.125, 85.125, 85.125, 85.25, 85.4375, 85.5625, 85.625, 85.625, 85.6875, 85.75, 85.8125, 85.883926, 86.052086, 86.23661
-10, -10, -10, -10, -10, -10, -10, -10, -10, -10, -10, -10, -10, -10, -10, -10, -10, -10, -10, 47.625, 47.499996, 47.4375, 47.1875, 47.125, 47.0625, 46.9375, 46.6875, 46.3125, 45.830357, 45.5, 45.25, 44.9375, 44.580357, 44.3125, 44.0625, 44, 43.8125, 43.5625, 43.3125, 43.0625, 42.875, 42.6875, 42.5, 42.25, 42.125, 41.9375, 41.625, 41.375, 41.0625, 40.6875, 40.375, 39.955357, 39.625, 39.375, 39.1875, 39, 38.8125, 38.553574, 38.104168, 37.821426, 37.625, 37.4375, 37.25, 37, 36.625, 36.375, 36.125, 35.875, 35.625, 35.375, 35.125, 34.75, 34.5, 34.25, 33.875, 33.875, 33.669643, 33.330357, 33, 32.416668, 32.196426, 32, 32, 31.794643, 31.3125, 31.125, 30.6875, 30.5625, 30.3125, 30.125, 30.0625, 29.8125, 29.5625, 29.1875, 28.75, 28.5, 28.1875, 28, 27.9375, 27.8125, 27.625, 27.4375, 26.9375, 26.5, 26.25, 26, 25.875, 25.625, 25.375, 25.125, 24.8125, 24.5625, 24.3125, 24.0625, 23.75, 23.5, 23.1875, 22.75, 22.5625, 22.3125, 22.125, 21.9375, 21.625, 21.375, 21.0625, 20.75, 20.625, 20.4375, 20.1875, 20.0625, 19.75, 19.428572, 19.041666, 18.821428, 18.625, 18.4375, 18.25, 18, 17.6875, 17.4375, 17.1875, 16.8125, 16.5625, 16.3125, 16.0625, 15.9375, 15.6875, 15.4375, 15.1875, 14.9375, 14.6875, 14.4375, 14.125, 13.71875, 13.46875, 13.21875, 13.03125, 12.90625, 12.709822, 12.334822, 11.822917, 11.446428, 11.25, 11.0625, 11, 10.75, 10.5, 10.25, 10, 9.875, 9.6875, 9.4375, 9.09375, 8.71875, 8.40625, 8.15625, 8, 7.9375, 7.8125, 7.875, 7.875, 7.9375, 7.8303571, 7.6964283, 7.75, 7.8125, 8, 8.125, 8.125, 8.125, 8.0625, 8, 8, 8, 8, 8, 8, 7.9375, 7.9375, 7.75, 7.7053571, 7.7946429, 7.7589288, 7.9910717, 8.0571432, 7.9553571, 8, 7.9375, 7.9375, 7.9375, 7.9375, 7.9375, 8.0625, 8.125, 8.1875, 8.3125, 8.375, 8.3125, 8.25, 8.125, 8, 8, 8.125, 8.1875, 8.25, 8.4375, 8.5, 8.6875, 9, 9.0625, 9.125, 9.125, 9, -10, -10, -10, -10, -10, -10, -10, -10, -10, -10, -10, -10, -10, -10, -10, -10, 37, 37, -10, -10, -10, -10, -10, -10, -10, -10, -10, -10, -10, -10, -10, -10, -10, -10, -10, -10, -10, -10, -10, -10, -10, -10, -10, -10, -10, -10, -10, -10, -10, -10, -10, -10, -10, -10, -10, -10, -10, -10, -10, -10, -10, -10, -10, -10, -10, -10, -10, -10, -10, -10, -10, -10, -10, -10, -10, -10, -10, 80.208336, 80.558334, 81.020836, 81.544647, 82.51786, 83.333328, 84.282738, 84.75, 85, 85, 85, 85, 85.0625, 85.125, 85.125, 85.125, 85.0625, 85.151787, 85.419647, 85.482147, 85.5625, 85.5625, 85.5625, 85.6875, 85.75, 85.821426, 86.052086, 86.29911, 86.638397, 86.834824, 87, 87, 87.026787, 87.357147, 87.526787, 87.4375, 87.145836, 86.90625, 86.84375, 86.84375, 87.125, 87.125, 87.1875, 87.375, 87.4375, 87.464287, 87.5625, 87.642853, 88.020836, 88.241074, 88.5, 88.625, 88.6875, 88.75, -10, -10, -10, -10, -10, -10, -10, -10, -10, -10, -10, -10, -10, -10, -10, -10, -10, -10, -10, -10, -10, -10, -10, -10, -10, -10, -10, -10, -10, -10, -10, 47.5, 47.416664, 47.3125, 47.0625, 47.0625, 46.9375, 46.8125, 46.625, 46.223213, 45.660713, 45.383926, 45.125, 44.8125, 44.517857, 44.25, 44, 44, 43.875, 43.625, 43.375, 43.125, 42.875, 42.625, 42.375, 42.125, 42, 41.9375, 41.75, 41.491074, 40.979168, 40.571426, 40.25, 39.892857, 39.5625, 39.241074, 39.09375, 38.96875, 38.830357, 38.491074, 38.041668, 37.633926, 37.5, 37.3125, 37.1875, 37.0625, 36.75, 36.5, 36.25, 35.9375, 35.6875, 35.4375, 35.1875, 34.875, 34.5625, 34.3125, 34, 33.9375, 33.8125, 33.625, 33.241074, 32.559525, 32.258926, 32, 32, 31.794643, 31.3125, 31.1875, 30.75, 30.625, 30.375, 30.125, 30.0625, 29.8125, 29.5625, 29.25, 28.875, 28.5625, 28.25, 28, 27.875, 27.8125, 27.625, 27.375, 26.875, 26.4375, 26.1875, 26, 25.9375, 25.678572, 25.3125, 25.125, 24.75, 24.625, 24.375, 24.0625, 23.705357, 23.4375, 23.1875, 22.875, 22.75, 22.5, 22.25, 22, 21.625, 21.375, 21.0625, 20.75, 20.5625, 20.375, 20.125, 20, 19.8125, 19.491072, 19.104166, 18.883928, 18.625, 18.4375, 18.1875, 17.875, 17.5625, 17.3125, 17.0625, 16.75, 16.5, 16.25, 16.0625, 16, 15.75, 15.5, 15.25, 14.875, 14.625, 14.375, 14.125, 13.78125, 13.53125, 13.28125, 12.96875, 12.78125, 12.522322, 12.15625, 11.90625, 11.5625, 11.375, 11.125, 11, 10.75, 10.5, 10.25, 10, 9.875, 9.6875, 9.4375, 9.03125, 8.7455359, 8.53125, 8.1651783, 8.0714283, 8, 7.9375, 8, 7.9375, 7.9375, 7.9375, 7.875, 7.9375, 7.9375, 8, 8, 8, 8, 8, 8, 8, 8, 8, 8, 8, 8.0625, 8.125, 8, 7.9375, 7.75, 7.6517859, 7.8660717, 7.9946432, 7.9553571, 8.0625, 8.0625, 8.0625, 8.0625, 8, 7.9375, 8.0625, 8.0625, 8.125, 8.25, 8.375, 8.375, 8.3125, 8.1875, 8, 8, 8.125, 8.25, 8.25, 8.375, 8.375, 8.5, 8.9375, 9.0982141, 9.1875, 9.1875, 9, -10, -10, -10, -10, -10, -10, -10, -10, -10, -10, -10, -10, -10, -10, -10, -10, 37, 37, -10, -10, -10, -10, -10, -10, -10, -10, -10, -10, -10, -10, -10, -10, -10, -10, -10, -10, -10, -10, -10, -10, -10, -10, -10, -10, -10, -10, -10, -10, -10, -10, -10, -10, -10, -10, -10, -10, -10, -10, -10, -10, -10, -10, -10, -10, -10, -10, -10, -10, -10, -10, -10, -10, -10, -10, -10, -10, 80, 80.291672, 80.645828, 81.044647, 81.616074, 82.53125, 83.700676, 84.389885, 84.794647, 85, 85, 85, 85, 85.0625, 85.125, 85.125, 85.1875, 85.0625, 85.089287, 85.375, 85.648804, 85.770836, 85.705353, 85.633926, 85.6875, 85.75, 85.821426, 86.020836, 86.26786
