-10, -10, -10, -10, -10, -10, -10, -10, -10, -10, -10, -10, -10, -10, -10, -10, -10, -10, -10, -10, -10, -10, -10, -10, -10, -10, -10, -10, 100.70834, 100.16667, 99.821426, 99.041664, 98.589287, 98.053574, 96.854164, 95.916664, 95.339279, 94.866074, 93.958328, 93.285706, 92.705353, 92.15625, 91.566956, 91.09375, 90.40625, 89.875, 89.357147, 88.288689, 87.541672, 86.9375, 86.25, 85.678574, 85.125, 84.455353, 83.523804, 82.984688, 82.197914, 81.700897, 81.107147, 80.142853, 78.916672, 78.267853, 77.541664, 77.04464, 76.050591, 75.145828, 74.70536, 74.205353, 73.130951, 72.446426, 71.529762, 70.91964, 70.080353, 69.410713, 68.434525, 67.785713, 67.258926, 66.375, 65.666664, 64.912498, 64.1875, 63.419643, 62.383926, 61.5, 60.619045, 60.125, 59.354168, 58.785713, 57.663689, 57.116074, 56.491074, 55.538689, 54.601189, 53.892857, 53.1875, 52.130951, 51.5, 51.0625, 50.300594, 49.154762, 48.130951, 47.267857, 46.589287, 45.857143, 44.955357, 44.16964, 43.267857, 42.5, 41.892857, 41.1875, 40.696426, 39.809525, 39.125, 38.315475, 37.226189, 36.333332, 35.523811, 34.857143, 33.726192, 33.026787, 32.208332, 31.297619, 30.642857, 29.9375, 29.107143, 28.172619, 27.526787, 26.717262, 25.979166, 25.258928, 24.455357, 23.598213, 22.857141, 22.208334, 21.279762, 20.620535, 20.236607, 19.977678, 20.527779, 20.654762, 20.821428, 20.958334, 20.988096, 20.642857, 20.5625, 20.4375, 20.4375, 20.4375, 20.642857, 20.785715, 20.785715, 21.125, 20.795918, 20.628571, 20.948978, 20.633928, 21, 20.821428, 20.785715, 20.678572, 20.607143, 20.571428, 20.607143, 20.535715, 20.357143, 20.198978, 20.035715, 20, 20.117346, 20.464285, 20.571428, 20.714285, 20.5625, 20.473213, 20.581633, 20.765306, 20.801022, 20.857143, 20.698978, 20.797619, 20.791666, 20.779762, 20.333332, 20.418367, 20.458334, 20.616072, 20.6875, 20.5625, 20.5625, 20.785715, 20.765306, 20.885714, 21.042858, 20.892857, 20.696428, 20.651787, 20.857143, 20.928572, 21.214285, 21.285715, 21.229593, 21.194445, 21.15, -10, -10, -10, -10, -10, -10, -10, -10, -10, -10, -10, -10, -10, -10, 33.875, 33.833336, 33.875, 34.125, 34.419643, 34.9375, 35.482143, 35.75, 36.214287, 36.8125, 36.875, 37.441963, 37.979164, 38.419643, 38.8125, 38.71875, 38.910713, 39.244644, 39.452381, 40.022324, 40.169643, 40.401787, 40.732143, 41.022324, 41.36607, 41.770832, 41.928574, 42, 42.125, 42.3125, 42.5625, 42.8125, 42.875, 43, 43.125, 43.25, 43.46875, 43.625, 43.6875, 43.919643, 44.09375, 44.359375, 44.71875, 45, 45.107143, 45.151043, 45.397324, 45.459824, 45.553574, 45.3125, 45.25, 45.25, 45.665176, 46.351189, 46.616074, 46.90625, 46.96875, 47.09375, 47.34375, 47.59375, 47.65625, 47.75, 47.71875, 47.870537, 48.205357, 48.22768, 48.446426, 48.520832, 48.5, 48.803574, 49.3125, 49.616074, 49.875, 50, 50.0625, 50.375, 50.625, 50.6875, 50.75, 50.71875, 50.852676, 51.364582, 51.78125, 51.864582, 51.507439, 52.052578, 52.566467, 52.714287, 52.6875, 52.75, 52.875, 53.035713, 53.25, 53.3125, 53.5, 53.6875, 53.8125, 54.040176, 54.15625, 54.241074, 54.473213, 54.5, 54.5, 54.3125, 53.90625, 53.5625, 53.071426, 52.474998, 52.366074, 52, 52.0625, 52, 23, 23.111113, 23.25, 23.333334, 23.583334, 23.75, 23.889881, 24.0625, 24.125, 24.25, 24.5, 24.6875, 24.875, 24.916666, -10, -10, -10, -10, -10, -10, -10, -10, -10, -10, -10, -10, -10, -10, -10, -10, -10, -10, -10, -10, -10, -10, -10, -10, -10, -10, -10, -10, -10, -10, -10, -10, -10, -10, -10, -10, -10, -10, -10, -10, -10, -10, -10, -10, -10, -10, -10, -10, -10, -10, -10, -10, -10, -10, -10, -10, -10, -10, -10, -10, -10, 100.83334, 100.15476, 99.714279, 99.041664, 98.625, 98.205353, 97.383926, 96.148804, 95.517853, 94.928574, 93.958328, 93.35714, 92.875, 92.303574, 91.577377, 91.0625, 90.4375, 90.04464, 89.607147, 88.610123, 87.75, 87.035713, 86.375, 85.848213, 85.303574, 84.476189, 83.77977, 83.214287, 82.229164, 81.6875, 81.107147, 79.988091, 78.958336, 78.113098, 77.497025, 76.98214, 76.014877, 75.104172, 74.633926, 74.142853, 73.285713, 72.333336, 71.342262, 70.73214, 69.9375, 69.223213, 68.339287, 67.678574, 67.196426, 66.3125, 65.8125, 64.983932, 64.133926, 63.348213, 62.633926, 61.776787, 60.815475, 60.196426, 59.363094, 58.85714, 57.770832, 57.178574, 56.5625, 55.538689, 54.672619, 54, 53.25, 52.35714, 51.67857, 51.125, 50.193451, 49.142857, 48.095238, 47.339287, 46.767857, 45.797619, 44.88393, 44.10714, 43.258926, 42.511906, 41.708332, 41.080357, 40.607143, 39.702381, 39.0625, 38.160713, 37.083332, 36.145832, 35.42857, 34.75, 33.809525, 32.860119, 32.002975, 31.047619, 30.392857, 29.6875, 28.785715, 27.815475, 27.267857, 26.6875, 25.8125, 25.0625, 24.205357, 23.410713, 22.785713, 22.25, 21.696428, 21.245535, 21.188776, 21.188776, 21.452381, 21.632654, 21.918367, 22.071428, 22.061224, 21.821428, 21.785715, 21.4375, 21.214285, 21.25, 21.321428, 21.6875, 21.892857, 21.964285, 21.87245, 21.75, 21.979593, 21.928572, 21.642857, 21.520407, 21.705357, 21.571428, 21.4375, 21.4375, 21.4375, 21.3125, 21.1875, 21.158163, 21, 21.168367, 20.96875, 21.3125, 21.375, 21.5, 21.714285, 21.642857, 21.637756, 21.801022, 21.765306, 21.785715, 21.632654, 21.346939, 21.40476, 21.525511, 21.261904, 21.413265, 21.428572, 21.571428, 21.714285, 21.678572, 21.75, 21.821428, 21.846939, 21.942858, 21.7875, 21.857143, 21.571428, 21.673471, 21.836735, 21.989796, 21.9375, 22.0625, 21.836735, 22.166666, 22.104763, -10, -10, -10, -10, -10, -10, -10, -10, -10, -10, -10, -10, -10, -10, 33.875, 33.75, 33.8125, 34, 34.401787, 34.9375, 35.482143, 35.75, 36.276787, 36.875, 36.9375, 37.513393, 38.054165, 38.336311, 38.866074, 38.772324, 39.04464, 39.640476, 39.880951, 40.366074, 40.450893, 40.683037, 41.075893, 41.459824, 41.794643, 41.9375, 42.03125, 42.125, 42.3125, 42.5625, 42.78125, 42.9375, 43, 43.125, 43.3125, 43.5, 43.65625, 43.75, 43.875, 44.107143, 44.34375, 44.671875, 44.96875, 45.25, 45.357143, 45.401043, 45.575897, 45.376488, 45.446426, 45.241074, 45.541668, 45.616074, 45.915176, 46.467262, 46.709824, 46.9375, 47.125, 47.34375, 47.665176, 47.875, 47.875, 47.875, 47.888393, 48.120537, 48.513393, 48.638393, 48.75, 48.625, 48.59375, 48.803574, 49.375, 49.741074, 50, 50.1875, 50.3125, 50.5625, 50.75, 50.75, 50.821426, 51.052082, 51.147324, 51.614582, 51.96875, 52.083332, 51.882439, 52.159225, 52.575893, 52.727676, 52.8125, 52.8125, 52.9375, 53.160713, 53.3125
-10, -10, -10, -10, -10, -10, -10, -10, -10, -10, -10, -10, -10, -10, -10, -10, -10, -10, -10, -10, -10, -10, -10, -10, -10, -10, -10, 101.5, 100.95834, 100.14285, 99.607147, 99.1875, 98.875, 98.580353, 97.741074, 96.315475, 95.589279, 94.9375, 94.104164, 93.5, 93.0625, 92.482147, 91.619049, 91.0625, 90.5, 90.214287, 89.785721, 88.630951, 87.785721, 87.035713, 86.4375, 85.955353, 85.303574, 84.297615, 83.422623, 82.883926, 82.241074, 81.639877, 81.107147, 79.979164, 79.142853, 78.255951, 77.392853, 76.946426, 76.348213, 75.559525, 74.964287, 74.357147, 73.297615, 72.458336, 71.705353, 70.869049, 70.035713, 69.223213, 68.410713, 67.785713, 67.050591, 66.133926, 65.571426, 64.946426, 64.205353, 63.431545, 62.613098, 61.892853, 60.922619, 60.092262, 59.175594, 58.598213, 57.705357, 57.241074, 56.678574, 55.550591, 54.708332, 54, 53.25, 52.428574, 51.785713, 51.1875, 50.202381, 49.142857, 48.095238, 47.410713, 46.875, 45.630951, 44.75, 44.035713, 43.25, 42.440475, 41.601189, 41.017857, 40.526787, 39.523811, 38.892857, 38.077381, 37.041668, 36.145832, 35.357143, 34.440475, 33.82143, 32.958332, 32.181549, 31.005953, 30.321428, 29.625, 28.776785, 27.815475, 27.267857, 26.616072, 25.705357, 25, 24.258928, 23.517857, 22.910713, 22.5, 22.125, 21.986607, 22.142857, 22.219387, 22.382441, 22.761906, 23.053572, 23.125, 23.173471, 22.928572, 22.785715, 22.75, 23.083334, 23.166666, 23.208334, 22.928572, 22.75, 22.8125, 22.732143, 22.857143, 22.732143, 22.892857, 23.25, 23.214285, 22.841837, 22.724489, 22.642857, 22.642857, 22.375, 22.1875, 22.285715, 21.879463, 21.78125, 22.293367, 22.183035, 22.571428, 22.642857, 22.571428, 22.571428, 22.464285, 22.408163, 22.419643, 22.419643, 22.5, 22.544643, 22.091837, 22.180271, 22.204082, 21.90476, 22.267857, 22.540815, 22.484694, 22.591837, 22.5, 22.642857, 22.857143, 22.794643, 22.875, 22.8125, 22.6875, 22.642857, 22.551022, 22.482143, 22.616072, 22.875, 23.0625, 23.5, 23.0625, 23.010416, -10, -10, -10, -10, -10, -10, -10, -10, -10, -10, -10, -10, -10, -10, 33.75, 33.583332, 33.6875, 33.875, 34.383926, 34.875, 35.419643, 35.75, 36.3125, 36.8125, 36.9375, 37.357143, 37.866665, 38.095238, 38.761906, 38.794643, 39.178574, 39.973808, 40.202381, 40.678574, 40.638393, 40.897324, 41.370537, 41.700893, 41.9375, 42.0625, 42.15625, 42.25, 42.5, 42.6875, 42.84375, 43.0625, 43.1875, 43.375, 43.625, 43.75, 43.8125, 43.9375, 44.125, 44.419643, 44.6875, 44.921875, 45.09375, 45.375, 45.482143, 45.588543, 45.763397, 45.532738, 45.633926, 45.491074, 45.916668, 46.084824, 46.34375, 46.633926, 46.84375, 47, 47.1875, 47.40625, 47.633926, 47.84375, 47.90625, 48.03125, 48.169643, 48.401787, 48.763393, 48.857143, 48.9375, 48.8125, 48.78125, 48.991074, 49.5, 49.821426, 50.125, 50.3125, 50.5, 50.75, 50.8125, 50.776787, 50.99107, 51.442177, 51.556122, 51.802082, 52.03125, 52.232143, 52.299107, 52.513393, 52.706848, 52.665176, 52.75, 52.8125, 52.875, 53.1875, 53.3125, 53.3125, 53.5625, 53.625, 53.875, 54.352676, 54.700893, 54.866074, 55.035713, 54.732143, 54.083332, 53.669643, 53.40625, 53.482143, 53.178574, 52.522621, 52.5, 52.098213, 52.1875, 52.083332, 23.25, 23.25, 23.3125, 23.375, 23.5625, 23.75, 23.875, 24, 24, 24.0625, 24.3125, 24.5625, 24.8125, 25, -10, -10, -10, -10, -10, -10, -10, -10, -10, -10, -10, -10, -10, -10, -10, -10, -10, -10, -10, -10, -10, -10, -10, -10, -10, -10, -10, -10, -10, -10, -10, -10, -10, -10, -10, -10, -10, -10, -10, -10, -10, -10, -10, -10, -10, -10, -10, -10, -10, -10, -10, -10, -10, -10, -10, -10, -10, -10, -10, -10, 101.5, 100.95834, 100.39285, 99.59523, 99.1875, 98.666664, 98.401779, 97.678574, 96.422623, 95.613091, 95.008926, 94.220238, 93.523804, 93.133926, 92.607147, 91.788681, 91.205353, 90.6875, 90.25, 89.857147, 88.630951, 87.785721, 87.035713, 86.5, 86.0625, 85.366074, 84.297615, 83.60714, 83.125, 82.482147, 81.619049, 81, 79.958328, 79.285713, 78.568451, 77.869049, 77.125, 76.51786, 75.747025, 75.142853, 74.25, 73.261902, 72.342262, 71.464279, 70.547623, 69.928574, 69.1875, 68.410713, 67.785713, 66.8125, 66.175591, 65.678574, 64.964279, 64.205353, 63.431545, 62.613098, 61.964287, 61.029758, 60.092262, 59.059525, 58.348213, 57.723213, 57.375, 56.857143, 55.654762, 54.815475, 53.916668, 53.1875, 52.48214, 51.892857, 51.258926, 50.244045, 49.142857, 48.24107, 47.482143, 46.883926, 45.702381, 44.857143, 43.952381, 43.1875, 42.360119, 41.494049, 40.892857, 40.401787, 39.607143, 38.809525, 38.041668, 37.083336, 36.217262, 35.419643, 34.440475, 33.82143, 32.958332, 32.181549, 31.077381, 30.428572, 29.75, 28.955357, 28.023809, 27.446428, 26.511906, 25.571428, 24.991072, 24.375, 23.852678, 23.424107, 23.15625, 23.03125, 23.09375, 23.09375, 23.15625, 23.299107, 23.809525, 24.061224, 24.214285, 24.112244, 23.928572, 23.989796, 24.025511, 24.142857, 24.142857, 24.071428, 23.892857, 23.857143, 23.821428, 23.821428, 23.892857, 23.75, 24, 24.142857, 24.076529, 23.841837, 23.760204, 23.678572, 23.678572, 23.535715, 23.321428, 23, 22.785713, 22.75, 23.311224, 23.387754, 23.535715, 23.5, 23.321428, 23.125, 23.0625, 23.0625, 23.1875, 23.25, 23.375, 23.62245, 23.761904, 23.753967, 23.666666, 23.666666, 23.571428, 23.612244, 23.392857, 23.517857, 23.178572, 23.316328, 23.625, 23.732143, 23.857143, 23.892857, 23.785715, 23.5, 23.214285, 23.25, 23.357143, 24.071428, 24.214285, 24.214285, 24.142857, 24.083332, 24.75, 25, 25.125, 25.291668, -10, -10, -10, -10, -10, -10, -10, -10, -10, -10, 33.625, 33.416668, 33.5625, 33.8125, 34.42857, 34.9375, 35.375, 35.65625, 36.147324, 36.53125, 36.84375, 37.25, 37.658333, 37.916664, 38.619049, 38.794643, 39.276787, 40.054165, 40.380955, 40.928574, 40.892857, 41.053574, 41.580357, 41.785713, 42.0625, 42.1875, 42.34375, 42.4375, 42.5625, 42.6875, 42.84375, 43.169643, 43.375, 43.625, 43.8125, 43.875, 43.9375, 44, 44.25, 44.607143, 44.8125, 45.03125, 45.1875, 45.4375, 45.607143, 45.729168, 45.857147, 45.595238, 45.767857, 45.866074, 46.354168, 46.616074, 46.6875, 46.875, 47.0625, 47.125, 47.375, 47.5625, 47.790176, 48.0625, 48.0625, 48.15625, 48.357143, 48.5625, 48.84375, 49.0625, 49.125, 49.125, 49.21875, 49.383926, 49.75, 50.0625, 50.4375, 50.625, 50.875, 51, 51, 51.026787, 51.30357, 51.699406, 51.732143, 51.875, 52, 52.276787, 52.3125, 52.3125, 52.443455, 52.321426, 52.5, 52.6875, 52.875, 53.3125, 53.5
-10, -10, -10, -10, -10, -10, -10, -10, -10, -10, -10, -10, -10, -10, -10, -10, -10, -10, -10, -10, -10, -10, -10, -10, -10, -10, -10, 101.625, 101.25, 100.71428, 99.744041, 99.267853, 98.375, 98.116074, 97.616074, 96.458336, 95.529755, 94.946426, 94.303574, 93.59523, 93.196426, 92.607147, 91.788681, 91.142853, 90.5625, 89.946426, 89.5, 88.547615, 87.732147, 87.035713, 86.5, 86.0625, 85.366074, 84.297615, 83.60714, 83.125, 82.482147, 81.619049, 81, 79.958328, 79.35714, 78.630951, 77.931549, 77.133926, 76.589287, 75.854164, 75.214287, 74.145836, 73.190475, 72.395836, 71.642853, 70.717262, 70.011902, 69, 68.196426, 67.535713, 66.625, 66.1875, 65.523811, 64.848213, 64.080353, 63.351189, 62.434525, 61.785713, 61.071426, 60.00893, 59.285713, 58.526787, 57.744045, 57.291668, 56.523811, 55.404762, 54.794643, 53.988098, 53.083332, 52.410713, 51.875, 51.196426, 49.934521, 49.071426, 48.205357, 47.419643, 46.714283, 45.622025, 45.035713, 44, 43.232143, 42.360119, 41.494049, 40.955357, 40.36607, 39.714287, 38.659523, 37.666668, 36.654762, 36.071426, 35.375, 34.440475, 33.82143, 32.8125, 32.098213, 31.244047, 30.642857, 29.770834, 29.0625, 28.130953, 27.526785, 26.583334, 25.717262, 25.133928, 24.625, 24.34375, 24.21875, 24.443878, 24.464285, 24.571428, 24.5, 24.464285, 24.556122, 24.809525, 24.803572, 24.9375, 24.848213, 24.6875, 25.025511, 25.168367, 25.285715, 25.0625, 24.9375, 24.6875, 24.625, 24.785715, 24.785715, 24.857143, 24.892857, 24.928572, 24.9375, 24.973213, 24.830357, 24.510204, 24.666666, 24.928572, 24.75, 24.5, 23.821428, 23.576529, 23.875, 24.061224, 24.401785, 24.5, 24.178572, 24.125, 24, 23.9375, 23.9375, 24.125, 24.464285, 24.535715, 24.632654, 24.581633, 24.574829, 24.571428, 24.571428, 24.642857, 24.7551, 24.770407, 24.87755, 25.125, 25.071428, 24.714285, 24.765306, 24.4375, 24.714285, 24.642857, 24.642857, 24.916666, 25, 25.125, 25, 24.9375, 24.9375, 24.90625, 24.916666, 25.375, 25.541666, 25.583334, 25.611113, 26, -10, -10, -10, -10, -10, -10, -10, -10, -10, 33.375, 33.25, 33.4375, 33.75, 34.42857, 34.9375, 35.375, 35.71875, 36.200893, 36.53125, 36.96875, 37.232143, 37.539288, 37.845238, 38.547623, 38.794643, 39.267857, 39.979164, 40.464287, 40.785713, 40.75, 40.910713, 41.514881, 41.785713, 42.125, 42.3125, 42.53125, 42.5625, 42.5625, 42.642857, 42.927082, 43.348213, 43.625, 43.75, 43.8125, 43.892857, 44.145832, 44.303574, 44.625, 44.84375, 44.96875, 45.125, 45.25, 45.46875, 45.71875, 45.9375, 45.928574, 45.666668, 45.767857, 45.991074, 46.541668, 46.866074, 46.9375, 47.071426, 47.458332, 47.482143, 47.6875, 47.75, 47.915176, 48.1875, 48.25, 48.40625, 48.669643, 48.875, 49.15625, 49.375, 49.4375, 49.5, 49.59375, 49.758926, 50.0625, 50.3125, 50.625, 50.75, 50.9375, 51.0625, 51.125, 51.276787, 51.58482, 51.886906, 51.857143, 51.875, 51.96875, 52.339287, 52.5, 52.5, 52.401787, 52.321426, 52.625, 52.875, 53.1875, 53.4375, 53.5625, 53.580357, 53.922619, 54.160713, 54.428574, 54.9375, 55.294643, 55.5625, 55.75, 55.4375, 54.166664, 53.591835, 53.166668, 53.07143, 52.794643, 52.422619, 52.321426, 52.160713, 52.1875, 52.166664, 24.857143, 25, 24.916666, 25, 24.688776, 24.282738, 24.1875, 24.1875, 24.1875, 24.3125, 24.5625, 24.8125, 25.125, 25.333334, -10, -10, -10, -10, -10, -10, -10, -10, -10, -10, -10, -10, -10, -10, -10, -10, -10, -10, -10, -10, -10, -10, -10, -10, -10, -10, -10, -10, -10, -10, -10, -10, -10, -10, -10, -10, -10, -10, -10, -10, -10, -10, -10, -10, -10, -10, -10, -10, -10, -10, -10, -10, -10, -10, -10, -10, -10, -10, -10, -10, 101.75, 101.5, 101.07143, 100.10119, 99.598206, 98.25, 97.892853, 97.357147, 96.476189, 95.351189, 94.803574, 94.178574, 93.577377, 93.133926, 92.491074, 91.764877, 91.142853, 90.508926, 89.675591, 89.1875, 88.154762, 87.625, 87.0625, 86.482147, 85.666664, 84.973213, 84.151779, 83.60714, 83.041664, 82.419647, 81.601181, 81.0625, 80.220238, 79.523811, 79.035713, 78.217262, 77.238091, 76.696426, 76.241074, 75.523811, 74.458336, 73.202385, 72.616074, 71.892853, 70.877975, 69.803574, 68.723213, 67.9375, 67.285713, 66.375, 65.9375, 65.273811, 64.66964, 64.008926, 63.270832, 62.255951, 61.61607, 61, 59.854168, 59.285713, 58.5625, 57.660713, 57.166668, 56.336311, 55.464287, 54.866074, 54.050598, 53.092258, 52.410713, 51.875, 50.967262, 49.791664, 49, 48.196426, 47.348213, 46.607143, 45.851189, 45.285713, 44.083332, 43.348217, 42.526787, 41.848213, 41.133926, 40.473213, 39.785713, 38.409523, 37.535713, 36.529762, 36.008926, 35.366074, 34.440475, 33.82143, 33.041668, 32.3125, 31.392857, 30.517857, 29.708334, 29.116072, 28.300594, 27.607143, 26.717262, 26.071428, 25.517857, 25.017857, 24.78125, 25.015306, 25.52721, 25.678572, 25.821428, 25.678572, 25.607143, 25.653061, 25.645834, 25.741072, 25.8125, 25.660713, 25.526787, 26.112246, 26.219389, 26.285715, 26.071428, 25.625, 25.4375, 25.4375, 25.5, 25.5625, 25.5625, 25.785715, 25.785715, 25.857143, 25.928572, 25.928572, 26.166666, 26.25, 26.071428, 26, 25.811224, 25.708334, 25.625, 25.583334, 25.875, 25.663265, 25.678572, 25.833334, 25.321428, 25.214285, 25.178572, 25.285715, 25.433672, 25.530613, 25.607143, 25.5, 25.6875, 25.669643, 25.857143, 25.785715, 25.714285, 25.806122, 25.867346, 25.938776, 25.964285, 25.918367, 25.714285, 25.544643, 25.4375, 25.5625, 25.285715, 25.801022, 25.690475, 25.734694, 25.785715, 25.857143, 25.78125, 25.78125, 25.8125, 26.053572, 26.071428, 26.107143, 25.9375, 26.020834, 26.583334, 27.125, 26.952381, -10, -10, -10, -10, -10, -10, -10, 33.25, 33.166664, 33.3125, 33.625, 34.25893, 34.866074, 35.428574, 35.888393, 36.263393, 36.620537, 37.138393, 37.410713, 37.714287, 38.11607, 38.619049, 38.866074, 39.258926, 39.770832, 40.223213, 40.607143, 40.770832, 40.964287, 41.577381, 41.723213, 42.0625, 42.3125, 42.607143, 42.625, 42.651787, 42.8125, 43.136906, 43.598213, 43.8125, 43.875, 43.9375, 44.017857, 44.333332, 44.553574, 44.875, 45.09375, 45.21875, 45.375, 45.4375, 45.59375, 45.78125, 45.96875, 46.0625, 46.125, 46.25, 46.491074, 46.785713, 46.9375, 47.0625, 47.196426, 47.645832, 47.732143, 47.875, 47.75, 47.808037, 48.200893, 48.397324, 48.65625, 48.8125, 48.9375, 49.1875, 49.4375, 49.5625, 49.6875, 49.75, 49.946426, 50.25, 50.375, 50.6875, 50.75, 50.90625, 51.15625, 51.28125, 51.433037, 51.638393, 51.616074, 51.5625, 51.625, 51.84375, 52.339287, 52.53125, 52.59375, 52.620537, 52.727676, 53.2551, 53.3125, 53.5625, 53.6875, 53.8125
-10, -10, -10, -10, -10, -10, -10, -10, -10, -10, -10, -10, -10, -10, -10, -10, -10, -10, -10, -10, -10, -10, -10, -10, -10, -10, -10, 101.875, 101.65, 101.08333, 100.1369, 99.598206, 98.178574, 97.559525, 97, 96.464287, 95.249992, 94.803574, 94.116074, 93.577377, 93.071426, 92.383926, 91.639877, 91.080353, 90.383926, 89.463089, 89.116074, 88.25, 87.654762, 87.133926, 86.535713, 85.5, 84.839287, 84.142853, 83.651787, 83.166664, 82.5625, 81.642853, 81.098213, 80.220238, 79.523811, 79.071426, 78.446426, 77.380951, 76.883926, 76.357147, 75.464287, 74.315475, 73.190475, 72.4375, 71.714287, 70.91964, 69.767853, 68.839287, 67.866074, 67.142853, 66.351189, 65.928574, 65.264885, 64.523811, 63.9375, 63.25, 62.285713, 61.57143, 61, 59.812504, 59.285713, 58.5625, 57.660713, 57.166668, 56.336311, 55.464287, 54.866074, 54.113098, 53.208332, 52.434525, 51.875, 50.738094, 49.720238, 49.053574, 48.375, 47.330357, 46.535717, 46.017857, 45.419647, 44.154762, 43.428574, 42.705357, 42.017857, 41.276787, 40.589287, 39.547619, 38.159523, 37.285713, 36.550598, 36, 35.258926, 34.5, 33.892857, 33.041668, 32.205357, 31.380953, 30.410713, 29.601191, 29.053572, 28.354166, 27.785713, 27.020834, 26.428572, 25.830357, 25.285713, 25.15625, 25.325893, 26.116497, 26.410715, 26.642857, 26.642857, 26.642857, 26.714285, 26.785715, 26.857143, 26.964285, 26.660713, 26.651787, 26.973215, 26.973215, 26.9375, 26.6875, 26.5, 26.475, 26.416666, 26.616072, 26.714285, 26.642857, 26.5, 26.5, 26.571428, 26.8125, 26.928572, 26.928572, 27, 27, 27.035715, 26.918367, 26.678572, 26.642857, 26.607143, 26.785715, 26.714285, 26.714285, 26.678572, 26.5, 26.428572, 26.428572, 26.535715, 26.612244, 26.637756, 26.714285, 26.714285, 26.785715, 26.663265, 26.714285, 26.642857, 26.642857, 26.785715, 26.6875, 26.75, 26.8125, 26.741072, 26.714285, 26.642857, 26.607143, 26.714285, 27, 26.943878, 26.635416, 26.705357, 26.5, 26.6875, 26.6875, 26.857143, 26.964285, 27.035715, 27.071428, 26.84375, 26.8125, 26.875, 27.0625, 27.559525, 27.357141, 28.200001, -10, -10, -10, -10, -10, -10, 32.791664, 32.940475, 33.1875, 33.508926, 34.318455, 35, 35.553574, 36.02232, 36.356251, 36.599701, 37.316963, 37.589287, 38.026787, 38.419643, 38.723213, 39, 39.3125, 39.5625, 39.982143, 40.357143, 40.761906, 41.10714, 41.657738, 41.794643, 42.0625, 42.3125, 42.607143, 42.6875, 42.714287, 42.9375, 43.324406, 43.723213, 43.9375, 44, 44.0625, 44.205357, 44.583332, 44.741074, 45, 45.1875, 45.3125, 45.53125, 45.65625, 45.78125, 45.90625, 46.09375, 46.25, 46.482143, 46.5625, 46.741074, 46.973213, 47.0625, 47.169643, 47.246429, 47.761906, 47.848217, 48.133926, 48.1875, 48.276787, 48.669643, 48.741074, 48.875, 49.008926, 49.25, 49.4375, 49.75, 49.8125, 49.9375, 49.9375, 50.008926, 50.25, 50.3125, 50.625, 50.75, 50.90625, 51.21875, 51.46875, 51.65625, 51.71875, 51.651787, 51.732143, 51.794643, 52.058037, 52.517857, 52.65625, 52.84375, 52.90625, 53.040176, 53.410713, 53.5625, 53.8125, 53.9375, 54.125, 54.30357, 54.610119, 54.848213, 54.928574, 55.1875, 55.375, 55.5625, 55.6875, 55.455357, 54.875, 54.285717, 53.458336, 52.973213, 52.416668, 52.25, 52.0625, 52.0625, 52.0625, 52.083332, 25, 25.333334, 25.375, 25.583334, 25.595238, 25.210318, 24.958334, 25.392857, 25.357143, 25.642857, 25.892857, 26.142857, 26.464285, -10, -10, -10, -10, -10, -10, -10, -10, -10, -10, -10, -10, -10, -10, -10, -10, -10, -10, -10, -10, -10, -10, -10, -10, -10, -10, -10, -10, -10, -10, -10, -10, -10, -10, -10, -10, -10, -10, -10, -10, -10, -10, -10, -10, -10, -10, -10, -10, -10, -10, -10, -10, -10, -10, -10, -10, -10, -10, -10, -10, -10, 102, 101.73333, 101.14583, 100.36309, 99.848206, 98.547623, 97.529755, 96.857147, 96.254463, 95.239578, 94.763397, 94.03125, 93.553574, 93, 92.258926, 91.47023, 90.9375, 90.321426, 89.570236, 89.080353, 88.428574, 87.642853, 87.133926, 86.473213, 85.392853, 84.776787, 84.133926, 83.651787, 83.166664, 82.571426, 81.851196, 81.348213, 80.241074, 79.630951, 79.116074, 78.375, 77.559525, 77.026779, 76.419647, 75.392853, 74.386909, 73.226189, 72.589287, 72, 71.181549, 69.875, 68.839287, 67.803574, 66.964279, 66.410713, 65.928574, 65.282738, 64.630951, 64, 63.258926, 62.285713, 61.57143, 61, 59.812504, 59.285713, 58.63393, 57.767857, 57.175594, 56.116074, 55.297615, 54.741074, 54.258926, 53.386906, 52.392857, 51.732143, 50.559525, 49.824406, 49.196426, 48.3125, 47.36607, 46.651787, 46.1875, 45.491074, 44.380951, 43.678574, 42.964283, 42.083332, 41.348213, 40.607143, 39.297619, 38.028572, 37.160713, 36.633926, 36.0625, 35.267857, 34.57143, 34, 33.166668, 32.392857, 31.321428, 30.267857, 29.369047, 28.866072, 28.375, 27.910713, 27.5625, 27, 26.142857, 25.5625, 25.3125, 25.419643, 26.166666, 26.916666, 27.294643, 27.4375, 27.4375, 27.714285, 27.785715, 27.928572, 28.071428, 28.071428, 28.173471, 28.229593, 27.919643, 27.8125, 27.5625, 27.5, 27.828571, 27.761904, 27.989796, 27.785715, 27.806122, 28.125, 28.125, 28.166666, 27.928572, 27.75, 27.8125, 27.678572, 27.928572, 27.8125, 27.741072, 27.5, 27.5625, 27.5, 27.625, 27.5625, 27.5625, 27.5625, 27.678572, 27.642857, 27.642857, 27.714285, 27.719387, 27.673471, 27.75, 27.75, 27.821428, 27.455357, 27.5, 27.375, 27.375, 27.5, 27.625, 27.6875, 27.6875, 27.625, 27.714285, 27.678572, 27.714285, 27.785715, 27.857143, 27.943878, 27.726191, 27.734694, 27.916666, 27.714285, 27.785715, 27.821428, 27.910715, 27.75, 27.84375, 27.78125, 27.75, 27.964285, 28.071428, 28.158163, 27.830359, 28.633333, -10, -10, -10, 29.642857, 29.833334, 30.428572, 32.572914, 32.825893, 33.0625, 33.392857, 34.377979, 35.071426, 35.678574, 36.24107, 36.575001, 36.880951, 37.535713, 37.741074, 38.214287, 38.544643, 38.803574, 39.125, 39.375, 39.5625, 39.875, 40.169643, 40.663692, 41.214287, 41.666668, 41.928574, 42.125, 42.3125, 42.63393, 42.857143, 43.01786, 43.3125, 43.636906, 43.866074, 44.0625, 44.125, 44.25, 44.455357, 44.770832, 44.928574, 45.1875, 45.375, 45.5625, 45.78125, 45.84375, 45.90625, 46.03125, 46.21875, 46.4375, 46.700893, 46.65625, 46.772324, 47.004463, 47.169643, 47.419643, 47.496429, 47.949406, 48.098217, 48.321426, 48.4375, 48.526787, 48.794643, 48.803574, 48.9375, 49.071426, 49.375, 49.625, 49.875, 50, 50.1875, 50.25, 50.375, 50.5, 50.5, 50.6875, 50.8125, 50.90625, 51.21875, 51.46875, 51.65625, 51.78125, 51.808037, 52.013393, 52.138393, 52.339287, 52.660713, 52.821426, 53.270832, 53.395832, 53.425598, 53.74107, 53.8125, 54.0625, 54.1875, 54.375
-10, -10, -10, -10, -10, -10, -10, -10, -10, -10, -10, -10, -10, -10, -10, -10, -10, -10, -10, -10, -10, -10, -10, -10, -10, -10, -10, 102, 101.66666, 100.8244, 100.25, 99.799103, 98.964287, 97.840134, 97.17347, 96.370537, 95.412201, 94.825897, 94.09375, 93.48214, 92.892853, 92.196426, 91.452377, 91, 90.401779, 89.582146, 89.1875, 88.553574, 87.839279, 87.092262, 86.491074, 85.428574, 84.857147, 84.3125, 83.821426, 83.309525, 82.758926, 81.875, 81.348213, 80.386909, 79.702377, 79.178574, 78.375, 77.630951, 77.133926, 76.482147, 75.392853, 74.571426, 73.476189, 72.630951, 72, 71.190475, 69.75, 68.964287, 68.071426, 67.321426, 66.598213, 66.178574, 65.508926, 64.809525, 64.125, 63.339283, 62.464287, 61.741074, 61.071426, 59.967262, 59.214287, 58.526787, 57.809525, 56.967258, 56.127975, 55.226189, 54.678574, 54.1875, 53.491074, 52.464287, 51.678574, 50.380951, 49.88393, 49.267857, 48.375, 47.446426, 46.75893, 46.1875, 45.383926, 44.440475, 43.82143, 42.904758, 41.940475, 41.178574, 40.464287, 38.964287, 37.92857, 37.223213, 36.705357, 36.125, 35.267857, 34.57143, 34, 33.166668, 32.392857, 31.321428, 30.303572, 29.598213, 29.080357, 28.75, 28.330357, 28.1875, 27.723213, 26.458334, 25.75, 25.3125, 25.232143, 25.988094, 27.416666, 28.098215, 28.75, 28.806122, 28.771427, 28.741072, 29.096939, 29.25, 29.214285, 29.265306, 29.132654, 28.989796, 28.6875, 28.642857, 28.714285, 28.828571, 28.690475, 28.943878, 28.976191, 29.045918, 29.12755, 29.035715, 28.964285, 28.857143, 28.785715, 28.785715, 29.083334, 28.846939, 28.5625, 28.553572, 28.375, 28.7551, 28.75, 28.857143, 28.785715, 28.714285, 28.591837, 28.5, 28.5, 28.571428, 28.5625, 28.660713, 28.908163, 29, 28.928572, 28.6875, 28.517857, 28.5, 28.375, 28.375, 28.4375, 28.714285, 28.785715, 28.785715, 28.785715, 28.714285, 28.714285, 28.857143, 28.6875, 28.8125, 28.839287, 28.732992, 28.795918, 28.785715, 28.892857, 28.75, 28.535715, 28.607143, 28.84375, 29.107143, 29.071428, 29.071428, 29.107143, 28.9375, 28.982143, 28.809525, 29.271427, 30, 30.125, 30.25, 30.011904, 30.799999, 31.342855, 32.572914, 32.96875, 33.25, 33.517857, 34.395836, 35.071426, 35.678574, 36.24107, 36.575001, 36.880951, 37.535713, 37.866074, 38.375, 38.625, 38.875, 39.1875, 39.4375, 39.5625, 39.875, 40.342262, 41.020836, 41.580357, 41.8125, 42, 42.0625, 42.1875, 42.51786, 43.002975, 43.321434, 43.669643, 43.803574, 44, 44.1875, 44.375, 44.625, 44.8125, 44.9375, 45.0625, 45.25, 45.46875, 45.71875, 45.90625, 45.90625, 45.964287, 46.169643, 46.397324, 46.75, 47.075893, 47.013393, 47.009823, 47.308037, 47.410713, 47.732143, 47.862499, 48.223217, 48.366074, 48.571426, 48.6875, 48.714287, 48.857143, 48.741074, 48.8125, 48.883926, 49.3125, 49.625, 49.875, 50.0625, 50.1875, 50.25, 50.375, 50.5, 50.5, 50.6875, 50.8125, 50.90625, 51.15625, 51.40625, 51.59375, 51.75, 51.964287, 52.232143, 52.419643, 52.651787, 52.848213, 53.008926, 53.395832, 53.458332, 53.479168, 53.61607, 53.8125, 54.125, 54.375, 54.625, 54.785713, 54.946426, 55.208332, 55.169643, 55.3125, 55.3125, 55.375, 55.375, 55.0625, 54.580357, 53.964287, 53.479168, 52.964287, 52.045834, 52.113094, 52.083332, 52.169643, 52.25, 52.166664, -10, -10, -10, -10, -10, -10, -10, 27.166668, 28.186666, 28.242859, 28.472221, 27.970238, 27.761904, -10, -10, -10, -10, -10, -10, -10, -10, -10, -10, -10, -10, -10, -10, -10, -10, -10, -10, -10, -10, -10, -10, -10, -10, -10, -10, -10, -10, -10, -10, -10, -10, -10, -10, -10, -10, -10, -10, -10, -10, -10, -10, -10, -10, -10, -10, -10, -10, -10, -10, -10, -10, -10, -10, -10, -10, -10, -10, -10, -10, -10, 102, 101.75, 100.86012, 100.04167, 99.477676, 98.901787, 98.214287, 97.68708, 96.334824, 95.626488, 94.96875, 94.21875, 93.5, 92.892853, 92.050598, 91.452377, 91.035713, 90.401779, 89.719048, 89.3125, 88.803574, 88.089279, 87.029762, 86.5625, 85.824409, 85.321426, 84.666664, 84.071426, 83.535713, 83.008926, 82, 81.464287, 80.279762, 79.714279, 79.169647, 78.383926, 77.839279, 77.3125, 76.386902, 75.333328, 74.464279, 73.642853, 72.619041, 72, 71.279762, 70.208336, 69.345238, 68.508926, 67.595238, 66.785713, 66.157738, 65.446426, 64.791664, 64.125, 63.401783, 62.642857, 61.910713, 61.142853, 60.193451, 59.392853, 58.431545, 57.75, 56.824406, 56.034225, 55.114582, 54.522324, 54.089287, 53.526787, 52.464287, 51.678574, 50.619049, 49.913689, 49.267857, 48.375, 47.517857, 46.866074, 46.1875, 45.276787, 44.42857, 43.714287, 42.726189, 41.770832, 41.107143, 40.392857, 38.708332, 38, 37.366074, 36.747025, 36.125, 35.330357, 34.67857, 33.916668, 33.104168, 32.383926, 31.422619, 30.741072, 30.035713, 29.642857, 29.375, 29.125, 29.357143, 28.755951, 27.238096, 26.676022, 26.321428, 26.214285, 26.714285, 28.424604, 29.408163, 29.821428, 29.913265, 29.842855, 30.061224, 30.239796, 30.357143, 30.428572, 30.035715, 29.821428, 29.642857, 29.948978, 29.841837, 29.75, 29.614286, 29.511904, 29.693878, 30.261904, 30.214285, 30.017857, 29.875, 29.75, 29.625, 29.785715, 29.75, 29.821428, 29.739796, 29.3125, 29.375, 29.375, 29.7551, 29.785715, 29.857143, 29.785715, 29.785715, 29.517857, 29.178572, 29.178572, 29.214285, 29.857143, 30, 30.142857, 30.168367, 29.949999, 29.989796, 29.775511, 29.785715, 29.714285, 29.75, 29.785715, 29.857143, 29.857143, 29.785715, 29.785715, 29.714285, 29.714285, 29.75, 29.75, 29.821428, 29.732143, 29.758038, 29.696428, 29.696428, 29.892857, 29.946428, 30.166666, 30.291666, 30.107143, 30.178572, 30.25, 30.25, 30.25, 30.142857, 30.061224, 29.952379, 29.9375, 30.333334, 30.5, 30.583334, 30.321428, 31.020407, 31.452381, 32.644344, 33.15625, 33.5, 33.767857, 34.583336, 35.142857, 35.625, 36.133926, 36.575001, 36.854168, 37.428574, 37.6875, 38.333332, 38.616074, 38.9375, 39.3125, 39.5625, 39.625, 39.901787, 40.377975, 40.9375, 41.526787, 41.75, 42.125, 42.1875, 42.3125, 42.660713, 43.306545, 43.64286, 43.875, 44, 44.125, 44.4375, 44.6875, 44.875, 45, 45.0625, 45.1875, 45.375, 45.65625, 45.84375, 46, 46.0625, 46.120537, 46.455357, 46.866074, 47.1875, 47.450893, 47.325893, 47.268749, 47.459824, 47.660713, 47.982143, 48.174999, 48.598217, 48.803574, 48.946426, 49.125, 49.0625, 49.0625, 48.875, 48.8125, 48.883926, 49.357143, 49.678574, 49.9375, 50.0625, 50.1875, 50.25, 50.375, 50.5, 50.5625, 50.8125, 51.0625, 51.1875, 51.205357, 51.392857, 51.5625, 51.875, 52.276787, 52.607143, 52.732143, 52.901787, 53.035713, 53.241074, 53.583332, 53.520832, 53.354168, 53.401787, 53.833332, 54.241074, 54.5625, 54.75
-10, -10, -10, -10, -10, -10, -10, -10, -10, -10, -10, -10, -10, -10, -10, -10, -10, -10, -10, -10, -10, -10, -10, -10, -10, -10, -10, 101.97916, 101.83437, 101.13393, 100.06101, 99.415176, 98.816963, 98.229164, 97.672615, 96.263397, 95.65625, 94.9375, 94.25, 93.51339, 92.857147, 91.8125, 91.375, 90.941963, 90.495529, 89.900307, 89.392853, 88.9375, 88.214279, 86.916672, 86.455353, 86.053566, 85.642853, 84.8125, 84.169647, 83.410713, 82.758926, 81.934525, 81.428574, 80.133926, 79.642853, 79.169647, 78.5, 77.863098, 77.25, 76.270836, 75.321426, 74.5, 73.821426, 72.714279, 72.107147, 71.404762, 70.458336, 69.333328, 68.6875, 67.800591, 66.964279, 66.166664, 65.410713, 64.875, 64.1875, 63.482143, 62.883926, 62.19643, 61.226189, 60.383926, 59.464287, 58.440475, 57.75, 56.761906, 55.918152, 55.102676, 54.415176, 53.919643, 53.348213, 52.360115, 51.5, 50.678574, 49.913689, 49.205357, 48.196426, 47.535713, 46.9375, 46.25, 45.285713, 44.42857, 43.642857, 42.547619, 41.601192, 40.964287, 40.047619, 38.803574, 38.169643, 37.544643, 36.726192, 36.0625, 35.321426, 34.607143, 33.809525, 33.104168, 32.491074, 31.517857, 30.991072, 30.455357, 30.267857, 30.392857, 30.285715, 30.428572, 30.523809, 29.972221, 29.934525, 29.833334, 29.916666, 30.190475, 30.765875, 30.704082, 30.852041, 30.948978, 30.965305, 31.204082, 31.311224, 31.285715, 31.25, 31.458334, 31.458334, 31.416666, 31.056122, 31.020407, 31.291666, 31.208334, 31.25, 31.202379, 31.226191, 31.132654, 31.020407, 30.857143, 30.714285, 30.642857, 30.5, 30.5, 30.625, 30.678572, 30.178572, 30.5, 30.541666, 30.969387, 30.928572, 30.928572, 30.785715, 30.785715, 30.734694, 30.958334, 31.041666, 31, 30.928572, 31.071428, 31.142857, 31.132654, 30.914286, 31.061224, 30.908163, 30.928572, 30.892857, 30.821428, 30.821428, 30.857143, 30.821428, 30.625, 30.625, 30.785715, 30.785715, 30.5625, 30.392857, 30.5, 31, 30.983673, 30.795918, 30.795918, 30.928572, 31, 31.142857, 31.285715, 31.285715, 31.321428, 31.321428, 31.25, 31.178572, 31.071428, 31, 30.964285, 30.75, 30.875, 31.0625, 31.125, 31.258928, 31.705357, 32.309525, 33.15625, 33.65625, 33.875, 34.071426, 34.541668, 35.008926, 35.544643, 36.0625, 36.5, 36.875, 37.3125, 37.696426, 38.449406, 38.776787, 39.142857, 39.535713, 39.625, 39.791668, 40.172619, 40.556545, 41.008926, 41.526787, 41.741074, 42.1875, 42.3125, 42.4375, 42.848213, 43.556545, 44, 44.25, 44.375, 44.5, 44.8125, 44.982143, 45, 45.0625, 45.0625, 45.3125, 45.5625, 45.875, 46, 46.15625, 46.1875, 46.245537, 46.580357, 46.866074, 47.03125, 47.165176, 47.284225, 47.250893, 47.459824, 47.678574, 48.208332, 48.553574, 48.919643, 49.125, 49.125, 49.125, 49.125, 49.125, 49.0625, 49.0625, 49.0625, 49.357143, 49.741074, 50, 50.25, 50.5, 50.598213, 50.714287, 50.875, 50.875, 51.125, 51.3125, 51.375, 51.267857, 51.410713, 51.708332, 52.116074, 52.5625, 52.75, 52.9375, 53.0625, 53.1875, 53.491074, 53.739582, 53.677082, 53.532738, 53.660713, 54.136906, 54.553574, 54.6875, 54.75, 54.6875, 54.821426, 55.145832, 55.169643, 55.3125, 55.21875, 55.28125, 55.34375, 55.080357, 54.434525, 53.857143, 53.428574, 52.872025, 52.303272, 52.488094, 52.645832, 52.669643, 52.59375, 52.416664, -10, -10, -10, -10, -10, -10, -10, 31.161905, 31.161907, 30.908163, 30.291666, 30.374147, 30.785717, 31.366667, -10, -10, -10, -10, -10, -10, -10, -10, -10, -10, -10, -10, -10, -10, -10, -10, -10, -10, -10, -10, -10, -10, -10, -10, -10, -10, -10, -10, -10, -10, -10, -10, -10, -10, -10, -10, -10, -10, -10, -10, -10, -10, -10, -10, -10, -10, -10, -10, -10, -10, -10, -10, -10, -10, -10, -10, -10, -10, -10, 102, 101.9375, 101.82396, 101.07143, 99.772324, 99.09375, 98.59375, 98.4375, 97.877975, 96.366074, 95.714287, 94.977676, 94.114586, 93.549103, 92.857147, 91.708336, 91.410713, 90.977676, 90.391373, 89.626495, 89.1875, 88.75, 88.297615, 87.041672, 86.642853, 86.348213, 85.964279, 84.958336, 84.45536, 83.598213, 82.779762, 81.916664, 81.357147, 80.133926, 79.571426, 79.125, 78.607147, 77.851181, 77.25, 76.270836, 75.333336, 74.386902, 73.75, 72.6875, 72.071426, 71.279762, 70.494049, 69.458328, 68.875, 68.104164, 67.321426, 66.333336, 65.535713, 64.9375, 64.196426, 63.55357, 63.125, 62.482143, 61.309525, 60.428574, 59.535713, 58.547619, 57.8125, 56.761906, 56.102676, 55.352676, 54.373512, 53.785713, 53.169643, 52.339287, 51.464287, 50.678574, 49.851189, 49.125, 48.267857, 47.57143, 47, 46.258926, 45.172615, 44.357143, 43.580357, 42.547619, 41.601192, 40.892857, 39.738094, 38.732143, 38.133926, 37.482143, 36.619049, 36, 35.3125, 34.535713, 33.702381, 33.041668, 32.428574, 31.809525, 31.526787, 31.119047, 31.051022, 31.375, 31.545918, 31.333334, 31.37755, 31.170069, 31.321428, 31.321428, 31.392857, 31.510204, 31.704082, 31.719387, 31.495537, 31.611607, 31.829592, 31.866072, 32.05357, 32.0625, 32.0625, 31.857143, 32.357143, 32.285713, 32.163265, 32.163265, 32.357143, 32.020832, 32.0625, 32.014881, 31.922619, 32.05357, 31.892857, 31.75, 31.857143, 31.321428, 31.321428, 31.25, 31.857143, 31.892857, 32.125, 32.25, 32.291668, 32.163265, 32.056122, 31.4375, 31.270834, 31.595236, 31.714285, 31.821428, 31.892857, 31.857143, 31.928572, 31.8125, 31.875, 31.866072, 31.674999, 32.025509, 31.908163, 31.928572, 31.928572, 31.785715, 31.816328, 31.979593, 31.908163, 31.928572, 31.857143, 31.785715, 31.785715, 31.75, 32.083332, 32.208332, 31.867346, 31.932652, 31.724489, 31.724489, 31.75, 31.875, 32, 32.125, 32.25, 32.17857, 32, 31.9375, 31.9375, 31.9375, 31.9375, 32.17857, 32.107143, 32.17857, 32.32143, 32.357143, 32.392857, 32.267857, 32.711311, 33.4375, 33.875, 34.125, 34.25, 34.375, 34.758926, 35.523811, 36.142857, 36.732143, 37.0625, 37.4375, 37.821426, 38.449406, 38.776787, 39.205357, 39.580357, 39.6875, 39.925598, 40.37262, 40.636902, 41.133926, 41.526787, 41.741074, 42.1875, 42.3125, 42.5625, 43.008926, 43.636906, 44.071426, 44.3125, 44.5625, 44.857143, 45.1875, 45.357143, 45.3125, 45.3125, 45.3125, 45.5625, 45.75, 46, 46.09375, 46.25, 46.34375, 46.464287, 46.767857, 46.991074, 47.15625, 47.321426, 47.565475, 47.532143, 47.616074, 47.633926, 48.029762, 48.574406, 49.035717, 49.25, 49.25, 49.1875, 49.1875, 49.25, 49.3125, 49.375, 49.375, 49.669643, 49.991074, 50.25, 50.5625, 50.8125, 50.830357, 50.776787, 50.875, 50.875, 51.25, 51.5, 51.625, 51.580357, 51.723213, 52.020832, 52.366074, 52.6875, 52.875, 53.0625, 53.3125, 53.5, 53.732143, 53.799107, 53.927082, 53.973213, 54.142857, 54.574406, 54.803574, 54.875, 54.875
-10, -10, -10, -10, -10, -10, -10, -10, -10, -10, -10, -10, -10, -10, -10, -10, -10, -10, -10, -10, -10, -10, -10, -10, -10, -10, 101.91666, 101.8125, 101.75521, 101.19643, 99.8125, 99.03125, 98.34375, 98, 97.413689, 96.241074, 95.65625, 94.977676, 93.96875, 93.477676, 92.839287, 91.708336, 91.473213, 91.022324, 90.391373, 89.793159, 89.3125, 88.875, 88.351189, 87.333336, 86.8125, 86.383926, 85.904762, 84.75, 84.39286, 83.5625, 82.696426, 82, 81.419647, 80.142853, 79.5, 79.089287, 78.651794, 77.851181, 77.25, 76.270836, 75.333336, 74.315475, 73.642853, 72.833328, 72.25, 71.291672, 70.785713, 69.815475, 69.071426, 68.211304, 67.392853, 66.297623, 65.642853, 65, 64.276779, 63.625, 62.875, 62.276787, 61.175594, 60.419643, 59.607143, 58.654762, 57.875, 57, 56.245537, 55.424103, 54.319939, 53.67857, 53.169643, 52.446426, 51.559525, 50.857143, 49.875, 49.125, 48.330357, 47.678574, 47.071426, 46.071426, 45.029762, 44.276787, 43.508926, 42.547619, 41.672623, 41, 39.571426, 38.744049, 38.133926, 37.544643, 36.726192, 35.916668, 35.321426, 34.580357, 33.764881, 33.267857, 32.803574, 32.372025, 32.3125, 32.861111, 33.029762, 33.083332, 32.903061, 32.139458, 32.214287, 32.275509, 32.78125, 32.875, 32.785713, 32.836735, 32.596939, 32.438774, 32.209187, 32.59375, 32.700893, 32.75, 32.9375, 33, 33.125, 33.5, 33.3125, 33.25, 33.142857, 33.142857, 33.5, 33.708332, 33.666668, 33.625, 33.541668, 33.25, 33.214287, 33.107143, 33, 33.125, 33.041668, 33, 32.892857, 32.964287, 33.035713, 33.142857, 33.142857, 33.142857, 33.020409, 32.07143, 31.988096, 32.458332, 32.616074, 32.75, 32.75, 32.6875, 32.6875, 32.6875, 32.6875, 32.678574, 32.549999, 32.741074, 32.669643, 32.6875, 32.625, 32.526787, 32.625, 32.732143, 32.943878, 32.92857, 32.857143, 32.785713, 32.785713, 32.75, 32.892857, 33.035713, 32.705357, 32.63163, 32.438774, 32.438774, 33.07143, 33.07143, 33.07143, 33.107143, 32.875, 32.883926, 33.012501, 32.821426, 32.821426, 32.8125, 33, 33.107143, 33.142857, 33.214287, 33.392857, 33.392857, 33.392857, 33.438774, 33.541668, 33.875, 34.107143, 34.1875, 34.25, 34.375, 34.758926, 35.586311, 36.321426, 36.892857, 37.1875, 37.5, 37.821426, 38.449406, 38.839287, 39.330357, 39.705357, 39.8125, 40.050598, 40.37262, 40.49107, 41, 41.44643, 41.741074, 42.25, 42.4375, 42.75, 43.25, 43.678574, 44.142857, 44.4375, 44.8125, 45.169643, 45.5, 45.669643, 45.5625, 45.5625, 45.5625, 45.75, 45.875, 46.125, 46.21875, 46.4375, 46.65625, 46.75, 46.910713, 47.133926, 47.427082, 47.589283, 47.864582, 47.825893, 47.65625, 47.642857, 47.967262, 48.494049, 48.866074, 49.125, 49.125, 49.125, 49.25, 49.4375, 49.625, 49.75, 49.821426, 50.169643, 50.366074, 50.625, 50.8125, 51.0625, 51.080357, 50.95536, 50.875, 50.9375, 51.357143, 51.6875, 51.9375, 51.955357, 52.098213, 52.395832, 52.678574, 52.9375, 53.125, 53.3125, 53.5625, 53.75, 53.919643, 54.049107, 54.302082, 54.545918, 54.765308, 54.886906, 54.928574, 54.9375, 54.964287, 54.910713, 54.901787, 55, 54.9375, 55.0625, 55.03125, 55.09375, 55.15625, 55.017857, 54.479168, 53.919643, 53.44643, 53.072918, 53.080357, 53.125, 53.1875, 53.09375, 52.8125, 52.666668, -10, -10, -10, -10, -10, -10, 33.722221, 32.658333, 32.248299, 31.928572, 31.854168, 31.967262, 32.4375, 32.541668, -10, -10, -10, -10, -10, -10, -10, -10, -10, -10, -10, -10, -10, -10, -10, -10, -10, -10, -10, -10, -10, -10, -10, -10, -10, -10, -10, -10, -10, -10, -10, -10, -10, -10, -10, -10, -10, -10, -10, -10, -10, -10, -10, -10, -10, -10, -10, -10, -10, -10, -10, -10, -10, -10, -10, -10, -10, -10, -10, 101.8125, 101.64584, 101.42188, 100.64881, 99.663689, 98.995537, 98.388397, 97.928574, 97.205353, 96.196426, 95.598213, 94.977676, 93.96875, 93.477676, 92.839287, 91.916672, 91.58036, 91.049103, 90.462799, 89.864586, 89.375, 88.875, 88.333336, 87.645836, 87.0625, 86.404762, 85.779762, 84.5, 84.151787, 83.419647, 82.517853, 81.821426, 81.133926, 80.071426, 79.383926, 78.848213, 78.357147, 77.538681, 76.9375, 76.25, 75.297615, 74.244049, 73.535713, 72.979164, 72.428574, 71.333336, 70.785713, 69.732147, 69, 68.294647, 67.455353, 66.523804, 65.892853, 65.1875, 64.360123, 63.375, 62.553574, 62.026787, 61.041664, 60.339287, 59.42857, 58.714287, 58.017857, 57.205353, 56.348213, 55.535713, 54.476189, 53.776783, 53.205357, 52.553574, 51.476192, 50.785713, 49.833336, 49.125, 48.392857, 47.785713, 47.133926, 46.092262, 44.916664, 44.205357, 43.5625, 42.726189, 41.696426, 41, 39.624996, 39.035713, 38.229168, 37.616074, 36.872025, 35.988094, 35.339287, 34.580357, 33.973213, 33.642857, 33.366074, 33.380951, 33.530613, 33.809521, 34.025509, 34.142857, 34.224491, 34.367065, 34.333332, 34.136906, 33.92857, 33.857143, 34.145832, 34.333332, 34.25, 34.229168, 34.059525, 33.75, 33.811226, 33.625, 33.75, 34.035713, 34.142857, 34.285713, 34.25, 34.214287, 34.214287, 34.25, 34.42857, 34.5, 34.5, 34.535713, 34.464287, 34.42857, 34.357143, 34.214287, 34.142857, 34.107143, 34.107143, 33.875, 33.916668, 33.9375, 33.9375, 33.9375, 33.875, 33.875, 33.767857, 33.5, 33.722221, 33.595238, 33.704082, 33.785713, 33.5625, 33.5625, 33.5625, 33.5625, 33.785713, 33.857143, 33.857143, 33.6875, 33.625, 33.625, 33.625, 33.589287, 33.92857, 33.979591, 33.979591, 33.75, 33.660713, 33.526787, 33.5, 33.375, 33.5625, 33.6875, 33.705357, 34.172619, 34.208332, 34.291668, 34.17857, 34.17857, 33.9375, 33.875, 33.75, 33.821426, 34.157143, 34.045918, 34.081631, 34, 34.07143, 33.875, 34.17857, 34.0625, 34.125, 34.125, 34.125, 34.25, 34.125, 34.303574, 34.419643, 34.4375, 34.4375, 34.5625, 34.883926, 35.648811, 36.383926, 36.892857, 37.1875, 37.5, 37.821426, 38.449406, 38.910713, 39.392857, 39.767857, 39.9375, 40.238098, 40.595833, 40.63393, 41.0625, 41.44643, 41.741074, 42.25, 42.5, 42.8125, 43.3125, 43.625, 44.044643, 44.4375, 44.875, 45.401787, 45.6875, 45.857143, 45.75, 45.6875, 45.6875, 45.8125, 45.875, 46.125, 46.28125, 46.53125, 46.75, 46.84375, 46.9375, 47.008926, 47.541664, 47.846935, 47.989582, 47.950893, 47.78125, 47.705357, 48.029762, 48.556549, 48.866074, 49.0625, 49.0625, 49.0625, 49.3125, 49.5, 49.75, 50, 50.071426, 50.375, 50.5625, 50.875, 51.1875, 51.5, 51.580357, 51.39286, 51.3125, 51.375, 51.669643, 51.9375, 52.125, 52.25, 52.455357, 52.770832, 52.991074, 53.1875, 53.375, 53.625, 53.875, 54, 54.125, 54.299107, 54.677082, 54.883926, 55.071426, 55.116074, 54.9375, 54.875, 54.964287
-10, -10, -10, -10, -10, -10, -10, -10, -10, -10, -10, -10, -10, -10, -10, -10, -10, -10, -10, -10, -10, -10, -10, -10, -10, -10, 101.8125, 101.66667, 101.5, 100.59863, 99.757439, 99.066963, 98.357147, 97.6875, 96.955353, 96.258926, 95.776787, 95.25, 94.020836, 93.5, 92.875, 92.208336, 91.866074, 91.267853, 90.511902, 89.895836, 89.375, 88.875, 88.392853, 87.9375, 87.303574, 86.413689, 85.613098, 84.333328, 84.053574, 83.357147, 82.517853, 81.821426, 81.196426, 80.333336, 79.479164, 78.848213, 78.241074, 77.443451, 76.830353, 76.1875, 75.288689, 74.244049, 73.598213, 73.241074, 72.511909, 71.386909, 70.785713, 69.648811, 68.928574, 68.232147, 67.446426, 66.59523, 66, 65.25, 64.369049, 63.303574, 62.3125, 61.74107, 60.958332, 60.294643, 59.42857, 58.785713, 58.125, 57.267853, 56.35714, 55.60714, 54.654762, 53.94643, 53.276787, 52.5625, 51.547619, 50.892857, 49.750004, 49.0625, 48.383926, 47.785713, 47.133926, 46.101189, 44.803574, 44.133926, 43.553574, 42.726189, 41.696426, 41, 39.854164, 39.178574, 38.238094, 37.580357, 36.955357, 36.113094, 35.589287, 35.008926, 34.642857, 34.36607, 34.080357, 34.377552, 34.551022, 34.614582, 34.834824, 34.90625, 35.219387, 35.207485, 35.17857, 35.010204, 34.964287, 34.892857, 34.94643, 35.07143, 35, 35.017857, 35, 34.94643, 35.017857, 34.708332, 34.57143, 34.9375, 35.0625, 35.1875, 35.125, 35.0625, 35.0625, 35.09375, 35.21875, 35.3125, 35.3125, 35.28125, 35.21875, 35.392857, 35.357143, 35.285713, 35.285713, 35.125, 35.25, 35.458332, 35.375, 35.07143, 35.07143, 34.8125, 34.696426, 34.479168, 34.392857, 34.214287, 34.414967, 34.690475, 34.7449, 34.857143, 34.642857, 34.642857, 34.642857, 34.642857, 34.785713, 34.857143, 34.857143, 34.857143, 34.785713, 34.785713, 34.785713, 34.852043, 34.948978, 34.918369, 34.732143, 34.6875, 34.535713, 34.339287, 34.25, 34.133926, 34.458332, 34.544643, 34.964287, 35.035713, 35.035713, 35.107143, 35.107143, 35.142857, 35.07143, 34.75, 34.625, 34.867348, 35.085716, 35.010204, 35.117348, 35, 34.875, 34.9375, 35, 35.0625, 35.0625, 35, 35, 35, 35.0625, 35.0625, 35, 34.9375, 34.875, 35, 35.196426, 35.791668, 36.446426, 36.892857, 37.25, 37.5625, 37.821426, 38.333332, 38.75, 39.1875, 39.544643, 39.9375, 40.303574, 40.637501, 40.830357, 41.25, 41.589287, 41.875, 42.3125, 42.5625, 42.875, 43.25, 43.5, 43.875, 44.357143, 44.8125, 45.401787, 45.6875, 45.9375, 46, 45.875, 45.8125, 45.830357, 45.9375, 46.1875, 46.46875, 46.65625, 46.90625, 47.040176, 47.3125, 47.446426, 47.895832, 48.080357, 48.15625, 48.09375, 47.96875, 47.9375, 48.133926, 48.627975, 48.866074, 49.0625, 49.0625, 49.0625, 49.3125, 49.5, 49.75, 50, 50.071426, 50.375, 50.5, 50.821426, 51.333332, 51.616074, 51.794643, 51.678574, 51.5625, 51.6875, 51.92857, 52.395832, 52.607143, 52.75, 52.875, 53, 53.1875, 53.375, 53.625, 53.8125, 54.0625, 54.125, 54.1875, 54.473213, 55.104164, 55.3125, 55.3125, 55.080357, 54.75, 54.6875, 54.839287, 54.946426, 54.964287, 55.0625, 54.9375, 55, 55, 55, 54.9375, 54.75, 54.4375, 53.924107, 53.361607, 53.0625, 52.8125, 52.75, 52.6875, 52.78125, 52.78125, 52.833336, -10, -10, -10, -10, -10, 35.5, 34.904762, 34.652378, 34.612244, 34.57143, 34.527779, 34.763889, 34.666664, 34.666668, -10, -10, -10, -10, -10, -10, -10, -10, -10, -10, -10, -10, -10, -10, -10, -10, -10, -10, -10, -10, -10, -10, -10, -10, -10, -10, -10, -10, -10, -10, -10, -10, -10, -10, -10, -10, -10, -10, -10, -10, -10, -10, -10, -10, -10, -10, -10, -10, -10, -10, -10, -10, -10, -10, -10, -10, -10, -10, -10, 101.6875, 101.54167, 101.46875, 100.87074, 99.694939, 99.03125, 98.263397, 97.59375, 96.924103, 96.34375, 95.875, 95.357147, 94.229164, 93.571426, 92.9375, 92.392853, 91.9375, 91.357147, 90.678574, 90.1875, 89.6875, 89.1875, 88.705353, 88.241074, 87.386909, 86.404762, 85.541672, 84.4375, 83.946426, 83.178574, 82.452377, 81.714287, 81.080353, 80.321426, 79.443451, 78.785713, 78.125, 77.348206, 76.723213, 76.125, 75.267853, 74.35714, 73.741074, 73.303574, 72.511909, 71.470238, 70.892853, 69.565475, 68.85714, 68.107147, 67.267853, 66.571426, 66, 65.25, 64.369049, 63.232143, 62.071426, 61.38393, 60.767857, 60.1875, 59.348213, 58.678574, 58.0625, 57.258926, 56.285713, 55.5, 54.821426, 54.080357, 53.348213, 52.571426, 51.619049, 51, 49.666668, 49, 48.375, 47.714287, 47.026787, 46.029762, 44.761902, 44.0625, 43.491074, 42.654758, 41.654762, 41, 40.083332, 39.321426, 38.380951, 37.767857, 37.1875, 36.425594, 36.026787, 35.6875, 35.67857, 35.622448, 35.520409, 35.392857, 35.2551, 35.59375, 35.65625, 35.78125, 35.96875, 36.098213, 36.0625, 35.830357, 35.75, 35.75, 35.875, 35.982143, 35.8125, 35.883926, 35.962502, 36.010204, 36.081631, 36.291668, 36.375, 36.214287, 36.25, 36.0625, 36, 36, 36.0625, 36.15625, 36.21875, 36.15625, 36.32143, 36.0625, 35.973213, 35.964287, 36, 35.9375, 36.285713, 36.392857, 36.42857, 36.42857, 36.357143, 36.285713, 36.285713, 36.142857, 35.938774, 35.119049, 35.035713, 34.964287, 35.446426, 35.5625, 35.5625, 35.892857, 35.5625, 35.5625, 35.5625, 35.5, 35.857143, 36, 36, 36, 35.857143, 35.785713, 35.82143, 35.908165, 35.723213, 35.857143, 35.625, 35.785713, 35.535713, 35.401787, 35.035713, 35.196426, 35.666664, 35.729591, 35.92857, 35.875, 35.9375, 36.0625, 36, 35.9375, 36.035713, 35.857143, 35.857143, 35.758926, 35.950001, 35.883926, 35.883926, 35.92857, 35.92857, 35.92857, 35.964287, 36.035713, 36, 35.75, 35.8125, 35.9375, 36.25, 36.32143, 36.285713, 36.17857, 36.025509, 35.666668, 35.767857, 36, 36.553574, 36.910713, 37.25, 37.625, 37.883926, 38.395832, 38.8125, 39.1875, 39.616074, 40.107143, 40.419643, 40.6875, 41, 41.3125, 41.669643, 42, 42.375, 42.625, 42.875, 43.125, 43.375, 43.8125, 44.401787, 44.8125, 45.357143, 45.625, 45.875, 46, 45.875, 45.8125, 45.892857, 46.0625, 46.4375, 46.75, 46.875, 47.125, 47.133926, 47.4375, 47.633926, 47.958332, 48.080357, 48.09375, 48.09375, 48.200893, 48.3125, 48.5625, 48.794643, 48.9375, 49.0625, 49.125, 49.1875, 49.4375, 49.6875, 49.9375, 50.1875, 50.321426, 50.5, 50.5, 50.776787, 51.354164, 51.669643, 51.9375, 51.928574, 51.8125, 51.9375, 52.125, 52.708332, 52.794643, 52.830357, 52.928574, 53.229168, 53.4375, 53.6875, 53.8125, 53.9375, 54.125, 54.1875, 54.3125, 54.580357, 55.020832, 55.205357, 55.1875, 55.017857, 54.6875, 54.5625, 54.714287
-10, -10, -10, -10, -10, -10, -10, -10, -10, -10, -10, -10, -10, -10, -10, -10, -10, -10, -10, -10, -10, -10, -10, -10, -10, -10, 101.4375, 101.33334, 101.3125, 100.59524, 99.569939, 98.892853, 98.138397, 97.53125, 96.924103, 96.40625, 96.03125, 95.535721, 94.479164, 93.821426, 93.1875, 92.642853, 92.1875, 91.607147, 90.928574, 90.4375, 89.875, 89.258926, 88.723206, 88.241074, 87.386909, 86.476196, 85.708336, 84.770828, 84.196426, 83.383926, 82.60714, 81.785713, 81.089287, 80.392853, 79.684525, 79, 78.101189, 77.3125, 76.616074, 76.0625, 75.258926, 74.35714, 73.66964, 73.133926, 72.333336, 71.449402, 70.726189, 69.25, 68.723213, 68, 67.267853, 66.5, 65.821426, 65.080353, 64.226189, 63.080357, 62.142853, 61.419643, 60.830357, 60.1875, 59.276787, 58.57143, 58, 57.104168, 56.214287, 55.345242, 54.821426, 54.125, 53.348213, 52.464287, 51.595238, 51, 49.666668, 49, 48.3125, 47.535713, 46.848213, 46.154762, 44.666664, 43.928574, 43.3125, 42.696426, 41.726192, 41.0625, 40.321426, 39.464287, 38.523808, 37.892857, 37.3125, 36.883926, 36.580357, 36.642857, 36.714287, 36.683674, 36.591835, 36.698978, 36.964283, 36.80357, 36.65625, 36.78125, 36.84375, 36.8125, 36.776787, 36.625, 36.5625, 36.892857, 37.035713, 36.919643, 36.57143, 36.946426, 37.278572, 37.224487, 37.224487, 37.214287, 37.214287, 37.142857, 37.214287, 37.214287, 37.214287, 37.214287, 37.214287, 37.30357, 37.339287, 37.375, 37.1875, 37.09375, 36.941963, 36.870537, 36.875, 36.875, 37.285713, 37.357143, 37.392857, 37.42857, 37.357143, 37.32143, 37.285713, 37.17857, 37.010201, 36.944447, 36.833332, 36.708332, 36.653057, 36.785713, 36.785713, 36.92857, 36.785713, 36.785713, 36.857143, 36.857143, 36.964287, 37.07143, 37, 36.92857, 36.82143, 36.5625, 36.625, 36.75, 36.8125, 36.8125, 36.75, 36.6875, 36.806122, 36.622448, 36.75, 36.474491, 36.809521, 36.836735, 36.92857, 36.964287, 36.892857, 37.07143, 37.142857, 37.214287, 36.928574, 36.541668, 36.761906, 36.892857, 37.010201, 37.098213, 37.0625, 36.642857, 36.8125, 36.75, 36.6875, 36.75, 36.75, 36.6875, 36.964287, 37.07143, 37.214287, 37.357143, 37.42857, 37.42857, 37.204082, 36.604168, 36.482143, 36.5, 36.8125, 37.125, 37.4375, 37.8125, 38.071426, 38.520832, 38.875, 39.1875, 39.678574, 40.232143, 40.607143, 40.9375, 41.25, 41.5, 41.75, 42.125, 42.4375, 42.6875, 42.9375, 43.0625, 43.3125, 43.75, 44.38393, 44.75, 45.294643, 45.5625, 45.8125, 46, 45.9375, 45.9375, 46.017857, 46.25, 46.5625, 46.8125, 47, 47.1875, 47.258926, 47.625, 47.75, 47.8125, 47.901787, 47.973213, 48.0625, 48.419643, 48.5625, 48.8125, 48.9375, 49, 49.0625, 49.1875, 49.3125, 49.625, 49.9375, 50.1875, 50.4375, 50.5, 50.5, 50.5625, 50.901787, 51.577377, 51.857143, 52.0625, 51.9375, 52, 52.09375, 52.299107, 52.927082, 52.950893, 52.955357, 52.991074, 53.229168, 53.5, 53.75, 53.875, 54, 54.1875, 54.375, 54.598213, 54.830357, 55.145832, 55.169643, 55.125, 54.955357, 54.6875, 54.625, 54.75, 54.848213, 54.9375, 54.9375, 54.875, 54.875, 55, 55.0625, 54.875, 54.580357, 54.34375, 53.875, 53.229168, 52.803574, 52.34375, 52.1875, 52.0625, 52.3125, 52.5625, 52.770836, -10, -10, -10, -10, 38, 36.666664, 36.625, 36.4375, 36.375, 36.5, 36.5, 36.625, 36.214287, 36.038097, -10, -10, -10, -10, -10, -10, -10, -10, -10, -10, -10, -10, -10, -10, -10, -10, -10, -10, -10, -10, -10, -10, -10, -10, -10, -10, -10, -10, -10, -10, -10, -10, -10, -10, -10, -10, -10, -10, -10, -10, -10, -10, -10, -10, -10, -10, -10, -10, -10, -10, -10, -10, -10, -10, -10, -10, -10, -10, -10, 101.34375, 101.1875, 101.20312, 100.66295, 99.552078, 98.857132, 97.947914, 97.424103, 96.861603, 96.53125, 96.196426, 95.494049, 94.523804, 93.928574, 93.375, 92.830353, 92.330353, 91.794647, 91.160706, 90.6875, 90.0625, 89.330353, 88.741074, 88.178574, 87.125, 86.464279, 85.770836, 85.104164, 84.508926, 83.467262, 82.714287, 81.964287, 81.258926, 80.535706, 79.872025, 79.241074, 78.291672, 77.208328, 76.5, 75.928574, 75.104164, 74.285713, 73.589287, 72.964279, 72.154762, 71.199402, 70.476189, 69.291664, 68.794647, 68.0625, 67.276779, 66.428574, 65.642853, 64.910713, 64.142853, 63.267857, 62.285713, 61.5, 60.892857, 60.1875, 59.276787, 58.5, 57.892857, 57.041668, 56.205357, 55.345242, 54.821426, 54.125, 53.288689, 52.172615, 51.42857, 50.8125, 49.57143, 48.892857, 48.1875, 47.410713, 46.75, 45.904762, 44.625, 43.821426, 43.1875, 42.571426, 41.809525, 40.979168, 40.267857, 39.401787, 38.669643, 38.035713, 37.625, 37.4375, 37.375, 37.375, 37.5, 37.473213, 37.653057, 37.867344, 37.969387, 38.035713, 38, 38, 37.92857, 37.785713, 37.464287, 37.401787, 37.473213, 37.92857, 38.214287, 38.193878, 38.333332, 38.153057, 38.207146, 38.224487, 38.260201, 38.125, 38.1875, 38.0625, 38.0625, 38.0625, 38.17857, 38.17857, 38, 38, 38.214287, 38.214287, 38.17857, 38.07143, 37.897957, 37.816326, 37.964287, 38.07143, 38.125, 38.1875, 38.125, 38.357143, 38.32143, 38.392857, 38.1875, 38.125, 38.008926, 38.095242, 38, 37.82143, 37.897957, 37.857143, 37.785713, 37.892857, 37.82143, 37.82143, 37.892857, 37.892857, 38, 38.07143, 38, 37.92857, 37.785713, 37.714287, 37.714287, 37.857143, 37.92857, 38, 38, 37.92857, 37.892857, 37.857143, 37.892857, 37.82653, 37.833332, 37.857143, 37.8125, 38.035713, 37.92857, 38, 38.07143, 38.17857, 38.168369, 37.369049, 37.476192, 37.833332, 38.224487, 38.469387, 38.32143, 38.291668, 37.892857, 37.723213, 37.625, 37.6875, 37.6875, 37.892857, 37.964287, 37.875, 38, 38.125, 38.392857, 38.42857, 38.239799, 37.726192, 37.419643, 37.375, 37.5625, 37.8125, 38.0625, 38.4375, 38.6875, 39, 39.25, 39.4375, 39.928574, 40.357143, 40.669643, 41, 41.25, 41.5, 41.75, 42.125, 42.4375, 42.6875, 43, 43.15625, 43.46875, 43.96875, 44.54018, 44.8125, 45.25, 45.5, 45.75, 46.0625, 46.125, 46.1875, 46.392857, 46.625, 46.8125, 47.0625, 47.1875, 47.375, 47.508926, 47.8125, 47.875, 47.946426, 48.089287, 48.160713, 48.3125, 48.607143, 48.75, 49.008926, 49.333332, 49.428574, 49.4375, 49.5, 49.5625, 49.8125, 50.1875, 50.4375, 50.6875, 50.75, 50.75, 50.8125, 51.089287, 51.702377, 51.919643, 52.125, 52.0625, 52.0625, 52.09375, 52.299107, 52.864582, 53.013393, 53.080357, 53.053574, 53.291668, 53.5, 53.75, 53.875, 53.9375, 54.1875, 54.666668, 54.85714, 55.080357, 55.208332, 55.107143, 55.0625, 54.830357, 54.625, 54.5, 54.5
-10, -10, -10, -10, -10, -10, -10, -10, -10, -10, -10, -10, -10, -10, -10, -10, -10, -10, -10, -10, -10, -10, -10, -10, -10, -10, 101.21875, 100.9375, 100.78348, 100.22991, 99.416664, 98.816956, 98.041664, 97.602676, 97.09375, 96.71875, 96.321426, 95.627983, 94.833328, 94.083336, 93.625, 93.142853, 92.723213, 91.982147, 91.375, 90.8125, 90.25, 89.580353, 89.026779, 88.261909, 87.241074, 86.642853, 86, 85.383926, 84.642853, 83.538689, 82.714287, 81.964287, 81.258926, 80.535706, 79.872025, 79.241074, 78.291672, 77.208328, 76.398804, 75.470238, 74.648811, 73.892853, 73.214287, 72.660713, 72.071426, 71.083328, 70.369049, 69.458328, 68.928574, 68.133926, 67.285713, 66.35714, 65.535713, 64.848213, 64.133926, 63.267857, 62.35714, 61.607143, 60.955357, 60.267857, 59.455353, 58.440475, 57.82143, 56.979168, 56.196426, 55.345242, 54.883926, 54.205357, 53.133926, 52.065475, 51.285713, 50.625, 49.547623, 48.892857, 48.1875, 47.410713, 46.75, 45.904762, 44.625, 43.821426, 43.1875, 42.571426, 41.738094, 40.872025, 40.267857, 39.517857, 39.035713, 38.580357, 38.375, 38.375, 38.3125, 38.303574, 38.34375, 38.34375, 38.53125, 38.75, 39.040813, 39.107143, 39, 38.964287, 38.892857, 38.625, 38.589287, 38.589287, 38.897957, 39.035713, 39.214287, 39.132656, 39.142857, 38.883926, 38.962502, 38.946426, 39.183674, 39.17857, 39.142857, 39.035713, 38.875, 39.142857, 39.107143, 39.107143, 38.875, 38.875, 39, 39.0625, 38.82143, 38.75, 38.57653, 38.767857, 39.214287, 39.285713, 39.42857, 39.392857, 39.1875, 39.25, 39.25, 39.3125, 39.5, 39.464287, 39.42857, 39.357143, 39.25, 39.035713, 38.964287, 38.857143, 38.785713, 38.625, 38.625, 38.625, 38.75, 38.75, 39.035713, 38.875, 38.75, 38.6875, 38.5625, 38.714287, 38.714287, 38.857143, 38.92857, 39, 39, 38.92857, 38.892857, 38.892857, 38.964287, 38.892857, 39, 39.07143, 39.07143, 39.086735, 38.737499, 38.928574, 38.991074, 39.125, 39.454082, 39.40873, 39.438496, 39.5, 39.224487, 39.469387, 39.32143, 39.214287, 39.07143, 39.112244, 38.666668, 39.07143, 38.75, 39.142857, 39.17857, 38.9375, 38.9375, 39, 39, 39.0625, 38.928574, 38.738098, 38.683674, 38.642857, 38.714287, 38.6875, 38.8125, 39.0625, 39.25, 39.5, 39.75, 39.9375, 40.366074, 40.607143, 40.75, 40.9375, 41.125, 41.4375, 41.75, 42.1875, 42.53125, 42.84375, 43.15625, 43.390625, 43.734375, 44.171875, 44.636162, 44.9375, 45.3125, 45.5625, 45.8125, 46.125, 46.3125, 46.5, 46.75, 46.875, 47.0625, 47.25, 47.4375, 47.625, 47.6875, 47.8125, 47.9375, 48.071426, 48.375, 48.473213, 48.625, 48.794643, 48.946426, 49.404762, 49.726189, 49.834824, 49.84375, 49.84375, 49.875, 50.0625, 50.3125, 50.5625, 50.8125, 51, 51.25, 51.3125, 51.580357, 51.869045, 52.053574, 52.25, 52.25, 52.25, 52.21875, 52.352676, 52.71875, 52.941963, 53.080357, 53.178574, 53.416668, 53.625, 53.8125, 53.875, 53.875, 54.089287, 54.639881, 54.79464, 55.0625, 55.0625, 55.071426, 55.09375, 55.03125, 54.78125, 54.625, 54.5, 54.5, 54.625, 54.75, 54.910713, 55, 55.25, 55.258926, 54.877975, 54.434525, 54.165176, 53.84375, 53.385418, 53.022324, 52.5625, 52.3125, 52.125, 52.125, 52.3125, 52.4375, -10, -10, -10, -10, 38.958332, 38.822914, 38.71875, 38.46875, 38.4375, 38.4375, 38.214287, 38.82143, 38.82143, 38.828571, -10, -10, -10, -10, -10, -10, -10, -10, -10, -10, -10, -10, -10, -10, -10, -10, -10, -10, -10, -10, -10, -10, -10, -10, -10, -10, -10, -10, -10, -10, -10, -10, -10, -10, -10, -10, -10, -10, -10, -10, -10, -10, -10, -10, -10, -10, -10, -10, -10, -10, -10, -10, -10, -10, -10, -10, -10, -10, -10, 101.09375, 100.8125, 100.59598, 100.14062, 99.625, 98.861603, 98.144341, 97.625, 96.979164, 96.633926, 96.258926, 95.699409, 95.104164, 94.458336, 94.0625, 93.571426, 92.931549, 92.107147, 91.5, 90.9375, 90.285713, 89.40136, 88.734688, 87.833336, 87.157738, 86.642853, 85.833336, 85.25, 84.633926, 83.654762, 82.892853, 81.922615, 81.196426, 80.526779, 79.872025, 79.303574, 78.416672, 77.458328, 76.380951, 75.398811, 74.586311, 73.883926, 73.142853, 72.553574, 72, 71.104164, 70.369049, 69.666664, 69.0625, 68.205353, 67.285713, 66.285713, 65.428574, 64.785713, 64.125, 63.267857, 62.428574, 61.785713, 61.125, 60.339287, 59.464287, 58.440475, 57.82143, 56.979168, 56.196426, 55.345242, 54.883926, 54.214287, 53.020832, 51.994049, 51.267857, 50.625, 49.693455, 48.964287, 48.196426, 47.410713, 46.75, 45.967262, 44.851189, 43.821426, 43.098213, 42.446426, 41.821426, 40.934525, 40.348213, 39.821426, 39.517857, 39.267857, 39.5, 39.57143, 39.57143, 39.366074, 39.46875, 39.142857, 39.857143, 40, 40.020409, 40.035713, 39.75, 39.6875, 39.625, 39.857143, 39.908165, 40.066326, 40.147957, 40.107143, 40, 39.875, 39.9375, 39.875, 39.8125, 39.875, 39.875, 39.9375, 39.875, 40, 39.75, 39.8125, 39.8125, 39.875, 39.875, 39.875, 40.142857, 40.25, 40.479168, 40.4375, 40.395832, 40.3125, 40.285713, 40.357143, 40.5, 40.464287, 40.42347, 40.5, 40.295918, 40.448978, 40.464287, 40.535713, 40.607143, 40.535713, 40.464287, 40.285713, 39.642857, 39.8125, 39.6875, 39.625, 39.714287, 39.714287, 39.892857, 39.75, 39.8125, 39.8125, 39.625, 39.785713, 39.714287, 39.714287, 39.714287, 39.6875, 39.75, 39.8125, 39.8125, 39.75, 39.75, 40, 40.07143, 39.92857, 39.75, 40.035713, 40.035713, 40.086735, 39.985714, 40.168369, 40.204082, 40.392857, 40.530613, 40.421764, 40.411564, 40.357143, 39.883926, 40.035713, 40, 39.973213, 40.142857, 40.290813, 40.333332, 40.214287, 40.291668, 40.107143, 40.17857, 40.107143, 40.035713, 39.8125, 39.8125, 39.848213, 39.714287, 39.625, 39.887756, 39.892857, 39.892857, 39.857143, 39.625, 39.75, 39.875, 40.125, 40.3125, 40.4375, 40.75, 40.875, 41, 41.1875, 41.3125, 41.5625, 41.875, 42.28125, 42.65625, 43.03125, 43.34375, 43.609375, 43.984375, 44.359375, 44.716518, 45.0625, 45.375, 45.625, 45.9375, 46.25, 46.5, 46.75, 46.9375, 47, 47.125, 47.3125, 47.5625, 47.75, 47.875, 48, 48.125, 48.321426, 48.6875, 48.785713, 48.875, 48.9375, 49.080357, 49.738094, 50.083332, 50.209824, 50.09375, 49.995537, 50.035713, 50.125, 50.392857, 50.6875, 50.9375, 51.1875, 51.5, 51.6875, 51.875, 52, 52.232143, 52.428574, 52.5, 52.5, 52.40625, 52.5, 52.6875, 53.035713, 53.34375, 53.4375, 53.5, 53.625, 53.75, 53.875, 53.875, 54.026787, 54.514881, 54.60714, 54.875, 55, 55.107143, 55.15625, 55.09375, 54.78125, 54.5625, 54.375
-10, -10, -10, -10, -10, -10, -10, -10, -10, -10, -10, -10, -10, -10, -10, -10, -10, -10, -10, -10, -10, -10, -10, -10, -10, -10, 101.40625, 101.04167, 100.76785, 100.26562, 99.859375, 99.3125, 98.680054, 97.895836, 97.193451, 96.883926, 96.446426, 95.645836, 95.270836, 94.744049, 94.375, 93.904762, 92.952385, 92, 91.482147, 91, 90.366074, 89.022102, 88.367348, 87.833336, 87.273811, 86.666664, 85.833336, 85.1875, 84.526779, 83.592262, 82.654762, 81.779762, 81.125, 80.508926, 79.809525, 79.1875, 78.476196, 77.601189, 76.559525, 75.273811, 74.452385, 73.8125, 73.133926, 72.553574, 72, 71.166664, 70.535713, 69.791664, 69.125, 68.267853, 67.285713, 66.357147, 65.607147, 64.955353, 64.196426, 63.276787, 62.5, 61.892857, 61.1875, 60.348213, 59.464287, 58.440475, 57.82143, 57.133926, 56.154758, 55.5, 55, 54.339287, 53.029762, 51.994049, 51.267857, 50.625, 49.693455, 48.964287, 48.196426, 47.482143, 46.857143, 46.029762, 45.089287, 43.964287, 43.24107, 42.571426, 41.946426, 41.122025, 40.714287, 40.4375, 40.3125, 40.510201, 40.642857, 40.714287, 40.67857, 40.668369, 40.714287, 40.979168, 40.92857, 40.964287, 40.75, 40.8125, 40.8125, 40.75, 40.6875, 41, 41.107143, 41.265308, 41.306122, 41.17857, 41, 40.8125, 40.8125, 40.892857, 40.785713, 40.625, 40.6875, 40.8125, 40.8125, 40.6875, 40.651787, 40.794643, 40.803574, 41.17857, 41.25, 41.285713, 41.285713, 41.285713, 41.285713, 41.214287, 41.285713, 41.357143, 41.464287, 41.377552, 41.403057, 41.32143, 41.316326, 41.357143, 41.008926, 41.205357, 41.3125, 41.375, 41.642857, 41.57143, 41.5, 41.464287, 41.583332, 41.25, 41.142857, 41, 40.857143, 40.785713, 40.857143, 40.857143, 40.892857, 40.892857, 40.5625, 40.5625, 40.714287, 40.714287, 40.714287, 40.82143, 40.82143, 40.82143, 40.82143, 40.82143, 40.964287, 41.07143, 41, 40.875, 40.8125, 40.8125, 40.75, 40.794643, 40.950001, 41.204082, 41.275513, 41.392857, 41.5, 41.433674, 41.223213, 41.262501, 40.883926, 40.821426, 40.8125, 40.848213, 41.285713, 41.448978, 41.285713, 41.25, 41.07143, 40.8125, 41.107143, 41.035713, 41.035713, 41.035713, 41.035713, 40.785713, 40.651787, 40.857143, 40.872448, 40.892857, 40.964287, 40.964287, 40.75, 40.57143, 40.875, 40.9375, 40.892857, 40.875, 41.0625, 41.125, 41.25, 41.5, 41.625, 41.875, 42.25, 42.53125, 42.78125, 43.09375, 43.450893, 43.787949, 44.171875, 44.421875, 44.671875, 45.0625, 45.419643, 45.6875, 46.071426, 46.5, 46.6875, 46.9375, 47.125, 47.1875, 47.375, 47.625, 47.75, 47.9375, 48.0625, 48.1875, 48.375, 48.633926, 48.973213, 49, 49.125, 49.125, 49.330357, 49.988094, 50.333332, 50.459824, 50.415176, 50.433037, 50.410713, 50.4375, 50.517857, 50.75, 51, 51.3125, 51.6875, 51.875, 52, 52.089287, 52.357143, 52.616074, 52.8125, 52.875, 52.875, 53.004463, 53.03125, 53.28125, 53.53125, 53.625, 53.75, 53.8125, 53.875, 53.9375, 53.875, 54.026787, 54.452381, 54.508926, 54.8125, 54.9375, 55.107143, 55.15625, 55.09375, 54.78125, 54.5, 54.25, 54.125, 54.321426, 54.791668, 55.004463, 55.21875, 55.28125, 55.258926, 54.913689, 54.568455, 54.446426, 54.145832, 53.735119, 53.330357, 52.705357, 52.383926, 52.125, 52, 51.848213, 51.523811, -10, -10, -10, 41.857143, 41.142857, 41.035713, 40.892857, 40.714287, 40.67857, 40.642857, 40.714287, 40.67857, 40.607143, 40.619045, -10, -10, -10, -10, -10, -10, -10, -10, -10, -10, -10, -10, -10, -10, -10, -10, -10, -10, -10, -10, -10, -10, -10, -10, -10, -10, -10, -10, -10, -10, -10, -10, -10, -10, -10, -10, -10, -10, -10, -10, -10, -10, -10, -10, -10, -10, -10, -10, -10, -10, -10, -10, -10, -10, -10, -10, -10, -10, -10, 101.75, 101.40417, 101.02009, 100.53125, 99.984375, 99.5625, 99.120537, 98.157745, 97.434525, 96.946426, 96.46875, 95.9375, 95.538689, 95.056549, 94.651787, 94.008926, 93.059525, 92.125, 91.607147, 91.0625, 90.375, 89.175591, 88.535721, 87.895836, 87.535721, 86.761902, 85.895836, 85.1875, 84.526779, 83.592262, 82.583336, 81.672623, 81.0625, 80.491074, 79.872025, 79.303574, 78.559525, 77.892853, 76.773811, 75.095238, 74.285713, 73.65625, 73.040176, 72.535713, 72, 71.3125, 70.678574, 69.916664, 69.1875, 68.276787, 67.285713, 66.428574, 65.785713, 65.125, 64.267853, 63.285713, 62.57143, 62, 61.25, 60.428574, 59.642853, 58.452381, 57.857143, 57.133926, 56.00893, 55.428574, 54.9375, 54.339287, 53.017853, 52.10714, 51.339283, 50.705357, 49.872025, 49.133926, 48.339287, 47.607143, 46.809525, 46.196426, 45.089287, 44.071426, 43.36607, 42.758926, 42.196426, 41.705357, 41.330357, 41.32143, 41.341835, 41.607143, 41.714287, 41.625, 41.714287, 41.7449, 41.80357, 41.875, 41.71875, 41.6875, 41.625, 41.82143, 41.857143, 41.857143, 41.92857, 42.035713, 42.142857, 42.0625, 42, 42.07143, 42.035713, 41.92857, 41.92857, 41.92857, 41.6875, 41.6875, 41.6875, 41.6875, 41.785713, 41.5625, 41.651787, 42.086735, 42.239799, 42.392857, 42.464287, 42.535713, 42.5, 42.25, 42.25, 42.1875, 42.25, 42.5, 42.57143, 42.267857, 42.258926, 42.116074, 41.880955, 41.958332, 41.983929, 42.089287, 42.25, 42.25, 42.375, 42.464287, 42.42857, 42.464287, 42.357143, 42.285713, 42.285713, 42.07143, 41.92857, 41.857143, 41.625, 41.625, 41.625, 41.6875, 41.857143, 41.857143, 41.857143, 41.785713, 41.714287, 41.785713, 41.785713, 41.785713, 41.857143, 41.857143, 42, 42.07143, 42.07143, 42, 41.857143, 41.82143, 41.625, 41.732143, 41.799999, 42.116074, 42.178574, 42.1875, 42.1875, 42.098213, 42.098213, 42.335716, 41.903057, 41.719387, 41.82143, 42.091835, 42.392857, 42.3125, 42.125, 42, 41.875, 41.875, 41.9375, 41.875, 41.8125, 41.964287, 42.07143, 42.112244, 42.030613, 42.142857, 41.809525, 41.833332, 42.214287, 42.142857, 42.07143, 42.25, 41.92857, 41.82143, 41.44643, 41.349998, 41.583332, 41.4375, 41.705357, 41.875, 42.0625, 42.375, 42.75, 43.03125, 43.15625, 43.433037, 43.736607, 43.881699, 44.203125, 44.337051, 44.786457, 45.241074, 45.607143, 45.8125, 46.196426, 46.5625, 46.75, 47.071426, 47.395832, 47.482143, 47.6875, 47.8125, 47.875, 48.0625, 48.1875, 48.375, 48.625, 48.8125, 48.973213, 49, 49.125, 49.25, 49.517857, 50.229164, 50.375, 50.53125, 50.602676, 50.683037, 50.723213, 50.6875, 50.642857, 50.8125, 51.03125, 51.40625, 51.78125, 51.96875, 52.125, 52.214287, 52.544643, 52.741074, 52.875, 53, 53, 53.09375, 53.21875, 53.388393, 53.65625, 53.8125, 53.9375, 53.9375, 53.9375, 53.9375, 53.875, 54.089287, 54.285713, 54.375, 54.6875, 54.875, 55.044643, 55.03125, 54.96875, 54.727676, 54.637501, 54.392857
-10, -10, -10, -10, -10, -10, -10, -10, -10, -10, -10, -10, -10, -10, -10, -10, -10, -10, -10, -10, -10, -10, -10, -10, -10, -10, 102, 101.82084, 101.48438, 100.83334, 100.16146, 99.78125, 99.321426, 98.241074, 97.488098, 96.946426, 96.40625, 95.839287, 95.520836, 95.285713, 94.901787, 93.988098, 92.916672, 92.25, 91.75, 91.1875, 90.321426, 89.005951, 88.357147, 87.875, 87.428574, 86.654762, 85.895836, 85.294647, 84.622025, 83.770836, 82.833336, 81.738098, 81.071426, 80.5, 80.017853, 79.375, 78.639877, 78.071426, 76.815475, 75.482147, 74.678574, 74.03125, 73.352676, 72.494049, 71.928574, 71.25, 70.660713, 69.916664, 69.1875, 68.276787, 67.285713, 66.5, 65.892853, 65.1875, 64.276787, 63.285713, 62.57143, 62.0625, 61.366074, 60.452377, 59.642853, 58.452381, 57.857143, 57.133926, 55.863094, 55.35714, 54.8125, 54.258926, 53.172615, 52.214287, 51.410713, 50.785713, 49.979168, 49.196426, 48.348213, 47.535713, 46.630951, 45.946426, 45.023811, 44.133926, 43.55357, 43.1875, 42.875, 42.5625, 42.510201, 42.42857, 42.520409, 42.82143, 42.92857, 43.035713, 42.892857, 42.65625, 42.65625, 42.75, 42.8125, 42.75, 42.6875, 42.857143, 42.92857, 42.92857, 43, 43.035713, 42.8125, 42.9375, 42.9375, 42.9375, 42.9375, 42.8125, 42.78125, 43, 42.964287, 42.964287, 42.92857, 42.82143, 42.625, 42.892857, 43.066326, 43.336735, 43.489799, 43.607143, 43.642857, 43.67857, 43.535713, 43.392857, 43.285713, 43.142857, 43.285713, 43.464287, 43.5, 43.377552, 43.260201, 42.803574, 42.595238, 42.815475, 43.144897, 43.089287, 43.5, 43.25, 43.375, 43.25, 43.1875, 43.25, 43.1875, 43.1875, 43.5, 43.083332, 43.2551, 43.020409, 42.633926, 42.5625, 42.5625, 42.82143, 42.857143, 42.92857, 43, 42.908165, 42.619049, 42.383926, 42.375, 42.4375, 42.75, 42.82143, 42.75, 42.8125, 42.8125, 42.75, 42.857143, 42.785713, 42.785713, 42.964287, 43.07143, 43.25, 43.25, 43, 43, 43, 43.133926, 43.44286, 43.153057, 42.672619, 42.75, 43.285713, 43.42857, 43.392857, 43.214287, 42.875, 43.035713, 43.142857, 43.107143, 43.035713, 42.964287, 42.6875, 43.035713, 43.091835, 43.051022, 43.107143, 43.238098, 43.25, 43.142857, 43.107143, 43.07143, 43.142857, 43.07143, 43, 42.224491, 42.042854, 42.238094, 42.142857, 42.408165, 42.604168, 42.705357, 42.875, 43.1875, 43.40625, 43.5, 43.714287, 44.017857, 44.147324, 44.375, 44.446426, 44.895832, 45.303574, 45.669643, 45.875, 46.258926, 46.625, 46.8125, 47.196426, 47.583332, 47.839287, 48.0625, 48.1875, 48.1875, 48.3125, 48.4375, 48.625, 48.8125, 48.875, 49, 49.0625, 49.25, 49.5, 49.696426, 50.208332, 50.294643, 50.517857, 50.803574, 50.94643, 51.035713, 51, 50.955357, 51.0625, 51.21875, 51.46875, 51.65625, 51.96875, 52.1875, 52.401787, 52.794643, 52.901787, 52.901787, 53.0625, 53.125, 53.34375, 53.53125, 53.66518, 53.84375, 53.9375, 54, 53.9375, 53.9375, 53.9375, 54, 54.25, 54.4375, 54.625, 54.8125, 54.875, 54.910713, 54.8125, 54.75, 54.696426, 54.700001, 54.580357, 54.5, 54.508926, 54.997025, 55.337799, 55.427082, 55.090775, 54.946426, 54.660713, 54.526787, 54.375, 53.523811, 53.208332, 52.767857, 52.330357, 52.196426, 52, 52, 51.30357, 48.285713, 46.428574, 45.101192, 44.361111, 43.566326, 42.708336, 42.553574, 42.40625, 42.168369, 42.229591, 42.952381, 42.952381, 42.714287, 42.303574, 41.799999, -10, -10, -10, -10, -10, -10, -10, -10, -10, -10, -10, -10, -10, -10, -10, -10, -10, -10, -10, -10, -10, -10, -10, -10, -10, -10, -10, -10, -10, -10, -10, -10, -10, -10, -10, -10, -10, -10, -10, -10, -10, -10, -10, -10, -10, -10, -10, -10, -10, -10, -10, -10, -10, -10, -10, -10, -10, -10, -10, 102.33334, 102.69584, 101.92188, 100.875, 100.05432, 99.78125, 99.375, 98.375008, 97.821434, 97.3125, 96.78125, 96.089287, 95.583336, 95.348213, 94.901787, 93.988098, 93.172623, 92.607147, 91.946426, 91.366074, 90.535706, 89.380951, 88.75, 88.1875, 87.64286, 86.833336, 86.145836, 85.366074, 84.630951, 83.761909, 82.678574, 81.851189, 81.258926, 80.758926, 80.083336, 79.3125, 78.514877, 77.821426, 76.833336, 75.553574, 74.741074, 74.111603, 73.53125, 72.517853, 71.928574, 71.25, 70.589287, 69.809525, 69.125, 68.267853, 67.35714, 66.678574, 65.833336, 65.116074, 64.214287, 63.339287, 62.67857, 62.1875, 61.553574, 60.464287, 59.696426, 58.267857, 57.607143, 56.883926, 55.684525, 55.214287, 54.6875, 54.1875, 53.276787, 52.285713, 51.357143, 50.678574, 49.916668, 49.041668, 48.276787, 47.526783, 46.630951, 45.883926, 44.943451, 44.276787, 43.830357, 43.633926, 43.708332, 43.918369, 43.770409, 43.478573, 43.709187, 43.857143, 44, 44.107143, 43.964287, 43.892857, 43.82143, 43.785713, 43.92857, 44, 44, 43.964287, 43.75, 43.6875, 43.75, 43.8125, 43.75, 43.8125, 44.07143, 44.07143, 44.142857, 44.142857, 43.90625, 44.142857, 44.107143, 44.035713, 43.857143, 43.57143, 43.595238, 44.035713, 44.295921, 44.561222, 44.530613, 44.5, 44.5, 44.57143, 44.535713, 44.5, 44.1875, 43.785713, 44.1875, 44.3125, 44.25, 44.080357, 43.946426, 43.741074, 43.505951, 44.003399, 44.282654, 44.367344, 44.607143, 44.535713, 44.535713, 44.32143, 44, 44.0625, 44.0625, 44.1875, 44.57143, 44.75, 44.397957, 44.127552, 43.867344, 43.714287, 43.714287, 43.785713, 43.92857, 44.07143, 44.122448, 43.908165, 43.416668, 43.258926, 43.3125, 43.375, 43.4375, 43.714287, 43.625, 43.794643, 43.8125, 43.8125, 43.6875, 43.5625, 43.785713, 43.92857, 44.07143, 44.25, 44.0625, 44.0625, 44.285713, 44.32143, 44.469387, 44.542854, 44.32653, 44.357143, 44.375, 44.336735, 44.392857, 44.0625, 44.119049, 44.202381, 44.204082, 44.306122, 44.142857, 44, 43.892857, 43.625, 43.75, 43.75, 43.75, 43.75, 43.92857, 44, 43.8125, 43.8125, 43.8125, 43.875, 43.875, 44.107143, 44.214291, 44.191666, 44.263885, 44.083332, 44.125, 43.416668, 43.517857, 43.660713, 43.767857, 43.821426, 43.8125, 43.964287, 44.267857, 44.491074, 44.6875, 44.758926, 45.208332, 45.491074, 45.857143, 46, 46.321426, 46.6875, 46.8125, 47.258926, 47.770832, 48.196426, 48.4375, 48.5625, 48.5, 48.5625, 48.6875, 48.8125, 48.9375, 49.0625, 49.1875, 49.3125, 49.5625, 49.75, 49.9375, 50.1875, 50.25, 50.535713, 51.136902, 51.339287, 51.4375, 51.4375, 51.25, 51.3125, 51.40625, 51.46875, 51.683037, 52.147324, 52.5, 52.6875, 52.729168, 52.723213, 52.651787, 53, 53.294643, 53.5625, 53.875, 54.00893, 54.0625, 54.125, 54.0625, 53.9375, 53.875, 53.875, 53.9375, 54.25, 54.625, 54.910713, 55.125, 55.044643, 54.839287, 54.75, 54.5625, 54.696426, 54.825001, 54.875
-10, -10, -10, -10, -10, -10, -10, -10, -10, -10, -10, -10, -10, -10, -10, -10, -10, -10, -10, -10, -10, -10, -10, -10, -10, -10, -10, 103.31429, 102.375, 101.32143, 100.19728, 99.785713, 99.401787, 98.622025, 98.107147, 97.5, 96.924103, 96.464287, 95.875, 95.5625, 95.026787, 93.976189, 93.428574, 92.964294, 92.214279, 91.553574, 90.714279, 89.589287, 88.964279, 88.366074, 87.630951, 86.988098, 86.324409, 85.386909, 84.666664, 83.761909, 82.761902, 81.922615, 81.383926, 80.883926, 80.208336, 79.5, 78.45536, 77.75, 76.761902, 75.595238, 74.8125, 74.236603, 73.71875, 72.6875, 72, 71.196426, 70.482147, 69.892853, 69.1875, 68.276787, 67.369049, 66.494049, 65.654762, 64.991074, 64.267853, 63.517857, 62.85714, 62.0625, 61.419647, 60.455357, 59.803574, 58.208332, 57.535713, 56.8125, 55.601192, 55.107143, 54.59375, 54.089287, 53.122025, 52.214287, 51.339287, 50.678574, 49.916668, 49.041668, 48.276787, 47.455353, 46.523808, 45.883926, 45.059525, 44.669643, 44.275509, 44.214283, 44.952381, 44.918369, 44.801022, 44.708164, 45.010201, 45.020409, 44.885715, 45.07143, 44.882656, 44.892857, 44.82143, 44.785713, 44.92857, 45, 45, 44.92857, 44.857143, 44.785713, 44.625, 44.892857, 44.82143, 44.892857, 45, 45.07143, 45.214287, 45.285713, 45.32143, 45.285713, 45.107143, 44.745537, 44.625, 44.204079, 44.273808, 45.32143, 45.530613, 45.67857, 45.375, 45.3125, 45.25, 45.25, 45.25, 45.42857, 45.42857, 45.666668, 45.464287, 45.21875, 45.09375, 44.96875, 44.9375, 44.803574, 44.840137, 45.09864, 45.189796, 45.2551, 45.392857, 45.357143, 45.32143, 45.142857, 44.8125, 44.8125, 45.107143, 45.32143, 45.57143, 45.607143, 45.433674, 45.198978, 45.010201, 44.92857, 44.92857, 44.6875, 44.75, 45.07143, 44.919643, 44.732143, 44.690479, 44.258926, 44.57143, 44.642857, 44.5, 44.5625, 44.5625, 44.872448, 44.857143, 44.857143, 44.785713, 44.714287, 44.714287, 44.625, 44.75, 44.875, 45.17857, 45.214287, 45.25, 45.32143, 45.357143, 45.357143, 45.25, 45.193878, 45.285713, 45.346943, 45.125, 45, 44.916668, 45.345238, 45.454082, 45.448978, 45, 44.892857, 44.57143, 44.666668, 44.5, 44.612499, 44.732143, 44.6875, 44.8125, 44.875, 44.9375, 44.875, 44.75, 44.6875, 44.92857, 45.07143, 45.17347, 45.200001, 45.261902, 45.07143, 45, 44.619049, 44.627552, 44.473213, 44.455357, 44.508926, 44.5625, 44.714287, 44.910713, 45.0625, 45.1875, 45.258926, 45.645832, 45.803574, 46.0625, 46.1875, 46.4375, 46.6875, 46.875, 47.321426, 47.895832, 48.352676, 48.59375, 48.71875, 48.71875, 48.8125, 48.875, 48.9375, 49.0625, 49.25, 49.473213, 49.625, 49.8125, 49.9375, 50.125, 50.375, 50.5, 50.785713, 51.315475, 51.401787, 51.5625, 51.5625, 51.4375, 51.4375, 51.522324, 51.927082, 51.974491, 52.709824, 52.9375, 52.875, 52.684525, 52.535713, 52.473213, 53.020832, 53.285713, 53.526787, 53.875, 54.044643, 54.125, 54.1875, 54.0625, 53.9375, 53.875, 53.875, 54, 54.3125, 54.6875, 55.035713, 55.25, 55.151787, 54.755955, 54.571426, 54.3125, 54.508926, 54.762501, 54.9375, 54.982143, 54.604168, 54.544643, 54.752975, 54.845833, 54.559525, 54.555359, 54.1875, 54.125, 53.8125, 53.291668, 52.9375, 52.5625, 52.339287, 52.3125, 52.125, 52.125, 51.160713, 47.75, 46.607143, 45.522324, 45.3125, 44.867344, 44.523811, 44.25893, 44.431122, 44.676022, 44.846943, 44.770832, 44.735119, 44.5625, 44.334824, 44.495239, -10, -10, -10, -10, -10, -10, -10, -10, -10, -10, -10, -10, -10, -10, -10, -10, -10, -10, -10, -10, -10, -10, -10, -10, -10, -10, -10, -10, -10, -10, -10, -10, -10, -10, -10, -10, -10, -10, -10, -10, -10, -10, -10, -10, -10, -10, -10, -10, -10, -10, -10, -10, -10, -10, -10, -10, -10, -10, -10, -10, 103.5, 102.73215, 101.71428, 101.05443, 100.46429, 99.616074, 99.002975, 98.535713, 97.892853, 97.401779, 96.901787, 96.375, 96, 95.375, 94.452377, 93.928574, 93.410721, 92.422623, 91.741074, 90.726189, 89.696426, 89.071426, 88.428574, 87.702377, 87.071426, 86.502983, 85.333336, 84.523811, 83.821426, 82.904755, 81.946426, 81.455353, 80.946426, 80.217262, 79.279762, 78.288689, 77.625, 76.726196, 75.907738, 75.133926, 74.535713, 74, 72.875, 72.071426, 71.205353, 70.410706, 69.714279, 68.946426, 68.098213, 67.297615, 66.26786, 65.476189, 64.866074, 64.321426, 63.696426, 63.035713, 61.9375, 61.285713, 60.375, 59.732147, 58.208332, 57.535713, 56.8125, 55.601192, 55.035713, 54.53125, 54.026787, 52.967262, 52.214287, 51.455357, 50.848213, 50, 48.9375, 48.133926, 47.330353, 46.669643, 46.071426, 45.580357, 45.357143, 45.767857, 45.857143, 45.880951, 45.877556, 45.642857, 45.779594, 46.035713, 45.806122, 45.525002, 45.65625, 45.584824, 45.65625, 45.59375, 45.5625, 45.6875, 45.75, 45.75, 45.6875, 45.625, 45.625, 45.6875, 45.8125, 45.989799, 45.625, 45.75, 45.75, 46, 46.357143, 46.410713, 46.339287, 45.84375, 45.620537, 45.5, 45.851192, 46.013885, 46.214287, 46.352043, 46.42857, 46.285713, 46.214287, 46, 46, 46.071426, 46.5, 46.464287, 46.448978, 46.392857, 46.285713, 46, 45.875, 46.035713, 45.964287, 45.908165, 45.857143, 45.928574, 46, 46.0625, 46.0625, 46, 45.9375, 45.8125, 45.8125, 45.875, 45.9375, 46.125, 46.25, 46.205357, 46.017857, 46.183674, 46.142857, 46.142857, 46.07143, 46, 46.035713, 45.794643, 45.669643, 45.738098, 45.540813, 45.75, 45.785713, 45.67857, 45.591835, 45.5, 45.622448, 45.714287, 45.785713, 45.785713, 45.714287, 45.571426, 45.5, 45.57143, 45.642857, 46.17857, 46.17857, 46, 46.125, 46.1875, 46, 45.92857, 46.1875, 46.25, 46.25, 46.125, 46.142857, 46.047619, 46.238094, 46.311226, 46.080357, 45.9375, 46.020409, 46.291668, 46.25, 46.166668, 45.700001, 45.836735, 45.714287, 45.857143, 45.92857, 45.92857, 45.92857, 45.92857, 45.964287, 45.875, 46, 46.125, 46.125, 46.0625, 46, 45.803574, 45.738098, 45.724487, 45.683674, 45.484692, 45.367344, 45.1875, 45.3125, 45.5, 45.6875, 45.8125, 45.8125, 45.9375, 46.0625, 46.25, 46.4375, 46.6875, 46.9375, 47.125, 47.5, 47.8125, 48.183037, 48.433037, 48.834824, 48.96875, 49.0625, 49.0625, 49.0625, 49.125, 49.375, 49.723213, 49.910713, 50.125, 50.1875, 50.3125, 50.5, 50.5625, 50.848213, 51.315475, 51.464287, 51.6875, 51.75, 51.625, 51.651787, 51.919647, 52.569725, 53.095242, 53.418369, 53.375, 53.178574, 52.747025, 52.598213, 52.535713, 53.145832, 53.473213, 53.8125, 54, 54.0625, 54, 54, 53.9375, 53.875, 53.8125, 53.8125, 54, 54.357143, 54.75, 55.098213, 55.25, 55.089287, 54.755955, 54.571426, 54.375, 54.625, 54.75, 55.044643
-10, -10, -10, -10, -10, -10, -10, -10, -10, -10, -10, -10, -10, -10, -10, -10, -10, -10, -10, -10, -10, -10, -10, -10, -10, -10, -10, 103.91667, 102.975, 102.13095, 101.43537, 100.75, 99.883926, 99.482147, 99.044647, 98.517853, 98.089279, 97.5, 96.892853, 96.4375, 95.541664, 94.785713, 94.095238, 93.535721, 92.485123, 91.75, 90.797615, 89.803574, 89.133926, 88.508926, 87.943451, 87.357147, 86.523811, 85.261909, 84.428574, 83.714287, 82.833328, 82.050591, 81.526787, 81.008926, 80.071426, 79.208336, 78.208336, 77.51786, 76.892853, 76.041664, 75.205353, 74.482147, 73.892853, 73.041664, 72.205353, 71.348213, 70.535706, 69.547623, 68.741074, 67.91964, 67.226189, 66.25, 65.476189, 64.866074, 64.392853, 63.875, 62.976189, 61.732143, 61, 60.208332, 59.544647, 58.267857, 57.607147, 56.883926, 55.642857, 54.964287, 54.46875, 53.964287, 52.958336, 52.214287, 51.526787, 50.955357, 49.916668, 48.875, 48.1875, 47.571426, 47.098213, 46.6875, 46.3125, 46.32653, 46.408165, 46.556122, 46.552082, 46.61161, 46.642857, 46.879589, 46.8125, 46.580357, 46.171429, 46.285713, 46.535713, 46.612499, 46.741074, 46.918369, 46.5, 46.8125, 46.75, 46.6875, 46.625, 46.857143, 46.92857, 47.035713, 46.954082, 46.625, 46.75, 46.6875, 47, 47.1875, 47.1875, 47.125, 46.75, 46.464287, 46.535713, 46.586735, 46.761902, 46.875, 47.026787, 47.0625, 47, 46.9375, 46.9375, 46.714287, 47.133926, 47.5, 47.25, 47.267857, 47.125, 47, 47.142857, 47.035713, 47.035713, 46.875, 46.8125, 46.8125, 46.8125, 46.75, 46.8125, 46.8125, 46.8125, 47.07143, 47.107143, 47.17857, 47, 46.75, 46.877552, 47.080357, 46.99107, 47.142857, 47.25, 47.357143, 47.42857, 47.357143, 47.17857, 46.8125, 46.5625, 46.642857, 46.642857, 46.67857, 47.085716, 47.020409, 46.964287, 46.455357, 46.142857, 46.265308, 46.392857, 46.5, 46.5, 46.92857, 46.938774, 47.375, 47.5, 47.625, 47.125, 47.017857, 46.9375, 46.9375, 47, 47.5, 47.458332, 47.285713, 47.357143, 47.285713, 47.285713, 47.25, 47.095242, 47.083332, 47.116074, 46.955357, 47.107143, 47.020409, 47.035713, 46.964287, 46.892857, 46.628571, 46.801022, 46.75, 46.892857, 46.92857, 46.92857, 46.92857, 46.92857, 47, 47.107143, 47.142857, 47.214287, 47, 46.9375, 46.875, 46.75, 46.625, 46.5625, 46.535713, 46.581631, 46.540813, 46.208332, 46, 46.17857, 46.544643, 46.526787, 46.633926, 46.595242, 46.666668, 46.8125, 46.866074, 47, 47.25, 47.4375, 47.6875, 47.875, 48.138393, 48.370537, 48.772324, 48.96875, 49.125, 49.125, 49.1875, 49.3125, 49.625, 49.973213, 50.160713, 50.375, 50.375, 50.5625, 50.6875, 50.8125, 51.080357, 51.333332, 51.544643, 51.75, 51.8125, 51.875, 51.964287, 52.294647, 52.842258, 53.116074, 53.491074, 53.5, 53.241074, 52.622025, 52.5625, 52.779762, 53.395832, 53.785713, 53.9375, 54, 54, 53.9375, 53.9375, 53.9375, 53.8125, 53.6875, 53.6875, 53.875, 54.339287, 54.75, 55.098213, 55.1875, 55.026787, 54.693455, 54.571426, 54.4375, 54.6875, 54.8125, 55.044643, 54.982143, 54.666668, 54.464283, 54.41964, 54.764286, 54.625, 54.635712, 54.059525, 53.964287, 53.6875, 53.6875, 53.589287, 53.366074, 53.120537, 53.09375, 52.84375, 52.78125, 51.857143, 48.75, 47.785713, 46.928574, 46.92857, 46.964287, 46.836735, 46.698978, 46.970242, 47.041668, 46.892857, 46.92857, 46.836735, 46.892857, 46.80357, 46.972225, -10, -10, -10, -10, -10, -10, -10, -10, -10, -10, -10, -10, -10, -10, -10, -10, -10, -10, -10, -10, -10, -10, -10, -10, -10, -10, -10, -10, -10, -10, -10, -10, -10, -10, -10, -10, -10, -10, -10, -10, -10, -10, -10, -10, -10, -10, -10, -10, -10, -10, -10, -10, -10, -10, -10, -10, -10, -10, -10, -10, 104.08334, 103.45, 102.79762, 102.05952, 101.41965, 100.59226, 100.02678, 99.508926, 98.955353, 98.464279, 97.821426, 97.285713, 96.75, 95.625, 94.892853, 94.130951, 93.491074, 92.556549, 91.821426, 90.860115, 89.958336, 89.205353, 88.589287, 88.041664, 87.428574, 86.523811, 85.369057, 84.428574, 83.60714, 82.809525, 82.041664, 81.51786, 80.770836, 79.970238, 79.101196, 78.208336, 77.633926, 77.0625, 76.113091, 75.214287, 74.410713, 73.785713, 73.125, 72.267853, 71.428574, 70.714279, 69.488098, 68.741074, 67.928566, 67.041672, 66.10714, 65.580353, 65, 64.464287, 63.821426, 62.869049, 61.607143, 60.666672, 60.125, 59.482147, 58.452381, 57.857147, 57.196426, 56, 55.047619, 54.450893, 53.857143, 52.895836, 52.205357, 51.526787, 50.955357, 49.916668, 49.083332, 48.5, 48.008926, 47.705357, 47.40625, 47.15625, 47.058037, 47.183037, 47.400894, 47.361607, 47.433037, 47.663265, 47.669643, 47.741074, 47.580357, 47.850002, 47.916668, 47.724491, 47.771427, 47.918369, 47.918369, 48.166668, 47.92857, 47.857143, 47.857143, 47.857143, 47.92857, 47.92857, 47.857143, 47.795921, 47.880951, 48.061226, 48.107143, 48.357143, 48.392857, 48.125, 47.9375, 47.589287, 47.50893, 47.482143, 47.336735, 47.6875, 47.75, 47.8125, 47.8125, 47.9375, 48, 48.25, 48.5, 48.295918, 48.357143, 48, 48.017857, 47.9375, 47.875, 47.875, 48.05357, 47.964287, 47.964287, 47.892857, 47.892857, 48, 48, 47.75, 47.75, 48.142857, 48.285713, 48.357143, 48.42857, 48.32143, 48.458332, 48.380951, 47.892857, 47.92857, 48, 48.357143, 48.392857, 48.392857, 48.285713, 48.107143, 47.964287, 47.580357, 47.32143, 47.357143, 47.666668, 48.335716, 48.270409, 48.25, 47.913265, 48.041668, 48.041668, 48.166668, 48.375, 48.5, 48.214287, 48.260201, 48.464287, 48.535713, 48.607143, 48.464287, 48.341835, 47.916668, 47.642857, 48.163265, 48.214287, 48.142857, 48.17857, 48.214287, 47.9375, 48.142857, 48.142857, 48.07143, 48.17857, 48.125, 48, 48.142857, 47.830357, 47.84375, 47.84375, 47.57143, 47.342857, 47.732143, 47.857143, 47.6875, 47.6875, 47.6875, 47.6875, 47.75, 48.107143, 48.214287, 48.214287, 48.17857, 48.035713, 47.964287, 48.035713, 48, 48, 47.92857, 47.92857, 47.857143, 47.765308, 47.763889, 47.732143, 47.833332, 47.622448, 47.401787, 47.724487, 48.305557, 48.430557, 47.678574, 47.470238, 47.446426, 47.5625, 47.75, 47.875, 47.9375, 48.09375, 48.308037, 48.709824, 49.03125, 49.25, 49.3125, 49.4375, 49.5625, 49.8125, 50.098213, 50.254463, 50.4375, 50.5, 50.6875, 50.90625, 51.125, 51.375, 51.4375, 51.625, 51.75, 51.8125, 52, 52.089287, 52.482147, 53.154758, 53.339287, 53.4375, 53.375, 53.116074, 52.767857, 52.8125, 53.029762, 53.458332, 53.678574, 53.857143, 54.037498, 53.875, 53.883926, 53.8125, 53.875, 53.75, 53.6875, 53.6875, 53.9375, 54.526787, 54.848213, 55.125, 55.125, 54.857143, 54.604168, 54.446426, 54.4375, 54.6875, 54.875, 55
-10, -10, -10, -10, -10, -10, -10, -10, -10, -10, -10, -10, -10, -10, -10, -10, -10, -10, -10, -10, -10, -10, -10, -10, -10, -10, -10, 104.45834, 103.8, 103.05952, 102.41666, 101.79465, 101.10119, 100.34226, 99.830353, 99.321426, 98.654762, 98, 97.410713, 96.875, 95.8125, 95.133926, 94.25, 93.342262, 92.485123, 91.758926, 90.913689, 90.25, 89.300591, 88.660713, 88.196426, 87.315483, 86.345238, 85.348221, 84.321426, 83.428566, 82.785713, 82.104164, 81.571434, 80.6875, 79.845238, 78.913696, 78.267853, 77.705353, 77.125, 76.267853, 75.285713, 74.428574, 73.785713, 73.125, 72.279762, 71.315475, 70.642853, 69.416672, 68.511909, 67.714279, 66.851196, 66.211304, 65.696426, 65.125, 64.410713, 63.642853, 62.619049, 61.553574, 60.630955, 60.0625, 59.366074, 58.511906, 57.928574, 57.267853, 56.083332, 55.083332, 54.482143, 53.892857, 53.041668, 52.276787, 51.544643, 50.955357, 50.0625, 49.261902, 48.84375, 48.65625, 48.65625, 48.714287, 48.34375, 48.15625, 48.075893, 48.356251, 48.299107, 48.801022, 48.362244, 48.92857, 48.857143, 48.67347, 48.642857, 48.642857, 48.658165, 48.55714, 48.775513, 48.775513, 48.92857, 48.92857, 48.857143, 48.92857, 49, 49.035713, 48.8125, 48.6875, 48.57143, 48.880951, 49.061226, 49.17857, 49.392857, 49.336735, 49.07143, 48.75, 48.526787, 48.836735, 48.836735, 49.083332, 48.785713, 48.785713, 48.785713, 48.785713, 48.92857, 49, 49.214287, 49.357143, 49.32653, 49.125, 48.9375, 48.892857, 48.84375, 48.84375, 48.84375, 48.84375, 48.8125, 48.875, 48.833332, 49.142857, 49.25, 49.17857, 49.375, 49.291668, 49.17857, 49.357143, 49.42857, 49.5, 49.32143, 49.25, 49.219387, 49.163265, 49.285713, 49.285713, 49.32143, 49.125, 49.125, 49.125, 48.785713, 49.17857, 49.020409, 49.333332, 49.333332, 49.416668, 49.478573, 49.341835, 49.357143, 49.081631, 49.035713, 49.107143, 49.285713, 49.392857, 49.42857, 49.285713, 49.2551, 49.42857, 49.57143, 49.642857, 49.57143, 49.484692, 49.5, 49.416668, 48.955357, 49, 49.0625, 48.877552, 48.892857, 48.82143, 48.785713, 48.785713, 49.17857, 49.214287, 49.214287, 49.07143, 49.035713, 48.892857, 48.785713, 48.785713, 49.020832, 49.020832, 48.82143, 48.892857, 48.6875, 48.75, 48.92857, 48.857143, 48.892857, 49, 48.9375, 48.9375, 48.875, 48.8125, 48.8125, 49.107143, 49.142857, 49.142857, 49, 49, 48.964287, 48.836735, 48.654762, 48.627552, 48.714287, 48.693878, 48.709187, 48.867344, 49.190479, 49.297619, 48.882656, 48.345238, 48.258926, 48.07143, 48.214287, 48.4375, 48.375, 48.375, 48.464287, 48.803574, 49.125, 49.375, 49.5, 49.6875, 49.75, 49.875, 50.125, 50.316963, 50.5625, 50.75, 50.848213, 50.96875, 51.303574, 51.482143, 51.625, 51.8125, 51.910713, 52, 52.25, 52.464287, 52.839287, 53.035713, 53.125, 53, 53.0625, 52.991074, 52.8125, 53.0625, 53.270832, 53.4375, 53.5, 53.642857, 54.037498, 53.732143, 53.883926, 53.75, 53.875, 53.75, 53.6875, 53.6875, 53.9375, 54.589287, 55.017857, 55.1875, 55.125, 54.8125, 54.6875, 54.6875, 54.75, 54.9375, 55.0625, 55.0625, 55, 55, 55.0625, 55.098213, 55.0625, 55.017857, 54.714287, 54.184525, 54.026787, 53.6875, 53.625, 53.705357, 53.886906, 54.022324, 54.392857, 54.112244, 53.302082, 52.357143, 50.0625, 49.30357, 48.75, 48.92857, 48.92857, 48.964287, 49, 48.8125, 48.8125, 48.75, 48.625, 48.785713, 48.625, 48.625, 48.666668, -10, -10, -10, -10, -10, -10, -10, -10, -10, -10, -10, -10, -10, -10, -10, -10, -10, -10, -10, -10, -10, -10, -10, -10, -10, -10, -10, -10, -10, -10, -10, -10, -10, -10, -10, -10, -10, -10, -10, -10, -10, -10, -10, -10, -10, -10, -10, -10, -10, -10, -10, -10, -10, -10, -10, -10, -10, -10, -10, -10, 104.95834, 104.46667, 103.7381, 102.91666, 102.33929, 101.71726, 100.94941, 100.09821, 99.607147, 98.895836, 98.241074, 97.369049, 96.803574, 95.75, 95.116074, 94.25, 93.104172, 92.455353, 91.758926, 91.205353, 90.535713, 89.300591, 88.642853, 88.133926, 87.377983, 86.238098, 85.383926, 84.433029, 83.566963, 82.879463, 82.258926, 81.571434, 80.642853, 79.773804, 79.017853, 78.410713, 77.830353, 77.1875, 76.276779, 75.285713, 74.428574, 73.785713, 73.125, 72.351189, 71.494049, 70.654762, 69.523811, 68.690475, 67.654755, 66.77977, 66.357147, 65.875, 65.366074, 64.369041, 63.5, 62.369049, 61.5, 60.595238, 60.0625, 59.366074, 58.511906, 57.928574, 57.330353, 56.354164, 55.404762, 54.565475, 53.892857, 53.1875, 52.276787, 51.5, 50.955357, 50.229168, 49.866074, 49.71875, 49.71875, 50.107143, 49.989799, 49.792854, 49.738094, 49.426022, 49.720917, 49.609692, 49.839287, 50.041668, 49.892857, 49.75, 49.401787, 49.392857, 49.583332, 49.367344, 49.235714, 49.418369, 49.616074, 49.6875, 49.6875, 49.625, 49.892857, 49.964287, 49.964287, 49.892857, 49.67857, 49.663265, 49.770832, 49.991074, 50.1875, 50.25, 50.107143, 49.8125, 49.625, 49.67347, 49.872448, 49.979591, 50.07143, 50.035713, 49.989799, 49.5625, 49.5625, 49.625, 49.75, 50, 50.125, 50.0625, 49.9375, 49.92857, 49.92857, 49.964287, 50.035713, 50.035713, 50.035713, 50.035713, 50.142857, 50.333332, 50.17857, 50.25, 50.142857, 50.142857, 50.142857, 50.25, 50.42857, 50.3125, 50.4375, 50.285713, 50.142857, 50.116074, 50.224487, 50.32653, 50.392857, 50.357143, 50.0625, 50.125, 50.125, 50.541668, 50.357143, 50.260201, 50.25, 50.17857, 50.214287, 50.137501, 50.017857, 50.0625, 50.107143, 50.07143, 50.142857, 50.25, 50.125, 50.125, 50, 50, 50.0625, 50.1875, 50.25, 50.1875, 50.367344, 50.25, 50.07143, 49.841835, 49.642857, 50.095238, 50.535717, 50.666668, 50.625, 50.583332, 50.541668, 50.142857, 49.901787, 49.875, 49.75, 49.75, 49.625, 49.767857, 49.80357, 49.94643, 49.915813, 49.780613, 49.857143, 49.785713, 49.92857, 49.92857, 49.857143, 49.857143, 49.6875, 49.75, 49.75, 49.6875, 49.6875, 49.92857, 50, 50.07143, 50.107143, 50, 50, 49.92857, 49.544643, 49.416668, 49.392857, 49.5, 49.544643, 49.693878, 49.571426, 49.872025, 50.125, 50.122448, 49.792519, 49.510201, 49.482143, 49.416668, 49, 49, 49.125, 49, 49.142857, 49.625, 49.8125, 49.875, 50, 50, 50, 50.1875, 50.40625, 50.625, 50.9375, 51.098213, 51.21875, 51.616074, 51.669643, 51.8125, 52, 52.098213, 52.25, 52.5625, 52.8125, 52.946426, 52.928574, 52.9375, 52.6875, 52.8125, 52.875, 52.9375, 53.3125, 53.645832, 53.669643, 53.479168, 53.559525, 54.099998, 53.919643, 54.196426, 54, 54.0625, 53.875, 53.8125, 53.8125, 54.0625, 54.607143, 54.955357, 55.125, 55.0625, 54.8125, 54.75, 54.875, 54.9375, 55, 55.089287, 55
