34.25, 34.25, 34.25, 34.125, 34, 34, 34.0625, 34.0625, 34.0625, 34.0625, 34, 34, 34.0625, 34.125, 34.0625, 34.0625, 34, 34, 34.0625, 34.125, 34.0625, 34.0625, 34.1875, 34.142857, 34.0625, 34.0625, 33.9375, 34.0625, 34.125, 34.125, 34.125, 34, 33.875, 33.875, 33.875, 34, 34.0625, 34.0625, 34.0625, 34, 34, 34.0625, 34.125, 34.125, 34.125, 34, 33.9375, 33.9375, 33.875, 33.9375, 33.9375, 33.9375, 34, 34, 34, 34, 34, 34, 34, 34, 34.0625, 34.125, 34.1875, 34.1875, 34.125, 34, 33.767857, 33.6875, 33.6875, 33.75, 33.875, 34, 34, 34, 33.9375, 33.875, 33.875, 33.875, 33.9375, 34, 34, 34, 34, 33.973213, 33.901787, 33.9375, 33.9375, 34, 34, 33.9375, 33.875, 33.8125, 33.821426, 33.887501, 33.633926, 33.642857, 33.660713, 33.75, 33.8125, 33.8125, 33.6875, 33.5, 33.5625, 33.5, 33.5625, 33.6875, 33.75, 33.875, 33.8125, 33.75, 33.5, 33.375, 33.375, 33.4375, 33.5625, 33.5625, 33.5, 33.375, 33.4375, 33.4375, 33.5, 33.5625, 33.375, 33.3125, 33.1875, 33.25, 33.5, 33.6875, 33.875, 33.8125, 33.6875, 33.5625, 33.625, 33.875, 33.875, 33.705357, 33.508926, 33.25, 33.25, 33.3125, 33.375, 33.4375, 33.375, 33.3125, 33.25, 33.125, 33.125, 33, 32.9375, 32.9375, 32.9375, 32.875, 32.6875, 32.5, 32.3125, 32.375, 32.5, 32.625, 32.5625, 32.375, 32.25, 32.125, 32.3125, 32.625, 32.8125, 33.0625, 33.25, 33.25, 33.25, 33.1875, 33.0625, 33, 33, 33.0625, 33.125, 33.125, 33.125, 33, 32.9375, 32.875, 33.026787, 33.232143, 33.208332, 33.104168, 32.979168, 33.044643, 32.910713, 32.964287, 33.125, 33.375, 33.625, 33.6875, 33.625, 33.428574, 33.0625, 32.875, 32.5, 32.3125, 32.125, 31.9375, 32, 32.0625, 32.0625, 32.125, 32.1875, 32.25, 32.4375, 32.6875, 32.75, 32.625, 32.4375, 32.25, 32.125, 32.25, 32.241074, 32.0625, 32.125, 32.125, 32.25, 32.3125, 32.3125, 32.1875, 32.125, 32.0625, 32, 32, 32, 32, 32, 32, 32.0625, 32.1875, 32.25, 32.25, 32.1875, 32.1875, 32.1875, 32.3125, 32.375, 32.1875, 32.125, 32, 31.9375, 31.9375, 32.089287, 32.357143, 32.419643, 32.4375, 32.25, 32.0625, 32, 32, 32.0625, 32.0625, 32.0625, 32.0625, 32, 32, 32, 32, 32, 32, 32, 32, 32, 32, 32, 32, 32, 32.0625, 32.035713, 31.964287, 32, 31.9375, 32, 32, 32, 32, 32, 32, 32, 32, 32, 32, 31.9375, 31.75, 31.5625, 31.633928, 31.825001, 31.803572, 31.666666, 31.442858, 31.482143, 31.5, 31.5625, 31.4375, 31.4375, 31.4375, 31.5625, 31.6875, 31.8125, 31.75, 31.75, 31.6875, 31.5, 31.4375, 31.3125, 31.3125, 31.5, 31.6875, 31.8125, 31.9375, 31.9375, 31.9375, 32, 31.75, 31.767857, 32.196426, 32.267857, 32.375, 32.1875, 31.875, 31.6875, 31.583334, -10, -10, -10, -10, -10, -10, -10, -10, -10, -10, -10, -10, -10, -10, -10, -10, -10, -10, -10, -10, -10, -10, -10, -10, -10, -10, 34.75, 34.583332, 34.5, 34.375, 34.4375, 34.5625, 34.75, 34.75, 34.6875, 34.625, 34.5, 34.4375, 34.4375, 34.375, 34.3125, 34.375, 34.5, 34.5625, 34.5625, 34.5625, 34.3125, 34.1875, 34.1875, 34.0625, 34.0625, 34.125, 34.125, 34.125, 34.125, 34.0625, 34, 34.0625, 34.125, 34.1875, 34.1875, 34.125, 34.0625, 33.9375, 34, 34.0625, 33.9375, 34, 33.9375, 33.9375, 34, 34.0625, 34.0625, 34.0625, 34.1875, 34.107143, 34, 34, 33.9375, 34.0625, 34.125, 34.125, 34.125, 34, 33.9375, 33.9375, 33.9375, 34.125, 34.125, 34.125, 34.125, 34, 34, 34, 34, 34, 34, 33.9375, 33.9375, 33.875, 33.875, 33.9375, 33.9375, 34, 34, 34, 34, 34, 34, 34, 34, 33.9375, 33.9375, 33.9375, 33.9375, 33.9375, 34, 34, 33.875, 33.767857, 33.75, 33.6875, 33.8125, 33.9375, 33.9375, 34, 34, 34, 34, 33.9375, 33.875, 33.875, 33.875, 33.9375, 33.9375, 33.9375, 33.9375, 33.9375, 34, 34, 34, 33.9375, 33.875, 33.8125, 33.821426, 33.950001, 33.625, 33.309525, 33.291668, 33.520832, 33.741074, 33.875, 33.75, 33.625, 33.6875, 33.625, 33.625, 33.6875, 33.6875, 33.8125, 33.8125, 33.75, 33.5, 33.3125, 33.3125, 33.375, 33.4375, 33.4375, 33.375, 33.3125, 33.4375, 33.5625, 33.6875, 33.6875, 33.5625, 33.4375, 33.1875, 33.151787, 33.375, 33.607143, 33.8125, 33.875, 33.75, 33.625, 33.6875, 33.8125, 33.75, 33.517857, 33.258926, 33.0625, 33.0625, 33.125, 33.3125, 33.375, 33.375, 33.375, 33.25, 33.125, 33.0625, 32.875, 32.8125, 32.875, 32.973213, 32.9375, 32.6875, 32.375, 32.125, 32.1875, 32.4375, 32.625, 32.6875, 32.5625, 32.4375, 32.375, 32.5, 32.6875, 32.8125, 33, 33.25, 33.375, 33.375, 33.375, 33.25, 33.107143, 33, 33.0625, 33.0625, 33.125, 33.125, 33.0625, 33, 32.9375, 33.026787, 33.107143, 33.020832, 32.916668, 32.916668, 33.017857, 33, 33.1875, 33.375, 33.723213, 33.705357, 33.696426, 33.5625, 33.366074, 33.0625, 32.875, 32.5625, 32.4375, 32.25, 32, 32, 32, 32, 32.125, 32.125, 32.125, 32.25, 32.4375, 32.5625, 32.5625, 32.4375, 32.3125, 32.1875, 32.25, 32.241074, 32.0625, 32.0625, 32, 32.0625, 32.1875, 32.3125, 32.3125, 32.3125, 32.1875, 32.0625, 32, 32.0625, 32.0625, 32.0625, 32.0625, 32.0625, 32.1875, 32.3125, 32.3125, 32.25, 32.25, 32.1875, 32.3125, 32.375, 32.25, 32.1875, 32.0625, 32, 31.9375, 32.089287, 32.294643, 32.357143, 32.4375, 32.25, 32.1875, 32.125, 32.0625, 32.0625, 32, 31.9375, 31.875, 31.875, 31.875, 31.9375, 32, 32, 32, 32, 32, 32, 32, 32, 32, 32, 32, 31.910713, 31.839287, 31.875, 31.875, 32, 32, 32, 32, 32, 32, 32, 32, 32, 32, 31.875, 31.6875, 31.5, 31.580357, 31.900002, 31.687498, 31.559523, 31.392857, 31.375, 31.4375, 31.375, 31.25, 31.25, 31.3125, 31.5, 31.75, 31.875, 31.8125, 31.8125, 31.75, 31.5625, 31.5, 31.4375, 31.375, 31.5625, 31.75, 31.8125, 31.9375, 31.9375, 31.875, 31.875, 31.625, 31.705357, 32.196426, 32.330357, 32.375, 32.1875, 31.9375, 31.6875, 31.666666, -10, -10, -10
34, 34, 34.0625, 34.0625, 34.0625, 34.125, 34.125, 34.25, 34.25, 34.1875, 34.125, 33.9375, 34, 34.0625, 33.9375, 34.0625, 34, 34, 34.0625, 34.0625, 34.0625, 34, 34.0625, 34, 34, 34, 34, 34.0625, 34.125, 34.125, 34.125, 34, 33.9375, 33.9375, 34, 34.25, 34.25, 34.25, 34.1875, 34, 34, 34, 34, 34, 33.9375, 33.875, 33.875, 33.8125, 33.875, 33.9375, 33.9375, 34, 34, 33.928574, 33.799999, 33.928574, 33.928574, 34, 34, 33.9375, 33.9375, 33.9375, 33.9375, 34, 34.0625, 34.0625, 34, 33.892857, 33.875, 33.75, 33.8125, 33.875, 33.875, 34, 34, 34, 34, 33.875, 33.75, 33.75, 33.75, 33.9375, 34.0625, 34.0625, 34.0625, 34, 34, 34, 34, 34, 34, 34, 34.0625, 34.125, 33.910713, 33.333336, 33.309525, 33.395832, 33.616074, 33.8125, 33.6875, 33.6875, 33.75, 33.6875, 33.6875, 33.71875, 33.78125, 33.96875, 34.03125, 33.875, 33.517857, 33.3125, 33.25, 33.375, 33.4375, 33.375, 33.375, 33.3125, 33.375, 33.5625, 33.625, 33.625, 33.5625, 33.4375, 33.1875, 33.089287, 33.25, 33.482143, 33.75, 33.875, 33.8125, 33.75, 33.75, 33.8125, 33.6875, 33.5, 33.25, 33.0625, 33.0625, 33.125, 33.375, 33.4375, 33.4375, 33.4375, 33.25, 33.125, 33.0625, 32.875, 32.8125, 32.8125, 32.848213, 32.75, 32.5, 32.25, 32.0625, 32.125, 32.3125, 32.4375, 32.5, 32.5, 32.4375, 32.5, 32.625, 32.75, 32.8125, 32.9375, 33.1875, 33.375, 33.410713, 33.339287, 33.25, 33.044643, 33, 33.0625, 33.0625, 33.125, 33.125, 33.0625, 33, 32.9375, 32.964287, 32.973213, 32.758331, 32.782738, 32.907738, 33.142857, 33.25, 33.4375, 33.5625, 33.848213, 33.705357, 33.696426, 33.5625, 33.366074, 33.0625, 32.8125, 32.5, 32.375, 32.1875, 32, 31.9375, 31.9375, 31.9375, 32.0625, 32.0625, 32, 32.125, 32.25, 32.4375, 32.5625, 32.5, 32.4375, 32.3125, 32.25, 32.116074, 31.9375, 31.9375, 31.875, 32, 32.125, 32.25, 32.25, 32.276787, 32.294643, 32.241074, 32.25, 32.3125, 32.3125, 32.25, 32.1875, 32.125, 32.1875, 32.3125, 32.3125, 32.25, 32.1875, 32.125, 32.1875, 32.25, 32.125, 32.0625, 32, 31.9375, 31.9375, 31.964287, 32.044643, 32.044643, 32.125, 32.0625, 32.125, 32.125, 32.0625, 32.0625, 32, 31.9375, 31.8125, 31.8125, 31.8125, 31.875, 32, 32, 31.9375, 31.9375, 31.9375, 31.9375, 32, 32, 32, 32, 32, 31.973213, 31.901787, 31.9375, 31.9375, 32, 32, 32, 32, 32, 31.9375, 31.9375, 31.9375, 31.9375, 32, 31.875, 31.75, 31.625, 31.642857, 31.900002, 31.562498, 31.309523, 31.142857, 31.125, 31.1875, 31.1875, 31.125, 31.1875, 31.3125, 31.625, 31.910713, 32, 31.9375, 31.8125, 31.75, 31.625, 31.625, 31.625, 31.625, 31.75, 31.875, 31.875, 31.9375, 31.9375, 31.875, 31.803572, 31.487499, 31.669643, 32.017857, 32.223213, 32.1875, 32.0625, 31.9375, 31.6875, 31.75, -10, -10, -10, -10, -10, -10, -10, -10, -10, -10, -10, -10, -10, -10, -10, -10, -10, -10, -10, -10, -10, -10, -10, -10, -10, 34.25, 34.458332, 34.395832, 34.3125, 34.125, 34.125, 34.1875, 34.375, 34.375, 34.375, 34.25, 34.044643, 33.854168, 33.979168, 34.048214, 33.919643, 34.0625, 34.0625, 34.3125, 34.4375, 34.625, 34.4375, 34.3125, 34.1875, 34, 34.0625, 34.125, 34.125, 34.125, 34.125, 34.125, 34.125, 34.1875, 34.1875, 34.25, 34.25, 34.116074, 33.875, 33.75, 33.794643, 33.875, 33.8125, 33.9375, 33.9375, 33.9375, 33.9375, 33.875, 33.875, 33.875, 34, 34.0625, 34.0625, 34.0625, 34.0625, 34.0625, 34.125, 34.125, 34.125, 34, 33.9375, 33.9375, 34, 34.25, 34.3125, 34.375, 34.3125, 34.125, 34.0625, 34, 34, 34, 33.9375, 33.875, 33.875, 33.8125, 33.875, 33.9375, 33.9375, 34, 34, 33.866074, 33.674999, 33.803574, 33.803574, 33.9375, 34, 34, 34.0625, 34.0625, 34.0625, 34.0625, 34.0625, 34.0625, 34, 33.892857, 33.875, 33.75, 33.8125, 33.875, 33.875, 34, 34, 34, 33.9375, 33.75, 33.5625, 33.5625, 33.625, 33.9375, 34.098213, 34.026787, 34.0625, 33.9375, 34, 34, 34, 34, 34, 34, 34.0625, 34.0625, 33.848213, 33.270836, 33.184525, 33.270832, 33.491074, 33.6875, 33.6875, 33.8125, 33.875, 33.8125, 33.75, 33.71875, 33.78125, 33.96875, 33.96875, 33.75, 33.392857, 33.1875, 33.1875, 33.3125, 33.375, 33.3125, 33.375, 33.4375, 33.5, 33.625, 33.5625, 33.4375, 33.375, 33.25, 33.0625, 32.964287, 33.125, 33.419643, 33.6875, 33.9375, 33.875, 33.8125, 33.75, 33.75, 33.625, 33.4375, 33.25, 33.0625, 33.0625, 33.125, 33.375, 33.375, 33.375, 33.375, 33.1875, 33.125, 33.0625, 32.875, 32.8125, 32.8125, 32.785713, 32.6875, 32.4375, 32.1875, 32.0625, 32.0625, 32.1875, 32.25, 32.3125, 32.375, 32.375, 32.5, 32.5625, 32.6875, 32.75, 32.8125, 33.0625, 33.25, 33.223213, 33.214287, 33.1875, 32.982143, 33, 33, 32.9375, 33, 33, 33, 33, 32.9375, 32.901787, 32.910713, 32.758331, 32.720238, 32.845238, 33.098213, 33.25, 33.4375, 33.5625, 33.723213, 33.517857, 33.383926, 33.25, 33.053574, 32.75, 32.5625, 32.25, 32.125, 31.9375, 31.875, 31.875, 31.9375, 32, 32.0625, 32.0625, 32, 32.125, 32.1875, 32.3125, 32.4375, 32.4375, 32.375, 32.25, 32.125, 31.9375, 31.9375, 31.9375, 31.9375, 32, 32.125, 32.25, 32.1875, 32.151787, 32.169643, 32.116074, 32.1875, 32.375, 32.4375, 32.375, 32.3125, 32.1875, 32.125, 32.25, 32.25, 32.1875, 32.125, 32, 32, 32, 31.9375, 31.9375, 31.9375, 31.9375, 31.9375, 31.875, 31.75, 31.75, 31.875, 31.9375, 32.125, 32.125, 32.0625, 32.0625, 32, 31.9375, 31.8125, 31.8125, 31.875, 31.9375, 32.0625, 32, 31.8125, 31.8125, 31.8125, 31.875, 32, 32, 32, 32, 32, 32.035713, 31.964287, 32, 32, 32, 32, 32, 32, 32, 31.9375, 31.9375, 31.9375, 31.9375, 32, 31.8125, 31.6875, 31.5625, 31.517857, 31.775002, 31.392857, 31.267857, 31.0625, 31, 31.0625, 31.125, 31.1875, 31.3125, 31.5, 31.75, 31.973213, 32.0625, 32, 31.875, 31.8125, 31.75, 31.75, 31.8125, 31.875, 31.9375, 32, 32, 32, 32, 31.9375, 31.803572, 31.549999, 31.705357, 31.910713, 32.044643, 32, 31.9375, 31.875, 31.75, 31.833332, -10, -10, -10
34.25, 34.25, 34.1875, 34.1875, 34.25, 34.3125, 34.3125, 34.3125, 34.3125, 34.241074, 34.0625, 33.9375, 33.919643, 34, 33.9375, 34.0625, 34.0625, 34, 34, 33.9375, 33.9375, 34, 34.125, 34.1875, 34.1875, 34.1875, 34.1875, 34.125, 34.125, 34.125, 34.0625, 34, 34, 33.9375, 34, 34.1875, 34.25, 34.3125, 34.25, 34.125, 34.0625, 34, 34, 34, 33.9375, 33.9375, 33.9375, 33.875, 33.9375, 33.9375, 33.9375, 34, 34, 33.866074, 33.612499, 33.741074, 33.741074, 33.875, 34, 34, 34.125, 34.098213, 34.026787, 34.0625, 34, 34, 33.9375, 33.830357, 33.8125, 33.75, 33.8125, 33.875, 33.875, 34, 34, 34, 33.9375, 33.75, 33.5, 33.5, 33.5625, 33.875, 34.098213, 34.026787, 34.0625, 33.9375, 34, 34, 34, 34, 34, 34, 34, 33.9375, 33.723213, 33.145836, 33.059525, 33.145832, 33.303574, 33.4375, 33.5625, 33.75, 33.875, 33.9375, 33.875, 33.84375, 33.90625, 33.96875, 33.90625, 33.6875, 33.330357, 33.125, 33.0625, 33.1875, 33.25, 33.25, 33.3125, 33.375, 33.4375, 33.5, 33.375, 33.151787, 33.125, 33, 32.9375, 32.901787, 33, 33.357143, 33.5625, 33.8125, 33.75, 33.625, 33.625, 33.5625, 33.5, 33.4375, 33.25, 33.0625, 33.0625, 33, 33.1875, 33.1875, 33.1875, 33.1875, 33, 33, 32.9375, 32.875, 32.875, 32.8125, 32.785713, 32.6875, 32.5, 32.3125, 32.1875, 32, 32, 32.0625, 32.125, 32.3125, 32.3125, 32.375, 32.375, 32.446426, 32.6875, 32.75, 33, 33.125, 33.098213, 33.089287, 33.125, 32.982143, 33, 33, 32.9375, 33, 33, 33, 33, 33, 32.9375, 32.803574, 32.674999, 32.803574, 32.928574, 33.098213, 33.1875, 33.25, 33.3125, 33.410713, 33.267857, 33.11607, 32.854168, 32.696426, 32.5, 32.375, 32.1875, 32.0625, 31.9375, 31.875, 31.9375, 32.0625, 32.125, 32.1875, 32.125, 32, 32.125, 32.1875, 32.375, 32.5625, 32.625, 32.5625, 32.375, 32.25, 32.0625, 32.125, 32.125, 32.0625, 32.0625, 32, 32, 31.875, 31.776787, 31.919643, 31.991072, 32.125, 32.375, 32.5, 32.4375, 32.375, 32.1875, 32, 32.0625, 32.0625, 32.0625, 32.0625, 32, 32, 32, 31.9375, 31.9375, 31.9375, 31.9375, 31.9375, 31.75, 31.625, 31.625, 31.75, 31.9375, 32.125, 32.1875, 32.125, 32.125, 32.0625, 31.9375, 31.8125, 31.8125, 31.875, 31.9375, 32, 31.875, 31.625, 31.5625, 31.5625, 31.625, 31.75, 31.8125, 31.875, 31.9375, 31.9375, 31.9375, 31.9375, 31.9375, 32, 32, 32.0625, 32.0625, 32.0625, 32.0625, 31.9375, 31.9375, 31.9375, 31.9375, 31.9375, 31.75, 31.6875, 31.625, 31.633928, 31.825001, 31.571428, 31.446428, 31.3125, 31.25, 31.3125, 31.375, 31.4375, 31.5, 31.625, 31.75, 31.910713, 32, 32, 32, 32, 32, 31.9375, 31.875, 31.875, 31.875, 31.9375, 31.9375, 31.875, 31.875, 31.875, 31.803572, 31.505356, 31.5625, 31.553572, 31.75, 31.75, 31.8125, 31.875, 31.6875, 31.749998, -10, -10, -10, -10, -10, -10, -10, -10, -10, -10, -10, -10, -10, -10, -10, -10, -10, -10, -10, -10, -10, -10, -10, -10, -10, -10, 34.333332, 34.229164, 34.25, 34.0625, 34.0625, 34.0625, 34.0625, 34.125, 34.3125, 34.267857, 33.854168, 33.497025, 33.541668, 33.735714, 33.732143, 34, 34, 34.25, 34.375, 34.5, 34.375, 34.25, 34.1875, 34.125, 34.3125, 34.428574, 34.25, 34.25, 34.125, 34.1875, 34.25, 34.25, 34.1875, 34.125, 34.125, 34.178574, 34.125, 34.125, 34.107143, 34.1875, 34.125, 34.1875, 34.25, 34.125, 34.125, 34.0625, 34.0625, 34.1875, 34.3125, 34.375, 34.375, 34.375, 34.375, 34.3125, 34.25, 34.1875, 34.0625, 34.0625, 34.0625, 34, 34.0625, 34.125, 34.1875, 34.25, 34.1875, 34.125, 34.0625, 33.9375, 33.875, 33.8125, 33.75, 33.8125, 33.875, 33.875, 33.9375, 33.9375, 33.9375, 34, 34, 33.866074, 33.612499, 33.741074, 33.741074, 33.875, 34, 34.0625, 34.1875, 34.223213, 34.151787, 34.125, 34, 33.875, 33.875, 33.875, 33.875, 33.9375, 33.9375, 33.9375, 33.9375, 34, 34, 34, 33.9375, 33.8125, 33.625, 33.625, 33.6875, 33.9375, 34.098213, 33.964287, 33.9375, 33.8125, 33.875, 33.9375, 34, 34, 34, 34, 33.9375, 33.8125, 33.669643, 33.291668, 33.205357, 33.125, 33.125, 33.25, 33.4375, 33.6875, 33.8125, 33.9375, 33.875, 33.84375, 33.96875, 33.90625, 33.78125, 33.5625, 33.205357, 33.125, 33.1875, 33.375, 33.5, 33.4375, 33.4375, 33.375, 33.375, 33.375, 33.1875, 33.026787, 32.9375, 32.875, 32.9375, 32.9375, 33, 33.25, 33.375, 33.625, 33.625, 33.5625, 33.625, 33.5, 33.4375, 33.375, 33.1875, 33.0625, 33.0625, 33, 33.125, 33.125, 33.125, 33.125, 33, 33, 32.9375, 32.9375, 32.9375, 32.75, 32.625, 32.4375, 32.3125, 32.3125, 32.25, 32.0625, 31.901787, 31.875, 31.9375, 32.262501, 32.133926, 32.196426, 32.25, 32.508926, 32.919643, 33, 33.125, 33.0625, 32.973213, 32.901787, 32.9375, 32.875, 33, 33, 33, 33, 33, 33, 33, 33, 33, 32.928574, 32.862499, 32.991074, 32.991074, 33, 33, 33, 33, 33.125, 33.125, 33.044643, 32.854168, 32.758926, 32.5625, 32.5, 32.375, 32.25, 32.1875, 32.125, 32.125, 32.1875, 32.25, 32.25, 32.1875, 32.125, 32.25, 32.375, 32.5625, 32.625, 32.6875, 32.625, 32.5, 32.5, 32.3125, 32.3125, 32.25, 32.125, 32.0625, 31.9375, 31.875, 31.6875, 31.651787, 31.830357, 31.892857, 32.125, 32.25, 32.5, 32.5, 32.5, 32.375, 32.1875, 32.125, 32, 31.964287, 31.9375, 31.9375, 32, 32, 31.9375, 31.9375, 31.9375, 31.9375, 31.9375, 31.75, 31.625, 31.625, 31.6875, 31.875, 32, 32.125, 32.125, 32.1875, 32.25, 32.125, 32, 31.901787, 31.9375, 31.9375, 32, 31.875, 31.625, 31.5, 31.4375, 31.5, 31.625, 31.75, 31.875, 31.9375, 32, 32, 31.9375, 31.9375, 31.9375, 31.9375, 32.125, 32.125, 32.125, 32.125, 31.9375, 31.9375, 31.9375, 31.9375, 31.9375, 31.8125, 31.8125, 31.8125, 31.8125, 31.875, 31.75, 31.625, 31.5625, 31.5, 31.5625, 31.625, 31.6875, 31.6875, 31.75, 31.8125, 31.910713, 32, 32, 32, 32, 31.9375, 31.8125, 31.6875, 31.6875, 31.75, 31.8125, 31.8125, 31.6875, 31.6875, 31.8125, 31.866072, 31.630356, 31.625, 31.491072, 31.633928, 31.895832, 31.982143, 32.0625, 31.8125, 31.749998, -10, -10, -10
34.375, 34.3125, 34.0625, 34.125, 34.1875, 34.1875, 34.1875, 34.0625, 34.0625, 34.116074, 34.0625, 34.125, 34.107143, 34.25, 34.1875, 34.1875, 34.3125, 34.125, 34.125, 34.125, 34.125, 34.25, 34.4375, 34.5625, 34.5, 34.5625, 34.5625, 34.4375, 34.375, 34.25, 34.0625, 34.0625, 34.0625, 34, 34, 34, 34.125, 34.25, 34.25, 34.25, 34.125, 33.875, 33.6875, 33.5625, 33.669643, 33.803574, 33.9375, 33.9375, 33.9375, 33.9375, 33.9375, 34, 34.0625, 34, 33.875, 33.8125, 33.6875, 33.6875, 33.8125, 33.9375, 34.125, 34.223213, 34.151787, 34.125, 34, 33.8125, 33.8125, 33.8125, 33.8125, 34, 34, 33.9375, 33.9375, 33.9375, 33.9375, 34, 33.9375, 33.875, 33.75, 33.75, 33.8125, 33.9375, 34.035713, 33.901787, 33.8125, 33.75, 33.8125, 33.875, 34, 34, 34, 33.9375, 33.8125, 33.5625, 33.4375, 33.3125, 33.25, 33.25, 33.1875, 33.25, 33.4375, 33.6875, 33.875, 33.973213, 33.767857, 33.633926, 33.6875, 33.625, 33.5625, 33.4375, 33.1875, 33.1875, 33.375, 33.5625, 33.517857, 33.383926, 33.25, 33.25, 33.3125, 33.375, 33.3125, 33.151787, 33.0625, 32.9375, 32.9375, 32.9375, 33, 33.1875, 33.3125, 33.5625, 33.625, 33.625, 33.6875, 33.5625, 33.4375, 33.3125, 33.017857, 32.9375, 32.9375, 32.9375, 33.0625, 33.0625, 33.0625, 33.0625, 33, 33, 32.9375, 32.9375, 32.9375, 32.75, 32.625, 32.5, 32.4375, 32.5, 32.4375, 32.1875, 32.026787, 32.0625, 32.223213, 32.450001, 32.214287, 32.133926, 32.125, 32.446426, 32.919643, 33.0625, 33.1875, 33.0625, 32.9375, 32.9375, 32.9375, 32.9375, 33, 33, 33, 33, 33, 33, 33, 33, 33, 33, 33.0625, 33.0625, 33.0625, 33, 32.9375, 32.9375, 32.9375, 33.0625, 33.125, 33.044643, 32.854168, 32.696426, 32.4375, 32.4375, 32.375, 32.375, 32.5, 32.5, 32.5, 32.5625, 32.5625, 32.5, 32.4375, 32.3125, 32.375, 32.5, 32.5625, 32.5625, 32.5625, 32.4375, 32.375, 32.5, 32.4375, 32.4375, 32.375, 32.1875, 32.0625, 31.9375, 31.875, 31.75, 31.6875, 31.723213, 31.714287, 31.9375, 32.125, 32.4375, 32.5625, 32.625, 32.5, 32.375, 32.232143, 31.964287, 32.026787, 32.044643, 32.0625, 32.0625, 31.964287, 31.9375, 31.9375, 31.9375, 31.875, 31.75, 31.625, 31.6875, 31.857143, 31.919643, 31.9375, 32, 32, 32.0625, 32.125, 32.25, 32.1875, 32.125, 32.026787, 32, 32, 32, 31.875, 31.75, 31.625, 31.5625, 31.625, 31.625, 31.75, 31.875, 31.9375, 31.96875, 31.84375, 31.78125, 31.78125, 31.8125, 31.9375, 32.0625, 32, 32, 32, 31.9375, 32, 32, 32, 31.9375, 31.8125, 31.8125, 31.8125, 31.875, 32, 31.9375, 31.875, 31.8125, 31.75, 31.8125, 31.875, 31.9375, 31.9375, 31.9375, 31.875, 31.875, 31.9375, 31.875, 31.964287, 32.107143, 32.044643, 32, 31.794643, 31.580357, 31.642857, 31.6875, 31.6875, 31.5625, 31.5625, 31.6875, 31.875, 31.830357, 31.696428, 31.5, 31.571428, 31.895832, 31.982143, 32.125, 31.875, 31.749998, -10, -10, -10, -10, -10, -10, -10, -10, -10, -10, -10, -10, -10, -10, -10, -10, -10, -10, -10, -10, -10, -10, -10, -10, -10, -10, 34.458332, 34.3125, 34.4375, 34.1875, 34.25, 34.375, 34.25, 34.3125, 34.4375, 34.267857, 33.809525, 33.580357, 33.5, 33.625, 33.75, 33.875, 33.9375, 34, 34.125, 34.25, 34.1875, 34.25, 34.375, 34.5, 34.75, 34.741074, 34.4375, 34.3125, 34.0625, 34.0625, 34.1875, 34.25, 34.25, 34.1875, 34.125, 34.1875, 34.3125, 34.3125, 34.25, 34.3125, 34.1875, 34.25, 34.375, 34.1875, 34.125, 34.089287, 34.160713, 34.25, 34.5, 34.5, 34.4375, 34.5, 34.5, 34.4375, 34.375, 34.25, 34.0625, 34.0625, 34.125, 34.0625, 34.0625, 34.0625, 34.0625, 34.1875, 34.1875, 34.1875, 34.1875, 33.9375, 33.8125, 33.6875, 33.732143, 33.866074, 33.9375, 33.9375, 33.9375, 33.9375, 33.9375, 34, 34.0625, 34.0625, 34, 34, 33.9375, 33.875, 33.9375, 33.9375, 34, 34.098213, 34.026787, 34.0625, 34, 33.8125, 33.8125, 33.8125, 33.75, 33.9375, 34, 34.044643, 34.044643, 33.9375, 33.9375, 33.9375, 34, 34, 33.9375, 33.9375, 33.9375, 33.9375, 34, 33.9375, 33.8125, 33.8125, 33.8125, 33.875, 34, 34, 34, 33.9375, 33.8125, 33.5625, 33.5, 33.4375, 33.4375, 33.5, 33.4375, 33.5, 33.625, 33.8125, 33.9375, 33.910713, 33.705357, 33.571426, 33.625, 33.625, 33.625, 33.5, 33.1875, 33.1875, 33.348213, 33.5, 33.517857, 33.258926, 33.125, 33.0625, 33.0625, 33.1875, 33.1875, 33.089287, 33.0625, 32.9375, 32.9375, 32.9375, 32.9375, 33.0625, 33.1875, 33.4375, 33.625, 33.75, 33.8125, 33.625, 33.375, 33.125, 32.767857, 32.6875, 32.75, 32.8125, 32.9375, 33, 33, 32.9375, 32.9375, 32.9375, 32.875, 32.9375, 32.9375, 32.75, 32.625, 32.5625, 32.5625, 32.6875, 32.625, 32.3125, 32.169643, 32.3125, 32.473213, 32.700001, 32.339287, 32.196426, 32.1875, 32.508926, 32.982143, 33.125, 33.1875, 33.0625, 33, 33, 33, 33, 33, 33, 33, 33, 33, 33, 33, 33, 33, 33, 33, 33, 33, 32.9375, 32.9375, 32.9375, 32.9375, 33.0625, 33.125, 33.107143, 32.916668, 32.758926, 32.5, 32.4375, 32.4375, 32.5, 32.6875, 32.6875, 32.5625, 32.5625, 32.5625, 32.5625, 32.625, 32.5625, 32.5625, 32.625, 32.625, 32.625, 32.625, 32.5625, 32.5, 32.5625, 32.5, 32.4375, 32.4375, 32.3125, 32.1875, 32.0625, 31.9375, 31.8125, 31.8125, 31.848213, 31.839287, 32, 32.125, 32.5, 32.723213, 32.75, 32.580357, 32.4375, 32.232143, 31.964287, 32.026787, 32.044643, 32.0625, 32.0625, 31.964287, 31.9375, 31.9375, 31.875, 31.8125, 31.75, 31.6875, 31.9375, 32.169643, 32.232143, 32.1875, 32.0625, 31.964287, 32, 32.0625, 32.1875, 32.0625, 32, 31.901787, 31.875, 31.9375, 31.9375, 31.875, 31.9375, 31.875, 31.8125, 31.8125, 31.6875, 31.75, 31.875, 31.9375, 31.90625, 31.71875, 31.65625, 31.65625, 31.75, 31.9375, 32.0625, 32, 32, 32, 31.875, 31.9375, 31.9375, 31.9375, 31.9375, 31.875, 31.875, 31.875, 31.9375, 32, 32, 32, 32, 32, 32.0625, 32.0625, 32.125, 32.1875, 32.125, 32.0625, 32, 31.9375, 31.8125, 31.901787, 32.044643, 31.982143, 32.0625, 31.830357, 31.473213, 31.464285, 31.5, 31.5625, 31.5, 31.5625, 31.6875, 31.875, 31.830357, 31.696428, 31.5, 31.571428, 31.895832, 31.982143, 32.125, 31.8125, 31.666666, -10, -10, -10
34.5625, 34.4375, 34.25, 34.25, 34.3125, 34.375, 34.303574, 34.125, 34.0625, 33.9375, 34, 34, 34, 34.125, 34.125, 34.1875, 34.3125, 34.1875, 34.125, 34.151787, 34.223213, 34.25, 34.4375, 34.375, 34.3125, 34.375, 34.375, 34.3125, 34.25, 34.125, 33.9375, 33.875, 33.9375, 33.9375, 34, 34.0625, 34.0625, 34.1875, 34.1875, 34.1875, 34.1875, 33.9375, 33.8125, 33.6875, 33.732143, 33.866074, 33.9375, 33.9375, 33.9375, 33.9375, 33.875, 33.9375, 34, 34, 34.0625, 34.125, 34.0625, 34, 33.9375, 33.875, 33.875, 34, 34.0625, 34.0625, 34.0625, 33.875, 33.875, 33.875, 33.75, 33.8125, 33.892857, 34.127975, 34.127975, 33.9375, 33.9375, 33.875, 34, 34, 34, 34, 34, 34, 34, 33.9375, 33.8125, 33.8125, 33.8125, 33.875, 34, 34, 34, 34, 34, 33.8125, 33.75, 33.651787, 33.625, 33.6875, 33.6875, 33.6875, 33.6875, 33.75, 33.75, 33.660713, 33.455357, 33.383926, 33.5, 33.625, 33.75, 33.6875, 33.366074, 33.1875, 33.348213, 33.375, 33.455357, 33.196426, 33.0625, 33, 32.9375, 33.0625, 33.125, 33.125, 33.125, 33.0625, 33, 33, 33, 33, 33.1875, 33.4375, 33.6875, 33.875, 33.8125, 33.625, 33.25, 32.875, 32.517857, 32.4375, 32.5625, 32.75, 32.9375, 33, 33, 32.875, 32.875, 32.875, 32.8125, 32.9375, 32.9375, 32.8125, 32.6875, 32.625, 32.625, 32.75, 32.678574, 32.229168, 32.148811, 32.458332, 32.642857, 32.825001, 32.401787, 32.267857, 32.4375, 32.6875, 33.044643, 33.125, 33.125, 33.0625, 33, 33, 33, 33, 33, 33, 32.9375, 32.9375, 32.9375, 32.9375, 33, 33, 33, 33, 33, 33, 33, 32.9375, 32.9375, 32.9375, 32.9375, 33, 33, 33, 33, 32.9375, 32.75, 32.6875, 32.6875, 32.75, 32.9375, 32.9375, 32.75, 32.6875, 32.6875, 32.6875, 32.8125, 32.75, 32.6875, 32.6875, 32.5625, 32.5, 32.4375, 32.375, 32.375, 32.4375, 32.375, 32.25, 32.25, 32.1875, 32.125, 32.125, 32.0625, 32, 32.0625, 32.035713, 32.026787, 32.1875, 32.3125, 32.6875, 32.848213, 32.8125, 32.580357, 32.4375, 32.232143, 31.964287, 32.026787, 32.044643, 32.125, 32.1875, 32.089287, 32.0625, 32, 31.875, 31.875, 31.8125, 31.8125, 32.0625, 32.294643, 32.357143, 32.25, 32.1875, 32.026787, 32.0625, 32.125, 32.1875, 32.0625, 32, 31.839287, 31.8125, 31.875, 31.9375, 32, 32.1875, 32.25, 32.25, 32.25, 32.0625, 32, 32.0625, 32.0625, 31.96875, 31.84375, 31.71875, 31.71875, 31.8125, 31.9375, 32, 31.9375, 31.9375, 31.9375, 31.8125, 31.875, 31.875, 31.875, 31.9375, 31.9375, 31.9375, 31.875, 31.875, 31.875, 31.875, 31.9375, 32, 32, 32.0625, 32.0625, 32.1875, 32.3125, 32.25, 32.25, 32.125, 32, 31.8125, 31.839287, 31.982143, 31.919643, 32.125, 31.955357, 31.598213, 31.526785, 31.5, 31.5625, 31.5625, 31.6875, 31.75, 31.875, 31.9375, 31.875, 31.75, 31.758928, 32.020832, 32.044643, 32.0625, 31.8125, 31.666666, -10, -10, -10, -10, -10, -10, -10, -10, -10, -10, -10, -10, -10, -10, -10, -10, -10, -10, -10, -10, -10, -10, -10, -10, -10, 34.333332, 34.291664, 34.270832, 34.4375, 34.25, 34.3125, 34.375, 34.25, 34.25, 34.3125, 34.232143, 34.226189, 33.914967, 33.854168, 33.821426, 33.75, 33.75, 33.75, 33.75, 33.8125, 33.901787, 33.9375, 34.0625, 34.25, 34.5, 34.75, 34.75, 34.75, 34.625, 34.4375, 34.4375, 34.5, 34.5625, 34.491074, 34.25, 34.125, 33.875, 33.8125, 33.75, 33.75, 33.8125, 33.9375, 34.0625, 34.1875, 34.1875, 34.125, 34.214287, 34.223213, 34.1875, 34.3125, 34.1875, 34.125, 34.25, 34.3125, 34.3125, 34.3125, 34.1875, 34, 33.875, 33.9375, 33.9375, 34, 34.0625, 34.0625, 34.1875, 34.1875, 34.1875, 34.1875, 34, 33.9375, 33.875, 33.919643, 33.991074, 34, 34, 34, 34, 33.9375, 33.9375, 34, 34, 34.0625, 34.125, 34.0625, 34, 33.9375, 33.8125, 33.8125, 33.875, 33.9375, 34, 34, 33.9375, 34, 34, 33.9375, 34, 34, 34.127975, 34.127975, 33.875, 33.9375, 33.875, 34, 33.9375, 33.9375, 33.9375, 34, 34.035713, 33.892857, 33.892857, 33.8125, 33.8125, 33.875, 33.875, 33.9375, 34, 33.9375, 33.9375, 34, 33.8125, 33.75, 33.714287, 33.6875, 33.75, 33.8125, 33.6875, 33.5625, 33.5625, 33.5625, 33.410713, 33.205357, 33.214287, 33.375, 33.625, 33.875, 33.8125, 33.544643, 33.125, 33.223213, 33.125, 33.267857, 33.133926, 33.0625, 33.0625, 33, 33.0625, 33.125, 33.125, 33.125, 33.0625, 33, 33, 33, 33, 33.25, 33.5, 33.75, 33.875, 33.6875, 33.5, 33.0625, 32.6875, 32.392857, 32.3125, 32.5, 32.71875, 32.84375, 32.90625, 32.90625, 32.8125, 32.875, 32.875, 32.875, 33, 33, 32.9375, 32.8125, 32.8125, 32.8125, 32.875, 32.732143, 32.083332, 32.005955, 32.270832, 32.455357, 32.5, 32.330357, 32.321426, 32.5625, 32.75, 32.9375, 33, 33, 33, 33, 33, 33, 33, 33, 33, 32.9375, 32.9375, 32.9375, 32.9375, 33, 33, 33, 33, 33, 33, 33, 33, 33, 33, 33, 33, 33, 33, 33, 32.9375, 32.75, 32.6875, 32.6875, 32.75, 32.9375, 32.9375, 32.8125, 32.8125, 32.8125, 32.875, 33, 32.875, 32.8125, 32.75, 32.5625, 32.5, 32.375, 32.25, 32.1875, 32.25, 32.1875, 32.125, 32.1875, 32.125, 32.125, 32.125, 32.0625, 32, 32, 32, 32.0625, 32.25, 32.5, 32.8125, 32.910713, 32.75, 32.455357, 32.25, 32.169643, 32.089287, 32.169643, 32.107143, 32.1875, 32.125, 32.089287, 32.0625, 32, 31.9375, 32, 32, 32, 32.1875, 32.357143, 32.357143, 32.25, 32.25, 32.089287, 32.1875, 32.1875, 32.125, 32, 31.9375, 31.875, 31.8125, 31.875, 31.875, 31.9375, 32.1875, 32.3125, 32.375, 32.375, 32.1875, 32.0625, 32.0625, 32.0625, 31.96875, 31.90625, 31.84375, 31.84375, 31.9375, 32, 31.9375, 31.875, 31.875, 31.875, 31.8125, 31.875, 31.875, 31.875, 31.9375, 31.9375, 31.9375, 31.875, 31.875, 31.875, 31.875, 31.9375, 32, 32, 32.0625, 32.0625, 32.1875, 32.3125, 32.25, 32.25, 32.125, 32, 31.75, 31.776787, 31.919643, 31.919643, 32.25, 32.142857, 31.785713, 31.651785, 31.625, 31.6875, 31.75, 31.875, 31.875, 31.9375, 32.0625, 32.0625, 32, 32, 31.9375, 31.9375, 31.875, 31.75, 31.666666, -10, -10, -10
34.6875, 34.625, 34.4375, 34.5, 34.625, 34.6875, 34.616074, 34.3125, 34.1875, 34, 33.9375, 33.875, 33.8125, 33.8125, 33.9375, 34.0625, 34.1875, 34.1875, 34.1875, 34.339287, 34.285713, 34.1875, 34.080357, 33.875, 33.875, 34.0625, 34.25, 34.375, 34.4375, 34.3125, 34.125, 33.9375, 34, 34, 34.0625, 34.125, 34.0625, 34.1875, 34.25, 34.25, 34.25, 34.125, 34.1875, 34.1875, 34.125, 34.125, 34, 34, 34, 33.9375, 33.875, 33.875, 33.875, 33.9375, 34, 34.125, 34.1875, 34.1875, 34.125, 33.875, 33.8125, 33.8125, 33.875, 34, 34, 33.9375, 34.026787, 34.169643, 34.178574, 34.1875, 34.125, 34.252975, 34.127975, 33.875, 33.875, 33.75, 33.9375, 33.875, 34, 34, 34.125, 34.142857, 33.857143, 33.892857, 33.8125, 33.875, 33.875, 33.875, 33.875, 33.9375, 33.9375, 33.9375, 33.9375, 33.75, 33.6875, 33.651787, 33.6875, 33.75, 33.75, 33.5625, 33.375, 33.25, 33.125, 33, 33, 33.142857, 33.276787, 33.5625, 33.794643, 33.8125, 33.669643, 33.1875, 33.160713, 32.9375, 33.1875, 33.098213, 32.955357, 32.883926, 32.8125, 32.875, 32.9375, 33, 33, 33, 33, 33, 33, 33, 33.25, 33.5, 33.75, 33.8125, 33.5625, 33.3125, 32.8125, 32.5625, 32.4375, 32.375, 32.625, 32.71875, 32.71875, 32.78125, 32.84375, 32.919643, 33, 33.0625, 33, 33.0625, 33.0625, 33, 32.9375, 32.9375, 32.9375, 32.9375, 32.732143, 32.020832, 31.773809, 31.809523, 32.107143, 32.357143, 32.375, 32.508926, 32.75, 32.875, 33, 33, 33, 33, 33, 33, 33, 33, 33, 33, 32.9375, 32.9375, 32.9375, 32.9375, 33, 33, 33, 33, 33, 33, 33, 33, 33, 33, 33, 33, 33, 33, 33, 32.9375, 32.8125, 32.75, 32.75, 32.8125, 32.9375, 32.875, 32.75, 32.75, 32.75, 32.875, 33, 32.9375, 32.875, 32.8125, 32.625, 32.5, 32.375, 32.25, 32.1875, 32.1875, 32.1875, 32.125, 32.1875, 32.1875, 32.125, 32.125, 32.0625, 32, 32, 32, 32.0625, 32.25, 32.5, 32.75, 32.785713, 32.5, 32.142857, 31.9375, 32, 32.232143, 32.232143, 32.125, 32.125, 32.0625, 32.125, 32.125, 32.0625, 32, 32.125, 32.1875, 32.1875, 32.25, 32.25, 32.25, 32.25, 32.25, 32.214287, 32.3125, 32.3125, 32.1875, 32, 31.875, 31.8125, 31.75, 31.8125, 31.8125, 31.875, 32.125, 32.25, 32.25, 32.1875, 32, 31.875, 31.9375, 32, 32, 32, 31.9375, 31.9375, 32, 32, 32, 32, 32, 32, 31.875, 31.875, 31.875, 31.875, 31.875, 31.875, 31.875, 31.8125, 31.875, 31.875, 31.875, 31.9375, 32.0625, 32.0625, 32.125, 32.125, 32.1875, 32.3125, 32.25, 32.25, 32.125, 32, 31.75, 31.75, 31.75, 31.75, 32.0625, 32.035713, 31.892857, 31.758928, 31.75, 31.8125, 31.875, 32, 32.0625, 32.0625, 32.125, 32.125, 32.0625, 32.0625, 32.0625, 32.0625, 31.9375, 31.875, 31.749998, -10, -10, -10, -10, -10, -10, -10, -10, -10, -10, -10, -10, -10, -10, -10, -10, -10, -10, -10, -10, -10, -10, -10, -10, -10, 34.125, 34.083332, 34.1875, 34.25, 34.1875, 34.1875, 34.0625, 34, 34.125, 34.3125, 34.419643, 34.538689, 34.342262, 34.041668, 33.883926, 33.75, 33.75, 33.75, 33.8125, 33.875, 33.964287, 34, 34, 34.0625, 34.125, 34.3125, 34.375, 34.5, 34.5, 34.375, 34.5, 34.5625, 34.5625, 34.553574, 34.25, 34.25, 34.125, 33.9375, 33.839287, 33.6875, 33.6875, 33.9375, 34.107143, 34.3125, 34.375, 34.4375, 34.5625, 34.375, 34.25, 34.017857, 33.875, 33.875, 34.0625, 34.25, 34.375, 34.4375, 34.3125, 34.125, 33.9375, 33.9375, 33.9375, 34, 34.0625, 34.125, 34.25, 34.375, 34.375, 34.25, 34.125, 34.125, 34.125, 34.125, 34.125, 33.9375, 33.875, 33.8125, 33.6875, 33.6875, 33.75, 33.75, 33.8125, 33.875, 33.875, 33.9375, 34, 33.9375, 33.8125, 33.8125, 33.8125, 33.875, 34, 34, 33.875, 33.964287, 34.107143, 34.178574, 34.25, 34.125, 34.145832, 34.020832, 33.875, 33.875, 33.8125, 33.9375, 33.875, 34.0625, 34.125, 34.3125, 34.330357, 33.982143, 33.955357, 33.8125, 33.875, 33.875, 33.875, 33.875, 33.9375, 33.875, 33.8125, 33.75, 33.5625, 33.5625, 33.589287, 33.6875, 33.6875, 33.625, 33.375, 33.125, 33, 32.946426, 33.012501, 32.883926, 33.026787, 33.089287, 33.375, 33.669643, 33.8125, 33.857143, 33.375, 33.25, 33, 33.125, 33.223213, 33.05357, 32.910713, 32.875, 32.8125, 32.9375, 33, 33, 33, 33, 33, 33, 33, 33.25, 33.5, 33.75, 33.75, 33.5, 33.25, 32.8125, 32.6875, 32.5625, 32.5625, 32.75, 32.78125, 32.78125, 32.78125, 32.90625, 33.107143, 33.1875, 33.25, 33.125, 33.0625, 33.0625, 33, 33, 33, 32.9375, 32.875, 32.607143, 31.96726, 31.780951, 31.708332, 31.92857, 32.214287, 32.4375, 32.696426, 32.9375, 33, 33.0625, 33, 33, 33, 33, 33, 33, 33, 32.9375, 32.9375, 32.875, 32.875, 32.875, 32.8125, 32.875, 32.875, 32.9375, 32.9375, 32.9375, 32.9375, 32.9375, 33, 33, 33, 33, 33, 33, 33, 33, 32.9375, 32.875, 32.875, 32.875, 32.9375, 33, 32.8125, 32.75, 32.8125, 32.919643, 33.125, 33.1875, 33.0625, 32.9375, 32.875, 32.75, 32.625, 32.4375, 32.1875, 32.0625, 32.0625, 32.1875, 32.1875, 32.1875, 32.125, 32, 31.9375, 31.9375, 31.9375, 31.9375, 32, 32.0625, 32.25, 32.4375, 32.5625, 32.5, 32.3125, 32.125, 32.0625, 32.25, 32.482143, 32.419643, 32.25, 32.1875, 32.0625, 32.125, 32.125, 32.0625, 32.0625, 32.1875, 32.25, 32.25, 32.1875, 32.125, 32.0625, 32.0625, 32.25, 32.375, 32.5, 32.5, 32.3125, 32.125, 32, 31.875, 31.6875, 31.6875, 31.6875, 31.8125, 32.0625, 32.125, 32.125, 32.0625, 31.9375, 31.875, 31.9375, 32, 32.0625, 32.0625, 32, 32, 32, 32, 32, 32, 32, 32, 31.9375, 31.9375, 31.9375, 31.875, 31.75, 31.6875, 31.625, 31.625, 31.75, 31.8125, 31.875, 31.9375, 32.0625, 32.0625, 32.0625, 32.0625, 32.0625, 32.125, 32.125, 32.125, 32.0625, 32, 31.8125, 31.8125, 31.8125, 31.8125, 32, 32, 31.9375, 31.8125, 31.8125, 31.8125, 31.8125, 31.9375, 32, 32, 32.125, 32.125, 32.0625, 32.0625, 32.0625, 32.0625, 31.9375, 31.9375, 31.833332, -10, -10, -10
34.25, 34.25, 34.125, 34.25, 34.3125, 34.3125, 34.375, 34.25, 34.3125, 34.3125, 34.0625, 33.928574, 33.6875, 33.625, 33.875, 34.107143, 34.375, 34.4375, 34.5, 34.4375, 34.25, 34.125, 33.892857, 33.875, 33.875, 34.0625, 34.25, 34.375, 34.4375, 34.3125, 34.1875, 34.125, 34.1875, 34.25, 34.25, 34.1875, 34.1875, 34.25, 34.4375, 34.4375, 34.3125, 34.1875, 34.125, 34.125, 34.125, 34.125, 33.9375, 33.875, 33.75, 33.5625, 33.625, 33.6875, 33.75, 33.875, 33.8125, 33.75, 33.8125, 33.875, 33.9375, 33.875, 33.875, 33.875, 33.875, 34, 34, 33.8125, 33.901787, 34.044643, 34.241074, 34.4375, 34.294643, 34.125, 33.9375, 33.875, 33.875, 33.875, 33.9375, 33.875, 34.0625, 34.125, 34.3125, 34.330357, 33.982143, 33.955357, 33.8125, 33.875, 33.875, 33.875, 33.8125, 33.875, 33.732143, 33.428574, 33.34375, 33.09375, 33.21875, 33.375, 33.5625, 33.5625, 33.4375, 33.25, 33, 33, 33.071426, 33.137501, 33.008926, 33.026787, 32.964287, 33.25, 33.544643, 33.75, 33.866074, 33.5, 33.3125, 33.0625, 33.125, 33.223213, 33.05357, 32.910713, 32.875, 32.8125, 33, 33.0625, 33.0625, 33.125, 33.125, 33.125, 33.1875, 33.125, 33.3125, 33.5625, 33.6875, 33.6875, 33.4375, 33.1875, 32.9375, 32.9375, 32.9375, 32.9375, 33, 32.90625, 32.78125, 32.78125, 32.90625, 33.107143, 33.1875, 33.25, 33.125, 33, 32.9375, 32.875, 32.875, 33, 33.0625, 33, 32.803574, 32.425594, 32.176785, 31.9375, 32.133926, 32.339287, 32.625, 32.875, 32.9375, 33, 33, 33, 33, 33, 33, 33, 33, 32.9375, 32.875, 32.8125, 32.75, 32.8125, 32.75, 32.6875, 32.75, 32.75, 32.875, 32.9375, 32.9375, 32.9375, 32.9375, 33, 33, 33, 33, 33, 33, 33, 33, 32.9375, 32.875, 32.875, 32.875, 32.9375, 33, 32.875, 32.875, 32.919643, 32.919643, 33.1875, 33.294643, 33.25, 33.1875, 33, 32.8125, 32.625, 32.375, 32.1875, 32.0625, 32.0625, 32.1875, 32.25, 32.25, 32.1875, 32, 31.8125, 31.8125, 31.8125, 31.875, 32, 32.0625, 32.25, 32.375, 32.4375, 32.4375, 32.3125, 32.25, 32.25, 32.375, 32.607143, 32.544643, 32.4375, 32.3125, 32.0625, 32.0625, 32, 32, 32.0625, 32.125, 32.25, 32.3125, 32.25, 32.1875, 32.0625, 32, 32.125, 32.3125, 32.4375, 32.4375, 32.3125, 32.125, 32, 32, 31.875, 31.875, 31.875, 31.875, 32, 32, 31.9375, 31.875, 31.8125, 31.8125, 31.875, 31.9375, 32, 32, 32, 32, 32, 32, 32, 32, 32, 32, 32, 31.9375, 31.9375, 31.875, 31.75, 31.75, 31.625, 31.625, 31.75, 31.8125, 31.9375, 32, 32.0625, 32.0625, 32.0625, 32.0625, 32, 32, 32, 32, 32, 32, 31.875, 31.875, 31.875, 31.875, 32, 32, 31.875, 31.8125, 31.8125, 31.8125, 31.875, 31.9375, 32, 32, 32.125, 32.125, 32.0625, 32.0625, 32.0625, 32.0625, 32, 32, 31.916666, -10, -10, -10, -10, -10, -10, -10, -10, -10, -10, -10, -10, -10, -10, -10, -10, -10, -10, -10, -10, -10, -10, -10, -10, -10, 34, 34, 34.1875, 34.25, 34.25, 34.25, 34.0625, 34, 34.25, 34.5, 34.5625, 34.5625, 34.3125, 34.0625, 34, 34, 34.0625, 34.0625, 34.0625, 34.0625, 34.0625, 34.0625, 34.0625, 34.0625, 34, 34.125, 34.125, 34.125, 34.125, 34, 34.125, 34.25, 34.3125, 34.4375, 34.375, 34.5, 34.5625, 34.3125, 34.178574, 33.875, 33.8125, 34, 34.169643, 34.375, 34.375, 34.4375, 34.25, 34.0625, 33.9375, 33.705357, 33.8125, 33.8125, 33.875, 34, 34.0625, 34.1875, 34.1875, 34.125, 34.125, 34.1875, 34.3125, 34.375, 34.294643, 34.1875, 34.25, 34.4375, 34.5, 34.375, 34.25, 34.125, 34.125, 34.125, 34.125, 33.9375, 33.875, 33.6875, 33.5, 33.5625, 33.625, 33.75, 33.875, 33.875, 33.875, 33.9375, 34, 34, 33.9375, 33.9375, 33.9375, 33.9375, 34, 34, 33.8125, 33.839287, 33.982143, 34.178574, 34.3125, 34.25, 34.25, 34, 34, 33.9375, 33.875, 33.9375, 33.9375, 34.125, 34.125, 34.25, 34.232143, 34.026787, 34.0625, 33.9375, 34, 33.9375, 33.9375, 33.875, 33.875, 33.732143, 33.366074, 33.21875, 32.96875, 33.09375, 33.25, 33.4375, 33.4375, 33.3125, 33.1875, 33, 33, 33.071426, 33.200001, 33.133926, 33.133926, 32.964287, 33.25, 33.482143, 33.75, 33.9375, 33.75, 33.5, 33.25, 33.125, 33.098213, 32.92857, 32.785713, 32.8125, 32.8125, 33, 33.0625, 33.125, 33.25, 33.3125, 33.3125, 33.3125, 33.1875, 33.25, 33.4375, 33.5, 33.5, 33.3125, 33.125, 33.0625, 33.1875, 33.169643, 33.0625, 33.0625, 32.875, 32.875, 32.875, 33, 33.169643, 33.1875, 33.25, 33.125, 33, 32.9375, 32.875, 32.875, 33, 33, 32.875, 32.75, 32.633926, 32.542854, 32.4375, 32.571426, 32.714287, 32.875, 33, 33, 33, 33, 33, 33, 33, 33, 33, 33, 32.9375, 32.875, 32.8125, 32.75, 32.8125, 32.6875, 32.625, 32.6875, 32.6875, 32.875, 32.9375, 32.9375, 32.9375, 32.9375, 33, 33, 33, 33, 33, 33, 33, 33, 32.9375, 32.875, 32.875, 32.875, 32.9375, 33, 33, 33.0625, 33.107143, 33.107143, 33.25, 33.294643, 33.25, 33.1875, 32.9375, 32.6875, 32.5, 32.25, 32.1875, 32.1875, 32.125, 32.25, 32.25, 32.1875, 32.25, 32.035713, 31.776787, 31.8125, 31.75, 31.875, 32, 32.0625, 32.25, 32.3125, 32.375, 32.4375, 32.294643, 32.237499, 32.428574, 32.419643, 32.607143, 32.4375, 32.3125, 32.205357, 32.208332, 32.169643, 32.0625, 31.964287, 31.9375, 31.9375, 32.125, 32.25, 32.25, 32.25, 32.125, 32, 32.0625, 32.1875, 32.25, 32.25, 32.1875, 32.0625, 31.9375, 31.964287, 32.044643, 32.044643, 32.0625, 32, 32, 32, 31.9375, 31.875, 31.8125, 31.8125, 31.875, 31.9375, 32, 32, 32, 32, 32, 32, 32, 32, 32, 32, 32, 31.9375, 31.9375, 31.875, 31.75, 31.75, 31.5625, 31.5, 31.625, 31.6875, 31.875, 32, 32.0625, 32.0625, 32.0625, 32.0625, 32, 32, 32, 32, 32, 32, 31.9375, 31.9375, 31.9375, 31.9375, 32, 32, 31.875, 31.8125, 31.8125, 31.8125, 31.875, 31.9375, 32, 32, 32.0625, 32.0625, 32, 32, 32.0625, 32.0625, 32.0625, 32.0625, 32, -10, -10, -10
34.1875, 34.125, 34, 34.0625, 34.0625, 34.151787, 34.348213, 34.375, 34.625, 34.5625, 34.3125, 34.116074, 33.8125, 33.75, 33.9375, 34.107143, 34.25, 34.3125, 34.3125, 34.0625, 33.9375, 33.875, 33.8125, 33.9375, 33.875, 33.75, 33.6875, 33.6875, 33.8125, 33.9375, 34, 34.0625, 34.125, 34.25, 34.3125, 34.232143, 34.125, 34.125, 34.3125, 34.375, 34.3125, 34.25, 34.0625, 34.0625, 34, 33.9375, 33.75, 33.625, 33.5, 33.4375, 33.5625, 33.6875, 33.8125, 33.9375, 34, 34, 34.0625, 34.0625, 34, 34, 34, 34, 34, 34, 34, 33.875, 33.875, 33.875, 33.9375, 34.0625, 34.0625, 34.1875, 34.125, 34.125, 34.125, 34, 34, 34, 34.0625, 34, 34.0625, 34.0625, 34, 34.0625, 34, 34, 34, 34, 33.9375, 33.875, 33.607143, 33.241074, 33.09375, 32.90625, 33.09375, 33.25, 33.4375, 33.5, 33.4375, 33.4375, 33.285713, 33.205357, 33.267857, 33.325001, 33.196426, 33.133926, 33, 33.25, 33.5, 33.75, 33.9375, 33.8125, 33.625, 33.4375, 33.3125, 33.25, 33.160713, 33.026787, 33, 32.9375, 33.0625, 33.125, 33.25, 33.4375, 33.5, 33.4375, 33.375, 33.1875, 33.25, 33.4375, 33.5, 33.5, 33.3125, 33.125, 33.125, 33.25, 33.169643, 33.0625, 33, 32.875, 33, 33, 33.0625, 33.0625, 33.0625, 33.0625, 33, 32.9375, 32.9375, 32.9375, 32.9375, 33.0625, 33.0625, 32.9375, 32.875, 32.883926, 32.900002, 32.8125, 32.883926, 32.857143, 32.9375, 33, 33, 33, 33, 33, 33.0625, 33.0625, 33.0625, 33.0625, 33, 32.9375, 32.875, 32.8125, 32.75, 32.8125, 32.6875, 32.625, 32.6875, 32.6875, 32.875, 32.9375, 32.9375, 32.9375, 32.9375, 33, 33, 33, 33, 33, 33, 33, 33, 33, 32.9375, 32.9375, 32.9375, 32.9375, 33, 33.0625, 33.1875, 33.232143, 33.232143, 33.375, 33.419643, 33.375, 33.3125, 32.9375, 32.625, 32.4375, 32.1875, 32.258926, 32.4375, 32.3125, 32.330357, 32.25, 32.125, 32.1875, 32.035713, 31.776787, 31.875, 31.8125, 31.9375, 32.0625, 32.125, 32.25, 32.25, 32.375, 32.4375, 32.401787, 32.279167, 32.470238, 32.482143, 32.5625, 32.4375, 32.25, 32.267857, 32.333332, 32.294643, 32.1875, 32.026787, 31.9375, 32, 32.1875, 32.3125, 32.3125, 32.25, 32.125, 32, 32.0625, 32.1875, 32.1875, 32.25, 32.1875, 32.0625, 31.9375, 31.901787, 32.107143, 32.214287, 32.25, 32.1875, 32.125, 32.0625, 32.0625, 32.0625, 32, 32, 32, 32, 31.9375, 31.964287, 32.107143, 32.107143, 32.125, 32.0625, 32, 32, 32, 32.0625, 32.125, 32.125, 32.1875, 32.0625, 31.9375, 31.875, 31.625, 31.5625, 31.625, 31.625, 31.8125, 31.9375, 31.9375, 32, 32, 32, 32, 32, 32, 32, 32, 32, 31.9375, 31.9375, 31.9375, 31.9375, 32, 32, 31.875, 31.8125, 31.8125, 31.75, 31.8125, 31.875, 31.875, 31.9375, 32, 32, 32, 32, 32, 32, 32.0625, 32.0625, 32.083332, -10, -10, -10, -10, -10, -10, -10, -10, -10, -10, -10, -10, -10, -10, -10, -10, -10, -10, -10, -10, -10, -10, -10, -10, -10, 34, 34, 34.125, 34.1875, 34.25, 34.3125, 34.1875, 34.25, 34.4375, 34.625, 34.6875, 34.625, 34.375, 34.125, 34.25, 34.375, 34.4375, 34.5625, 34.4375, 34.3125, 34.25, 34.1875, 34.25, 34.25, 34.375, 34.4375, 34.3125, 34.25, 34.0625, 33.9375, 33.9375, 33.9375, 34.089287, 34.223213, 34.3125, 34.5, 34.4375, 34.3125, 34.151787, 33.9375, 33.8125, 33.875, 33.9375, 34, 34.0625, 34.0625, 33.875, 33.8125, 33.8125, 33.8125, 33.9375, 33.875, 33.8125, 33.8125, 33.875, 34, 34.0625, 34.0625, 34.0625, 34.125, 34.25, 34.3125, 34.232143, 34.0625, 34, 34.1875, 34.3125, 34.3125, 34.3125, 34.0625, 34.0625, 34, 33.875, 33.705357, 33.625, 33.5625, 33.625, 33.75, 33.8125, 33.9375, 34.0625, 34.1875, 34.25, 34.25, 34.1875, 34.0625, 34, 34, 34, 34, 34, 34, 33.9375, 33.9375, 33.9375, 34, 34.0625, 34.0625, 34.1875, 34.125, 34.125, 34.125, 34, 34, 34, 34, 33.8125, 33.8125, 33.8125, 33.8125, 34, 34, 34, 34, 34, 33.9375, 33.8125, 33.607143, 33.241074, 33.09375, 32.96875, 33.03125, 33.1875, 33.375, 33.5, 33.5625, 33.625, 33.473213, 33.330357, 33.258926, 33.1875, 33.25, 33.25, 33.1875, 33.375, 33.5625, 33.75, 33.9375, 33.875, 33.75, 33.625, 33.5625, 33.4375, 33.375, 33.25, 33.125, 33.0625, 33.0625, 33.1875, 33.375, 33.625, 33.6875, 33.5625, 33.4375, 33.125, 33.0625, 33.205357, 33.3125, 33.3125, 33.25, 33.0625, 33.125, 33.25, 33.232143, 33.125, 33.0625, 32.9375, 33, 33, 33, 32.9375, 32.9375, 32.9375, 32.9375, 32.9375, 33, 33, 33, 33.125, 33.125, 33.0625, 33.0625, 33.0625, 33, 33.0625, 33.0625, 33, 33, 33, 33, 33, 33, 33, 33.0625, 33.0625, 33.0625, 33.0625, 33, 32.9375, 32.9375, 32.875, 32.8125, 32.875, 32.75, 32.75, 32.875, 32.875, 33, 33.0625, 33, 33, 33, 33, 33, 33, 33, 33, 33, 33, 33, 33, 32.9375, 32.9375, 32.9375, 32.9375, 33, 33.125, 33.25, 33.232143, 33.125, 33.1875, 33.232143, 33.25, 33.25, 32.875, 32.5, 32.25, 32, 32.196426, 32.4375, 32.4375, 32.455357, 32.3125, 32.1875, 32.1875, 32.035713, 31.839287, 32, 31.9375, 32.0625, 32.1875, 32.25, 32.375, 32.375, 32.4375, 32.4375, 32.339287, 32.154167, 32.345238, 32.357143, 32.5, 32.5, 32.375, 32.455357, 32.520832, 32.419643, 32.25, 32.026787, 31.9375, 32.0625, 32.25, 32.375, 32.375, 32.25, 32.125, 32.0625, 32.0625, 32.125, 32.125, 32.125, 32.125, 32.0625, 31.9375, 31.964287, 32.232143, 32.339287, 32.375, 32.25, 32.1875, 32.098213, 32.026787, 32.0625, 31.9375, 32, 32, 32, 31.9375, 31.964287, 32.107143, 32.107143, 32.125, 32.0625, 32, 32, 32, 32.0625, 32.125, 32.125, 32.25, 32.1875, 32.125, 32.1875, 31.9375, 31.8125, 31.8125, 31.6875, 31.8125, 31.9375, 31.9375, 32, 32, 32.0625, 32.0625, 32.0625, 32.0625, 32, 32, 32, 31.9375, 31.9375, 31.9375, 31.9375, 32, 32, 31.9375, 31.9375, 31.9375, 31.875, 31.9375, 31.9375, 31.9375, 32, 32, 32, 32, 32, 31.9375, 31.8125, 31.705357, 31.785715, 31.761904, -10, -10, -10
34.3125, 34.125, 34, 34, 33.875, 34.026787, 34.098213, 34.125, 34.330357, 34.375, 34.3125, 34.3125, 34.125, 34, 34, 33.9375, 33.9375, 34, 34, 33.9375, 33.875, 33.875, 33.875, 33.9375, 33.875, 33.875, 33.9375, 34.0625, 34.25, 34.25, 34.1875, 34.0625, 34, 34.125, 34.1875, 34.169643, 34.0625, 34, 34.125, 34.25, 34.25, 34.25, 34.0625, 34.0625, 34, 33.875, 33.705357, 33.625, 33.625, 33.75, 33.875, 33.875, 33.9375, 34, 34.1875, 34.3125, 34.3125, 34.25, 34.0625, 34, 34, 34, 34, 34, 34, 34, 34, 34, 34, 34, 34, 34.125, 34.125, 34.125, 34.125, 34, 34, 34, 34, 33.75, 33.75, 33.75, 33.75, 34, 34, 34, 34, 34, 34, 33.875, 33.75, 33.5, 33.25, 33.125, 33.0625, 33.25, 33.4375, 33.625, 33.75, 33.75, 33.598213, 33.330357, 33.133926, 33.125, 33.25, 33.375, 33.4375, 33.5625, 33.6875, 33.8125, 34, 34.0625, 34, 33.9375, 33.875, 33.6875, 33.625, 33.4375, 33.25, 33.125, 33.0625, 33.1875, 33.375, 33.5625, 33.5625, 33.4375, 33.25, 33, 32.9375, 32.955357, 33.125, 33.125, 33.125, 33.0625, 33.0625, 33.0625, 32.919643, 32.8125, 32.8125, 32.8125, 33, 33, 33, 33, 33.0625, 33.0625, 33.0625, 33.0625, 33.125, 33.125, 33.125, 33.125, 33, 32.9375, 32.9375, 32.9375, 32.9375, 33, 33, 33, 33, 33, 33, 33, 33, 33, 33.0625, 33.0625, 33.0625, 33.0625, 33, 33, 33, 33, 33, 33, 32.9375, 32.9375, 33, 33, 33.0625, 33.0625, 33, 33, 33, 33, 33, 33, 33, 33, 33, 33, 33, 33, 32.9375, 32.9375, 32.9375, 32.9375, 33, 33.0625, 33.0625, 33, 33, 33, 33.0625, 33.125, 33.125, 32.8125, 32.5, 32.25, 32.0625, 32.383926, 32.6875, 32.580357, 32.526787, 32.25, 32.125, 32.125, 32.035713, 31.964287, 32.1875, 32.125, 32.1875, 32.3125, 32.3125, 32.375, 32.375, 32.4375, 32.375, 32.276787, 32.029167, 32.157738, 32.232143, 32.375, 32.375, 32.1875, 32.267857, 32.395832, 32.357143, 32.3125, 32.089287, 32, 32.125, 32.1875, 32.25, 32.1875, 32.0625, 32, 32.0625, 32.125, 32.125, 32.125, 32.0625, 32.0625, 32.0625, 31.9375, 31.901787, 32.107143, 32.214287, 32.25, 32.1875, 32.25, 32.160713, 32.089287, 32.125, 31.9375, 32, 32, 32, 31.9375, 31.964287, 32.107143, 32.107143, 32.125, 32.0625, 32, 32, 32, 32.0625, 32.125, 32.1875, 32.3125, 32.3125, 32.3125, 32.3125, 32.125, 32, 31.9375, 31.8125, 31.875, 31.9375, 31.9375, 32, 32, 32.125, 32.125, 32.125, 32.125, 32, 32, 32, 31.9375, 31.9375, 31.9375, 31.9375, 32, 32, 32, 32, 31.9375, 31.875, 31.875, 31.875, 31.9375, 32, 32, 32, 32.0625, 32.035713, 31.758928, 31.5625, 31.392857, 30.958334, 30.944443, -10, -10, -10, -10, -10, -10, -10, -10, -10, -10, -10, -10, -10, -10, -10, -10, -10, -10, -10, -10, -10, -10, -10, -10, -10, 34.125, 34.166668, 34.1875, 34.3125, 34.4375, 34.5625, 34.5625, 34.625, 34.6875, 34.75, 34.8125, 34.75, 34.5625, 34.3125, 34.4375, 34.5625, 34.5, 34.6875, 34.5625, 34.375, 34.375, 34.25, 34.25, 34.25, 34.375, 34.375, 34.25, 34.25, 34.0625, 34, 33.9375, 33.75, 33.839287, 33.785713, 33.75, 33.955357, 34, 34.0625, 34.1875, 34, 33.9375, 33.9375, 33.875, 33.9375, 34, 34, 34, 34, 34, 34, 34, 33.9375, 34, 34.0625, 34.25, 34.4375, 34.375, 34.3125, 34.0625, 33.9375, 34, 34, 34.0625, 34.0625, 34, 34.125, 34.125, 34.151787, 34.223213, 34.0625, 34.0625, 33.9375, 33.8125, 33.580357, 33.5625, 33.625, 33.75, 33.9375, 33.9375, 33.9375, 34, 34.125, 34.1875, 34.1875, 34.125, 34, 34, 34, 34, 34, 34, 34, 34, 34, 33.9375, 33.875, 33.875, 33.875, 34, 34.0625, 34.0625, 34.125, 34.0625, 34.0625, 34.0625, 34, 33.8125, 33.8125, 33.8125, 33.8125, 34, 34, 34, 34, 34, 34, 33.875, 33.8125, 33.5625, 33.3125, 33.1875, 33.0625, 33.3125, 33.5, 33.6875, 33.8125, 33.75, 33.535713, 33.205357, 33.008926, 33.0625, 33.357143, 33.5, 33.625, 33.6875, 33.75, 33.875, 34, 34.125, 34.098213, 34.026787, 34.0625, 33.875, 33.8125, 33.5625, 33.3125, 33.1875, 33.125, 33.3125, 33.5, 33.5625, 33.5, 33.3125, 33.125, 32.9375, 32.9375, 32.892857, 32.9375, 32.839287, 32.875, 32.919643, 33, 33.0625, 32.919643, 32.729168, 32.705357, 32.75, 32.9375, 33, 33, 33, 33.125, 33.1875, 33.25, 33.25, 33.25, 33.1875, 33.125, 33.125, 33.0625, 33.0625, 33.0625, 33.0625, 33, 33, 33, 33, 33, 33, 33, 33, 33, 33, 33.0625, 33.0625, 33.0625, 33.0625, 33, 33, 33, 33, 33, 33, 33, 33, 33.0625, 33.0625, 33.0625, 33.0625, 33, 33, 33, 33, 33, 33, 33, 33, 33, 33, 33, 33, 33, 33, 33, 33, 32.9375, 32.875, 32.75, 32.625, 32.6875, 32.8125, 32.9375, 33, 33, 32.6875, 32.4375, 32.3125, 32.125, 32.464287, 32.8125, 32.598213, 32.589287, 32.25, 32.1875, 32.0625, 32, 32.0625, 32.25, 32.25, 32.25, 32.3125, 32.3125, 32.375, 32.375, 32.375, 32.25, 32.232143, 32.041664, 32.041664, 32.1875, 32.25, 32.375, 32.3125, 32.375, 32.375, 32.375, 32.375, 32.25, 32.125, 32.1875, 32.125, 32.125, 32, 31.901787, 31.973213, 32.125, 32.3125, 32.3125, 32.3125, 32.1875, 32.125, 32.0625, 32, 31.9375, 32, 32.107143, 32.1875, 32.1875, 32.375, 32.285713, 32.151787, 32.1875, 31.9375, 32, 32, 32, 32, 32.026787, 32.169643, 32.169643, 32.125, 32.0625, 32, 32, 32, 32.0625, 32.125, 32.1875, 32.3125, 32.3125, 32.3125, 32.3125, 32.1875, 32.125, 32.0625, 31.9375, 31.9375, 31.9375, 31.9375, 32, 32, 32.125, 32.125, 32.125, 32.125, 32, 32, 31.9375, 31.8125, 31.8125, 31.8125, 31.875, 32, 32, 32, 31.9375, 31.8125, 31.75, 31.75, 31.8125, 32, 32.035713, 31.964287, 32, 32.0625, 32.071426, 31.651785, 31.383928, 31.142857, 31, 31, -10, -10, -10
34.1875, 34, 34, 33.9375, 33.875, 33.9375, 33.8125, 33.75, 33.767857, 33.875, 33.9375, 34.125, 34, 33.9375, 33.9375, 33.875, 33.9375, 34, 34, 34, 34.0625, 34.125, 34.125, 34.125, 34.0625, 34.125, 34.25, 34.4375, 34.5625, 34.4375, 34.3125, 34.0625, 33.9375, 34, 34, 34.0625, 34.0625, 34, 34.0625, 34, 34.026787, 34.098213, 34, 34, 33.9375, 33.875, 33.705357, 33.8125, 33.8125, 33.875, 34, 33.9375, 33.9375, 33.9375, 33.9375, 33.9375, 33.955357, 34.0625, 34, 34.0625, 34, 34, 34, 34, 34, 34, 34, 33.875, 33.875, 33.8125, 33.8125, 33.9375, 33.9375, 34, 34.125, 34.125, 34.0625, 33.955357, 33.875, 33.75, 33.8125, 33.875, 33.8125, 33.9375, 33.9375, 33.9375, 34, 34, 34, 33.9375, 33.9375, 33.75, 33.5, 33.3125, 33.0625, 33.258926, 33.512501, 33.4375, 33.5625, 33.4375, 33.357143, 33.1875, 33.0625, 33.1875, 33.482143, 33.625, 33.8125, 33.8125, 33.8125, 33.9375, 34, 34.0625, 33.973213, 33.919643, 34.012501, 33.758926, 33.758926, 33.5, 33.3125, 33.25, 33.1875, 33.3125, 33.4375, 33.375, 33.3125, 33.1875, 33.0625, 32.9375, 32.875, 32.767857, 32.75, 32.651787, 32.6875, 32.794643, 33, 33.169643, 33.169643, 33.041668, 32.955357, 32.9375, 33, 33, 33, 33, 33.1875, 33.3125, 33.4375, 33.5, 33.4375, 33.375, 33.25, 33.1875, 33.0625, 33, 33, 33, 33, 33, 33, 33, 33, 33, 33, 33, 33, 33, 33, 33, 33, 33, 33, 33, 33, 33, 33, 33, 33, 33, 33.0625, 33.0625, 33.0625, 33.0625, 33, 33, 33, 33, 33, 33, 33, 33, 33, 33, 33, 33, 33, 33, 33, 32.9375, 32.8125, 32.75, 32.625, 32.5625, 32.6875, 32.75, 32.8125, 32.875, 32.875, 32.625, 32.4375, 32.3125, 32.125, 32.392857, 32.5625, 32.410713, 32.446426, 32.125, 32.125, 32, 31.9375, 32.125, 32.25, 32.25, 32.25, 32.25, 32.25, 32.3125, 32.3125, 32.25, 32.1875, 32.1875, 32.1875, 32.1875, 32.25, 32.3125, 32.375, 32.375, 32.3125, 32.25, 32.3125, 32.375, 32.3125, 32.25, 32.1875, 32.0625, 32.0625, 31.9375, 31.901787, 31.973213, 32.125, 32.3125, 32.3125, 32.3125, 32.125, 32.0625, 32, 32, 32, 32, 32, 32.0625, 32.0625, 32.25, 32.285713, 32.151787, 32.1875, 32, 32, 32, 32, 32.125, 32.1875, 32.1875, 32.1875, 32.0625, 32.0625, 32.0625, 32.0625, 32.0625, 32, 32, 32, 32.0625, 32.125, 32.1875, 32.25, 32.1875, 32.125, 32.0625, 32, 32, 32, 32, 32, 32, 32.125, 32.125, 32.125, 32.125, 32, 32, 31.875, 31.75, 31.75, 31.75, 31.875, 32, 32, 32, 31.9375, 31.8125, 31.8125, 31.8125, 31.875, 32, 31.910713, 31.776787, 31.75, 31.8125, 31.821426, 31.401785, 31.133928, 30.892857, 30.8125, 30.833332, -10, -10, -10, -10, -10, -10, -10, -10, -10, -10, -10, -10, -10, -10, -10, -10, -10, -10, -10, -10, -10, -10, -10, -10, -10, 34.125, 34.25, 34.25, 34.375, 34.4375, 34.571426, 34.8125, 34.6875, 34.714287, 34.5625, 34.4375, 34.4375, 34.3125, 34.1875, 34.25, 34.3125, 34.375, 34.5625, 34.464287, 34.125, 34.125, 34, 34.125, 34.1875, 34.3125, 34.25, 34.125, 34.089287, 34, 34, 34.0625, 34.0625, 34.0625, 33.9375, 33.8125, 33.767857, 33.875, 33.9375, 34.125, 34, 34, 34, 33.9375, 34, 34, 34, 34, 34, 34, 33.9375, 33.9375, 33.9375, 34.0625, 34.1875, 34.375, 34.5625, 34.4375, 34.375, 34.125, 33.9375, 34, 34, 34.0625, 34.0625, 34, 34, 33.875, 33.901787, 33.973213, 33.875, 33.875, 33.8125, 33.8125, 33.8125, 33.9375, 33.9375, 33.9375, 34, 33.9375, 33.9375, 33.9375, 33.875, 33.875, 33.892857, 34, 34, 34.0625, 34, 34, 34, 33.9375, 33.875, 33.875, 33.875, 33.8125, 33.875, 33.75, 33.6875, 33.8125, 33.8125, 33.9375, 34.125, 34.09375, 33.96875, 33.861607, 33.78125, 33.75, 33.875, 33.9375, 33.8125, 33.875, 33.875, 33.875, 34, 34, 34, 33.9375, 33.9375, 33.8125, 33.625, 33.4375, 33.1875, 33.258926, 33.387501, 33.25, 33.3125, 33.1875, 33.169643, 33.0625, 33, 33.125, 33.419643, 33.5, 33.6875, 33.75, 33.75, 33.875, 33.875, 33.875, 33.723213, 33.669643, 33.762501, 33.508926, 33.571426, 33.375, 33.25, 33.25, 33.1875, 33.25, 33.3125, 33.1875, 33.125, 33.0625, 33, 33, 33, 32.875, 32.75, 32.651787, 32.6875, 32.919643, 33.1875, 33.419643, 33.419643, 33.220238, 32.955357, 32.9375, 32.9375, 33, 32.9375, 32.875, 33.080357, 33.395832, 33.616074, 33.75, 33.625, 33.5625, 33.375, 33.25, 33.125, 33, 33, 33, 33, 33, 33, 33, 33, 33, 33, 33, 33, 33, 33, 33, 33, 33, 33, 33, 33, 33, 33, 33, 33, 33, 33, 33, 33, 33, 33, 33, 33, 33, 33, 33, 33, 33, 33, 33, 32.9375, 32.9375, 32.9375, 32.9375, 33, 32.9375, 32.8125, 32.75, 32.625, 32.5625, 32.6875, 32.8125, 32.875, 32.9375, 32.9375, 32.625, 32.4375, 32.3125, 32.1875, 32.392857, 32.5625, 32.348213, 32.258926, 32.0625, 32.0625, 32, 32, 32.125, 32.1875, 32.1875, 32.1875, 32.125, 32.125, 32.1875, 32.25, 32.25, 32.25, 32.25, 32.1875, 32.1875, 32.25, 32.3125, 32.3125, 32.1875, 32.026787, 32.0625, 32.223213, 32.375, 32.375, 32.25, 32.125, 32, 32, 31.875, 31.901787, 31.973213, 32.0625, 32.25, 32.25, 32.25, 32.1875, 32.125, 32.0625, 32.0625, 32, 32, 32, 32.0625, 32.0625, 32.1875, 32.1875, 32.0625, 32.0625, 31.9375, 31.9375, 32, 32, 32.1875, 32.375, 32.4375, 32.401787, 32.3125, 32.25, 32.241074, 32.0625, 32.0625, 31.9375, 32, 32, 32, 32.0625, 32.125, 32.1875, 32.1875, 32.125, 32.0625, 32, 32, 32, 32, 32, 32, 32.0625, 32.0625, 32.0625, 32.0625, 32, 32, 31.875, 31.8125, 31.875, 31.875, 32, 32.0625, 32, 32, 31.9375, 31.8125, 31.8125, 31.8125, 31.8125, 31.875, 31.723213, 31.526787, 31.5, 31.5625, 31.571426, 31.214285, 31.071428, 31.0625, 31.1875, 31.333332, -10, -10, -10
34.089287, 34.0625, 34.125, 34.25, 34.375, 34.3125, 34.1875, 34.0625, 33.875, 33.9375, 34, 34.0625, 34, 33.9375, 33.9375, 33.9375, 34.0625, 34.0625, 34.0625, 34.0625, 34, 33.9375, 33.8125, 33.8125, 33.8125, 34, 34.098213, 34.1875, 34.419643, 34.25, 34.3125, 34.0625, 34, 34.0625, 34.0625, 34.125, 34.0625, 34, 34, 33.9375, 34.026787, 34.098213, 34, 33.9375, 33.875, 33.9375, 34, 34.1875, 34.1875, 34.125, 34.125, 34.0625, 34, 34, 33.9375, 33.875, 33.892857, 34, 34, 34.0625, 34, 34, 34, 33.875, 33.75, 33.75, 33.75, 33.75, 33.875, 33.75, 33.75, 33.875, 33.875, 34, 34.125, 34.09375, 33.96875, 33.861607, 33.78125, 33.8125, 33.9375, 34, 33.875, 33.875, 33.875, 33.875, 34, 34, 34, 33.875, 33.875, 33.8125, 33.625, 33.5, 33.25, 33.196426, 33.325001, 33.125, 33.125, 33.0625, 33.044643, 33, 33, 33.0625, 33.294643, 33.3125, 33.4375, 33.5625, 33.625, 33.8125, 33.8125, 33.6875, 33.473213, 33.357143, 33.450001, 33.258926, 33.383926, 33.25, 33.25, 33.3125, 33.1875, 33.1875, 33.1875, 33.125, 33.232143, 33.25, 33.1875, 33.125, 33.125, 33, 32.875, 32.776787, 32.75, 32.919643, 33.1875, 33.482143, 33.544643, 33.282738, 33.017857, 32.9375, 32.875, 33.0625, 32.973213, 32.767857, 32.839287, 33.083332, 33.366074, 33.5625, 33.5625, 33.5625, 33.375, 33.25, 33.125, 33.0625, 33.0625, 33.0625, 33.0625, 33, 33, 33.0625, 33.125, 33.125, 33.125, 33.0625, 33, 33, 33, 33, 33, 33, 33, 33, 32.9375, 32.9375, 32.9375, 32.9375, 33.0625, 33.0625, 33.0625, 33.0625, 33, 33, 33, 33, 33, 33, 33, 33, 33, 33, 33, 33, 32.9375, 32.9375, 32.9375, 32.9375, 32.9375, 32.875, 32.75, 32.6875, 32.75, 32.8125, 32.9375, 33.0625, 33, 32.9375, 32.9375, 32.625, 32.4375, 32.3125, 32.1875, 32.267857, 32.375, 32.267857, 32.1875, 32.0625, 32.0625, 32, 32, 32.125, 32.125, 32.125, 32.1875, 32.0625, 32.0625, 32.125, 32.1875, 32.25, 32.3125, 32.3125, 32.1875, 32.1875, 32.25, 32.3125, 32.375, 32.3125, 32.151787, 32.1875, 32.285713, 32.3125, 32.3125, 32.1875, 32.0625, 32, 32, 32, 32.026787, 32.160713, 32.25, 32.3125, 32.3125, 32.25, 32.25, 32.1875, 32.125, 32.125, 32, 32, 32, 32.0625, 32.0625, 32.0625, 32, 31.8125, 31.8125, 31.8125, 31.875, 32, 32, 32.1875, 32.375, 32.4375, 32.401787, 32.25, 32.214287, 32.276787, 32.0625, 32.0625, 31.875, 31.9375, 31.9375, 32, 32, 32, 32.125, 32.125, 32.125, 32.125, 32, 32, 32, 31.9375, 31.9375, 31.9375, 31.9375, 32.0625, 32.0625, 32.0625, 32.0625, 32, 31.875, 31.8125, 31.875, 31.875, 32, 32.0625, 32, 32, 31.9375, 31.875, 31.875, 31.875, 31.8125, 31.75, 31.535713, 31.339287, 31.375, 31.375, 31.410713, 31.205357, 31.071428, 31.125, 31.25, 31.333332, -10, -10, -10, -10, -10, -10, -10, -10, -10, -10, -10, -10, -10, -10, -10, -10, -10, -10, -10, -10, -10, -10, -10, -10, -10, 34.125, 34.333332, 34.375, 34.4375, 34.375, 34.446426, 34.6875, 34.5625, 34.651787, 34.375, 34.0625, 34.0625, 33.9375, 33.9375, 34.0625, 34.0625, 34.1875, 34.25, 34.214287, 34.0625, 34.1875, 34.241074, 34.3125, 34.375, 34.375, 34.3125, 34.125, 34.151787, 34.1875, 34.3125, 34.5, 34.5625, 34.4375, 34.3125, 34.1875, 34, 34.125, 34.125, 34.125, 34.125, 34, 34, 34, 34.0625, 34.0625, 34.0625, 34.0625, 34, 33.9375, 33.75, 33.776787, 33.919643, 34.083332, 34.098213, 34.125, 34.232143, 34.0625, 34.0625, 33.875, 33.8125, 33.9375, 34, 34.0625, 34, 33.9375, 33.9375, 34, 34.125, 34.125, 34.0625, 33.9375, 34, 34.0625, 34.1875, 34.3125, 34.3125, 34.3125, 34.25, 34.1875, 34.0625, 34, 33.9375, 33.875, 33.892857, 34, 34, 34.0625, 34, 34, 34, 33.875, 33.6875, 33.6875, 33.625, 33.6875, 33.875, 33.75, 33.8125, 33.875, 33.875, 34, 34.0625, 34.03125, 33.90625, 33.799107, 33.78125, 33.75, 33.875, 33.9375, 33.8125, 33.9375, 33.910713, 33.839287, 34, 33.875, 33.9375, 33.75, 33.75, 33.8125, 33.625, 33.5625, 33.3125, 33.196426, 33.325001, 33.125, 33.125, 33.0625, 33.107143, 33.125, 33.125, 33.125, 33.1875, 33.1875, 33.3125, 33.5, 33.625, 33.8125, 33.8125, 33.625, 33.4375, 33.330357, 33.325001, 33.133926, 33.196426, 33.125, 33.1875, 33.25, 33.125, 33, 32.964287, 33.107143, 33.285713, 33.4375, 33.375, 33.25, 33.25, 33.125, 33.125, 33.125, 33, 33.0625, 33.1875, 33.357143, 33.4375, 33.366074, 33.125, 33.0625, 33, 33.1875, 33.098213, 32.955357, 32.883926, 32.922619, 33.178574, 33.3125, 33.4375, 33.5, 33.375, 33.25, 33.125, 33.0625, 33.0625, 33.0625, 33.0625, 33, 33, 33.125, 33.25, 33.25, 33.25, 33.125, 33, 33.0625, 33.0625, 33.0625, 33.0625, 33, 33, 33, 32.9375, 32.875, 32.8125, 32.75, 32.883926, 33.0625, 33.0625, 33.125, 33, 33, 33, 33, 33, 33, 33, 33, 33, 33, 33, 33, 32.9375, 32.9375, 32.9375, 32.9375, 32.875, 32.75, 32.6875, 32.6875, 32.875, 33.0625, 33.125, 33.1875, 33.1875, 33.125, 33.125, 32.875, 32.625, 32.375, 32.25, 32.1875, 32.125, 32.125, 32, 32, 32, 32, 32, 32.0625, 32.0625, 32.0625, 32.125, 32.0625, 32.0625, 32.0625, 32.125, 32.25, 32.375, 32.4375, 32.375, 32.3125, 32.3125, 32.375, 32.375, 32.375, 32.276787, 32.25, 32.285713, 32.25, 32.1875, 32.125, 32.0625, 32, 32, 32.0625, 32.0625, 32.125, 32.25, 32.1875, 32.1875, 32.125, 32.125, 32.125, 32.125, 32.125, 32, 32, 32, 32, 32, 31.866072, 31.625, 31.5, 31.5, 31.6875, 31.8125, 32, 32, 32.125, 32.3125, 32.375, 32.339287, 32.25, 32.214287, 32.276787, 32.0625, 32.0625, 31.875, 31.9375, 31.9375, 32, 31.9375, 31.875, 32.017857, 32.208332, 32.208332, 32.125, 31.9375, 31.875, 31.9375, 31.8125, 31.8125, 31.8125, 31.8125, 32.0625, 32.1875, 32.1875, 32.1875, 32.0625, 31.9375, 31.9375, 32, 32, 32.0625, 32.0625, 32, 32, 32, 32, 32, 32, 31.8125, 31.5625, 31.375, 31.25, 31.3125, 31.3125, 31.3125, 31.1875, 31.0625, 31.1875, 31.25, 31.333332, -10, -10, -10
34.026787, 34.0625, 34.125, 34.3125, 34.4375, 34.410713, 34.3125, 34.1875, 34, 34.1875, 34.1875, 34.1875, 34.1875, 34, 34, 34, 34.0625, 34.0625, 34.0625, 34.0625, 33.9375, 33.8125, 33.6875, 33.776787, 34.044643, 34.261906, 34.098213, 34.125, 34.169643, 34.0625, 34, 33.8125, 33.75, 33.9375, 34.0625, 34.0625, 33.892857, 33.8125, 33.8125, 34, 34.1875, 34.1875, 34.125, 34, 34.0625, 34.125, 34.25, 34.3125, 34.3125, 34.3125, 34.25, 34.1875, 34.0625, 34.0625, 34.0625, 34.0625, 34, 33.9375, 33.9375, 33.9375, 34, 34, 34, 33.875, 33.6875, 33.6875, 33.5625, 33.6875, 33.875, 33.8125, 33.9375, 33.9375, 33.9375, 34, 34, 33.90625, 33.84375, 33.84375, 33.84375, 33.875, 33.9375, 33.9375, 33.9375, 34.0625, 34.035713, 33.964287, 34, 33.875, 33.875, 33.625, 33.5625, 33.5625, 33.4375, 33.5, 33.375, 33.3125, 33.375, 33.3125, 33.25, 33.1875, 33.125, 33.1875, 33.1875, 33.125, 33.1875, 33.1875, 33.3125, 33.5625, 33.6875, 33.8125, 33.8125, 33.625, 33.5, 33.3125, 33.1875, 33.125, 33.125, 33.125, 33.1875, 33.1875, 33.0625, 33, 32.964287, 33.169643, 33.410713, 33.5625, 33.5, 33.4375, 33.357143, 33.017857, 33.017857, 33.0625, 33.098213, 33.1875, 33.25, 33.25, 33.25, 33.178574, 33, 33, 33, 33.1875, 33.098213, 32.955357, 32.821426, 32.797619, 32.991074, 33.0625, 33.1875, 33.25, 33.1875, 33.125, 33.0625, 33.0625, 33.0625, 33.0625, 33, 32.9375, 33, 33.232143, 33.375, 33.375, 33.3125, 33.125, 33, 33.0625, 33.0625, 33.0625, 33.0625, 33, 33, 33, 32.9375, 32.8125, 32.75, 32.75, 32.99107, 33.1875, 33.1875, 33.1875, 33, 33, 33, 33, 33, 33, 33, 33, 33, 33, 33, 33, 32.9375, 32.9375, 32.9375, 32.9375, 32.8125, 32.75, 32.75, 32.75, 33, 33.125, 33.125, 33.1875, 33.125, 33.0625, 33.0625, 32.875, 32.75, 32.5, 32.375, 32.25, 32.125, 32.125, 32, 32.0625, 32.0625, 32.0625, 32.0625, 32, 32.0625, 32.0625, 32.125, 32.125, 32.125, 32.125, 32.1875, 32.3125, 32.375, 32.5, 32.5, 32.5, 32.5, 32.4375, 32.4375, 32.4375, 32.401787, 32.5, 32.410713, 32.25, 32.125, 32.0625, 32.125, 32.125, 32.125, 32.125, 32.0625, 32.125, 32.25, 32.1875, 32.1875, 32.125, 32.125, 32.125, 32.125, 32.125, 32, 32, 32, 32.0625, 32.125, 31.9375, 31.395834, 31.1875, 31.1875, 31.4375, 31.6875, 31.9375, 31.9375, 32.0625, 32.1875, 32.25, 32.214287, 32.1875, 32.089287, 32.089287, 31.875, 31.875, 31.8125, 31.9375, 31.9375, 32, 31.9375, 31.875, 32.017857, 32.208332, 32.208332, 32.125, 31.9375, 31.875, 31.90625, 31.71875, 31.71875, 31.71875, 31.75, 32.0625, 32.25, 32.3125, 32.3125, 32.1875, 32.0625, 32.0625, 32.125, 32.125, 32.125, 32.0625, 32, 32, 32, 32, 32, 32, 31.75, 31.5, 31.3125, 31.1875, 31.3125, 31.3125, 31.375, 31.3125, 31.1875, 31.25, 31.1875, 31.166666, -10, -10, -10, -10, -10, -10, -10, -10, -10, -10, -10, -10, -10, -10, -10, -10, -10, -10, -10, -10, -10, -10, -10, -10, -10, 34.25, 34.5, 34.625, 34.75, 34.75, 34.6875, 34.6875, 34.6875, 34.625, 34.4375, 34.125, 34, 33.9375, 33.875, 34, 34, 34, 34, 34.0625, 34.125, 34.25, 34.303574, 34.1875, 34.25, 34.125, 34.1875, 34.0625, 34.0625, 34.125, 34.1875, 34.3125, 34.4375, 34.410713, 34.375, 34.25, 34.125, 34.3125, 34.25, 34.25, 34.1875, 34, 34, 34, 34.0625, 34.0625, 34.125, 34.1875, 34.1875, 34.1875, 34.125, 34.151787, 34.294643, 34.324406, 34.035713, 34, 33.982143, 33.875, 33.75, 33.625, 33.625, 33.9375, 34.1875, 34.1875, 34.017857, 33.875, 33.8125, 34, 34.1875, 34.1875, 34.1875, 34.0625, 34.125, 34.1875, 34.3125, 34.375, 34.375, 34.375, 34.25, 34.1875, 34.125, 34.1875, 34.1875, 34.1875, 34.125, 34.0625, 34.0625, 34.0625, 34.0625, 34, 34, 33.9375, 33.8125, 33.8125, 33.6875, 33.8125, 33.9375, 33.9375, 34.125, 34.0625, 34.0625, 34.0625, 34, 33.9375, 33.9375, 33.9375, 33.9375, 33.9375, 33.875, 33.875, 33.9375, 34.0625, 34.098213, 34.026787, 34, 33.875, 33.8125, 33.5625, 33.4375, 33.375, 33.3125, 33.4375, 33.4375, 33.5, 33.625, 33.5625, 33.428574, 33.1875, 33.125, 33.125, 33.1875, 33.1875, 33.25, 33.25, 33.4375, 33.625, 33.75, 33.9375, 33.875, 33.6875, 33.5625, 33.3125, 33.1875, 33.125, 33.0625, 33.0625, 33.1875, 33.1875, 33.125, 33.0625, 32.964287, 33.169643, 33.410713, 33.5625, 33.5, 33.5, 33.482143, 33.205357, 33.205357, 33.25, 33.160713, 33.125, 33.125, 33, 33, 33.0625, 33.0625, 33.0625, 33.125, 33.25, 33.285713, 33.205357, 33.053574, 32.776787, 32.8125, 32.8125, 32.9375, 33, 33, 33, 33, 33.0625, 33.0625, 33.0625, 32.9375, 32.8125, 32.875, 33.169643, 33.482143, 33.482143, 33.3125, 33.125, 32.9375, 33.0625, 33.0625, 33.0625, 33.0625, 33, 33, 33, 32.9375, 32.8125, 32.75, 32.75, 32.99107, 33.1875, 33.1875, 33.1875, 33, 33, 33, 33, 33, 33, 33, 33, 33, 33, 33, 33, 33, 33, 33, 33, 32.8125, 32.75, 32.75, 32.75, 33, 33.125, 33.125, 33.125, 33.0625, 33, 33, 32.9375, 32.875, 32.625, 32.4375, 32.25, 32.0625, 32.0625, 32, 32, 32, 32, 32, 32, 32.0625, 32.0625, 32.1875, 32.1875, 32.25, 32.25, 32.1875, 32.3125, 32.375, 32.5625, 32.6875, 32.6875, 32.5625, 32.375, 32.3125, 32.4375, 32.5625, 32.625, 32.5, 32.25, 32.0625, 32.125, 32.25, 32.25, 32.25, 32.25, 32.125, 32.1875, 32.3125, 32.1875, 32.1875, 32.125, 32.0625, 32.0625, 32.0625, 32.0625, 32, 32, 32, 32.0625, 32.125, 31.9375, 31.458334, 31.3125, 31.3125, 31.5625, 31.75, 32, 32, 32.125, 32.125, 32.0625, 32.0625, 31.9375, 31.839287, 31.785713, 31.767857, 31.958332, 31.982143, 32.0625, 32, 32, 31.9375, 31.875, 31.955357, 32.145832, 32.145832, 32.0625, 31.9375, 31.875, 31.875, 31.625, 31.625, 31.625, 31.6875, 32.0625, 32.25, 32.375, 32.375, 32.25, 32.125, 32, 32, 32.0625, 32.125, 32.125, 32.125, 32.0625, 32, 32, 32.0625, 32.125, 31.919643, 31.541666, 31.321428, 31.1875, 31.3125, 31.3125, 31.4375, 31.375, 31.25, 31.25, 31.0625, 31, -10, -10, -10
34, 34, 33.9375, 34, 34.1875, 34.258926, 34.375, 34.3125, 34.1875, 34.3125, 34.1875, 34.1875, 34.125, 34, 34, 34, 34.0625, 34.125, 34.25, 34.375, 34.375, 34.375, 34.3125, 34.276787, 34.419643, 34.324406, 34, 34, 33.875, 33.875, 33.6875, 33.625, 33.5625, 33.8125, 34.0625, 34.0625, 33.955357, 33.875, 33.8125, 33.9375, 34.0625, 34.0625, 34.0625, 34, 34.0625, 34.0625, 34.125, 34.125, 34.125, 34.1875, 34.125, 34.125, 34.125, 34.1875, 34.1875, 34.1875, 34.125, 34.0625, 34.0625, 34.125, 34.125, 34.0625, 34.0625, 34, 33.9375, 33.9375, 33.8125, 33.9375, 34, 34, 34.125, 34, 34, 34, 34, 33.9375, 33.9375, 33.9375, 33.9375, 33.9375, 33.875, 33.8125, 33.875, 34, 34.035713, 34.026787, 34, 33.875, 33.75, 33.5, 33.3125, 33.1875, 33.25, 33.375, 33.4375, 33.5625, 33.625, 33.625, 33.473213, 33.125, 33.125, 33.0625, 33.1875, 33.1875, 33.1875, 33.1875, 33.375, 33.5625, 33.75, 33.875, 33.8125, 33.625, 33.5, 33.3125, 33.1875, 33.125, 33, 33, 33.125, 33.1875, 33.25, 33.25, 33.151787, 33.232143, 33.303574, 33.375, 33.375, 33.4375, 33.419643, 33.205357, 33.142857, 33.1875, 33.223213, 33.1875, 33.1875, 33.0625, 33, 33.125, 33.125, 33.125, 33.25, 33.3125, 33.375, 33.4375, 33.294643, 33.026787, 33, 32.9375, 33, 33, 33, 33, 33, 33, 33, 33, 32.875, 32.8125, 32.875, 33.169643, 33.482143, 33.482143, 33.3125, 33.125, 32.9375, 33.0625, 33.0625, 33.0625, 33.0625, 33, 33, 33, 33, 32.875, 32.8125, 32.8125, 32.92857, 33.125, 33.0625, 33.0625, 32.9375, 32.9375, 33, 33, 33, 33, 33, 33, 33, 33, 33, 33, 33, 33, 33, 33, 32.875, 32.8125, 32.8125, 32.8125, 32.9375, 33, 33, 33.0625, 33.0625, 33.0625, 33.0625, 33, 33, 32.8125, 32.5625, 32.3125, 32.0625, 32, 32, 32, 32, 32, 32, 31.9375, 32, 32, 32.125, 32.25, 32.375, 32.375, 32.25, 32.25, 32.25, 32.5, 32.75, 32.875, 32.75, 32.5, 32.25, 32.25, 32.375, 32.4375, 32.4375, 32.25, 32.0625, 32.125, 32.25, 32.25, 32.1875, 32.125, 32.0625, 32.098213, 32.1875, 32.125, 32.0625, 32.0625, 32, 32, 32, 32, 32, 32, 32, 32.0625, 32.125, 32, 31.583334, 31.5, 31.5, 31.6875, 31.8125, 32, 32, 32.125, 32.125, 32.125, 32.125, 32.0625, 31.9375, 31.75, 31.830357, 32.083332, 32.169643, 32.25, 32.125, 32, 31.9375, 31.875, 31.892857, 32.083332, 32.083332, 32, 31.9375, 31.875, 31.90625, 31.78125, 31.84375, 31.84375, 31.875, 32.0625, 32.1875, 32.3125, 32.3125, 32.25, 32.125, 32, 32, 32.125, 32.25, 32.3125, 32.375, 32.25, 32.125, 32.0625, 32.0625, 32.125, 31.919643, 31.541666, 31.383928, 31.25, 31.4375, 31.473213, 31.455357, 31.383928, 31.25, 31.25, 31.0625, 31, -10, -10, -10, -10, -10, -10, -10, -10, -10, -10, -10, -10, -10, -10, -10, -10, -10, -10, -10, -10, -10, -10, -10, -10, -10, 34.25, 34.5, 34.625, 34.8125, 34.875, 34.75, 34.75, 34.6875, 34.4375, 34.3125, 34.232143, 34.178574, 34.1875, 34.1875, 34.1875, 34.1875, 34.25, 34.25, 34.3125, 34.25, 34.1875, 34.0625, 34.0625, 34.1875, 34.1875, 34.25, 34.125, 33.9375, 33.875, 33.75, 33.75, 34.0625, 34.196426, 34.375, 34.375, 34.1875, 34.25, 34.1875, 34.1875, 34.125, 34.0625, 34, 34.0625, 34.1875, 34.3125, 34.428574, 34.291668, 34.196426, 34.1875, 34.25, 34.25, 34.3125, 34.241074, 34, 34, 34, 34.0625, 33.9375, 33.9375, 33.875, 34, 34.1875, 34.125, 34.017857, 33.9375, 33.875, 33.9375, 34, 34, 34, 34, 34, 34.0625, 34.125, 34.1875, 34.25, 34.1875, 34.125, 34.0625, 34.0625, 34.1875, 34.125, 34.0625, 33.9375, 33.875, 33.9375, 34, 34.0625, 34, 34, 34, 34, 34, 33.9375, 34.125, 34.1875, 34.1875, 34.25, 34.0625, 34, 34, 34, 33.875, 33.8125, 33.8125, 33.8125, 33.9375, 33.9375, 33.875, 33.9375, 33.9375, 34, 34.0625, 34, 33.9375, 33.75, 33.482143, 33.1875, 33.107143, 33.125, 33.3125, 33.375, 33.5, 33.5625, 33.5625, 33.410713, 33.125, 33.125, 33.0625, 33.1875, 33.1875, 33.25, 33.25, 33.375, 33.5625, 33.6875, 33.75, 33.6875, 33.4375, 33.3125, 33.160713, 33.026787, 33.0625, 32.9375, 33, 33.125, 33.1875, 33.3125, 33.4375, 33.3125, 33.25, 33.1875, 33.125, 33.1875, 33.3125, 33.294643, 33.142857, 33.080357, 33.125, 33.285713, 33.25, 33.25, 33.125, 33, 33.125, 33.125, 33.125, 33.1875, 33.1875, 33.1875, 33.125, 33.0625, 33, 33.035713, 33.0625, 33.0625, 33.0625, 33.0625, 33.0625, 33.0625, 33, 33, 33, 32.875, 32.8125, 32.875, 33.107143, 33.357143, 33.357143, 33.1875, 33.0625, 33, 33.0625, 33.0625, 33.0625, 33.0625, 33.0625, 33.0625, 33.0625, 33, 32.9375, 32.9375, 33, 33.107143, 33.125, 33.0625, 33, 32.9375, 32.9375, 33, 33, 33, 33, 33, 33, 33, 33, 33, 33, 33, 33, 33, 33, 32.9375, 32.9375, 32.9375, 32.9375, 33, 33, 33.0625, 33.1875, 33.1875, 33.1875, 33.125, 33, 33, 32.875, 32.6875, 32.4375, 32.1875, 32.0625, 32, 32, 32, 31.9375, 31.9375, 31.9375, 32.107143, 32.1875, 32.375, 32.5, 32.625, 32.5625, 32.375, 32.330357, 32.375, 32.5625, 32.8125, 32.875, 32.75, 32.4375, 32.125, 32.0625, 32.125, 32.25, 32.3125, 32.1875, 32.0625, 32.125, 32.25, 32.25, 32.125, 32.0625, 32, 32.035713, 32.125, 32.0625, 32, 32, 32, 32, 32, 32, 32, 32, 32, 32.0625, 32.125, 32.008926, 31.797619, 31.857143, 31.857143, 31.9375, 32, 32.035713, 32, 32.303574, 32.303574, 32.3125, 32.25, 32.125, 31.9375, 31.75, 31.830357, 32.083332, 32.169643, 32.25, 32.125, 31.96875, 31.90625, 31.90625, 31.96875, 32.035713, 32, 31.892857, 31.875, 31.875, 31.96875, 32.03125, 32.09375, 32.09375, 32.0625, 32.0625, 32, 32.125, 32.125, 32.125, 32.125, 32, 32, 32.125, 32.25, 32.3125, 32.375, 32.25, 32.125, 32.0625, 32.0625, 32.0625, 31.857143, 31.541666, 31.352678, 31.25, 31.375, 31.348213, 31.299107, 31.258928, 31.1875, 31.1875, 31.0625, 31, -10, -10, -10
34, 34, 33.9375, 33.875, 34, 34.035713, 34.1875, 34.25, 34.1875, 34.1875, 34.1875, 34.1875, 34.125, 34.125, 34, 34.125, 34.3125, 34.4375, 34.553574, 34.354168, 34.196426, 34.1875, 34.1875, 34.125, 34.0625, 33.9375, 33.8125, 33.821426, 34.145832, 34.169643, 34.125, 34.0625, 33.9375, 34, 34.125, 34.125, 34.125, 34.0625, 34, 34, 34, 34, 34, 34, 34, 34.0625, 34.125, 34.25, 34.375, 34.3125, 34.25, 34.1875, 34.125, 34.1875, 34.0625, 33.964287, 33.973213, 33.9375, 34.0625, 34.0625, 34.0625, 34, 34, 34, 33.9375, 33.9375, 33.9375, 34.125, 34.25, 34.25, 34.25, 34, 33.9375, 33.9375, 33.9375, 33.9375, 33.875, 33.875, 33.9375, 34, 34, 33.9375, 33.8125, 33.8125, 33.875, 33.9375, 34, 33.875, 33.6875, 33.419643, 33.1875, 33.232143, 33.232143, 33.25, 33.1875, 33.1875, 33.25, 33.3125, 33.285713, 33, 32.9375, 32.75, 32.875, 32.9375, 33.125, 33.25, 33.375, 33.5625, 33.6875, 33.6875, 33.5625, 33.3125, 33.0625, 32.973213, 32.901787, 32.9375, 32.875, 32.9375, 33.0625, 33.125, 33.375, 33.5, 33.375, 33.3125, 33.125, 33, 33.0625, 33.125, 33.1875, 33.25, 33.1875, 33.1875, 33.25, 33.1875, 33.1875, 33.125, 32.9375, 33, 33, 33, 33.125, 33.1875, 33.1875, 33.125, 33.0625, 33.0625, 33.098213, 33.125, 33.125, 33.0625, 33.0625, 33.0625, 33.0625, 33, 33, 33, 32.9375, 32.875, 32.875, 33, 33.232143, 33.232143, 33.125, 33.0625, 33, 33.0625, 33.0625, 33.0625, 33.0625, 33, 33, 33, 33, 33.0625, 33.0625, 33.0625, 33, 33, 32.9375, 32.9375, 32.9375, 32.9375, 33, 33, 33, 33, 32.9375, 32.9375, 32.9375, 32.9375, 33, 32.9375, 32.875, 32.875, 32.875, 32.9375, 33, 33, 33, 33, 33, 32.9375, 32.9375, 33, 33.0625, 33.125, 33.125, 33.0625, 33, 32.9375, 32.8125, 32.625, 32.4375, 32.3125, 32.1875, 32.125, 32.125, 32.0625, 32.125, 32.1875, 32.294643, 32.375, 32.5625, 32.6875, 32.8125, 32.6875, 32.5, 32.455357, 32.5, 32.6875, 32.875, 32.8125, 32.6875, 32.4375, 32.125, 32.125, 32.125, 32.1875, 32.3125, 32.1875, 32.125, 32.0625, 32.0625, 32.0625, 31.9375, 32, 32.0625, 32.160713, 32.3125, 32.25, 32.125, 32.0625, 32, 32, 32.0625, 32.125, 32.125, 32.125, 32.125, 32.125, 32.125, 32.0625, 32.089287, 32.169643, 32.169643, 32.1875, 32.125, 32.160713, 32.1875, 32.428574, 32.428574, 32.375, 32.25, 32.125, 32, 31.875, 31.955357, 32.208332, 32.232143, 32.25, 32.125, 31.90625, 31.84375, 31.84375, 31.90625, 32.035713, 32, 31.892857, 31.875, 31.875, 32, 32.125, 32.1875, 32.1875, 32.125, 32, 31.875, 31.9375, 31.9375, 32, 32.0625, 32, 32, 32.125, 32.25, 32.375, 32.4375, 32.3125, 32.1875, 32.0625, 32.0625, 32.0625, 31.857143, 31.604166, 31.415178, 31.375, 31.5625, 31.535713, 31.424107, 31.258928, 31.125, 31.0625, 31, 31, -10, -10, -10, -10, -10, -10, -10, -10, -10, -10, -10, -10, -10, -10, -10, -10, -10, -10, -10, -10, -10, -10, -10, -10, -10, 34.125, 34.25, 34.4375, 34.6875, 34.8125, 34.8125, 34.75, 34.5, 34.3125, 34.25, 34.232143, 34.428574, 34.5, 34.625, 34.6875, 34.5625, 34.625, 34.4375, 34.375, 34.3125, 34.125, 34.125, 34.125, 34.1875, 34.1875, 34.125, 34.0625, 34.0625, 34.0625, 34, 33.875, 33.8125, 33.848213, 33.875, 34, 34, 34, 34.125, 34.125, 34.125, 34.1875, 34.0625, 34.1875, 34.375, 34.4375, 34.491074, 34.229168, 34.008926, 33.9375, 33.9375, 33.9375, 33.9375, 33.875, 33.8125, 33.883926, 34.208332, 34.294643, 34.3125, 34.1875, 34, 33.9375, 34, 34.035713, 34.0625, 34.0625, 34, 34, 34, 34, 34, 34, 34, 34.0625, 34.0625, 34.25, 34.4375, 34.4375, 34.4375, 34.375, 34.25, 34.1875, 34.125, 33.964287, 33.910713, 33.875, 33.9375, 33.9375, 34, 34, 34, 34, 33.875, 33.875, 33.875, 34, 34.1875, 34.1875, 34.1875, 34, 33.9375, 33.9375, 33.9375, 33.9375, 33.9375, 34, 34.125, 34.25, 34.3125, 34.25, 34.053574, 33.875, 33.875, 33.8125, 33.875, 33.6875, 33.5, 33.294643, 33.1875, 33.267857, 33.13393, 33.125, 32.9375, 33, 33.125, 33.1875, 33.232143, 33.0625, 32.9375, 32.8125, 32.90625, 32.96875, 33.09375, 33.28125, 33.3125, 33.5, 33.6875, 33.5625, 33.5, 33.25, 33, 32.973213, 32.901787, 32.9375, 32.875, 32.9375, 33.0625, 33.1875, 33.4375, 33.5625, 33.4375, 33.3125, 33.125, 33, 33.0625, 33.0625, 33.0625, 33.0625, 33, 33, 33.125, 33.125, 33.1875, 33.1875, 33, 33, 32.9375, 32.9375, 33.0625, 33.125, 33.0625, 33, 32.9375, 33, 33.098213, 33.1875, 33.25, 33.1875, 33.1875, 33.125, 33.0625, 33, 33, 33, 33, 33, 33, 33.0625, 33.125, 33.125, 33.125, 33.0625, 33.0625, 33.0625, 33.0625, 33.0625, 33.0625, 33, 33, 33, 33, 33, 33, 33, 33, 33.0625, 33, 33, 32.9375, 32.9375, 33, 33, 33, 33, 32.875, 32.875, 32.875, 32.8125, 32.875, 32.75, 32.625, 32.6875, 32.75, 32.875, 33, 33, 33, 33, 33, 32.875, 32.8125, 32.8125, 32.875, 33, 33.0625, 33.0625, 33, 33, 32.9375, 32.8125, 32.6875, 32.5, 32.3125, 32.1875, 32.1875, 32.125, 32.1875, 32.25, 32.357143, 32.5, 32.6875, 32.875, 32.9375, 32.8125, 32.6875, 32.642857, 32.6875, 32.8125, 32.9375, 32.8125, 32.75, 32.491074, 31.979166, 31.979166, 32, 32.0625, 32.25, 32.125, 32.125, 32, 31.9375, 31.9375, 31.8125, 31.875, 32.0625, 32.223213, 32.4375, 32.5, 32.375, 32.3125, 32.25, 32.25, 32.3125, 32.3125, 32.25, 32.1875, 32.125, 32.1875, 32.1875, 32.125, 32.151787, 32.169643, 32.169643, 32.1875, 32.125, 32.098213, 32.125, 32.303574, 32.303574, 32.3125, 32.25, 32.25, 32.25, 32.1875, 32.1875, 32.1875, 32.125, 32.125, 32.0625, 31.84375, 31.78125, 31.78125, 31.84375, 32.035713, 32, 31.892857, 31.875, 31.875, 31.96875, 32.09375, 32.15625, 32.15625, 32.125, 32, 31.875, 31.875, 31.875, 31.9375, 32.0625, 32.0625, 32.0625, 32.0625, 32.0625, 32.1875, 32.25, 32.25, 32.1875, 32.0625, 32, 31.9375, 31.75, 31.6875, 31.59375, 31.5625, 31.6875, 31.660713, 31.39732, 31.160715, 31.0625, 30.9375, 31, 31, -10, -10, -10
34.0625, 34, 33.9375, 33.75, 33.5625, 33.625, 33.5625, 33.75, 33.875, 33.9375, 34.1875, 34.1875, 34.125, 34.151787, 34.098213, 34.1875, 34.4375, 34.4375, 34.428574, 34.166668, 34.008926, 33.9375, 34, 34, 33.9375, 33.875, 33.8125, 33.883926, 34.208332, 34.294643, 34.3125, 34.25, 34.0625, 34, 34.0625, 34.035713, 34.0625, 34.0625, 34, 34, 34, 34, 34, 34, 34, 34.0625, 34.0625, 34.3125, 34.5625, 34.5625, 34.5625, 34.4375, 34.25, 34.1875, 34.125, 33.964287, 33.910713, 33.875, 33.9375, 33.875, 33.9375, 33.9375, 33.9375, 34, 33.875, 33.9375, 33.9375, 34, 34.1875, 34.125, 34.125, 34, 33.9375, 33.9375, 33.875, 33.875, 33.9375, 34.107143, 34.3125, 34.4375, 34.5, 34.5, 34.223213, 33.9375, 34, 33.8125, 33.839287, 33.625, 33.375, 33.294643, 33.1875, 33.330357, 33.13393, 33.0625, 32.875, 32.9375, 33.0625, 33.0625, 33.125, 33.125, 33.0625, 33.0625, 33.09375, 33.09375, 33.21875, 33.40625, 33.4375, 33.5625, 33.625, 33.4375, 33.375, 33.1875, 33, 32.973213, 32.901787, 32.9375, 32.875, 32.9375, 33.0625, 33.125, 33.3125, 33.4375, 33.25, 33.1875, 33.0625, 32.875, 32.875, 32.875, 32.875, 32.9375, 33, 33, 33.0625, 33.125, 33.25, 33.25, 33.1875, 33.125, 33, 33, 33, 33, 32.9375, 32.875, 32.875, 33, 33.098213, 33.25, 33.3125, 33.3125, 33.375, 33.25, 33.1875, 33.0625, 33, 33, 33, 33, 33, 33, 33, 33, 33, 33, 33.0625, 33.0625, 33.0625, 33.0625, 33.0625, 33, 33, 33, 33, 33, 33, 33, 33, 33.125, 33.125, 33.125, 33.0625, 33, 33, 33, 33, 33, 32.875, 32.875, 32.8125, 32.6875, 32.6875, 32.571426, 32.575001, 32.580357, 32.8125, 32.910713, 33, 32.892857, 32.8125, 32.8125, 32.875, 32.75, 32.6875, 32.5625, 32.625, 32.8125, 32.9375, 33.0625, 33, 33, 33, 32.9375, 32.875, 32.75, 32.5625, 32.4375, 32.4375, 32.375, 32.4375, 32.5, 32.544643, 32.6875, 32.875, 33.035713, 33.0625, 32.9375, 32.8125, 32.830357, 32.9375, 32.9375, 32.9375, 32.625, 32.5, 32.303574, 31.916666, 32.104164, 32.125, 32.1875, 32.3125, 32.125, 32.125, 32, 31.9375, 31.9375, 31.9375, 32.0625, 32.25, 32.4375, 32.5625, 32.5625, 32.5, 32.348213, 32.142857, 32.07143, 32.125, 32.125, 32.125, 32.125, 32.0625, 32.1875, 32.1875, 32.125, 32.151787, 32.169643, 32.169643, 32.1875, 32.125, 32.098213, 32.125, 32.303574, 32.303574, 32.25, 32.1875, 32.25, 32.3125, 32.3125, 32.25, 32.125, 32, 32, 32, 31.78125, 31.65625, 31.65625, 31.71875, 31.973213, 32, 31.892857, 31.875, 31.875, 32, 32.035713, 31.964287, 32, 31.9375, 31.875, 31.8125, 31.8125, 31.8125, 31.9375, 32.0625, 32.0625, 32.0625, 32, 31.9375, 32, 32, 32.0625, 32.0625, 32, 32, 31.9375, 31.8125, 31.75, 31.65625, 31.5625, 31.5, 31.4375, 31.254463, 31.089287, 31.0625, 30.9375, 31, 31, -10, -10, -10, -10, -10, -10, -10, -10, -10, -10, -10, -10, -10, -10, -10, -10, -10, -10, -10, -10, -10, -10, -10, -10, -10, 34, 34.166664, 34.375, 34.625, 34.8125, 34.8125, 34.625, 34.375, 34.25, 34.1875, 34.125, 34.25, 34.4375, 34.5625, 34.625, 34.5, 34.375, 34.1875, 34.125, 34.125, 34, 34.0625, 34.0625, 34.0625, 34.0625, 34, 34, 34.125, 34.125, 34.125, 33.9375, 33.625, 33.625, 33.5, 33.6875, 33.875, 33.9375, 34.1875, 34.25, 34.25, 34.339287, 34.285713, 34.25, 34.375, 34.25, 34.25, 34.3125, 34.25, 34.1875, 34.1875, 34.0625, 33.9375, 33.875, 33.8125, 33.883926, 34.145832, 34.169643, 34.1875, 34.1875, 34.0625, 34.0625, 34.125, 34.035713, 34.0625, 34.0625, 34.0625, 34.125, 34.125, 34.125, 34.0625, 34, 34, 34, 34, 34.25, 34.4375, 34.5, 34.5, 34.375, 34.25, 34.1875, 34.125, 34.026787, 34.035713, 34, 34.0625, 34, 34, 34, 34, 33.9375, 33.8125, 33.8125, 33.8125, 33.875, 34, 34, 34, 33.9375, 33.9375, 33.9375, 33.875, 33.9375, 34.0625, 34.232143, 34.4375, 34.5, 34.5, 34.5625, 34.348213, 34.125, 34.178574, 33.8125, 33.839287, 33.625, 33.375, 33.3125, 33.25, 33.223213, 33.13393, 33, 32.875, 32.9375, 33.0625, 33.0625, 33.125, 33.1875, 33.1875, 33.1875, 33.21875, 33.15625, 33.15625, 33.34375, 33.375, 33.4375, 33.5, 33.3125, 33.3125, 33.1875, 33, 33, 32.9375, 32.9375, 32.9375, 32.9375, 33.0625, 33.125, 33.25, 33.25, 33, 32.9375, 32.875, 32.75, 32.75, 32.75, 32.75, 32.875, 33, 33, 33.0625, 33.125, 33.25, 33.25, 33.125, 33, 32.875, 32.875, 32.9375, 33, 33, 33, 33, 33.0625, 33.0625, 33.1875, 33.25, 33.25, 33.375, 33.25, 33.1875, 33.125, 33, 33, 33, 33, 32.96875, 32.90625, 32.90625, 32.90625, 32.9375, 33, 33, 33, 33, 33, 33, 32.9375, 32.9375, 33, 33.0625, 33.0625, 33.0625, 33, 33.0625, 33.25, 33.25, 33.25, 33.0625, 32.9375, 32.9375, 32.9375, 33, 33, 32.875, 32.875, 32.8125, 32.6875, 32.625, 32.508926, 32.512501, 32.517857, 32.8125, 32.910713, 33, 32.830357, 32.6875, 32.6875, 32.75, 32.6875, 32.5625, 32.375, 32.3125, 32.5, 32.75, 32.875, 32.875, 32.8125, 32.75, 32.8125, 32.875, 32.875, 32.8125, 32.6875, 32.6875, 32.6875, 32.75, 32.75, 32.6875, 32.75, 32.875, 33.035713, 33.0625, 32.9375, 32.8125, 32.75, 32.6875, 32.6875, 32.625, 32.4375, 32.375, 32.303574, 32.041664, 32.229164, 32.25, 32.25, 32.3125, 32.125, 32.125, 32, 31.9375, 31.875, 31.964287, 32.160713, 32.375, 32.6875, 32.6875, 32.6875, 32.5625, 32.348213, 32.142857, 32.07143, 32.125, 32.125, 32.125, 32.125, 32.0625, 32.1875, 32.25, 32.25, 32.25, 32.125, 32.125, 32.125, 32.0625, 32.1875, 32.1875, 32.1875, 32.1875, 32.125, 32.1875, 32.375, 32.491074, 32.3125, 32.3125, 32.125, 31.964287, 32, 31.9375, 31.8125, 31.75, 31.75, 31.75, 32, 32.125, 32.125, 32.125, 32.0625, 31.9375, 31.848213, 31.776787, 31.8125, 31.9375, 31.910713, 31.839287, 31.8125, 31.75, 31.9375, 32, 32.0625, 32.0625, 32, 31.9375, 32, 32, 32.0625, 32.0625, 32, 31.9375, 31.9375, 31.875, 31.732143, 31.612499, 31.616072, 31.482143, 31.5, 31.348213, 31.151787, 31.125, 31, 31.0625, 31.083334, -10, -10, -10
34.3125, 34.3125, 34.375, 34.25, 33.9375, 33.875, 33.6875, 33.75, 33.875, 33.9375, 34.1875, 34.3125, 34.375, 34.526787, 34.473213, 34.3125, 34.3125, 34.125, 34.125, 34.25, 34.25, 34.1875, 34.1875, 34.0625, 34, 34, 34, 34.0625, 34.0625, 34.0625, 34.0625, 34.125, 34.0625, 34.0625, 34.125, 34.035713, 34.0625, 34.0625, 34.125, 34.1875, 34.1875, 34.1875, 34.0625, 34, 34, 34, 34, 34.1875, 34.3125, 34.375, 34.375, 34.25, 34.1875, 34.125, 34.0625, 34, 33.9375, 33.9375, 34, 34, 34, 34, 34, 33.9375, 33.875, 33.875, 33.875, 33.9375, 34, 34, 33.9375, 33.875, 33.875, 33.875, 33.875, 33.9375, 34.0625, 34.232143, 34.375, 34.4375, 34.375, 34.4375, 34.348213, 34.125, 34.241074, 33.875, 33.839287, 33.6875, 33.4375, 33.375, 33.25, 33.035713, 32.901787, 32.892857, 32.9375, 33.0625, 33.25, 33.25, 33.25, 33.3125, 33.3125, 33.3125, 33.34375, 33.21875, 33.09375, 33.15625, 33.1875, 33.387501, 33.392857, 33.3125, 33.25, 33.1875, 33.0625, 33.125, 33.0625, 33.0625, 33.0625, 33, 33.125, 33.1875, 33.1875, 33.1875, 33, 32.9375, 32.9375, 32.8125, 32.75, 32.75, 32.75, 32.875, 33, 33, 33.0625, 33.125, 33.25, 33.25, 33.1875, 33.0625, 32.9375, 32.9375, 32.9375, 33, 33, 33, 33, 33, 33, 33.125, 33.1875, 33.1875, 33.339287, 33.285713, 33.1875, 33.1875, 33, 33.0625, 33.0625, 33.0625, 33.03125, 32.90625, 32.90625, 32.90625, 32.9375, 33, 33, 33, 33, 33, 33, 33, 32.928574, 32.8125, 32.875, 32.857143, 32.9375, 32.9375, 33.125, 33.375, 33.375, 33.375, 33.125, 32.9375, 32.9375, 32.9375, 33, 33, 32.9375, 32.9375, 32.875, 32.75, 32.625, 32.571426, 32.637501, 32.642857, 32.9375, 32.973213, 33, 32.830357, 32.6875, 32.6875, 32.75, 32.75, 32.6875, 32.5625, 32.5, 32.625, 32.8125, 32.875, 32.875, 32.75, 32.6875, 32.75, 32.75, 32.75, 32.75, 32.6875, 32.75, 32.75, 32.6875, 32.5625, 32.4375, 32.5625, 32.75, 32.973213, 33, 32.875, 32.6875, 32.625, 32.625, 32.5625, 32.5, 32.3125, 32.1875, 32.116074, 31.854166, 32.041664, 32.125, 32.125, 32.1875, 31.9375, 31.9375, 31.9375, 31.9375, 32, 32.0625, 32.125, 32.3125, 32.5625, 32.5625, 32.5625, 32.5, 32.285713, 32.205357, 32.13393, 32.125, 32.0625, 32, 32.0625, 32, 32.125, 32.125, 32.0625, 32.0625, 32, 32.133926, 32.262501, 32.133926, 32.196426, 32.0625, 32.0625, 32.0625, 32.125, 32.3125, 32.5625, 32.678574, 32.4375, 32.375, 32.0625, 31.839287, 31.875, 31.8125, 31.8125, 31.8125, 31.8125, 31.8125, 31.9375, 32.089287, 32.160713, 32.125, 32.125, 31.9375, 31.848213, 31.776787, 31.75, 31.8125, 31.785713, 31.714287, 31.8125, 31.848213, 32, 32.0625, 32.125, 32.125, 32.0625, 32, 31.9375, 31.9375, 32, 32, 32, 31.875, 31.8125, 31.8125, 31.669643, 31.674999, 31.741072, 31.544643, 31.5625, 31.410713, 31.276787, 31.25, 31.1875, 31.25, 31.25, -10, -10, -10, -10, -10, -10, -10, -10, -10, -10, -10, -10, -10, -10, -10, -10, -10, -10, -10, -10, -10, -10, -10, -10, -10, 33.875, 34.25, 34.348213, 34.625, 34.75, 34.625, 34.625, 34.375, 34.25, 34.125, 34, 34, 34.1875, 34.3125, 34.375, 34.375, 34.1875, 34.0625, 34, 34, 34, 34.0625, 34.125, 34.1875, 34.3125, 34.3125, 34.3125, 34.375, 34.375, 34.4375, 34.4375, 34.3125, 34.25, 34.0625, 34.0625, 34.125, 34.125, 34.3125, 34.4375, 34.5, 34.589287, 34.535713, 34.3125, 34.25, 34.125, 34.125, 34.25, 34.25, 34.25, 34.25, 34.125, 34.0625, 34, 34, 34, 34, 34, 34, 34.125, 34.125, 34.125, 34.1875, 34.0625, 34.0625, 34.0625, 34.1875, 34.25, 34.25, 34.25, 34.0625, 34, 34, 34, 34, 34.1875, 34.25, 34.25, 34.25, 34.0625, 34, 34, 33.875, 33.875, 33.875, 33.875, 34, 34, 34, 34, 34, 33.9375, 33.9375, 33.9375, 33.9375, 34, 34, 34, 33.9375, 33.875, 33.875, 33.875, 33.875, 33.9375, 33.9375, 34.044643, 34.125, 34.125, 34.125, 34.125, 34.044643, 34, 34.116074, 33.9375, 33.964287, 33.875, 33.625, 33.5625, 33.375, 33.1875, 33.1875, 33.142857, 33.25, 33.25, 33.3125, 33.3125, 33.25, 33.3125, 33.375, 33.3125, 33.3125, 33.1875, 33.035713, 32.964287, 33.125, 33.298214, 33.267857, 33.25, 33.125, 33.125, 33.0625, 33.125, 33.0625, 33.0625, 33.0625, 33, 33.0625, 33.0625, 33.0625, 33.0625, 32.9375, 32.9375, 32.9375, 32.8125, 32.75, 32.75, 32.75, 32.875, 33, 33, 33.0625, 33.125, 33.25, 33.25, 33.1875, 33.0625, 32.9375, 32.9375, 32.9375, 33, 33, 33, 33, 32.9375, 32.9375, 33, 32.9375, 32.9375, 33.026787, 33.035713, 33.0625, 33.125, 33, 33.125, 33.125, 33.125, 33.09375, 32.90625, 32.90625, 32.90625, 32.9375, 33, 33, 33, 33, 33, 33, 33, 32.928574, 32.8125, 32.875, 32.919643, 33, 33, 33.1875, 33.375, 33.375, 33.375, 33.125, 32.9375, 32.9375, 32.9375, 33, 33, 33, 33, 32.9375, 32.875, 32.75, 32.758926, 32.825001, 32.767857, 33, 32.973213, 33, 32.830357, 32.6875, 32.6875, 32.6875, 32.75, 32.75, 32.6875, 32.6875, 32.75, 32.875, 32.875, 32.875, 32.6875, 32.625, 32.6875, 32.625, 32.75, 32.8125, 32.8125, 32.9375, 32.9375, 32.84375, 32.65625, 32.53125, 32.59375, 32.75, 32.973213, 32.9375, 32.6875, 32.4375, 32.482143, 32.553574, 32.5625, 32.4375, 32.1875, 32, 31.9375, 31.9375, 32.196426, 32.325001, 32.196426, 32.196426, 32, 32, 32, 32, 32.0625, 32.1875, 32.25, 32.375, 32.4375, 32.3125, 32.3125, 32.357143, 32.160713, 32.080357, 31.946428, 31.875, 31.875, 31.875, 32.0625, 32.0625, 32.125, 32.125, 32, 32, 32, 32.133926, 32.262501, 32.133926, 32.196426, 32.0625, 32.0625, 32.0625, 32.125, 32.25, 32.4375, 32.553574, 32.3125, 32.3125, 32.0625, 31.776787, 31.8125, 31.75, 31.8125, 31.875, 31.875, 31.875, 31.9375, 32.089287, 32.160713, 32.125, 32.125, 32, 31.973213, 31.901787, 31.875, 31.8125, 31.723213, 31.651787, 31.75, 31.848213, 32, 32.0625, 32.125, 32.125, 32.125, 32.125, 32.0625, 32.0625, 32.0625, 32, 32, 31.8125, 31.6875, 31.6875, 31.544643, 31.612499, 31.741072, 31.607143, 31.625, 31.5625, 31.5625, 31.5, 31.5, 31.5, 31.5, -10, -10, -10
34.4375, 34.5, 34.6875, 34.8125, 34.8125, 34.6875, 34.5, 34.4375, 34.4375, 34.375, 34.5, 34.625, 34.6875, 34.75, 34.5625, 34.3125, 34.125, 34, 34, 34.0625, 34.0625, 34.125, 34.125, 34.0625, 34.0625, 34, 34, 34, 34, 34, 34, 34.0625, 34.0625, 34.125, 34.1875, 34.1875, 34.1875, 34.125, 34.3125, 34.3125, 34.3125, 34.3125, 34.0625, 34, 34, 34, 34, 34.1875, 34.25, 34.232143, 34.125, 34, 33.9375, 34.0625, 33.9375, 33.9375, 33.9375, 33.875, 34, 34, 34, 34, 34, 33.875, 33.875, 33.8125, 33.8125, 33.9375, 33.9375, 34, 33.9375, 33.875, 33.875, 33.875, 33.9375, 34, 33.875, 33.875, 33.875, 33.875, 33.9375, 33.9375, 33.9375, 34, 33.991074, 33.875, 33.9375, 33.875, 33.75, 33.625, 33.5, 33.3125, 33.375, 33.392857, 33.5, 33.5, 33.5625, 33.5625, 33.4375, 33.375, 33.28125, 33.03125, 33.03125, 32.96875, 32.848213, 32.839287, 33, 33.173214, 33.205357, 33.25, 33.125, 33.125, 33.0625, 33.1875, 33.125, 33.125, 33.125, 33, 33, 33, 33, 33, 33, 33, 33, 32.9375, 32.875, 32.875, 32.875, 32.875, 32.9375, 32.9375, 33, 33.0625, 33.125, 33.1875, 33.0625, 33, 32.9375, 32.875, 32.9375, 33, 33, 33, 33, 32.9375, 32.9375, 32.9375, 32.875, 32.75, 32.714287, 32.785713, 32.8125, 33, 33, 33.125, 33.125, 33.125, 33.09375, 32.90625, 32.90625, 32.90625, 32.9375, 33, 33, 33, 33, 33, 33, 33, 32.928574, 32.8125, 32.875, 32.919643, 33, 33, 33.1875, 33.3125, 33.3125, 33.3125, 33.0625, 32.9375, 32.9375, 32.9375, 33, 33, 33, 33, 33, 33, 32.9375, 32.9375, 32.875, 32.875, 32.9375, 32.9375, 33, 32.9375, 32.875, 32.8125, 32.6875, 32.75, 32.75, 32.8125, 32.875, 32.875, 32.9375, 32.875, 32.875, 32.625, 32.5625, 32.625, 32.5625, 32.6875, 32.75, 32.75, 32.875, 32.9375, 32.84375, 32.71875, 32.59375, 32.65625, 32.8125, 32.973213, 32.9375, 32.625, 32.375, 32.419643, 32.491074, 32.5625, 32.4375, 32.25, 32.0625, 32, 32, 32.196426, 32.325001, 32.196426, 32.196426, 32, 32, 32, 32, 32.09375, 32.1875, 32.1875, 32.25, 32.21875, 32.125, 32.25, 32.357143, 32.25, 32.3125, 32.1875, 32.0625, 32.0625, 32, 32.125, 32.125, 32.125, 32.125, 32, 32, 32, 32.133926, 32.262501, 32.133926, 32.196426, 32.0625, 32.0625, 32.0625, 32.1875, 32.3125, 32.4375, 32.553574, 32.25, 32.25, 32.0625, 31.714287, 31.75, 31.6875, 31.8125, 32, 32, 32, 32, 32.089287, 32.160713, 32.125, 32.125, 31.9375, 31.9375, 31.9375, 31.875, 31.875, 31.785713, 31.714287, 31.8125, 31.910713, 32, 32.125, 32.1875, 32.1875, 32.1875, 32.1875, 32.125, 32.1875, 32.1875, 32.0625, 32, 31.6875, 31.5625, 31.5625, 31.544643, 31.674999, 31.866072, 31.732143, 31.75, 31.75, 31.75, 31.75, 31.75, 31.75, 31.75, -10, -10, -10, -10, -10, -10, -10, -10, -10, -10, -10, -10, -10, -10, -10, -10, -10, -10, -10, -10, -10, -10, -10, -10, -10, 33.833332, 34.291664, 34.473213, 34.6875, 34.776787, 34.75, 34.8125, 34.6875, 34.5625, 34.4375, 34.25, 34.25, 34.375, 34.5, 34.625, 34.6875, 34.5, 34.375, 34.3125, 34.25, 34.3125, 34.375, 34.375, 34.375, 34.5, 34.4375, 34.375, 34.4375, 34.4375, 34.5625, 34.6875, 34.75, 34.75, 34.6875, 34.6875, 34.6875, 34.5625, 34.625, 34.625, 34.5625, 34.5625, 34.375, 34.1875, 34.0625, 34, 34, 34, 34, 34.0625, 34.0625, 34.0625, 34.0625, 34, 34.0625, 34.0625, 34.0625, 34.0625, 34, 34, 33.9375, 34.0625, 34.333332, 34.4375, 34.4375, 34.25, 34.3125, 34.1875, 34.1875, 34.1875, 34, 34, 34, 34, 34, 34.0625, 34.151787, 34.169643, 33.955357, 34, 33.875, 34.0625, 34, 34, 34, 33.9375, 34, 34, 34, 34, 34, 33.9375, 33.9375, 33.9375, 33.9375, 34, 34, 34, 33.9375, 33.875, 33.875, 33.875, 33.9375, 34, 33.875, 33.875, 33.875, 33.875, 33.9375, 33.875, 33.8125, 33.8125, 33.8125, 33.875, 33.9375, 33.9375, 33.8125, 33.75, 33.75, 33.6875, 33.75, 33.767857, 33.8125, 33.75, 33.8125, 33.75, 33.5625, 33.4375, 33.28125, 33.09375, 33.15625, 33.09375, 32.973213, 32.901787, 33, 33.173214, 33.205357, 33.25, 33.0625, 33.0625, 33, 33.1875, 33.25, 33.3125, 33.3125, 33.125, 33.0625, 33, 33, 33.0625, 33.125, 33.125, 33.125, 33.125, 33.125, 33.125, 33.125, 33, 32.9375, 32.9375, 33, 33.0625, 33.125, 33.1875, 33.125, 33.125, 33.0625, 33, 33, 33, 33, 33, 33, 32.9375, 32.9375, 32.9375, 32.875, 32.75, 32.651787, 32.723213, 32.75, 32.9375, 33, 33.125, 33.125, 33.125, 33.125, 33, 33, 33, 33, 33, 33, 33, 33, 33, 33, 33, 32.928574, 32.75, 32.8125, 32.857143, 32.9375, 33, 33.125, 33.1875, 33.1875, 33.1875, 33.0625, 33, 33, 33, 33, 33, 33, 33, 33, 33, 33, 33, 33, 33, 33, 33, 33, 33, 32.928574, 32.6875, 32.5625, 32.5625, 32.6875, 32.8125, 33, 33, 33, 33, 33, 32.8125, 32.8125, 32.8125, 32.6875, 32.75, 32.6875, 32.6875, 32.8125, 32.875, 32.84375, 32.71875, 32.59375, 32.65625, 32.8125, 32.973213, 32.9375, 32.6875, 32.5, 32.544643, 32.616074, 32.625, 32.4375, 32.25, 32.0625, 32, 32.0625, 32.321426, 32.450001, 32.321426, 32.258926, 32, 32, 32, 32, 32.15625, 32.223213, 32.151787, 32.1875, 32.03125, 32, 32.125, 32.357143, 32.3125, 32.375, 32.3125, 32.1875, 32.1875, 32.125, 32.1875, 32.125, 32.125, 32.0625, 31.9375, 31.9375, 31.9375, 32.071426, 32.262501, 32.133926, 32.133926, 32.0625, 32, 32, 32.1875, 32.25, 32.3125, 32.4375, 32.25, 32.1875, 32.0625, 31.75, 31.75, 31.75, 31.8125, 32, 32, 32, 31.9375, 31.964287, 32.035713, 32, 32.0625, 32, 32, 32, 32, 31.875, 31.8125, 31.8125, 31.8125, 31.910713, 31.875, 32, 32.0625, 32.125, 32.1875, 32.1875, 32.125, 32.1875, 32.1875, 32.0625, 32, 31.75, 31.625, 31.625, 31.6875, 31.875, 31.9375, 31.875, 31.875, 31.875, 31.9375, 31.9375, 31.9375, 31.9375, 31.916666, -10, -10, -10
