10.875, 10.75, 10.5625, 10.4375, 10.4375, 10.5625, 10.625, 10.6875, 10.5625, 10.5, 10.4375, 10.375, 10.375, 10.375, 10.375, 10.375, 10.375, 10.5625, 10.6875, 10.6875, 10.75, 10.75, 10.75, 10.8125, 10.875, 10.875, 10.732143, 10.416667, 10.321428, 10.375, 10.5625, 10.625, 10.5625, 10.375, 10.3125, 10.375, 10.4375, 10.5, 10.5, 10.5, 10.625, 10.6875, 10.6875, 10.75, 10.6875, 10.625, 10.625, 10.625, 10.625, 10.6875, 10.75, 10.8125, 10.875, 10.875, 10.8125, 10.8125, 10.75, 10.75, 10.75, 10.625, 10.625, 10.5625, 10.4375, 10.3125, 10.125, 10.1875, 10.375, 10.5625, 10.8125, 10.8125, 10.75, 10.6875, 10.5625, 10.5, 10.5625, 10.6875, 10.75, 10.75, 10.75, 10.625, 10.625, 10.75, 10.6875, 10.6875, 10.625, 10.5, 10.4375, 10.5, 10.625, 10.75, 10.8125, 10.75, 10.6875, 10.625, 10.6875, 10.75, 10.75, 10.6875, 10.6875, 10.6875, 10.75, 10.875, 10.9375, 10.9375, 10.9375, 10.875, 10.875, 10.9375, 10.9375, 10.875, 10.75, 10.5625, 10.4375, 10.4375, 10.5, 10.625, 10.625, 10.625, 10.5, 10.375, 10.375, 10.5, 10.6875, 10.875, 10.9375, 10.9375, 10.6875, 10.5625, 10.4375, 10.4375, 10.6875, 10.8125, 10.9375, 10.875, 10.8125, 10.6875, 10.75, 10.6875, 10.625, 10.5625, 10.375, 10.375, 10.375, 10.5, 10.6875, 10.8125, 10.8125, 10.75, 10.75, 10.75, 10.875, 11, 10.9375, 10.875, 10.75, 10.5625, 10.5, 10.4375, 10.375, 10.3125, 10.375, 10.5, 10.625, 10.875, 10.875, 10.8125, 10.875, 10.6875, 10.625, 10.625, 10.5625, 10.59375, 10.53125, 10.46875, 10.40625, 10.5, 10.5625, 10.5625, 10.625, 10.6875, 10.75, 10.75, 10.6875, 10.428572, 9.979167, 9.8571424, 9.8125, 10.0625, 10.375, 10.5625, 10.75, 10.75, 10.75, 10.75, 10.75, 10.5625, 10.4375, 10.375, 10.4375, 10.6875, 10.8125, 10.6875, 10.5, 10.4375, 10.4375, 10.625, 10.6875, 10.5, 10.375, 10.25, 10.1875, 10.3125, 10.3125, 10.4375, 10.625, 10.75, 10.875, 10.875, 10.75, 10.6875, 10.75, 10.8125, 10.875, 10.9375, 10.8125, 10.625, 10.625, 10.625, 10.75, 10.875, 10.875, 10.8125, 10.75, 10.6875, 10.6875, 10.75, 10.8125, 10.9375, 11, 11.083333, 11.25, 11.483334, -10, -10, -10, 12.523809, -10, -10, -10, -10, -10, 25.625, 25.888887, 25.777779, 25.6875, 25.6875, 25.5625, 25.607143, 25.958334, 26.035713, 26.15625, 26.21875, 26.25, 10.125, 10.416666, 10.5625, 10.6875, 10.875, 10.8125, 10.625, 10.5, 10.4375, 10.3125, 10.3125, 10.375, 10.5, 10.535714, 10.589286, 10.75, 10.723214, 10.875, 10.875, 10.875, 11.0625, 11.375, 11.931547, 12.178572, 12.482143, 12.806122, 14.023809, 15.190475, 15.678572, 15.90625, 16.09375, 16.1875, 16.25, 16.3125, 16.25, 16.4375, 16.625, 16.6875, 16.6875, 16.625, 16.6875, 16.875, 17.125, 17.25, 17.1875, 17.0625, 17.03125, 17.03125, 17.09375, 17.28125, 17.28125, 17.135416, 17.098213, 16.6875, 16.395834, 16.303572, 16.3125, 16.5625, 16.75, 16.9375, 17.333334, 17.544643, 17.6875, 17.642857, 17.75, 17.71875, 17.84375, 17.882654, 17.892857, 18.37245, 20.06131, 20.799999, 20.231293, 20.035715, 20.25, 22.1875, 22.693878, 22.948978, 22.607143, 22.244898, 22.080357, 22, 21.977678, 22.21875, 22.21875, 22.40625, 22.515625, 22.5625, 22.875, 23.169643, 23.25, 23.25, 23.125, 23, 23.071428, 22.85, 22.304167, -10, -10, -10, -10, -10, -10, -10, -10, -10, -10, -10, -10, -10, 10, 10.416666, 10.5, 10.625, 10.5625, 10.375, 10.25, 10.25, 10.3125, 10.375, 10.4375, 10.375, 10.3125, 10.25, 10.1875, 10.125, 10.125, 10.125, 10.125, 10.1875, 10.375, 10.5, 10.5, 10.5, 10.5625, 10.625, 10.6875, 10.75, 10.6875, 10.544643, 10.291667, 10.196428, 10.3125, 10.5, 10.5625, 10.5, 10.25, 10.125, 10.125, 10.1875, 10.25, 10.25, 10.25, 10.375, 10.4375, 10.4375, 10.5, 10.4375, 10.4375, 10.4375, 10.4375, 10.4375, 10.4375, 10.5625, 10.6875, 10.8125, 10.875, 10.75, 10.75, 10.6875, 10.625, 10.625, 10.4375, 10.375, 10.4375, 10.375, 10.3125, 10.1875, 10.125, 10.25, 10.375, 10.5625, 10.5625, 10.5, 10.4375, 10.3125, 10.25, 10.3125, 10.4375, 10.5, 10.5625, 10.625, 10.5, 10.5, 10.625, 10.5, 10.5, 10.4375, 10.25, 10.1875, 10.25, 10.375, 10.5, 10.5625, 10.5, 10.4375, 10.375, 10.4375, 10.5, 10.5625, 10.5625, 10.5625, 10.5625, 10.5625, 10.625, 10.6875, 10.6875, 10.6875, 10.625, 10.625, 10.6875, 10.6875, 10.625, 10.5, 10.3125, 10.1875, 10.1875, 10.25, 10.375, 10.375, 10.375, 10.3125, 10.25, 10.3125, 10.4375, 10.5625, 10.75, 10.75, 10.75, 10.5625, 10.375, 10.3125, 10.3125, 10.5, 10.625, 10.6875, 10.625, 10.5625, 10.4375, 10.5, 10.4375, 10.375, 10.3125, 10.125, 10.125, 10.125, 10.25, 10.4375, 10.5625, 10.625, 10.625, 10.625, 10.625, 10.6875, 10.75, 10.6875, 10.625, 10.5, 10.3125, 10.3125, 10.3125, 10.25, 10.25, 10.3125, 10.375, 10.5, 10.6875, 10.625, 10.625, 10.6875, 10.5, 10.5, 10.5, 10.5, 10.53125, 10.40625, 10.28125, 10.21875, 10.3125, 10.375, 10.375, 10.375, 10.4375, 10.5625, 10.625, 10.5625, 10.366072, 9.979167, 9.8928566, 9.875, 10.0625, 10.25, 10.375, 10.5, 10.5, 10.5, 10.5, 10.5, 10.375, 10.3125, 10.3125, 10.375, 10.5625, 10.625, 10.5, 10.3125, 10.3125, 10.375, 10.5, 10.5625, 10.375, 10.1875, 10.0625, 10, 10.0625, 10.125, 10.3125, 10.5, 10.6875, 10.75, 10.75, 10.625, 10.5, 10.5625, 10.5625, 10.625, 10.75, 10.625, 10.4375, 10.4375, 10.375, 10.5, 10.625, 10.625, 10.5625, 10.5, 10.4375, 10.5, 10.625, 10.75, 10.9375, 11, -10, -10, -10, -10, -10, -10, 12.777778, 24.75, 25, 25.416668, 25.5, 25.625, 25.416666, 25.666666, 25.583334, 25.508928, 25.5875, 25.3125, 25.392857, 25.708334, 25.910713, 26.09375, 26.1875, 26.25, 10.125, 10.333333, 10.4375, 10.5, 10.625, 10.5625, 10.375, 10.25, 10.1875, 10.0625, 10.0625, 10.125, 10.25, 10.285714, 10.339286, 10.5, 10.473214, 10.625, 10.6875, 10.75, 10.9375, 11.25, 11.886905, 12.678572, 13.232143, 14.428571, 15.088435, 15.607143, 15.892857, 16.0625, 16.1875, 16.1875, 16.1875, 16.1875, 16.1875, 16.4375, 16.6875, 16.6875, 16.5625, 16.5, 16.5, 16.75, 17.125, 17.3125, 17.375, 17.25, 17.1875, 17.044643, 16.901787, 17.0625, 16.96875, 16.885416, 16.647959, 16.285715, 16.208334, 16.116072, 16.1875, 16.4375, 16.75, 17.0625, 17.520834, 17.732143, 17.741072, 17.372023, 17.416666, 17.40625, 17.40625, 17.53125, 17.683037, 18.551022, 20.488436
10.375, 10.375, 10.25, 10.125, 10.125, 10.125, 10.125, 10.1875, 10.125, 10.1875, 10.1875, 10.125, 10.0625, 10, 10, 9.9375, 10, 10.125, 10.1875, 10.25, 10.25, 10.3125, 10.375, 10.4375, 10.5, 10.4375, 10.357143, 10.166667, 10.071428, 10.1875, 10.4375, 10.5625, 10.5625, 10.375, 10.1875, 10.0625, 10.0625, 10.0625, 10, 10, 10.125, 10.1875, 10.1875, 10.25, 10.1875, 10.1875, 10.1875, 10.1875, 10.1875, 10.1875, 10.3125, 10.4375, 10.5625, 10.625, 10.5, 10.5625, 10.5, 10.4375, 10.4375, 10.1875, 10.125, 10.1875, 10.1875, 10.1875, 10.125, 10.0625, 10.125, 10.1875, 10.3125, 10.3125, 10.25, 10.1875, 10.0625, 10, 10.125, 10.25, 10.3125, 10.375, 10.375, 10.3125, 10.3125, 10.5, 10.375, 10.3125, 10.25, 10, 10, 10.0625, 10.1875, 10.3125, 10.375, 10.375, 10.3125, 10.25, 10.25, 10.25, 10.3125, 10.375, 10.375, 10.375, 10.375, 10.375, 10.4375, 10.4375, 10.4375, 10.375, 10.375, 10.4375, 10.4375, 10.375, 10.25, 10.125, 10, 10, 10.0625, 10.125, 10.125, 10.125, 10.125, 10.125, 10.25, 10.375, 10.4375, 10.5625, 10.5, 10.5, 10.375, 10.25, 10.25, 10.25, 10.375, 10.4375, 10.4375, 10.375, 10.3125, 10.1875, 10.25, 10.1875, 10.1875, 10.1875, 10.0625, 10.0625, 10, 10.0625, 10.1875, 10.3125, 10.4375, 10.5, 10.5, 10.5, 10.5, 10.5, 10.4375, 10.375, 10.25, 10.125, 10.1875, 10.25, 10.25, 10.25, 10.25, 10.3125, 10.4375, 10.5625, 10.5, 10.4375, 10.4375, 10.3125, 10.3125, 10.375, 10.4375, 10.46875, 10.40625, 10.21875, 10.09375, 10.125, 10.125, 10.125, 10.1875, 10.25, 10.4375, 10.5625, 10.4375, 10.3125, 10.125, 10, 10, 10.0625, 10.125, 10.1875, 10.25, 10.25, 10.25, 10.25, 10.25, 10.25, 10.25, 10.3125, 10.375, 10.4375, 10.4375, 10.3125, 10.25, 10.3125, 10.375, 10.4375, 10.375, 10.1875, 10.0625, 10.0625, 10.125, 10.125, 10.125, 10.1875, 10.25, 10.4375, 10.5, 10.5, 10.4375, 10.375, 10.4375, 10.4375, 10.4375, 10.5, 10.4375, 10.3125, 10.3125, 10.25, 10.3125, 10.375, 10.375, 10.3125, 10.3125, 10.375, 10.55, 10.5, 10.833333, 10.9375, -10, -10, -10, -10, -10, -10, -10, 25, 24.833334, 25.083334, 25.361113, 25.416666, 25.5, 25.3125, 25.291666, 25.25, 25.258928, 25.3375, 25.125, 25.267857, 25.583334, 25.848213, 26.03125, 26.0625, 26.111113, 10.125, 10.249999, 10.3125, 10.3125, 10.375, 10.3125, 10.125, 10.0625, 10, 9.9375, 10, 10.0625, 10.1875, 10.160714, 10.223214, 10.45, 10.294642, 10.517857, 10.625, 10.857143, 11.0625, 11.419643, 12.115646, 13.474489, 14.193878, 15.010203, 15.497025, 15.857143, 16, 16.125, 16.223213, 16.151787, 16.1875, 16.1875, 16.28125, 16.5, 16.6875, 16.5625, 16.40625, 16.375, 16.4375, 16.8125, 17.25, 17.5, 17.625, 17.5, 17.375, 17.160713, 16.755953, 16.758928, 16.65625, 16.510416, 16.348213, 16.0625, 16, 15.9375, 16.125, 16.4375, 16.857143, 17.25, 17.770834, 17.982143, 18.044643, 17.687075, 17.761904, 17.785715, 17.75, 17.875, 18.030613, 20.488096, 21.870068, 22.857143, 23.003401, 23.081633, 22.86735, 22.958334, 23.5, 23.723213, 23.5625, 23.205357, 22.767857, 22.5, 22.4375, 22.5625, 22.6875, 22.8125, 22.9375, 22.9375, 23, 23.0625, 23, 22.9375, 22.9375, 22.875, 22.9375, 22.6875, 22.345831, -10, -10, -10, -10, -10, -10, -10, -10, -10, -10, -10, -10, -10, 10, 10.083333, 10.125, 10.1875, 10.1875, 10.125, 10.0625, 10.0625, 10.0625, 10.0625, 10.0625, 10, 10.0625, 10.0625, 10.0625, 10.0625, 10, 10, 9.9375, 9.9375, 10, 10, 10.0625, 10.0625, 10.125, 10.1875, 10.1875, 10.1875, 10.0625, 10, 10, 10, 10.125, 10.375, 10.5, 10.5, 10.375, 10.125, 10, 10, 10, 10, 10, 10.0625, 10.0625, 10.0625, 10.125, 10.125, 10.1875, 10.1875, 10.125, 10.0625, 10, 10.0625, 10.1875, 10.3125, 10.4375, 10.375, 10.4375, 10.375, 10.25, 10.25, 10.0625, 10, 10.0625, 10.0625, 10.0625, 10.0625, 10, 10, 10, 10.0625, 10.0625, 10.0625, 10.0625, 10, 10, 10.0625, 10.125, 10.125, 10.1875, 10.1875, 10.25, 10.3125, 10.4375, 10.375, 10.25, 10.1875, 10, 10, 10, 10.0625, 10.125, 10.1875, 10.25, 10.1875, 10.125, 10.0625, 10, 10.0625, 10.1875, 10.1875, 10.1875, 10.1875, 10.125, 10.1875, 10.1875, 10.125, 10.0625, 10.0625, 10.125, 10.1875, 10.1875, 10.125, 10.0625, 10, 10, 10, 10.0625, 10.0625, 10.0625, 10.0625, 10, 10.0625, 10.125, 10.1875, 10.3125, 10.25, 10.25, 10.1875, 10.125, 10.125, 10.125, 10.1875, 10.1875, 10.1875, 10.125, 10.0625, 10, 10.0625, 10.0625, 10.125, 10.125, 10.0625, 10.0625, 10, 10.0625, 10.125, 10.1875, 10.25, 10.25, 10.25, 10.25, 10.25, 10.25, 10.1875, 10.125, 10.0625, 10, 10.0625, 10.125, 10.125, 10.125, 10.1875, 10.25, 10.3125, 10.375, 10.25, 10.1875, 10.1875, 10.125, 10.1875, 10.375, 10.4375, 10.4375, 10.375, 10.125, 10, 10, 10, 10, 10.125, 10.1875, 10.3125, 10.4375, 10.3125, 10.25, 10.0625, 9.9375, 9.9375, 9.9375, 10, 10, 10, 10, 10, 10, 10, 10.125, 10.125, 10.1875, 10.25, 10.1875, 10.1875, 10.125, 10.125, 10.25, 10.3125, 10.375, 10.3125, 10.125, 10.0625, 10.125, 10.25, 10.25, 10.25, 10.25, 10.1875, 10.3125, 10.3125, 10.25, 10.1875, 10.125, 10.1875, 10.1875, 10.1875, 10.25, 10.25, 10.1875, 10.25, 10.1875, 10.1875, 10.1875, 10.125, 10.083333, 10.083333, 10.5625, 10.7375, -10, 10.979166, 10.9375, -10, -10, -10, -10, 23.583332, 24.174999, 24.571428, 24.916666, 24.875, 25.0625, 25.270834, 25.3125, 25.375, 25.25, 25.25, 25.25, 25.321428, 25.266071, 24.875, 25.049107, 25.333334, 25.723213, 25.96875, 25.958334, 10, 10.125, 10.166666, 10.1875, 10.125, 10.125, 10.0625, 9.9375, 9.9375, 9.9375, 9.9375, 10, 10, 10.0625, 10.098214, 10.160714, 10.3875, 10.273809, 10.357142, 10.5, 11.357143, 11.557143, 11.918367, 13.462584, 14.071428, 14.669643, 15.375, 15.705357, 15.9375, 16, 16.0625, 16.098213, 16.026787, 16.0625, 16.1875, 16.34375, 16.5, 16.625, 16.4375, 16.28125, 16.375, 16.5, 16.875, 17.375, 17.625, 17.8125, 17.75, 17.6875, 17.392857, 16.773809, 16.714285, 16.5, 16.291666, 16.1875, 16.0625, 16, 16, 16.1875, 16.5, 17.013393, 17.46875, 17.989584, 18.348215, 18.836309, 19.722221, 20.194445, 20.458334, 20.625, 20.791666, 20.892859, 21.459183, 22.322449
10, 10, 10, 10, 10, 10, 10, 10, 10, 10.0625, 10.0625, 10.0625, 10.0625, 10, 10, 9.9375, 9.9375, 9.9375, 9.9375, 10, 10, 10.0625, 10.125, 10.125, 10.125, 10.0625, 10, 10, 10, 10.0625, 10.25, 10.375, 10.375, 10.3125, 10.125, 10, 10, 10, 10, 10, 10, 10, 10, 10, 10, 10.0625, 10.0625, 10.0625, 10.0625, 10, 10.0625, 10.125, 10.1875, 10.25, 10.1875, 10.25, 10.25, 10.1875, 10.1875, 10.0625, 10, 10.0625, 10.0625, 10.0625, 10.0625, 10, 10, 10, 10, 10, 10, 10, 10, 10, 10, 10, 10, 10, 10, 10.125, 10.1875, 10.3125, 10.3125, 10.1875, 10.125, 10, 10, 10, 10, 10, 10, 10, 10, 10, 10, 10, 10.0625, 10.1875, 10.1875, 10.125, 10.0625, 9.9375, 9.9375, 9.9375, 9.8125, 9.8125, 9.8125, 9.875, 10, 10, 10, 10, 10, 10, 10, 10, 10, 10, 10, 10, 10, 10, 10, 10.0625, 10.0625, 10.0625, 10.0625, 10, 10, 10, 10, 10, 10, 10, 10, 10, 10, 10, 10, 10, 10, 10, 10, 10, 10, 10, 10, 10, 10, 10, 10, 10, 10, 10, 10, 10, 10, 10, 10, 10, 10.0625, 10.125, 10.1875, 10.1875, 10.125, 10.0625, 10, 10, 10.0625, 10.25, 10.375, 10.375, 10.3125, 10.125, 10, 10, 10, 9.9375, 10.0625, 10.0625, 10.1875, 10.375, 10.25, 10.25, 10.125, 10, 10, 10, 10, 10, 10, 10, 10, 10, 10, 10.1875, 10.1875, 10.1875, 10.1875, 10, 10, 10, 10.0625, 10.25, 10.3125, 10.3125, 10.25, 10.0625, 10, 10.125, 10.3125, 10.375, 10.4375, 10.375, 10.1875, 10.1875, 10.125, 10.125, 10.125, 10.0625, 10.0625, 10, 10, 10.0625, 10.0625, 10.0625, 10.0625, 10.0625, 10.083333, 10, 10.125, -10, -10, 10.9375, 11.1125, -10, 11.138888, 11, -10, 23.625, 23.520832, 23.5, 23.638887, 24.116667, 24.505951, 24.875, 25, 25.0625, 25.0625, 25.0625, 25.0625, 25.125, 25.25, 25.375, 25.633928, 25.703571, 25.348213, 25.370535, 25.3125, 25.5625, 25.8125, 25.895834, 10, 10.25, 10.166666, 10.125, 10, 10, 10, 10, 10, 10, 10, 10, 10, 10, 10.0625, 10.196428, 10.325, 10.238095, -10, -10, 12.392858, 13.55, 13.761905, 14.224489, 14.642857, 15.0625, 15.375, 15.625, 15.75, 15.8125, 15.875, 15.785714, 15.776786, 15.875, 16.0625, 16.28125, 16.375, 16.4375, 16.25, 16.21875, 16.375, 16.5625, 16.9375, 17.375, 17.625, 17.8125, 17.75, 17.75, 17.517857, 16.898809, 16.776785, 16.5625, 16.5, 16.4375, 16.375, 16.1875, 16.1875, 16.4375, 16.866072, 17.495537, 18.004463, 18.321428, 18.785715, 20.068026, 20.680271, 21.166666, 21.5, 21.714285, 21.928572, 22.051022, 22.25, 22.607143, 22.8125, 22.75, 22.8125, 22.732143, 22.6875, 22.991072, 23.098213, 23, 22.8125, 22.5625, 22.5, 22.625, 22.75, 22.9375, 22.9375, 22.96875, 23.0625, 23.169643, 23.151787, 22.720238, 22.455357, 22.446428, 22.770834, 22.982143, 22.9375, 22.729166, -10, -10, -10, -10, -10, -10, -10, -10, -10, -10, -10, -10, -10, 10, 10, 10, 10, 10, 10, 10, 10, 10, 10, 10, 10, 10.0625, 10.0625, 10.0625, 10.0625, 10, 10, 9.9375, 9.9375, 9.9375, 9.9375, 10, 10, 10, 10, 10, 10, 10, 10, 10, 10, 10, 10.125, 10.1875, 10.1875, 10.1875, 10.0625, 10, 10, 10, 10, 10, 10, 10, 10, 10, 9.9375, 9.9375, 9.9375, 9.9375, 10, 10, 10, 10, 10, 10, 10, 10.0625, 10.0625, 10.0625, 10.0625, 10, 10, 10, 10, 10, 10, 10, 10, 10, 10, 9.9375, 9.9375, 9.9375, 9.9375, 10, 10, 10, 10, 10, 10, 10.125, 10.1875, 10.25, 10.25, 10.125, 10.0625, 10, 10, 10, 10, 10, 10, 10, 10, 10, 10, 10, 10, 10.0625, 10.0625, 10, 10, 9.9375, 9.9375, 9.9375, 9.75, 9.75, 9.75, 9.8125, 10, 10, 9.9375, 9.9375, 9.9375, 9.9375, 10, 10, 10, 10, 10, 10, 10, 10, 10, 9.9375, 9.9375, 9.9375, 9.9375, 10, 10, 10, 10, 10, 10, 10, 10, 10, 10, 10, 10, 10, 10, 10, 10, 10, 10, 10, 10, 10, 10, 10, 10, 10, 10, 10, 10, 10, 10, 10, 10, 10, 10, 10.0625, 10.125, 10.125, 10.125, 10.0625, 10, 10, 10, 10.125, 10.1875, 10.1875, 10.1875, 10.0625, 10, 10, 10, 9.9375, 10.0625, 10.0625, 10.125, 10.25, 10.125, 10.125, 10.0625, 10, 10, 10, 10, 10, 10, 10, 9.9375, 9.9375, 9.9375, 10.125, 10.1875, 10.1875, 10.1875, 10, 10, 10, 10.0625, 10.1875, 10.1875, 10.1875, 10.125, 10, 10, 10.125, 10.3125, 10.4375, 10.5625, 10.4375, 10.25, 10.125, 10, 10, 10, 10, 10, 10, 10, 10, 10, 10.0625, 10.083333, 10.083333, 10.333333, -10, 10.25, -10, -10, 11.25, 11.400001, -10, 23.25, 23.375, 23.5625, 23.875, 23.805555, 23.791666, 23.791666, 24.15, 24.504465, 24.8125, 25, 25.0625, 25.0625, 25.0625, 25.0625, 25.125, 25.25, 25.375, 25.625, 25.678572, 25.473213, 25.522322, 25.5, 25.625, 25.875, 25.989584, 26.166668, 10.125, 10.083333, 10.0625, 10, 10, 10, 10, 10, 10, 10, 10, 10, 10, 10.0625, 10.258928, 10.3875, 10.321428, -10, -10, 14.071429, 14.364286, 14.510203, 14.75, 14.892857, 15.0625, 15.1875, 15.375, 15.5, 15.5625, 15.5625, 15.410714, 15.464286, 15.625, 15.875, 16.15625, 16.1875, 16.258928, 16.3125, 16.34375, 16.5, 16.625, 16.875, 17.1875, 17.5, 17.6875, 17.75, 17.8125, 17.660715, 17.184523, 17.089285, 16.9375, 16.8125, 16.75, 16.6875, 16.5625, 16.625, 16.875, 17.241072, 17.888393, 18.796131, 20.217262, 20.767859, 21.221088, 21.511906, 21.875, 22.125, 22.3125, 22.53125, 22.625, 22.625, 22.6875
10, 10, 10, 10, 10, 10, 10, 10, 10, 10, 10, 10, 10, 10, 10, 10, 10, 10, 10, 10, 10, 10, 10, 10, 10, 10, 10, 10, 10, 10, 10.0625, 10.0625, 10.0625, 10.0625, 10, 10, 10, 10, 10, 10, 10, 10, 10, 10, 9.9375, 9.9375, 9.9375, 9.9375, 10, 10, 10, 10, 10, 10, 10, 10, 10, 10, 10, 10, 10, 10, 10, 10, 10, 10, 10, 10, 10, 9.9375, 9.9375, 9.9375, 9.9375, 10, 10, 10, 10, 10, 10, 10.0625, 10.125, 10.125, 10.125, 10, 9.9375, 9.9375, 9.9375, 10, 10, 10, 10, 10, 10, 10, 10, 10, 10, 10, 9.9375, 9.8125, 9.75, 9.75, 9.8125, 9.875, 9.6875, 9.6875, 9.6875, 9.75, 9.9375, 9.9375, 9.875, 9.875, 9.9375, 9.9375, 10, 10, 10, 10, 10, 10, 10, 10, 10, 9.9375, 9.9375, 9.9375, 9.9375, 10, 10, 10, 10, 10, 10, 10, 10, 10, 10, 10, 10, 10, 10, 10, 10, 10, 10, 10, 10, 10, 10, 10, 10, 10, 10, 10, 10, 10, 10, 10, 10, 10, 10, 10, 10, 10, 10, 10, 10, 10, 10, 10.0625, 10.125, 10.125, 10.125, 10.0625, 10, 10, 10, 9.9375, 10, 10, 10, 10.0625, 10, 10, 10, 10, 9.9375, 9.9375, 9.9375, 9.9375, 10, 10, 9.9375, 9.9375, 9.9375, 10.0625, 10.125, 10.125, 10.125, 10, 10, 10, 10, 10.0625, 10.0625, 10.0625, 10.0625, 10, 9.9375, 10, 10.125, 10.25, 10.4375, 10.375, 10.25, 10.125, 10, 10, 10, 10, 10, 10, 10, 10, 10, 10.083333, 10.333333, -10, 10.583333, -10, 10.333333, -10, -10, 22.964287, 23.190475, 23.375, 23.416666, 23.5, 23.708334, 24.03125, 23.979166, 23.96875, 23.875, 24, 24.534227, 24.8125, 25.0625, 25, 25, 25, 25, 25.125, 25.25, 25.375, 25.5625, 25.678572, 25.535713, 25.584822, 25.625, 25.6875, 25.9375, 26.114584, 26.333334, 10.125, 10.083333, 10.0625, 10, 10, 10, 10, 10, 10, 10, 10, 10, 10, 10.0625, 10.1875, 10.330357, 10.714286, -10, -10, 14.714286, 14.85, 14.892857, 15, 15, 15, 15.0625, 15.1875, 15.25, 15.3125, 15.25, 15.125, 15.25, 15.4375, 15.6875, 15.9375, 15.9375, 15.946428, 16.178572, 16.479166, 16.616072, 16.714287, 16.8125, 17.0625, 17.4375, 17.625, 17.6875, 17.71875, 17.638393, 17.424107, 17.486607, 17.375, 17.25, 17.125, 17.0625, 17, 17.0625, 17.3125, 17.696428, 18.416668, 20.014456, 21.043367, 21.479593, 21.666666, 21.803572, 21.9375, 22.0625, 22.1875, 22.3125, 22.3125, 22.1875, 22.125, 22.214285, 22, 21.9375, 22, 22.125, 22.098213, 22.026787, 21.875, 21.776787, 21.982143, 22.116072, 22.3125, 22.5, 22.6875, 22.8125, 22.90625, 22.9375, 23.044643, 22.964287, 22.532738, 22.330357, 22.258928, 22.583334, 22.669643, 22.6875, 22.666666, -10, -10, -10, -10, -10, -10, -10, -10, -10, -10, -10, -10, -10, 9.875, 9.916667, 9.9375, 9.9375, 10, 10, 10, 10, 10, 10, 9.9375, 9.875, 9.8125, 9.75, 9.8125, 9.875, 9.9375, 10, 10, 10, 10, 10, 10, 10, 10, 10, 10, 10, 10, 9.9375, 9.9375, 9.9375, 9.9375, 10, 10, 10, 10, 10, 10, 10, 10, 10, 10, 10, 10, 10, 10, 9.9375, 9.875, 9.875, 9.875, 9.9375, 10, 10, 10, 10, 10, 10, 10, 10, 10, 10, 10, 10, 10, 10, 10, 10, 10, 10, 10, 10, 9.9375, 9.875, 9.875, 9.875, 9.9375, 10, 10, 10, 10, 10, 10, 9.9375, 9.875, 9.8125, 9.75, 9.8125, 9.875, 9.9375, 10, 10, 10, 10, 10, 10, 10, 10, 10, 10, 9.9375, 9.875, 9.75, 9.6875, 9.75, 9.8125, 9.875, 9.75, 9.75, 9.75, 9.8125, 9.875, 9.8125, 9.75, 9.75, 9.875, 9.9375, 10, 10, 10, 10, 10, 10, 10, 10, 10, 9.9375, 9.9375, 9.9375, 9.9375, 10, 10, 10, 10, 10, 10, 10, 10, 10, 10, 10, 10, 10, 10, 10, 10, 10, 10, 10, 10, 10, 10, 10, 10, 10, 10, 10, 10, 10, 10, 10, 10, 10, 10, 10, 10, 10, 10, 10, 10, 10, 10, 10, 10.0625, 10.0625, 10.0625, 10.0625, 10, 10, 10, 9.9375, 9.9375, 9.9375, 9.9375, 10, 10, 10, 10, 10, 9.875, 9.8125, 9.8125, 9.8125, 9.9375, 9.9375, 9.8125, 9.8125, 9.75, 9.8125, 9.875, 9.875, 9.9375, 9.9375, 10, 9.9375, 9.875, 9.875, 9.875, 9.875, 9.9375, 9.9375, 9.875, 9.9375, 10, 10.125, 10.3125, 10.3125, 10.25, 10.125, 10, 10, 10, 10, 10.0625, 10.083333, 10, -10, -10, -10, 10.583333, -10, 10.777778, -10, 23.25, 23.083332, 23.178572, 23.142859, 23.126984, 23.107141, 23.125, 23.125, 23.388393, 24.03125, 24.205357, 24.34375, 24.25, 24.3125, 24.677084, 24.875, 25.0625, 25, 25, 25, 25, 25.0625, 25.125, 25.1875, 25.375, 25.625, 25.723213, 25.741072, 25.839287, 25.848213, 26, 26.239584, 26.333334, 10.125, 10.083333, 10.0625, 10, 10, 10, 10, 10, 10, 10, 10, 10.0625, 10.125, 10.1875, 10.419643, 10.710884, 12.436508, 14.375, 14.875, 15, 15, 15, 15, 15, 15, 15, 15.0625, 15, 14.9375, 14.875, 14.8125, 15.0625, 15.419643, 15.625, 15.875, 15.875, 15.946428, 16.303572, 16.666666, 16.803572, 16.839287, 16.875, 17, 17.3125, 17.366072, 17.25, 17.28125, 17.21875, 17.352678, 17.677084, 17.678572, 17.732143, 17.742857, 17.928572, 17.964285, 18.051022, 18.25, 18.617346, 20.347223, 20.940475, 21.522322, 21.799107, 21.875, 21.8125, 21.8125, 21.875, 21.875, 21.9375, 21.9375, 21.875, 22
9.75, 9.875, 9.9375, 10, 9.9375, 9.875, 9.8125, 9.6875, 9.6875, 9.625, 9.5625, 9.625, 9.6875, 9.8125, 9.9375, 10, 10, 10, 10, 10, 10, 10, 10, 10, 10, 10, 9.9375, 9.9375, 9.9375, 9.875, 9.9375, 9.9375, 9.9375, 10, 10, 10, 10, 10, 10, 10, 10, 9.9375, 9.875, 9.8125, 9.6875, 9.625, 9.6875, 9.75, 9.875, 10, 10, 10, 9.9375, 9.875, 9.8125, 9.75, 9.75, 9.75, 9.75, 9.75, 9.75, 9.8125, 9.875, 9.9375, 10, 10, 10, 9.9375, 9.875, 9.75, 9.625, 9.6875, 9.75, 9.875, 10, 10, 10, 10, 10, 10, 9.875, 9.8125, 9.75, 9.6875, 9.8125, 9.875, 9.9375, 9.9375, 9.875, 9.875, 9.875, 9.9375, 10, 10, 10, 10, 10, 9.9375, 9.875, 9.8125, 9.6875, 9.6875, 9.75, 9.8125, 9.75, 9.8125, 9.8125, 9.8125, 9.875, 9.8125, 9.75, 9.75, 9.875, 9.9375, 10, 10, 10, 10, 10, 10, 10, 10, 10, 9.9375, 9.9375, 9.9375, 9.9375, 10, 10, 10, 10, 10, 10, 10, 10, 10, 10, 10, 10, 10, 10, 10, 10, 9.9375, 9.9375, 9.9375, 9.9375, 10, 10, 10, 10, 10, 10, 10, 10, 10, 9.9375, 9.875, 9.875, 9.875, 9.9375, 10, 10, 10, 10, 10, 10, 10, 10, 9.9375, 9.875, 9.8125, 9.75, 9.75, 9.8125, 9.875, 9.9375, 10, 10, 10, 10, 10, 10, 10, 10, 9.9375, 9.75, 9.625, 9.625, 9.6875, 9.875, 9.875, 9.6875, 9.6875, 9.5625, 9.5625, 9.625, 9.625, 9.75, 9.875, 9.9375, 9.8125, 9.6875, 9.6875, 9.75, 9.75, 9.875, 9.875, 9.8125, 9.9375, 9.9375, 10, 10.125, 10.125, 10.125, 10.0625, 10, 10, 10, 10, 10.083333, 10.333333, -10, -10, -10, -10, 10.777778, -10, 23.375, 23.238094, 22.928572, 22.722221, 22.744049, 22.888393, 23.001488, 23.111607, 23.25, 23.3125, 23.700893, 24.34375, 24.549107, 24.71875, 24.625, 24.625, 24.895834, 25, 25.0625, 25, 25, 25, 25, 25, 25.0625, 25.0625, 25.25, 25.5, 25.6875, 25.9375, 26.058037, 26.129463, 26.15625, 26.3125, 9.5, 9.75, 9.8125, 9.875, 9.9375, 10, 10, 10, 10, 10, 10, 10.0625, 10.1875, 10.3125, 10.544643, 11.169643, 12.438492, 13.302721, 14.416667, 14.75, 14.875, 14.875, 14.875, 14.9375, 15, 15, 15, 15, 14.9375, 14.875, 14.875, 14.9375, 15.1875, 15.544643, 15.6875, 15.875, 15.9375, 16.071428, 16.428572, 16.729166, 16.772322, 16.714287, 16.75, 16.9375, 17.3125, 17.169643, 16.982143, 16.75, 16.678572, 17.084822, 17.802084, 18.080357, 18.419643, 19.471428, 20.142859, 20.375, 20.392859, 20.027779, 20.011904, 20.522108, 21.055059, 21.397322, 21.620537, 21.732143, 21.669643, 21.625, 21.625, 21.5, 21.5, 21.5, 21.4375, 21.625, 21.75, 21.642857, 21.508928, 21.375, 21.375, 21.410713, 21.339287, 21.25, 21.169643, 21.375, 21.699406, 21.928572, 22.125, 22.3125, 22.571428, 22.958334, 23.053572, 22.9375, 22.6875, 22.392857, 22.25, 22.178572, 22.125, 22.285713, 22.366072, 22.416664, -10, -10, -10, -10, -10, -10, -10, -10, -10, -10, -10, -10, -10, 9.625, 9.583333, 9.5625, 9.5625, 9.75, 9.875, 10, 9.875, 9.75, 9.625, 9.4375, 9.4375, 9.4375, 9.4375, 9.5625, 9.6875, 9.8125, 9.9375, 10, 10, 10, 10, 10, 10, 9.9375, 9.9375, 9.9375, 9.9375, 10, 9.875, 9.875, 9.8125, 9.6875, 9.8125, 9.8125, 9.875, 10, 9.9375, 9.875, 9.8125, 9.8125, 9.875, 9.9375, 10, 9.875, 9.75, 9.625, 9.5, 9.4375, 9.5, 9.5625, 9.625, 9.75, 9.75, 9.75, 9.6875, 9.625, 9.5625, 9.5, 9.5, 9.5, 9.5625, 9.625, 9.625, 9.75, 9.8125, 9.875, 10, 10, 9.9375, 9.8125, 9.6875, 9.5625, 9.4375, 9.5625, 9.6875, 9.8125, 10, 9.9375, 9.875, 9.875, 9.875, 9.9375, 9.8125, 9.75, 9.6875, 9.625, 9.75, 9.8125, 9.875, 9.8125, 9.75, 9.75, 9.75, 9.875, 10, 10, 9.9375, 9.875, 9.875, 9.8125, 9.8125, 9.8125, 9.625, 9.5625, 9.5625, 9.625, 9.625, 9.75, 9.8125, 9.75, 9.8125, 9.6875, 9.625, 9.625, 9.75, 9.875, 9.9375, 10, 10, 10, 10, 10, 10, 10, 10, 9.9375, 9.875, 9.8125, 9.75, 9.75, 9.8125, 9.875, 9.875, 9.875, 9.8125, 9.75, 9.75, 9.8125, 9.875, 9.9375, 10, 10, 9.9375, 9.9375, 9.875, 9.75, 9.75, 9.6875, 9.75, 9.8125, 9.8125, 9.8125, 9.75, 9.75, 9.75, 9.8125, 9.875, 9.9375, 9.875, 9.75, 9.6875, 9.625, 9.6875, 9.75, 9.75, 9.8125, 9.875, 9.9375, 10, 10, 10, 9.9375, 9.8125, 9.6875, 9.625, 9.5625, 9.6875, 9.8125, 9.875, 10, 9.9375, 9.875, 9.8125, 9.75, 9.8125, 9.875, 9.9375, 9.875, 9.625, 9.5, 9.5, 9.625, 9.8125, 9.75, 9.5625, 9.5625, 9.4375, 9.4375, 9.4375, 9.375, 9.5, 9.6875, 9.75, 9.625, 9.5, 9.4375, 9.5, 9.5, 9.6875, 9.75, 9.75, 9.9375, 9.9375, 9.9375, 10, 10, 10, 10, 10, 10, 10, -10, -10, 10.583333, -10, -10, -10, -10, 23.571428, 23.5625, 23.583334, 23.325399, 22.946428, 22.697916, 22.700893, 23.096725, 23.263393, 23.361607, 23.375, 23.4375, 23.732143, 24.375, 24.642857, 24.8125, 24.875, 24.875, 25.083334, 25.125, 25.125, 25.0625, 25.0625, 25.0625, 25.0625, 25.125, 25.25, 25.3125, 25.4375, 25.625, 25.75, 26, 26.328869, 26.370537, 26.299107, 26.3125, 9.5, 9.5, 9.645833, 9.75, 9.875, 10, 9.9375, 9.9375, 9.875, 9.8125, 9.875, 10, 10.294643, 10.5, 10.901787, 12.12245, 13.074829, 13.848214, 14.3125, 14.5625, 14.625, 14.625, 14.6875, 14.8125, 14.9375, 15, 15, 15, 14.9375, 14.875, 14.9375, 15.0625, 15.25, 15.607143, 15.6875, 15.875, 16.0625, 16.1875, 16.428572, 16.729166, 16.772322, 16.839287, 16.9375, 17.25, 17.5, 17.002977, 16.651787, 16.40625, 16.486607, 17.096939, 18.230656, 18.705357, 19.1875, 20.320749, 20.896259, 20.869047, 20.658163, 20.238096, 20.017857, 20.572916, 20.888393, 21.040178, 21.391369, 21.669643, 21.705357, 21.580357, 21.508928, 21.3125, 21.25, 21.25, 21.1875, 21.375
9.3125, 9.5, 9.625, 9.75, 9.625, 9.5, 9.375, 9.1875, 9.1875, 9.1875, 9.1875, 9.375, 9.5625, 9.75, 9.9375, 9.9375, 9.9375, 9.9375, 9.9375, 9.9375, 9.875, 9.75, 9.75, 9.8125, 9.8125, 9.9375, 9.75, 9.6875, 9.625, 9.4375, 9.625, 9.6875, 9.75, 9.875, 9.75, 9.625, 9.5625, 9.625, 9.6875, 9.75, 9.8125, 9.625, 9.5, 9.375, 9.3125, 9.3125, 9.4375, 9.5, 9.5, 9.5625, 9.5, 9.5, 9.4375, 9.4375, 9.375, 9.3125, 9.3125, 9.25, 9.375, 9.4375, 9.4375, 9.5625, 9.625, 9.6875, 9.8125, 9.875, 9.75, 9.625, 9.5, 9.3125, 9.1875, 9.375, 9.5625, 9.6875, 9.875, 9.75, 9.6875, 9.6875, 9.6875, 9.8125, 9.625, 9.5625, 9.5, 9.4375, 9.5625, 9.625, 9.6875, 9.5625, 9.5, 9.5, 9.5, 9.625, 9.8125, 9.8125, 9.75, 9.6875, 9.625, 9.5625, 9.625, 9.6875, 9.5625, 9.5, 9.4375, 9.4375, 9.4375, 9.5625, 9.625, 9.5625, 9.625, 9.5, 9.5, 9.5625, 9.6875, 9.875, 9.9375, 10, 10, 10, 10, 10, 10, 9.9375, 9.875, 9.75, 9.625, 9.5625, 9.5, 9.5, 9.5, 9.5, 9.5, 9.5, 9.5, 9.5, 9.5, 9.5625, 9.6875, 9.75, 9.8125, 9.8125, 9.6875, 9.6875, 9.625, 9.5, 9.5, 9.4375, 9.5, 9.5625, 9.5625, 9.5, 9.375, 9.375, 9.375, 9.5625, 9.75, 9.875, 9.875, 9.75, 9.6875, 9.5625, 9.5625, 9.5625, 9.5, 9.625, 9.6875, 9.75, 9.8125, 9.75, 9.75, 9.6875, 9.5625, 9.4375, 9.375, 9.3125, 9.4375, 9.625, 9.6875, 9.8125, 9.75, 9.625, 9.5625, 9.5, 9.5625, 9.625, 9.75, 9.75, 9.5625, 9.4375, 9.375, 9.4375, 9.5625, 9.5, 9.3125, 9.375, 9.25, 9.25, 9.25, 9.125, 9.25, 9.4375, 9.5, 9.375, 9.25, 9.1875, 9.25, 9.25, 9.4375, 9.5, 9.5625, 9.75, 9.8125, 9.875, 9.9375, 10, 10, 10, -10, -10, -10, -10, -10, 10.777778, -10, 23.125, 23.166668, 23.232143, 23.257143, 23.125, 23.294643, 23.181549, 22.946428, 22.78125, 22.799107, 23.177084, 23.441963, 23.549107, 23.5625, 23.785715, 23.669643, 24.214287, 24.625, 24.866072, 25.125, 25.125, 25.125, 25.125, 25.125, 25.1875, 25.1875, 25.1875, 25.125, 25.1875, 25.375, 25.5, 25.6875, 25.8125, 25.875, 26.0625, 26.328869, 26.370537, 26.236607, 26.1875, 26, 9.25, 9.479166, 9.5625, 9.6875, 9.875, 9.8125, 9.8125, 9.75, 9.625, 9.71875, 9.96875, 10.4375, 10.71875, 11.258928, 12.607143, 13.511904, 14.160714, 14.375, 14.4375, 14.4375, 14.4375, 14.5625, 14.75, 14.9375, 15, 15, 15, 14.9375, 14.875, 14.9375, 15.125, 15.375, 15.732143, 15.875, 16.0625, 16.25, 16.4375, 16.5625, 16.625, 16.71875, 16.8125, 17, 17.3125, 17.5625, 17.172619, 16.673471, 16.619047, 16.806122, 18.442858, 19.085318, 19.908163, 20.153061, 20.811905, 21.190477, 21.166666, 20.919643, 20.273809, 20.25, 20.339285, 20.71875, 20.852678, 21.266369, 21.607143, 21.642857, 21.482143, 21.383928, 21.25, 21.25, 21.25, 21.3125, 21.410713, 21.330357, 21.026785, 20.714285, 20.625, 20.6875, 20.9375, 21.0625, 21.125, 21.080357, 21.049107, 21.302084, 21.522322, 21.71875, 21.9375, 22.196428, 22.592262, 22.816072, 22.5, 22.25, 21.955357, 21.875, 21.991072, 22.125, 22.410713, 22.616072, 22.75, -10, -10, -10, -10, -10, -10, -10, -10, -10, -10, -10, -10, -10, 9.25, 9.166666, 9.125, 9.125, 9.25, 9.4375, 9.625, 9.5, 9.375, 9.1875, 9, 9.125, 9.1875, 9.25, 9.4375, 9.5, 9.6875, 9.875, 9.8125, 9.8125, 9.75, 9.6875, 9.6875, 9.625, 9.5, 9.5, 9.625, 9.625, 9.75, 9.625, 9.5, 9.4375, 9.25, 9.4375, 9.5625, 9.625, 9.75, 9.5625, 9.375, 9.375, 9.5, 9.5625, 9.625, 9.625, 9.375, 9.25, 9.125, 9.0625, 9.1875, 9.375, 9.4375, 9.4375, 9.375, 9.25, 9.25, 9.1875, 9.1875, 9.125, 9.0625, 9.0625, 9, 9.125, 9.1875, 9.1875, 9.3125, 9.375, 9.4375, 9.5625, 9.625, 9.5, 9.375, 9.25, 9.0625, 9, 9.25, 9.4375, 9.5625, 9.6875, 9.5, 9.5, 9.5, 9.5, 9.625, 9.4375, 9.4375, 9.4375, 9.375, 9.4375, 9.4375, 9.4375, 9.3125, 9.25, 9.25, 9.25, 9.375, 9.5625, 9.5625, 9.5, 9.4375, 9.375, 9.375, 9.4375, 9.5, 9.375, 9.25, 9.1875, 9.1875, 9.1875, 9.3125, 9.375, 9.3125, 9.4375, 9.375, 9.375, 9.4375, 9.5, 9.6875, 9.75, 9.875, 9.875, 9.875, 9.875, 9.8125, 9.8125, 9.6875, 9.625, 9.5, 9.375, 9.3125, 9.25, 9.25, 9.1875, 9.125, 9.125, 9.1875, 9.2857141, 9.3125, 9.3125, 9.3125, 9.4375, 9.5, 9.5625, 9.5625, 9.4375, 9.4375, 9.375, 9.25, 9.25, 9.1875, 9.25, 9.3125, 9.3125, 9.1875, 9, 9, 9, 9.25, 9.5625, 9.75, 9.75, 9.625, 9.5625, 9.375, 9.4375, 9.4375, 9.3125, 9.4375, 9.4375, 9.5, 9.5625, 9.5, 9.5, 9.4375, 9.3125, 9.1875, 9.125, 9.0625, 9.1875, 9.375, 9.4375, 9.5625, 9.5, 9.375, 9.3125, 9.25, 9.3125, 9.375, 9.5625, 9.625, 9.5, 9.4375, 9.3125, 9.3125, 9.375, 9.3125, 9.1875, 9.25, 9.1875, 9.1875, 9.1875, 9.0625, 9.125, 9.25, 9.25, 9.1875, 9.125, 9.0625, 9.125, 9.125, 9.25, 9.3125, 9.4375, 9.625, 9.729167, 9.833333, 9.916667, 10, -10, -10, -10, -10, -10, -10, -10, 23.5, 23.166668, 23.083334, 23.111113, 23.154762, 22.87755, 23.09375, 23.169643, 23.098213, 22.821428, 22.727678, 22.824106, 22.980656, 23.423471, 23.642857, 23.6875, 23.919643, 24, 24.276787, 24.607143, 24.803572, 25.125, 25.125, 25.125, 25.125, 25.1875, 25.3125, 25.375, 25.375, 25.1875, 25.1875, 25.482143, 25.678572, 25.8125, 25.875, 25.8125, 26, 26.364584, 26.370537, 26.299107, 26.166666, 26, 9, 9.229166, 9.3125, 9.4375, 9.625, 9.625, 9.6875, 9.6875, 9.6875, 9.84375, 10.15625, 10.732143, 11.107142, 11.734694, 13.25, 13.678572, 14.1875, 14.3125, 14.375, 14.375, 14.375, 14.5, 14.6875, 14.9375, 15, 15, 15, 15, 15, 15.1875, 15.4375, 15.625, 15.875, 15.9375, 16.0625, 16.25, 16.4375, 16.5625, 16.625, 16.71875, 16.8125, 17, 17.3125, 17.669643, 17.744047, 18.333334, 18.777779, 19.095238, 19.738096, 20.202381, 20.397961, 20.330357, 20.761906, 20.815477, 20.729166, 20.455357, 20.020834, 20.0625, 20.098213, 20.3125, 20.616072, 20.985119, 21.419643, 21.330357, 21.107143, 21.008928, 20.875, 21, 21.125, 21.125, 21.098213
9.125, 9.1875, 9.3125, 9.4375, 9.3125, 9.25, 9.125, 9, 9.125, 9.1875, 9.25, 9.4375, 9.4375, 9.5625, 9.6875, 9.5625, 9.5625, 9.5, 9.4375, 9.4375, 9.375, 9.25, 9.25, 9.375, 9.375, 9.5, 9.375, 9.25, 9.1875, 9.0625, 9.25, 9.375, 9.4375, 9.5, 9.3125, 9.125, 9.125, 9.3125, 9.4375, 9.5625, 9.625, 9.375, 9.25, 9.125, 9.0625, 9.1875, 9.3125, 9.3125, 9.25, 9.125, 9, 9, 9, 9.0625, 9.0625, 9.0625, 9.0625, 9, 9.125, 9.1875, 9.1875, 9.25, 9.25, 9.25, 9.3125, 9.375, 9.25, 9.1875, 9.125, 9, 9, 9.1875, 9.3125, 9.375, 9.5, 9.375, 9.375, 9.375, 9.3125, 9.4375, 9.3125, 9.3125, 9.3125, 9.1875, 9.1875, 9.1875, 9.1875, 9.125, 9.125, 9.125, 9.125, 9.1875, 9.3125, 9.3125, 9.25, 9.1875, 9.125, 9.125, 9.1875, 9.25, 9.1875, 9.125, 9.0625, 9.0625, 9.0625, 9.125, 9.1875, 9.0625, 9.125, 9.0625, 9.0625, 9.1875, 9.25, 9.4375, 9.5, 9.625, 9.625, 9.625, 9.625, 9.5625, 9.5625, 9.4375, 9.375, 9.25, 9.125, 9.0625, 9, 9, 8.9375, 8.875, 8.875, 9, 9.0982141, 9.125, 9.125, 9.0625, 9.1875, 9.25, 9.3125, 9.3125, 9.1875, 9.1875, 9.125, 9.0625, 9.125, 9.0625, 9.125, 9.125, 9.0625, 8.9375, 8.6875, 8.6875, 8.6875, 8.9375, 9.3125, 9.5, 9.5625, 9.5, 9.4375, 9.25, 9.25, 9.1875, 9.0625, 9.1875, 9.1875, 9.25, 9.3125, 9.25, 9.25, 9.25, 9.1875, 9.125, 9.125, 9.0625, 9.125, 9.25, 9.25, 9.3125, 9.25, 9.125, 9.0625, 9, 9.0625, 9.125, 9.3125, 9.4375, 9.375, 9.375, 9.25, 9.1875, 9.1875, 9.125, 9.0625, 9.125, 9.125, 9.125, 9.125, 9.0625, 9.0625, 9.125, 9.125, 9.0625, 9.0625, 9, 9, 9, 9.125, 9.25, 9.416667, 9.5, 9.6388893, -10, -10, -10, -10, -10, -10, -10, -10, -10, -10, -10, 23.166668, 23.083334, 23.111113, 23.154762, 23.160713, 23.177084, 23.169643, 23.125, 23.0625, 23.102678, 23.292856, 23.377977, 23.149658, 23.163265, 23.5, 23.839287, 23.875, 24.214287, 24.544643, 24.803572, 25.125, 25.125, 25.125, 25.0625, 25.1875, 25.3125, 25.375, 25.4375, 25.3125, 25.375, 25.732143, 25.901787, 25.830357, 25.758928, 25.5625, 25.6875, 26.145834, 26.32143, 26.330357, 26.25, 26.083334, 9, 9.166666, 9.1875, 9.25, 9.375, 9.375, 9.4375, 9.5, 9.59375, 9.875, 10.34375, 11.33631, 12.461308, 13, 13.5, 13.785714, 14.125, 14.25, 14.375, 14.375, 14.4375, 14.5625, 14.6875, 14.9375, 15, 15, 15.0625, 15.0625, 15.0625, 15.25, 15.4375, 15.625, 15.8125, 15.901786, 16.169643, 16.366072, 16.5625, 16.6875, 16.75, 16.875, 17, 17.196428, 17.645834, 18.044643, 18.670069, 19.010204, 19.452381, 19.724489, 20.0625, 20.303572, 20.491072, 20.392857, 20.583334, 20.458334, 20.291666, 20.0625, 20, 20.1875, 20.223213, 20.3125, 20.553572, 20.833334, 21.1875, 21.223213, 21.017857, 20.848213, 20.8125, 20.8125, 20.9375, 20.9375, 20.848213, 20.705357, 20.446428, 20.236607, 20.3125, 20.4375, 20.6875, 20.90625, 21.0625, 21.125, 21.15625, 21.15625, 21.21875, 21.34375, 21.5625, 21.633928, 21.404762, 21.387501, 21.09375, 21.15625, 21.21875, 21.4375, 21.75, 22.1875, 22.5625, 22.8125, 23, -10, -10, -10, -10, -10, -10, -10, -10, -10, -10, -10, -10, -10, 9, 9, 9, 9.0625, 9.0625, 9.125, 9.1875, 9.125, 9.125, 9.0625, 9, 9.125, 9.125, 9.125, 9.25, 9.1875, 9.3125, 9.4375, 9.3125, 9.3125, 9.25, 9.1875, 9.1875, 9.125, 9.0625, 9.0625, 9.1875, 9.1875, 9.25, 9.1875, 9.0625, 9.0625, 9, 9.125, 9.25, 9.25, 9.25, 9.125, 9, 9.0625, 9.25, 9.375, 9.4375, 9.4375, 9.25, 9.125, 9.0625, 9.0625, 9.1875, 9.3125, 9.3125, 9.25, 9.125, 9, 9, 9, 9.0625, 9.0625, 9.0625, 9.0625, 9, 9.0625, 9.0625, 9.0625, 9.0625, 9.0625, 9.0625, 9.0625, 9.125, 9.0625, 9.0625, 9.0625, 9, 9, 9.125, 9.1875, 9.25, 9.375, 9.3125, 9.375, 9.3125, 9.1875, 9.25, 9.125, 9.125, 9.125, 9, 9, 9, 9, 9, 9, 9, 9, 9, 9.0625, 9.0625, 9.0625, 9.0625, 9, 9, 9, 9, 9, 9, 9, 9, 9, 9, 9, 8.9375, 8.9375, 8.9375, 9, 9.125, 9.1875, 9.3125, 9.3125, 9.375, 9.375, 9.375, 9.375, 9.3125, 9.3125, 9.1875, 9.125, 9.0625, 9, 9, 9, 9, 8.875, 8.75, 8.6875, 8.75, 8.9107141, 8.958333, 9.166667, 9, 9.083333, 9.083333, 9.0625, 9.0625, 9, 9, 9, 9.125, 9.229167, 9.1875, 9.1875, 9.125, 9, 8.875, 8.6875, 8.6875, 8.6875, 8.875, 9.1875, 9.3125, 9.375, 9.375, 9.375, 9.25, 9.25, 9.1875, 9.0625, 9.125, 9.0625, 9.0625, 9.0625, 9, 9, 9, 9, 9, 9, 9, 9, 9.0625, 9.0625, 9.0625, 9.0625, 9, 9.0625, 9.0625, 9.0625, 9.0625, 9.125, 9.25, 9.25, 9.25, 9.125, 9, 9, 9, 9, 9.0625, 9.0625, 9.0625, 9.125, 9.1875, 9.1875, 9.1875, 9.125, 9, 9, 9, 9.0625, 9.125, 9.3125, 9.458333, 9.3055563, -10, -10, -10, -10, -10, -10, -10, -10, -10, -10, -10, -10, -10, -10, -10, -10, -10, 23, 22.979168, 22.982143, 23, 23.125, 23.383928, 23.685715, 23.669643, 23.39966, 23.341837, 23.571428, 23.964287, 23.9375, 24.183037, 24.450893, 24.709822, 24.90625, 24.9375, 24.9375, 25, 25.160713, 25.214287, 25.3125, 25.375, 25.375, 25.4375, 25.794643, 25.964287, 25.955357, 25.946428, 25.8125, 25.8125, 26.0625, 26.267857, 26.375, 26.4375, 26.111113, 9, 9.083333, 9.0625, 9.0625, 9.125, 9.1875, 9.3125, 9.5, 9.71875, 10.142857, 11.072917, 12.302721, 13.145408, 13.510203, 13.75, 13.892857, 14.125, 14.3125, 14.5, 14.5, 14.5625, 14.625, 14.6875, 14.9375, 15, 15, 15.0625, 15.0625, 15.133928, 15.4375, 15.5625, 15.8125, 15.875, 15.964286, 16.241072, 16.657738, 16.946428, 16.928572, 17.107143, 17.346939, 17.428572, 17.581633, 18.208334, 18.544643, 19.232143, 19.580357, 20.083334, 20.25, 20.375, 20.25, 20.428572, 20.3125, 20.375, 20.25, 20.25, 20.125, 20.0625, 20.25, 20.285713, 20.3125, 20.482143, 20.5625, 20.8125, 20.875, 20.8125, 20.714287, 20.75, 20.6875, 20.8125, 20.75, 20.535713
9.0625, 9.0625, 9.125, 9.1875, 9.125, 9.125, 9.0625, 9, 9.125, 9.125, 9.125, 9.1875, 9.0625, 9.125, 9.1875, 9.125, 9.125, 9.0625, 9, 9, 9, 9, 9, 9.0625, 9.0625, 9.0625, 9.0625, 9, 9, 9, 9.0625, 9.125, 9.125, 9.125, 9.0625, 9, 9.0625, 9.1875, 9.3125, 9.375, 9.375, 9.1875, 9.0625, 9, 8.9375, 9.125, 9.1875, 9.1875, 9.1875, 9.0625, 9, 9, 9, 9, 9, 9, 9, 9, 9, 9, 9, 9, 9, 9, 9, 9, 9, 9, 9, 9, 9, 9.0625, 9.0625, 9.125, 9.25, 9.25, 9.3125, 9.25, 9.125, 9.125, 9.0625, 9.0625, 9.0625, 9, 9, 9, 9, 9.0625, 9.0625, 9.0625, 9.0625, 9, 9, 9, 9, 9, 9, 9, 9, 9, 9, 9, 9, 9, 9, 9, 9, 8.9375, 8.9375, 8.9375, 8.9375, 9, 9, 9.0625, 9.0625, 9.125, 9.125, 9.125, 9.125, 9.0625, 9.0625, 9, 9, 9, 9, 9, 9, 9, 8.9375, 8.875, 8.75, 8.833333, 8.9642859, 8.9444437, -10, -10, -10, -10, 9, 9, 22.25, 22.125, 22, 9.166667, 9.229167, 9.1875, 9.1875, 9.125, 9, 8.9375, 8.8125, 8.8125, 8.8125, 8.875, 9.0625, 9.125, 9.125, 9.125, 9.125, 9.0625, 9.125, 9.125, 9.0625, 9.0625, 9, 9, 9, 9, 9, 9, 9, 9, 9, 9, 9, 9, 9, 9, 9, 9, 9.0625, 9.0625, 9.0625, 9.0625, 9.0625, 9.125, 9.125, 9.125, 9.0625, 9, 9, 9, 9, 9, 9, 9, 9.0625, 9.1875, 9.1875, 9.1875, 9.125, 9, 9.0625, 9.125, 9.3125, 9.458333, 9.416667, 9.6111107, -10, -10, -10, -10, -10, -10, -10, -10, -10, -10, -10, -10, -10, -10, -10, -10, -10, -10, 23.375, 23.333334, 23.25, 23.1875, 23.3125, 23.633928, 23.935715, 23.794643, 23.849207, 23.803572, 24.083334, 24.089287, 24.25, 24.53125, 24.65625, 24.78125, 24.799107, 24.8125, 24.8125, 24.9375, 25.035713, 24.964287, 25.080357, 25.333334, 25.491072, 25.625, 25.919643, 26.089287, 26.080357, 26.071428, 25.9375, 25.9375, 26.1875, 26.517857, 26.708334, 26.583334, 9, 9, 9, 8.9375, 8.9375, 8.9375, 9.0625, 9.520833, 9.8035717, 10.15625, 10.65625, 11.854167, 13.037416, 13.642857, 13.892857, 14, 14, 14.0625, 14.3125, 14.5625, 14.6875, 14.785714, 14.714286, 14.8125, 15.044643, 15.25, 15.375, 15.4375, 15.4375, 15.508928, 15.75, 15.8125, 16, 15.9375, 16.035713, 16.511906, 17.095238, 17.92687, 18.583334, 19.041666, 19.285715, 19.166666, 19.130953, 19.023809, 19.275511, 19.5625, 19.830357, 20, 20, 20.0625, 20.0625, 20.0625, 20.125, 20.1875, 20.1875, 20.1875, 20.125, 20.0625, 20.258928, 20.494049, 20.482143, 20.544643, 20.5, 20.6875, 20.8125, 20.785713, 20.589287, 20.5, 20.410713, 20.5625, 20.5625, 20.4375, 20.5625, 20.4375, 20.40625, 20.5625, 20.553572, 20.479166, 20.635416, 20.833334, 20.794643, 20.875, 20.875, 20.875, 21.125, 21.3125, 21.258928, 20.958334, 20.8125, 20.71875, 20.90625, 21.03125, 21.1875, 21.375, 21.6875, 22.125, 22.482143, 22.666666, -10, -10, -10, -10, -10, -10, -10, -10, -10, -10, -10, -10, -10, 9, 9, 9, 9.0625, 9, 8.9375, 8.875, 8.75, 8.8125, 8.875, 8.9375, 9.0625, 9.0625, 9.0625, 9.0625, 9, 9, 9, 9, 9, 9, 9, 9, 9, 9, 9, 9, 9, 9, 9, 9, 9, 9, 9, 9, 9, 9, 9, 9, 9, 9.0625, 9.1875, 9.25, 9.3125, 9.1875, 9.0625, 9, 8.96875, 9.15625, 9.15625, 9.15625, 9.125, 9, 8.9375, 8.9375, 8.9375, 8.9375, 9, 9, 9, 9, 9, 9, 9, 9, 9, 9, 9, 9, 9, 9, 9, 9, 9, 9, 9, 9.0625, 9.1875, 9.25, 9.25, 9.1875, 9.0625, 9.0625, 9.0625, 9.0625, 9.0625, 9, 9, 9, 9, 9.0625, 9.0625, 9.0625, 9.0625, 9, 9, 9, 9, 9, 9, 9, 9, 9, 9, 8.9375, 8.9375, 8.9375, 8.9375, 9, 9, 8.9375, 8.9375, 8.9375, 8.9375, 8.9375, 8.9375, 8.9375, 8.9375, 9, 9, 9, 9, 9, 9, 9, 9, 9, 9, 9, 9, 9, 8.9375, 8.916667, -10, -10, -10, -10, -10, -10, -10, -10, 22.75, 22.5, 22.25, 22.083334, 22, 22, 9.3055563, 9.1875, 9.1875, 9.125, 9, 9, 8.9375, 8.9375, 8.9375, 8.9375, 9, 9, 9, 9, 9, 9, 9, 9, 9, 9, 9, 9, 8.9375, 8.875, 8.875, 8.875, 8.9375, 9, 9, 9, 9, 9, 9, 9, 9, 9, 9.0625, 9.0625, 9.0625, 9.0625, 9, 9, 9, 9, 9, 9, 9, 9, 9, 9, 9, 9, 9.0625, 9.1875, 9.1875, 9.1875, 9.1875, 9.1875, 9.4196434, 9.541667, 9.416667, 9.6111107, -10, -10, -10, -10, -10, -10, -10, -10, -10, -10, -10, -10, -10, -10, -10, -10, -10, -10, -10, -10, 23.333334, 23.476191, 23.4375, 23.375, 23.5, 23.75, 24.035713, 24.116072, 23.916666, 23.924107, 24.15625, 24.325893, 24.40625, 24.59375, 24.59375, 24.59375, 24.513393, 24.5, 24.5625, 24.9375, 24.973213, 24.839287, 24.830357, 25.083334, 25.366072, 25.6875, 25.9375, 26.098213, 26.142857, 26.133928, 26.125, 26.1875, 26.375, 26.794643, 26.979168, 8.5, 8.7777777, 8.8125, 8.84375, 8.8125, 8.8125, 8.875, 9.03125, 9.583333, 10.044643, 10.450893, 11.03125, 12.476191, 13.229167, 13.767857, 13.875, 13.9375, 13.9375, 13.9375, 14.1875, 14.4375, 14.625, 14.785714, 14.776786, 14.982143, 15.544643, 15.857143, 16.03125, 15.96875, 15.84375, 15.821428, 15.9375, 15.9375, 16.0625, 15.9375, 16.17857, 17.09524, 17.738094, 18.564627, 18.928572, 19.285715, 19.530613, 19.428572, 19.397961, 19.333334, 19.5625, 19.75, 19.9375, 20, 20.0625, 20.1875, 20.25, 20.241072, 20.125, 20.1875, 20.125, 20.25, 20.25, 20.3125, 20.571428, 20.864584, 20.888393, 20.78125, 20.71875, 20.6875, 20.8125, 20.723213, 20.464287, 20.5, 20.348213, 20.5, 20.625, 20.5
8.9375, 8.875, 8.8125, 8.875, 8.7857141, 8.7053566, 8.7678566, 8.8125, 8.9375, 9, 9, 9, 9, 9, 9, 9, 9, 9, 8.9375, 8.9375, 8.9375, 9, 9.125, 9.1071434, 9, 9, 8.9375, 9, 9, 9, 9, 9, 9, 9, 9, 9, 9, 9, 9.0625, 9.0625, 9.0625, 9, 8.9375, 8.9375, 8.96875, 9.15625, 9.15625, 9.15625, 9.125, 9, 8.9375, 8.9375, 8.9375, 8.9375, 9, 9, 9, 9, 9, 9, 9, 9, 9, 9, 9, 9, 9, 8.9375, 8.875, 8.875, 8.875, 8.9375, 9, 9.0625, 9.125, 9.125, 9.125, 9.0625, 9, 9, 9, 9, 9, 9, 9, 9, 9, 9.0625, 9.0625, 9.0625, 9.0625, 9, 9, 9, 9, 9, 9, 9, 9, 9, 9, 8.9375, 8.9375, 8.9375, 8.9375, 9, 9, 9, 9, 9, 9, 8.9375, 8.9375, 8.9375, 8.9375, 9, 9, 9, 9, 8.9375, 8.9375, 8.9375, 8.9375, 9, 9, 9, 9, 9, 8.916667, 8.8888893, -10, -10, -10, -10, -10, -10, -10, -10, 22.666666, 22.5, 22.25, 22.0625, 22, 21.916666, 21.875, 9.166667, 9.125, 9.0625, 9, 9, 9, 9, 9, 9, 9, 9, 9, 9, 9, 9, 9, 9, 9, 9, 9, 9, 8.875, 8.75, 8.75, 8.75, 8.875, 9, 9, 9, 9, 9, 9, 9, 9, 9, 9.0625, 9.0625, 9.0625, 9.0625, 9, 9, 9, 9, 9, 9, 9, 9, 9, 9, 9, 9, 9.0625, 9.125, 9.1964283, 9.541667, 9.469388, 9.6071424, 10.169643, 9.7222223, -10, -10, -10, -10, -10, -10, -10, -10, -10, -10, -10, -10, -10, -10, -10, -10, -10, -10, 19.75, 19.958332, 20.25, 21, 23.208334, 23.535713, 23.625, 23.5625, 23.6875, 23.875, 24.098213, 24.1875, 24.25, 24.28125, 24.46875, 24.40625, 24.40625, 24.53125, 24.575893, 24.53125, 24.388393, 24.401787, 24.607143, 25.044643, 25.129463, 24.901787, 24.830357, 25.020834, 25.209822, 25.5625, 25.75, 25.9375, 26.1875, 26.25, 26.3125, 26.4375, 26.5625, 26.9375, 27.187502, 8.666667, 8.833333, 8.875, 8.90625, 8.875, 8.875, 8.9375, 9.15625, 9.770833, 10.232143, 10.651787, 11.5, 12.684525, 13.25, 13.6875, 13.6875, 13.8125, 13.875, 13.875, 14.1875, 14.4375, 14.75, 14.973214, 15.089286, 15.627977, 16.392857, 16.729593, 16.857143, 16.571428, 16.15625, 16.071428, 16.0625, 16.0625, 16.267857, 16.428572, 16.775509, 18.231293, 18.452379, 18.931549, 19.1875, 19.4375, 19.589287, 19.4375, 19.383928, 19.583334, 19.741072, 19.875, 20, 20.0625, 20.125, 20.3125, 20.4375, 20.397322, 20.28125, 20.28125, 20.15625, 20.25, 20.1875, 20.125, 20.438776, 20.677084, 20.870537, 20.90625, 20.84375, 20.6875, 20.625, 20.4375, 20.25, 20.3125, 20.348213, 20.5625, 20.875, 20.875, 21.0625, 20.9375, 20.642857, 20.625, 20.410715, 19.934523, 19.958332, 20.291668, 20.276787, 20.5, 20.5, 20.5625, 20.875, 21.044643, 21.0625, 21, 21, 21.214287, 21.357143, 21.375, 21.25, 21.3125, 21.4375, 21.75, 22.107143, 22.166666, -10, -10, -10, -10, -10, -10, -10, -10, -10, -10, -10, -10, -10, 8.875, 8.916667, 8.875, 8.9375, 8.875, 8.8125, 8.875, 8.7857141, 8.7053566, 8.7678566, 8.8125, 8.9375, 9, 9, 9, 9, 9, 9, 9, 8.9375, 8.9375, 8.875, 8.875, 8.9375, 9, 9.0625, 8.9821434, 8.8125, 8.8125, 8.75, 8.8125, 8.875, 8.875, 8.9375, 9, 9, 9, 9, 9, 9, 9, 9, 9, 9, 8.9375, 8.9375, 8.9375, 8.96875, 9.15625, 9.15625, 9.15625, 9.125, 9, 8.9375, 8.9375, 8.9375, 8.9375, 8.9375, 8.9375, 8.9375, 8.9375, 9, 9, 9, 9, 9, 9, 9, 9, 8.9375, 8.8125, 8.6875, 8.6875, 8.75, 8.875, 9, 9, 9, 9, 9, 9, 9, 9, 9, 9, 9, 9, 9, 9, 9, 9.0625, 9.0625, 9.0625, 9.0625, 9, 9, 9, 9, 9, 9, 9, 9, 8.9375, 8.9375, 8.875, 8.875, 8.9375, 8.9375, 9, 9, 9, 9, 9, 9, 8.9375, 8.9375, 8.9375, 8.9375, 9, 9, 9, 9, 8.9375, 8.9375, 8.9375, 8.9375, 9, 9, 8.9375, 8.916667, 9, -10, -10, -10, -10, -10, -10, 21.5, 21.5, 21.75, 22.125, 22.535713, 22.4375, 22.3125, 22.0625, 21.9375, 21.8125, 21.666666, 21.333332, 9, 9, 9, 9, 9, 9, 9, 9, 9, 9, 9, 9, 9, 9, 9, 9, 9, 9, 9, 8.9375, 8.8125, 8.6875, 8.6875, 8.75, 8.875, 9, 9, 9, 9, 9, 9, 9, 9, 9, 9, 9, 9, 9, 9, 9, 9, 9, 9, 9, 9, 9, 9, 9, 9, 9, 9.0625, 9.1875, 9.4285717, 9.833334, 10.205357, 10.5625, 10.821428, -10, -10, -10, -10, -10, -10, -10, -10, -10, -10, -10, -10, -10, -10, -10, -10, -10, -10, 20.166668, 19.833334, 20.210318, 20.5, 21.238094, 23.125, 23.630951, 23.8125, 23.8125, 23.875, 23.9375, 24.0625, 24.0625, 24.125, 24.21875, 24.34375, 24.34375, 24.375, 24.5, 24.607143, 24.625, 24.450893, 24.491074, 24.839287, 25.151787, 25.28125, 25.0625, 24.892857, 25.145834, 25.209822, 25.5625, 25.75, 25.875, 26.0625, 26.0625, 26.125, 26.375, 26.5625, 26.979166, 27.333334, 9, 9.020833, 9.0625, 9.03125, 8.9375, 8.9375, 9, 9.34375, 10.136905, 10.785714, 11.163266, 12.044643, 12.767857, 13.142857, 13.4375, 13.4375, 13.625, 13.75, 13.8125, 14.125, 14.375, 14.8125, 15.205358, 15.464286, 16.253403, 16.938776, 17.075893, 17.21875, 17.03125, 16.875, 16.660715, 16.561224, 16.607143, 16.770407, 18.166666, 18.547617, 18.928572, 18.785713, 19.06012, 19.237499, 19.035713, 19.160713, 18.9375, 19.008928, 19.395834, 19.678572, 19.875, 19.9375, 19.9375, 19.9375, 20.0625, 20.1875, 20.147322, 19.96875, 19.90625, 19.78125, 19.875, 19.9375, 20, 20.081633, 20.739584, 20.933037, 21.03125, 20.90625, 20.625, 20.4375, 20.1875, 20, 20.0625, 20.285713, 20.5, 20.875, 20.9375
8.9375, 8.875, 8.75, 8.8125, 8.7232141, 8.5625, 8.5178566, 8.5625, 8.6875, 8.875, 8.9375, 8.9375, 8.9375, 8.9375, 8.9375, 9, 8.9375, 8.9375, 8.875, 8.875, 8.9375, 9, 9, 8.8571434, 8.6875, 8.6875, 8.6875, 8.8125, 8.875, 8.875, 8.875, 8.875, 8.875, 8.875, 8.9375, 9, 9, 9, 9, 9, 9, 9, 9, 9, 9.03125, 9.09375, 9.09375, 9.09375, 9.0625, 9, 8.9375, 8.9375, 8.9375, 8.9375, 8.9375, 8.9375, 8.9375, 8.9375, 9, 9, 9, 9, 9, 9, 9, 9, 8.9375, 8.75, 8.5625, 8.5, 8.5, 8.6875, 8.875, 8.9375, 9, 9, 9, 9, 9, 9, 9, 9, 9, 9, 9, 9, 9, 9, 9, 9, 9, 9, 9, 9, 9, 9, 9, 9, 9, 8.875, 8.875, 8.8125, 8.8125, 8.9375, 8.9375, 9, 8.9375, 8.9375, 8.9375, 8.9375, 9, 8.9375, 8.9375, 8.9375, 8.9375, 9, 9, 9, 8.9375, 8.875, 8.875, 8.875, 8.9375, 9, 9, 8.916667, 8.8888893, -10, -10, -10, -10, -10, -10, -10, 21.416666, 21.416666, 21.666666, 22, 22.285713, 22.270834, 22.1875, 22, 21.875, 21.6875, 21.5625, 21.222221, 21, 21, 9, 9, 9, 9, 9, 8.9375, 8.9375, 8.9375, 8.9375, 9, 9, 9, 9, 9, 9, 9, 9, 8.875, 8.75, 8.625, 8.5625, 8.625, 8.6875, 8.75, 8.75, 8.8125, 8.875, 8.9375, 9, 9, 9, 9, 9, 9, 9, 9, 9, 9, 9, 9, 9, 9, 9, 8.9375, 8.875, 8.875, 8.875, 9, 9.25, 9.4875002, 9.5714293, 10.333334, -10, -10, -10, -10, -10, -10, -10, -10, -10, -10, -10, -10, -10, -10, -10, -10, -10, -10, -10, -10, -10, 20.777779, 20.267857, 20.532738, 20.8125, 21.535713, 22.9375, 23.464285, 23.75, 23.8125, 23.875, 23.9375, 24, 24.0625, 24.1875, 24.34375, 24.40625, 24.21875, 24.017857, 24.080357, 24.377977, 24.553572, 24.558037, 24.678574, 25.089287, 25.401787, 25.59375, 25.375, 25.125, 25.1875, 25.15625, 25.5, 25.75, 25.8125, 25.9375, 25.9375, 26, 26.3125, 26.5625, 26.916666, 10, 9.1428576, 9.020833, 9.0625, 9.03125, 9, 9.0625, 9.25, 9.7723217, 10.410714, 11.107143, 11.877551, 12.375, 12.767857, 13, 13.1875, 13.25, 13.5, 13.6875, 13.8125, 14, 14.125, 14.491072, 15.169643, 15.714286, 16.471727, 17.142857, 17.450893, 17.53125, 17.375, 17.3125, 17.875, 18.285715, 18.416666, 18.428572, 18.510204, 18.632654, 18.802084, 18.629463, 18.691071, 18.945833, 18.660713, 18.866072, 18.6875, 18.821428, 19.270834, 19.553572, 19.8125, 19.875, 19.875, 19.875, 19.9375, 20.0625, 20.022322, 19.84375, 19.78125, 19.65625, 19.8125, 19.875, 20, 20.1875, 20.40625, 20.575893, 20.65625, 20.59375, 20.375, 20.1875, 20, 19.9375, 20.0625, 20.25, 20.4375, 20.6875, 20.75, 20.75, 20.625, 20.330357, 20.25, 20.044643, 19.767857, 19.791666, 19.931547, 19.875, 19.883928, 19.875, 20.0625, 20.348213, 20.669643, 20.75, 20.6875, 20.8125, 21.214287, 21.392857, 21.5, 21.375, 21.375, 21.625, 21.919643, 22.125, 22.166666, -10, -10, -10, -10, -10, -10, -10, -10, -10, -10, -10, -10, -10, 8.75, 8.75, 8.75, 8.875, 8.875, 8.8125, 8.9375, 8.9107141, 8.625, 8.5178566, 8.4375, 8.5, 8.6875, 8.75, 8.75, 8.6875, 8.75, 8.8125, 8.9375, 8.875, 8.875, 8.75, 8.75, 8.875, 8.9375, 9, 8.7946434, 8.625, 8.625, 8.625, 8.8125, 8.8125, 8.75, 8.6875, 8.625, 8.625, 8.6875, 8.8125, 8.9375, 9, 8.9375, 8.875, 8.8125, 8.8125, 8.875, 8.9375, 8.9375, 8.9375, 8.9375, 8.9375, 9, 9, 9, 8.9375, 8.9375, 8.9375, 8.875, 8.875, 8.875, 8.875, 8.9375, 9, 9, 9, 9, 9, 9, 9, 9, 8.875, 8.625, 8.375, 8.25, 8.25, 8.5, 8.6875, 8.8125, 8.9375, 8.9375, 8.9375, 8.9375, 8.9375, 8.9375, 9, 9, 9, 9, 9, 9, 9, 9, 8.9375, 8.9375, 8.9375, 8.9375, 8.9375, 8.9375, 8.9375, 8.875, 8.875, 8.875, 8.875, 8.75, 8.75, 8.6875, 8.625, 8.75, 8.8125, 8.875, 8.875, 8.9375, 8.9375, 8.875, 8.9375, 8.9375, 8.9375, 9, 9, 9, 9, 8.9375, 8.8125, 8.75, 8.75, 8.8125, 8.9375, 9, 9, -10, -10, -10, -10, -10, -10, 21.5, 21.458332, 21.375, 21.4375, 21.5, 21.6875, 22.0625, 22.223213, 22.25, 22.1875, 22, 21.8125, 21.5625, 21.375, 21.166666, 21, 21, 21, 9, 9, 9, 9, 8.875, 8.875, 8.875, 8.875, 9, 9, 9, 9, 9, 9, 8.9375, 8.9375, 8.75, 8.625, 8.5625, 8.4375, 8.5, 8.5, 8.5, 8.5, 8.625, 8.75, 8.875, 9, 9, 9, 9, 9, 9, 9, 9, 8.9375, 8.9642859, 9.0357141, 9, 9.0625, 8.9375, 8.875, 8.75, 8.625, 8.6875, 8.75, 8.916667, 9.333333, 9.6500006, -10, 10.833334, -10, -10, -10, -10, -10, -10, -10, -10, -10, -10, -10, -10, -10, -10, -10, -10, -10, -10, -10, -10, 22.583332, 21.360546, 20.785713, 21.032738, 21.395834, 22, 22.979166, 23.321428, 23.5625, 23.625, 23.75, 23.785713, 23.714287, 23.8125, 23.9375, 24.395834, 24.419643, 24.1875, 23.816963, 23.848213, 24.398811, 24.803572, 24.90625, 25.116074, 25.44643, 25.366074, 25.59375, 25.3125, 25.25, 25.375, 25.40625, 25.6875, 25.875, 25.875, 25.9375, 25.9375, 25.9375, 26.25, 26.5, 26.791666, 27.111113, 9.25, 9.1875, 9.25, 9.1875, 9.125, 9.25, 9.4375, 9.9285717, 10.580357, 11.632653, 12.204082, 12.625, 12.892857, 13, 13.125, 13.25, 13.5, 13.75, 13.875, 14, 14.125, 14.553572, 15.410714, 16.071428, 16.864584, 17.476191, 17.772322, 17.8125, 17.71875, 17.71875, 18.142857, 18.602041, 18.785715, 18.795918, 18.821428, 18.663265, 18.535715, 18.331633, 18.476786, 18.758333, 18.535713, 18.741072, 18.625, 18.821428, 19.208334, 19.428572, 19.6875, 19.75, 19.8125, 19.8125, 19.8125, 19.84375, 19.75, 19.75, 19.625, 19.59375, 19.6875, 19.75, 19.8125, 19.8125, 19.964287, 20.107143, 20.25, 20.3125, 20.1875, 20.0625, 19.9375, 19.9375, 20, 20.1875, 20.25, 20.375, 20.4375
8.75, 8.6875, 8.625, 8.625, 8.6875, 8.5446434, 8.4375, 8.375, 8.375, 8.5, 8.5625, 8.5625, 8.4375, 8.5625, 8.6875, 8.8125, 8.75, 8.6875, 8.5625, 8.625, 8.8125, 8.875, 8.8125, 8.5625, 8.4375, 8.375, 8.4375, 8.5625, 8.5625, 8.5, 8.4375, 8.4375, 8.5, 8.625, 8.75, 8.8125, 8.8125, 8.6875, 8.625, 8.5625, 8.5625, 8.6875, 8.75, 8.75, 8.75, 8.75, 8.8125, 8.875, 8.875, 8.8125, 8.6875, 8.6875, 8.6875, 8.625, 8.6875, 8.75, 8.8125, 8.9375, 9, 8.9375, 8.875, 8.8125, 8.75, 8.75, 8.75, 8.75, 8.625, 8.4375, 8.25, 8.125, 8.1875, 8.4375, 8.5625, 8.6875, 8.75, 8.6875, 8.6875, 8.6875, 8.6875, 8.75, 8.875, 8.875, 8.9375, 8.9375, 8.9375, 9, 9, 9, 8.875, 8.875, 8.875, 8.875, 8.875, 8.875, 8.875, 8.75, 8.75, 8.6875, 8.625, 8.5, 8.5, 8.4375, 8.375, 8.5, 8.5625, 8.625, 8.6875, 8.8125, 8.875, 8.8125, 8.875, 8.875, 8.8125, 8.875, 8.8125, 8.8125, 8.875, 8.8125, 8.6875, 8.625, 8.625, 8.75, 8.916667, 9, -10, -10, -10, -10, -10, -10, 21, 21.25, 21.222221, 21.166666, 21.125, 21.25, 21.375, 21.758928, 22.098213, 22.125, 22.1875, 22, 21.75, 21.4375, 21.080357, 20.875, 20.875, 20.9375, 21, 20.875, 9, 9, 9, 8.791667, 8.75, 8.75, 8.6875, 8.8125, 8.8125, 8.75, 8.8125, 8.8125, 8.8125, 8.75, 8.6875, 8.5, 8.4375, 8.4375, 8.375, 8.5, 8.4375, 8.375, 8.3125, 8.4375, 8.625, 8.8125, 9, 8.9375, 8.9375, 8.9375, 8.9375, 8.9375, 8.875, 8.875, 8.8125, 8.8392859, 8.9107141, 8.8125, 8.875, 8.75, 8.6875, 8.5625, 8.375, 8.4375, 8.666667, 8.791667, -10, -10, -10, 11.261905, -10, -10, -10, 13.166666, -10, -10, -10, -10, -10, -10, -10, -10, -10, -10, -10, -10, -10, -10, -10, 22.107143, 22.472221, 22.02721, 21.473213, 21.782738, 22.083334, 22.526785, 23.041666, 23.178572, 23.3125, 23.375, 23.5, 23.535713, 23.464287, 23.5625, 23.75, 24.333334, 24.526787, 24.375, 24.066963, 24.035713, 24.479168, 24.866072, 24.96875, 25.151787, 25.276787, 25.13393, 25.330357, 25.333334, 25.428572, 25.625, 25.625, 25.8125, 25.9375, 25.9375, 26, 26, 26, 26.25, 26.5, 26.729166, 27, 9.333333, 9.1875, 9.1875, 9.125, 9.125, 9.375, 9.8035717, 10.482143, 11.081633, 12.116072, 12.625, 12.875, 13, 13, 13.125, 13.3125, 13.5625, 13.8125, 13.9375, 13.9375, 14.0625, 14.482143, 15.660714, 16.464285, 17.138393, 17.770834, 18.116072, 18.21875, 18.1875, 18.21875, 18.40625, 18.776787, 18.9375, 18.875, 18.571428, 18.366072, 18.15625, 18.03125, 18.101786, 18.445833, 18.348213, 18.678572, 18.6875, 18.9375, 19.125, 19.25, 19.5, 19.625, 19.75, 19.875, 19.785713, 19.611607, 19.415178, 19.40625, 19.34375, 19.4375, 19.65625, 19.84375, 20.0625, 20.09375, 20.151787, 20.0625, 20.09375, 20.125, 20.0625, 20, 19.875, 19.875, 19.875, 20, 20.125, 20.098213, 20.026787, 20, 19.9375, 20, 20, 19.9375, 20, 20.098213, 20.098213, 20.083334, 19.59226, 19.845238, 20.136906, 20.297619, 20.25, 20.455357, 20.754166, 20.970238, 21.428572, 21.526785, 21.580357, 21.5, 21.666666, 21.833334, 22.232143, 22.1875, 22.333332, -10, -10, -10, -10, -10, -10, -10, -10, -10, -10, -10, -10, -10, 8.625, 8.500001, 8.5, 8.5, 8.4375, 8.375, 8.375, 8.4375, 8.2946434, 8.1875, 8.125, 8.125, 8.25, 8.3125, 8.3125, 8.1875, 8.3125, 8.4375, 8.5625, 8.5625, 8.5, 8.375, 8.4375, 8.625, 8.6875, 8.6875, 8.5, 8.375, 8.3125, 8.375, 8.5, 8.4375, 8.375, 8.25, 8.1875, 8.25, 8.375, 8.5, 8.5625, 8.5625, 8.4375, 8.375, 8.3125, 8.3125, 8.4375, 8.5, 8.5, 8.5, 8.5625, 8.625, 8.6875, 8.6875, 8.5625, 8.4375, 8.4375, 8.4375, 8.375, 8.5, 8.5625, 8.625, 8.75, 8.75, 8.6875, 8.625, 8.5625, 8.5, 8.5, 8.5, 8.5, 8.4375, 8.3125, 8.1875, 8.0625, 8.0625, 8.3125, 8.375, 8.5, 8.625, 8.5, 8.5, 8.5, 8.4375, 8.5625, 8.75, 8.8125, 8.9375, 9, 9, 9.0625, 9.0625, 9, 8.875, 8.875, 8.875, 8.9375, 8.9107141, 8.7678566, 8.7678566, 8.5625, 8.5625, 8.5, 8.375, 8.3125, 8.3125, 8.25, 8.1875, 8.25, 8.3125, 8.375, 8.4375, 8.5625, 8.6875, 8.625, 8.6875, 8.6875, 8.5625, 8.625, 8.5625, 8.5625, 8.625, 8.5625, 8.4375, 8.375, 8.375, 8.666667, 8.8888893, -10, -10, -10, -10, -10, -10, 21, 21.041666, 21.25, 21.291666, 21.25, 21.21875, 21.3125, 21.3125, 21.642857, 22.0625, 22.0625, 22.1875, 22, 21.75, 21.4375, 21.017857, 20.625, 20.6875, 20.794643, 20.9375, 20.833334, 20.5, 20.333334, 8.625, 8.458333, 8.4375, 8.5, 8.4375, 8.5625, 8.5625, 8.5, 8.625, 8.625, 8.625, 8.5625, 8.4375, 8.3125, 8.25, 8.25, 8.25, 8.375, 8.3125, 8.25, 8.125, 8.1875, 8.4375, 8.625, 8.8125, 8.75, 8.6875, 8.6875, 8.6875, 8.6875, 8.6875, 8.75, 8.729167, 8.7857141, 8.8809519, 8.5625, 8.708333, 8.5625, 8.5, 8.395833, 8.166667, 8.25, 21.25, 8.7222223, -10, -10, -10, 12.666667, 13.333333, 13.3125, 13.3125, 13.277778, -10, -10, -10, 15.5, -10, -10, -10, -10, -10, -10, -10, -10, -10, 21.083332, 21.799999, 22.309525, 22.639881, 22.544643, 22.285713, 22.354166, 22.583334, 22.848215, 23, 23, 23.0625, 23.125, 23.25, 23.348213, 23.339287, 23.5, 23.6875, 24.208334, 24.401787, 24.25, 23.973213, 23.973213, 24.354168, 24.741072, 24.9375, 25.125, 25.232143, 25.089287, 25.267857, 25.395834, 25.553572, 25.75, 25.75, 25.875, 25.9375, 25.9375, 26, 26, 26, 26.25, 26.5, 26.75, 27, 27, 9, 9.083333, 9.0625, 9.2053566, 9.7410717, 10.3125, 10.982143, 11.734694, 12.1875, 12.580357, 12.8125, 12.9375, 13, 13.1875, 13.375, 13.5625, 13.75, 13.8125, 13.875, 14.178572, 14.723215, 15.982142, 16.892857, 17.620537, 18.208334, 18.553572, 18.625, 18.53125, 18.4375, 18.375, 18.544643, 18.625, 18.625, 18.383928, 18.116072, 17.90625, 17.78125, 17.901787, 18.145834, 18.3125, 18.5625, 18.6875, 18.875, 19, 19.125, 19.375, 19.625, 19.8125, 20, 19.973213, 19.799107, 19.665178, 19.65625, 19.59375, 19.6875, 19.9375, 20.125, 20.28125, 20.25, 20.151787, 20, 19.96875, 20, 20, 20, 19.9375, 19.9375, 19.9375, 19.875, 19.9375, 19.848213, 19.776787
8.25, 8.1875, 8.1875, 8.1875, 8.25, 8.1875, 8.1875, 8.125, 8.125, 8.125, 8.125, 8.125, 8, 8.125, 8.25, 8.3125, 8.3125, 8.25, 8.125, 8.1875, 8.375, 8.4375, 8.5, 8.375, 8.25, 8.1875, 8.1875, 8.25, 8.1875, 8.125, 8.0625, 8.0625, 8.125, 8.25, 8.3125, 8.3125, 8.3125, 8.25, 8.1875, 8.125, 8.125, 8.1875, 8.25, 8.25, 8.25, 8.3125, 8.375, 8.4375, 8.4375, 8.3125, 8.1875, 8.1875, 8.1875, 8.125, 8.25, 8.3125, 8.375, 8.5, 8.5, 8.4375, 8.375, 8.3125, 8.25, 8.25, 8.25, 8.25, 8.1875, 8.125, 8.0625, 8, 8.0625, 8.25, 8.25, 8.375, 8.5, 8.375, 8.4375, 8.4375, 8.375, 8.5625, 8.75, 8.8125, 8.9375, 9.0625, 9.125, 9.1875, 9.1875, 9.0625, 8.875, 8.875, 8.875, 8.9375, 8.8482141, 8.6428566, 8.5803566, 8.3125, 8.3125, 8.25, 8.125, 8.125, 8.125, 8.0625, 8, 8, 8.0625, 8.125, 8.25, 8.375, 8.5, 8.4375, 8.4375, 8.4375, 8.3125, 8.375, 8.3125, 8.3125, 8.375, 8.3125, 8.25, 8.1875, 8.25, -10, -10, -10, -10, -10, -10, -10, 20.833332, 20.833334, 20.90625, 20.875, 21.0625, 21.1875, 21.21875, 21.3125, 21.25, 21.526785, 22.0625, 22.0625, 22.25, 22, 21.8125, 21.5, 21.017857, 20.517857, 20.5, 20.544643, 20.6875, 20.625, 20.333334, 20.222223, 8.5, 8.270833, 8.25, 8.3125, 8.25, 8.3125, 8.3125, 8.25, 8.375, 8.375, 8.375, 8.3125, 8.1875, 8.125, 8.0625, 8.0625, 8.1875, 8.3125, 8.3125, 8.3125, 8.125, 8.125, 8.3125, 8.4375, 8.5625, 8.5, 8.4375, 8.4375, 8.5, 8.5625, 8.604167, 8.666667, 8.729167, -10, -10, 8.3125, 8.458333, 8.416667, 8.333333, 8.2777777, 20.625, 20.952381, 20.944445, 20.444445, -10, -10, -10, 13.428572, 13.833333, 13.875, 13.958333, 13.770833, -10, -10, -10, 15.833333, -10, -10, -10, -10, -10, -10, -10, -10, -10, 21.305555, 22.104761, 22.589285, 22.889881, 22.919643, 22.767857, 22.854166, 23.145834, 23.303572, 23.3125, 23.214287, 23.125, 23.0625, 23.125, 23.160713, 23.214287, 23.375, 23.5625, 24.020834, 24.214287, 24.1875, 24.080357, 24.142857, 24.395834, 24.75, 24.9375, 25.0625, 25.107143, 24.901787, 25.017857, 25.208334, 25.491072, 25.75, 25.8125, 25.9375, 25.9375, 25.9375, 26, 26, 26.0625, 26.3125, 26.5625, 26.8125, 27, 27, 9.125, 9.25, 9.1875, 9.3303566, 9.7410717, 10.232143, 11.239797, 11.607143, 12.1875, 12.517857, 12.75, 12.875, 13, 13.1875, 13.3125, 13.4375, 13.625, 13.75, 14.116072, 14.720238, 15.586309, 16.660713, 17.428572, 18.026787, 18.583334, 18.866072, 18.9375, 18.8125, 18.625, 18.375, 18.3125, 18.3125, 18.383928, 18.4625, 18.1875, 18, 17.9375, 18, 18, 18.1875, 18.375, 18.625, 18.875, 19, 19.0625, 19.25, 19.4375, 19.6875, 19.9375, 19.973213, 19.861607, 19.727678, 19.71875, 19.65625, 19.75, 19.9375, 20.125, 20.28125, 20.25, 20.151787, 20, 19.96875, 20, 20, 19.9375, 19.875, 19.8125, 19.75, 19.6875, 19.75, 19.785713, 19.88393, 19.982143, 19.875, 20, 20, 20.1875, 20.3125, 20.410713, 20.375, 20.377977, 20.083332, 20.345238, 20.574406, 20.511906, 20, 20.035713, 20.661903, 21.038095, 21.591837, 21.357143, 21.059523, 21.142857, 21.523809, 21.752977, 22.125, 22.0625, 22.166666, -10, -10, -10, -10, -10, -10, -10, -10, -10, -10, -10, -10, -10, 8.25, 8.166667, 8.125, 8.0625, 8, 8, 8, 8.0625, 8.0625, 8.0625, 8.0625, 8.0625, 8.0625, 8.0625, 8.0625, 8, 8.0625, 8.125, 8.125, 8.125, 8.0625, 8, 8.0625, 8.1875, 8.25, 8.25, 8.1875, 8.0625, 8, 8, 8, 8, 8, 8, 8.0625, 8.125, 8.1875, 8.1875, 8.125, 8.0625, 8.0625, 8.0625, 8.0625, 8.0625, 8.0625, 8.0625, 8.0625, 8.0625, 8.125, 8.1875, 8.1875, 8.1875, 8.0625, 8, 8, 8, 8, 8.0625, 8.125, 8.1875, 8.25, 8.25, 8.1875, 8.125, 8.0625, 8, 7.9375, 7.9375, 7.9375, 7.9375, 8, 8, 8, 8.0625, 8.1875, 8.1875, 8.25, 8.375, 8.3125, 8.4375, 8.5, 8.4375, 8.625, 8.75, 8.8125, 8.9375, 9.0625, 9.1875, 9.3125, 9.3125, 9.1875, 9, 8.9375, 8.9375, 9, 8.8482141, 8.6428566, 8.5803566, 8.375, 8.375, 8.25, 8.0625, 8, 8, 8, 8, 8, 8, 8, 8.0625, 8.125, 8.25, 8.25, 8.25, 8.25, 8.125, 8.125, 8.0625, 8.0625, 8.125, 8.125, 8.166667, 8.083333, -10, -10, -10, -10, -10, -10, -10, 20.625, 20.597221, 20.59375, 20.5625, 20.59375, 20.857143, 21.0625, 21.09375, 21.125, 21.0625, 21.285715, 22, 22, 22.25, 22, 21.875, 21.5625, 21.017857, 20.410713, 20.3125, 20.294643, 20.4375, 20.375, 20.25, 20.166668, 20, 8.1111107, 8.083333, 8.125, 8.0625, 8.0625, 8.0625, 8, 8.125, 8.125, 8.125, 8.125, 8, 8, 8, 8, 8.1875, 8.3125, 8.3125, 8.3125, 8.125, 8.0625, 8.1875, 8.25, 8.375, 8.375, 8.375, 8.5, 8.5625, 8.625, 8.6875, -10, 8.791667, -10, -10, 8.083333, 8.1944437, 20, 20, 20.25, 20.625, 20.952381, 20.583334, 19.213333, 17.880953, 16.642857, 15.476191, 14.375, 14.374999, 14.40625, 14.642858, 14.520833, 15.875, 16.125, 16.5, 16.125, 17, 17.125, 17.714287, 20.083332, 21, 21.6875, 21.8125, 21.6875, 21.6875, 21.586309, 22.495237, 22.892857, 23.116072, 23.0625, 23.0625, 23.125, 23.25, 23.375, 23.3125, 23.214287, 23.1875, 23.1875, 23.25, 23.3125, 23.4375, 23.5625, 23.75, 23.9375, 24.169643, 24.25, 24.375, 24.5, 24.5625, 24.75, 24.875, 24.9375, 25, 24.9375, 25.017857, 25.270834, 25.491072, 25.75, 25.8125, 25.9375, 25.9375, 25.9375, 26, 26, 26.0625, 26.3125, 26.5625, 26.8125, 27, 27, 8.875, 9.0625, 9, 9.2232141, 9.8571434, 10.5, 11.473215, 11.9375, 12.1875, 12.4375, 12.625, 12.8125, 13, 13.125, 13.1875, 13.3125, 13.5, 13.6875, 14.258928, 15.407738, 16.557823, 17.294643, 17.883928, 18.276787, 18.5, 18.6875, 18.75, 18.75, 18.6875, 18.5625, 18.4375, 18.25, 18.258928, 18.444643, 18.232143, 18.125, 18, 18, 18, 18.1875, 18.375, 18.625, 18.875, 19, 19.0625, 19.1875, 19.3125, 19.5625, 19.8125, 19.910713, 19.830357, 19.758928, 19.75, 19.75, 19.875, 20, 20.125, 20.21875, 20.25, 20.1875, 20.0625, 20.03125, 20, 20, 19.9375, 19.875, 19.75, 19.6875, 19.625, 19.8125, 20.035713, 20.13393
8, 8, 8, 8, 8, 8, 8, 8, 8, 8, 8, 8, 8, 8, 8, 8, 8, 8, 8, 8, 8.0625, 8.0625, 8.0625, 8.0625, 8, 8, 8, 8, 8, 8, 8, 8, 8, 8, 8, 8, 8, 8.0625, 8.0625, 8.0625, 8.0625, 8, 8, 8, 8, 8.0625, 8.0625, 8.0625, 8.0625, 8, 8, 8, 8, 8, 8, 8, 8, 8, 8, 8, 8, 8, 8, 7.9375, 7.9375, 7.9375, 7.9375, 8, 8, 8, 8, 8.0625, 8.0625, 8.125, 8.3125, 8.375, 8.5625, 8.6875, 8.6875, 8.8125, 8.875, 8.9375, 9, 9.0625, 9.125, 9.2053566, 9.3125, 9.1875, 9.125, 9, 9, 9.0625, 8.9107141, 8.7053566, 8.6428566, 8.5, 8.5, 8.375, 8.1875, 8.0625, 8, 8, 8, 8, 8, 8, 8, 8, 8.0625, 8.0625, 8.0625, 8.0625, 8.0625, 8.125, 8.125, 8.125, 8.083333, 8, -10, -10, -10, -10, -10, -10, 20, 19.875, 20, 20.333334, 20.416666, 20.4375, 20.40625, 20.5625, 20.857143, 21.0625, 21.21875, 21.1875, 21.125, 21.339287, 21.875, 21.9375, 22.1875, 22, 21.9375, 21.6875, 21.196428, 20.327379, 20.1875, 20.044643, 20.1875, 20.1875, 20.125, 20.083334, 19.916666, 19.625, 19.458332, 8, 8, 8, 8, 8, 8.0625, 8.0625, 8.0625, 8.0625, 8, 8, 8, 8, 8.125, 8.1875, 8.1875, 8.1875, 8.0625, 8, 8.0625, 8.0625, 8.166667, 8.354167, 8.4375, 8.625, 8.6875, 8.75, 8.895833, -10, 8.8888893, -10, -10, 19.875, 19.75, 19.857141, 20, -10, -10, -10, 19.880953, 19.057142, 18.003969, 16.857141, 15.84127, 15.285714, 15.357142, 15.553572, 15.818878, 15.928572, 16.5, 16.583334, 16.833334, 16.75, 17.333334, 17.666666, 18.380953, 20.198412, 21, 21.791666, 21.875, 21.875, 21.791666, 21.919643, 22.595238, 23.026785, 23.178572, 23.125, 23.125, 23.0625, 23.1875, 23.3125, 23.25, 23.214287, 23.25, 23.25, 23.3125, 23.375, 23.5, 23.6875, 23.875, 24, 24.125, 24.25, 24.3125, 24.5, 24.5625, 24.6875, 24.875, 24.9375, 25.0625, 25.125, 25.125, 25.0375, 25.3125, 25.428572, 25.625, 25.75, 25.8125, 25.875, 25.875, 25.875, 25.9375, 26.178572, 26.645834, 26.875, 27.083334, 8.666667, 9.041667, 9.1875, 9.0625, 9.1607141, 9.7410717, 10.488095, 11.366072, 11.767857, 12, 12.25, 12.5, 12.75, 13, 13.125, 13.1875, 13.3125, 13.607143, 13.928572, 14.704082, 16.506804, 17.184525, 17.732143, 18.053572, 18.169643, 18.3125, 18.4375, 18.5, 18.5625, 18.5625, 18.5, 18.4375, 18.25, 18.321428, 18.569643, 18.419643, 18.5, 18.3125, 18.104166, 18.0625, 18.125, 18.375, 18.625, 18.875, 19, 19.0625, 19.125, 19.25, 19.5, 19.6875, 19.875, 19.875, 19.875, 19.875, 19.875, 20.0625, 20.066963, 19.986607, 19.915178, 19.90625, 19.9375, 19.9375, 20, 20, 20, 19.9375, 19.9375, 19.75, 19.5625, 19.520834, 19.875, 20.214287, 20.482143, 20.419643, 20.1875, 20, 19.9375, 20.25, 20.410713, 20.5, 20.4375, 20.21875, 20.09375, 20.125, 20.25, 20.229166, 19.866072, 19.723213, 20.032738, 20.317858, 20.275511, 20.616072, 20.541666, 21, 21.357143, 21.732143, 21.9375, 21.9375, 21.916666, -10, -10, -10, -10, -10, -10, -10, -10, -10, -10, -10, -10, -10, 7.875, 7.8333335, 7.875, 7.875, 7.9375, 8, 8, 8, 7.9375, 7.9375, 7.9375, 7.9375, 8, 8, 8, 8, 8, 8, 8, 8, 8, 8, 8, 8, 8, 8, 8, 8, 8, 8, 8, 8, 8, 8, 8, 8, 8, 8, 8, 8, 8.0625, 8.0625, 8.0625, 8.0625, 8, 8, 8, 8, 8, 8, 8, 8, 8, 8, 8, 8, 8, 8, 8, 8, 8, 8, 8, 8, 8, 8, 7.9375, 7.9375, 7.9375, 7.9375, 8, 8, 8, 8, 8, 8, 8.0625, 8.1875, 8.375, 8.625, 8.8125, 8.9375, 9, 9, 9, 9, 9, 9, 9.0803566, 9.1875, 9.125, 9.125, 9, 8.9375, 8.875, 8.75, 8.6875, 8.6875, 8.6875, 8.6875, 8.5625, 8.375, 8.1875, 8.0625, 8, 8, 8, 8, 8, 8, 8, 8, 8, 8, 8, 8.0625, 8.125, 8.125, 8.125, 8.1111107, -10, -10, -10, -10, -10, -10, 20, 20, 19.916666, 20, 20.25, 20.229166, 20.3125, 20.25, 20.375, 20.607143, 20.84375, 21.15625, 21.28125, 21.34375, 21.517857, 21.875, 21.9375, 22.053572, 21.666666, 21.666666, 21.512501, 21.017857, 20.398809, 20.125, 19.9375, 20, 20, 20, 20, 19.9375, 19.75, 19.555555, 19.25, 8, 7.75, 7.8333335, 7.875, 7.9375, 8, 8, 8, 8, 8, 8, 8, 8.0625, 8.0625, 8.0625, 8.0625, 8, 8, 8, 8, -10, 8.541667, 8.6875, 8.875, 8.916667, 9, 9.1111107, -10, 19.5, 19.5, 19.5, 19.583334, 19.583334, 19.799107, 19.958334, -10, -10, -10, 19.458334, 18.633333, 18.190477, 17.214287, 16.089285, 15.794643, 15.833333, 16.0625, 16.515306, 16.75, 16.928572, 16.875, 17.125, 17.3125, 17.6875, 18.107143, 18.959183, 20.327381, 21.291666, 22.022322, 22.125, 22.0625, 21.9375, 22.075893, 22.595238, 22.848215, 22.955357, 22.9375, 22.9375, 23, 23.125, 23.25, 23.25, 23.214287, 23.25, 23.3125, 23.4375, 23.4375, 23.5625, 23.6875, 23.8125, 24, 24.125, 24.25, 24.3125, 24.5625, 24.6875, 24.8125, 25, 25, 25, 25, 24.875, 24.725, 25, 25.178572, 25.5, 25.6875, 25.8125, 25.875, 25.875, 25.9375, 26.0625, 26.303572, 26.770834, 26.9375, 27.083334, 9.6000004, 9.291667, 9.291667, 9.125, 9.0803566, 9.3125, 9.979167, 10.866072, 11.446428, 11.857143, 12.125, 12.4375, 12.71875, 13, 13.1875, 13.375, 13.895833, 14.366072, 15.5, 16.166666, 17.09524, 17.568451, 17.866072, 17.9375, 17.875, 17.9375, 18, 18, 18.026787, 18.232143, 18.303572, 18.3125, 18.125, 18.196428, 18.507143, 18.401787, 18.354166, 18.205357, 17.979166, 18, 18.125, 18.3125, 18.5625, 18.8125, 18.9375, 19, 19, 19.125, 19.375, 19.625, 19.875, 19.8125, 19.75, 19.6875, 19.6875, 19.875, 19.848213, 19.785713, 19.904762, 19.895834, 19.791666, 19.758928, 19.75, 19.75, 19.75, 19.6875, 19.6875, 19.5625, 19.4375, 19.520834, 19.9375, 20.276787, 20.607143
7.875, 7.9375, 8, 8, 8, 7.9375, 7.9375, 7.9375, 7.9375, 8, 8, 8, 8, 8, 8, 7.9375, 7.875, 7.875, 7.875, 7.9375, 8, 8, 7.9375, 7.9375, 7.9375, 7.9375, 8, 8, 8, 8, 8, 8, 8, 8, 8, 8, 8, 8, 8, 8, 8, 8, 8, 8, 8, 8, 8, 8, 8, 8, 8, 8, 8, 8, 8, 8, 8, 8, 8, 8, 8, 8, 8, 7.9375, 7.9375, 7.9375, 7.9375, 8, 8, 8, 8, 8, 8, 8, 8.0625, 8.3125, 8.5625, 8.8125, 9, 9, 9, 9, 8.9375, 8.8125, 8.6875, 8.7053566, 8.8125, 8.8839283, 9.0749998, 8.8928566, 8.875, 8.75, 8.75, 8.75, 8.875, 8.9375, 8.9375, 8.8125, 8.625, 8.4375, 8.25, 8.125, 8.0625, 8, 8, 8, 8, 8, 8, 8, 8, 8, 8.0625, 8.125, 8.166667, 8.166667, -10, -10, -10, -10, -10, -10, 19.875, 19.916666, 20, 19.9375, 20, 20.0625, 20.1875, 20.3125, 20.3125, 20.4375, 20.607143, 20.78125, 21.15625, 21.34375, 21.46875, 21.696428, 21.875, 21.9375, 21.919643, 21.25, 21.095238, 20.950001, 20.580357, 20.193451, 20.0625, 19.9375, 20, 19.9375, 19.875, 19.8125, 19.6875, 19.5625, 19.416666, 19.166666, 19.166668, 7.6666665, 7.9583335, 7.958333, 8, 8, 8, 8, 8, 7.9375, 7.9375, 7.9375, 7.9375, 8, 8, 8, 8, 8, -10, -10, -10, 8.7222223, 8.916667, 9.166667, 19.375, 19.041668, 19, 18.875, 19.25, 19.333334, 19.416666, 19.5625, 19.625, 19.799107, 19.886906, -10, -10, -10, 19.15625, 19.008333, 18.708334, 17.955357, 17.065475, 16.669643, 16.375, 16.5625, 16.763393, 17.09375, 17.34375, 17.53125, 17.75, 18, 18.4375, 19.209185, 19.897961, 20.702381, 21.541666, 22.241072, 22.40625, 22.40625, 22.21875, 22.263393, 22.541666, 22.678572, 22.767857, 22.776787, 22.8125, 22.696428, 22.696428, 22.75, 22.875, 22.9375, 23.125, 23.3125, 23.5, 23.5625, 23.6875, 23.75, 23.8125, 24, 24.125, 24.25, 24.3125, 24.5625, 24.6875, 24.8125, 25, 25, 24.9375, 24.875, 24.6875, 24.475, 24.75, 24.991072, 25.419643, 25.625, 25.8125, 25.875, 25.875, 26, 26.125, 26.366072, 26.833334, 26.9375, 27.083334, 9.6000004, 9.4761906, 9.291667, 9.125, 9.0178566, 9.3125, 9.9345236, 10.553572, 11.232143, 11.714286, 12, 12.383928, 12.864583, 13.178572, 13.544643, 14.041667, 14.845238, 15.418367, 16.035715, 16.540815, 17.25, 17.526787, 17.6875, 17.6875, 17.625, 17.625, 17.625, 17.5625, 17.598215, 17.982143, 18.116072, 18.1875, 18, 18.0625, 18.294643, 18.401787, 18.354166, 18.205357, 17.916666, 17.9375, 18, 18.1875, 18.375, 18.625, 18.8125, 18.9375, 19, 19.1875, 19.375, 19.5625, 19.8125, 19.625, 19.5625, 19.5, 19.5, 19.8125, 19.848213, 19.75, 19.967262, 19.895834, 19.684525, 19.580357, 19.5, 19.5, 19.5, 19.5, 19.5625, 19.5625, 19.5625, 19.708334, 20.125, 20.276787, 20.375, 20.25, 20.1875, 20.0625, 20, 20.25, 20.285713, 20.3125, 20.25, 19.84375, 19.59375, 19.696428, 20.020834, 19.955357, 19.6875, 19.642857, 19.5625, 19.75, 20.125, 20.419643, 20.75, 21.169643, 21.3125, 21.4375, 21.625, 21.625, 21.666666, -10, -10, -10, -10, -10, -10, -10, -10, -10, -10, -10, -10, -10, 7.875, 7.75, 7.8125, 7.8125, 7.875, 8, 8, 8, 7.9375, 7.875, 7.875, 7.875, 7.9375, 8, 8, 8, 8, 8, 7.875, 7.75, 7.75, 7.75, 7.875, 8, 8, 7.9375, 7.9375, 7.9375, 7.9375, 7.9375, 7.875, 7.875, 7.875, 7.9375, 8, 8, 8, 8, 8, 8, 8, 8, 8, 8, 8, 7.9375, 7.9375, 7.9375, 7.9375, 8, 7.9375, 7.875, 7.8125, 7.8125, 7.875, 7.9375, 8, 8, 8, 8, 8, 8, 7.9375, 7.875, 7.875, 7.875, 7.9375, 8, 8, 8, 8, 8, 8, 8, 7.9375, 7.9375, 7.9375, 7.9375, 8.25, 8.5, 8.75, 9, 9, 9, 8.9375, 8.8125, 8.625, 8.375, 8.3928566, 8.5625, 8.6964283, 8.9499998, 8.7678566, 8.6875, 8.5, 8.625, 8.6875, 8.875, 9.0625, 9.0625, 9, 8.875, 8.625, 8.375, 8.1875, 8.0625, 8, 8, 8, 8, 8, 8, 7.9375, 7.9375, 7.9375, 8, 8.125, -10, -10, -10, -10, -10, -10, 19.25, 19.166666, 19.535715, 19.794643, 19.928572, 19.9375, 19.9375, 20, 20.15625, 20.34375, 20.46875, 20.59375, 20.6875, 20.90625, 21.28125, 21.53125, 21.71875, 21.875, 21.875, 21.9375, 21.785713, 20.916666, 20.476191, 20.335714, 20.267857, 20.050594, 20, 19.9375, 20, 19.875, 19.75, 19.625, 19.4375, 19.3125, 19.1875, 19.0625, 19.027779, 19, 7.9444447, 7.958333, 8, 8, 8, 8, 8, 7.875, 7.875, 7.8541665, 7.9166665, 8, 8, -10, -10, -10, -10, -10, -10, 19.666668, 19.458332, 19.25, 19.25, 19.027779, 19, 18.916666, 19.1875, 19.25, 19.375, 19.4375, 19.5625, 19.736607, 19.761906, 19.041668, 18.9375, 18.9375, 19.15625, 19.145832, 19.0625, 18.580357, 17.911564, 17.294643, 16.9375, 17.0625, 17.370537, 17.893749, 17.959822, 18.15625, 18.3125, 18.6875, 19.303572, 20.008928, 20.616072, 21.160715, 21.791666, 22.303572, 22.40625, 22.40625, 22.21875, 22.15625, 22.1875, 22.375, 22.5, 22.714287, 22.8125, 22.665178, 22.696428, 22.6875, 22.791666, 22.916666, 23.0625, 23.1875, 23.3125, 23.375, 23.571428, 23.8125, 23.875, 24.0625, 24.0625, 24.125, 24.125, 24.3125, 24.5, 24.6875, 24.9375, 25, 24.875, 24.8125, 24.625, 24.4125, 24.75, 24.991072, 25.419643, 25.625, 25.8125, 25.875, 25.90625, 26.09375, 26.28125, 26.522322, 26.958334, 27, 27.083334, 27, 9.541667, 9.479167, 9.3125, 9.125, 9.1339283, 9.604167, 10.133928, 10.973214, 11.571428, 11.9375, 12.383928, 12.927083, 13.366072, 14.008928, 15.017007, 15.75, 16.204082, 16.5625, 16.839287, 17.25, 17.348213, 17.375, 17.375, 17.375, 17.375, 17.375, 17.3125, 17.285715, 17.607143, 17.678572, 17.75, 17.625, 17.75, 17.875, 18.044643, 18.104166, 18.080357, 17.916666, 17.9375, 17.9375, 18.0625, 18.1875, 18.4375, 18.6875, 18.875, 19, 19.1875, 19.3125, 19.5, 19.75, 19.625, 19.625, 19.5, 19.4375, 19.625, 19.598213, 19.5, 19.779762, 19.708334, 19.497025, 19.392857, 19.25, 19.25, 19.25, 19.25, 19.375, 19.5, 19.5625, 19.770834, 20.0625, 20.026787, 20.0625
7.75, 7.8125, 7.875, 7.875, 7.875, 7.875, 7.875, 7.875, 7.875, 7.9375, 8, 8, 7.9375, 7.875, 7.875, 7.6875, 7.5625, 7.625, 7.5625, 7.75, 7.9375, 7.9375, 7.9375, 7.9375, 7.9375, 7.875, 7.8125, 7.6875, 7.6875, 7.75, 7.875, 8, 8, 8, 8, 8, 8, 8, 8, 8, 8, 8, 7.9375, 7.875, 7.8125, 7.75, 7.75, 7.75, 7.6875, 7.625, 7.6875, 7.75, 7.875, 8, 8, 8, 7.9375, 7.875, 7.875, 7.8125, 7.75, 7.8125, 7.8125, 7.875, 8, 8, 8, 8, 8, 8, 7.9375, 7.875, 7.875, 7.875, 7.875, 8.125, 8.375, 8.6696434, 8.9375, 9, 9, 8.9375, 8.8125, 8.6875, 8.5, 8.5, 8.5, 8.6339283, 8.7624998, 8.5803566, 8.5, 8.3125, 8.5, 8.5625, 8.75, 8.9553566, 9.0124998, 8.9553566, 8.9375, 8.625, 8.4375, 8.1875, 8.0625, 8, 8, 8, 8, 7.9375, 7.875, 7.8125, 7.8125, 7.875, 7.9375, 8, -10, -10, -10, -10, -10, -10, 18.833334, 18.861111, 19.276787, 19.544643, 19.803572, 19.875, 19.875, 19.9375, 20.125, 20.25, 20.339287, 20.5, 20.607143, 20.96875, 21.46875, 21.71875, 21.90625, 21.964287, 22.035713, 22, 21.785713, 20.791666, 20.416666, 20.200001, 20.008928, 19.946428, 19.9375, 19.875, 19.8125, 19.6875, 19.5, 19.375, 19.25, 19.1875, 19.125, 19.0625, 19.020834, 18.916666, 18.625, 7.9444442, 8, 8, 8, 7.9375, 7.9375, 7.8125, 7.7916665, 7.8055553, -10, -10, -10, -10, -10, -10, -10, -10, 19.25, 19.444445, 19.305555, 19.166666, 19.1875, 19.020834, 19, 18.9375, 18.875, 18.9375, 19.125, 19.357143, 19.625, 19.78125, 19.636906, 19.111113, 18.958334, 19.041666, 19.28125, 19.416666, 19.5, 19.258928, 18.782314, 18.346939, 17.892857, 17.625, 17.870537, 18.622917, 18.454082, 18.821428, 18.948978, 19.526787, 20.053572, 20.734694, 21.0625, 21.491072, 22.041666, 22.303572, 22.40625, 22.34375, 22.21875, 22.15625, 22.25, 22.4375, 22.5625, 22.776787, 22.8125, 22.665178, 22.696428, 22.6875, 22.791666, -10, 23, 23.166666, 23.25, 23.4125, 23.842262, 24.044643, 24.0625, 24.125, 24, 24, 24, 24.125, 24.375, 24.5625, 24.8125, 24.9375, 24.8125, 24.75, 24.625, 24.5625, 24.8125, 25.1875, 25.544643, 25.75, 25.875, 25.875, 26.03125, 26.34375, 26.65625, 26.9375, 27.09375, 27.09375, 27.03125, 27, 9.375, 9.354167, 9.25, 9.125, 9.125, 9.3125, 9.8125, 10.723214, 11.571428, 12.261905, 12.908163, 13.579932, 13.989797, 14.839285, 15.802721, 16.1875, 16.5625, 16.8125, 16.875, 17.0625, 17.0625, 17.0625, 17.0625, 17.125, 17.125, 17.125, 17.0625, 17.035715, 17.357143, 17.428572, 17.5, 17.4375, 17.5, 17.5625, 17.669643, 17.604166, 17.705357, 17.8125, 17.9375, 18, 18, 18.0625, 18.25, 18.5, 18.75, 18.9375, 19.125, 19.1875, 19.375, 19.535713, 19.330357, 19.330357, 19.1875, 19.1875, 19.25, 19.25, 19.294643, 19.583334, 19.583334, 19.309525, 19.142857, 18.928572, 18.75, 18.75, 18.75, 19.208334, 19.491072, 19.6875, 19.875, 19.875, 19.6875, 19.625, 19.5, 19.5625, 19.75, 19.875, 20.125, 20.125, 20.125, 20.125, 19.848213, 19.642857, 19.714285, 19.958334, 19.913691, 19.758928, 19.6875, 19.625, 19.8125, 20.125, 20.339287, 20.375, 20.5625, 20.5625, 20.625, 20.875, 21.0625, 21.166668, -10, -10, -10, -10, -10, -10, -10, -10, -10, -10, -10, -10, -10, 7.625, 7.5833335, 7.625, 7.625, 7.6875, 7.75, 7.8125, 7.875, 7.875, 7.875, 7.875, 7.875, 7.875, 7.875, 7.8125, 7.6875, 7.625, 7.625, 7.4375, 7.3125, 7.375, 7.3125, 7.5, 7.75, 7.75, 7.8125, 7.875, 7.875, 7.875, 7.75, 7.5625, 7.5, 7.5625, 7.75, 7.9375, 7.9375, 7.875, 7.875, 7.8125, 7.8125, 7.8125, 7.75, 7.75, 7.8125, 7.8125, 7.8125, 7.8125, 7.6875, 7.625, 7.5625, 7.5, 7.5, 7.5, 7.5625, 7.6875, 7.8125, 7.9375, 8, 8, 7.9375, 7.875, 7.875, 7.8125, 7.75, 7.8125, 7.8125, 7.875, 8, 8, 7.9375, 7.875, 7.8125, 7.75, 7.6875, 7.6875, 7.75, 7.8125, 7.875, 8.0625, 8.3125, 8.6071434, 8.875, 8.9375, 8.875, 8.8125, 8.6875, 8.625, 8.5625, 8.5625, 8.5625, 8.6964283, 8.7624998, 8.5803566, 8.5, 8.375, 8.5625, 8.5625, 8.75, 8.8303566, 8.8249998, 8.7678566, 8.75, 8.5625, 8.4375, 8.25, 8.125, 8, 7.9375, 7.9375, 7.9375, 7.875, 7.8125, 7.6875, 7.6875, 7.75, 7.875, 8, -10, -10, -10, -10, -10, 18.25, 18.791666, 18.833332, 19.026787, 19.294643, 19.616072, 19.6875, 19.6875, 19.8125, 19.9375, 20.0625, 20.214287, 20.4375, 20.607143, 21.0625, 21.770834, 21.895834, 21.854166, 21.880951, 22.035713, 22, 21.919643, 21.0625, 20.5625, 20.071428, 19.830357, 19.6875, 19.75, 19.6875, 19.625, 19.5, 19.25, 19.125, 19, 18.875, 18.8125, 18.75, 18.6875, 18.6875, 18.5, 18.025, 8.083333, 8, 7.875, 7.7708335, 7.75, 7.6875, 7.625, -10, -10, -10, -10, -10, -10, -10, 18.5, 18.5, 18.916666, 19.208334, 19.166666, 19.125, 19, 18.875, 18.875, 18.875, 18.875, 18.9375, 19.0625, 19.321428, 19.598213, 19.6875, 19.616072, 19.208334, 19.15625, 19.21875, 19.46875, 19.75, 19.8125, 19.75, 19.392857, 19.0625, 18.928572, 18.714285, 18.977041, 19.694048, 20.056547, 20.520834, 20.589285, 20.401787, 20.803572, 21.214287, 21.598213, 21.875, 22.0625, 22.125, 22.1875, 22.1875, 22.0625, 22.089287, 22.357143, 22.616072, 22.75, 22.901787, 22.9375, 22.727678, 22.758928, 22.75, 22.722221, -10, -10, -10, 23.25, 23.370834, 23.797619, 24.142857, 24.125, 24.1875, 24, 24, 24, 24.0625, 24.3125, 24.4375, 24.6875, 24.875, 24.75, 24.8125, 24.75, 24.6875, 24.9375, 25.1875, 25.419643, 25.5625, 25.625, 25.6875, 25.96875, 26.388393, 26.71875, 27.015625, 27.109375, 27.109375, 27.046875, 26.9375, 9.166667, 9.291667, 9.375, 9.3125, 9.3392859, 9.5, 10.017857, 11.193878, 12.163264, 14.402778, 15.142858, 15.686508, 15.744048, 15.755103, 16.202381, 16.479166, 16.741072, 16.875, 16.875, 17, 17, 17, 17, 17.0625, 17.0625, 17.0625, 17.0625, 17.071428, 17.25, 17.3125, 17.375, 17.375, 17.375, 17.3125, 17.375, 17.5, 17.6875, 17.875, 18.0625, 18.0625, 18.0625, 18.0625, 18.125, 18.3125, 18.5625, 18.8125, 19, 19.0625, 19.125, 19.160713, 18.955357, 18.955357, 18.875, 18.9375, 19, 19.0625, 19.089287, 19.15625, 19.15625, 18.955357, 18.758928, 18.584822, 18.40625, 18.4375, 18.5, 18.958334, 19.241072, 19.4375, 19.6875, 19.6875, 19.5, 19.375
7.375, 7.4375, 7.5, 7.5625, 7.625, 7.625, 7.6875, 7.75, 7.75, 7.75, 7.6875, 7.5625, 7.4375, 7.375, 7.4375, 7.3125, 7.25, 7.3125, 7.1875, 7.3125, 7.5, 7.5, 7.625, 7.75, 7.8125, 7.875, 7.75, 7.5, 7.375, 7.4375, 7.625, 7.8125, 7.8125, 7.6875, 7.625, 7.5625, 7.5625, 7.5625, 7.5, 7.5, 7.5625, 7.5625, 7.5625, 7.625, 7.5625, 7.5, 7.4375, 7.3125, 7.3125, 7.3125, 7.375, 7.5, 7.5625, 7.6875, 7.75, 7.75, 7.75, 7.75, 7.8125, 7.8125, 7.6875, 7.6875, 7.625, 7.625, 7.8125, 7.8125, 7.75, 7.6875, 7.5625, 7.5, 7.4375, 7.4375, 7.5, 7.5625, 7.625, 7.8125, 8.0625, 8.3571434, 8.625, 8.6875, 8.625, 8.625, 8.5625, 8.5625, 8.625, 8.6875, 8.6875, 8.8125, 8.75, 8.625, 8.5625, 8.4375, 8.5625, 8.5625, 8.6875, 8.7589283, 8.5749998, 8.5178566, 8.4375, 8.3125, 8.25, 8.125, 8.0625, 8, 7.9375, 7.875, 7.8125, 7.6875, 7.5625, 7.4375, 7.4375, 7.5625, 7.7083335, 8, -10, -10, -10, -10, -10, 18.5, 18.666666, 18.666666, 18.839287, 19.107143, 19.428572, 19.5625, 19.625, 19.75, 19.8125, 19.9375, 20.026787, 20.3125, 20.544643, 21, 21.708334, 21.770834, 21.666666, 21.693451, 21.910713, 21.9375, 21.991072, 21.416666, 20.946428, 20.339287, 19.955357, 19.625, 19.5, 19.237499, 19.232143, 19.0625, 18.9375, 18.8125, 18.75, 18.625, 18.5625, 18.5, 18.4375, 18.4375, 18.375, 18.016666, 18.125, 18.166668, 7.8333335, 7.6944447, 7.5, 7.5833335, 7.5208335, -10, -10, -10, -10, -10, -10, -10, 18.5, 18.444445, 18.75, 18.770834, 18.875, 18.9375, 18.9375, 18.9375, 18.9375, 18.9375, 18.9375, 18.9375, 19, 19.196428, 19.348213, 19.3125, 19.330357, 19.333334, 19.366072, 19.5625, 19.6875, 19.875, 19.9375, 20.008928, 20.083334, 19.895834, 19.797619, 19.510204, 19.558037, 20.247917, 20.760206, 21.178572, 21.2551, 21.280613, 21.366072, 21.607143, 21.848213, 22, 22.0625, 22.0625, 22.0625, 22, 21.901787, 21.901787, 22.169643, 22.428572, 22.5625, 22.6875, 22.6875, 22.875, 22.916666, 22.916666, -10, -10, -10, -10, 23.3125, 23.483334, 24.110119, 24.434525, 24.208334, 24.1875, 23.9375, 24, 24, 24.0625, 24.3125, 24.375, 24.625, 24.75, 24.6875, 24.875, 24.875, 24.9375, 25.125, 25.1875, 25.21875, 25.25, 25.25, 25.4375, 25.8125, 26.325893, 26.65625, 26.953125, 27.046875, 27.026041, 27.0625, 26.916666, 26.666666, 9.25, 9.5, 9.5, 9.7351189, 10.214286, 10.806122, 13.142858, 14.547619, 15.45238, 16.010204, 16.255102, 16.178572, 15.982143, 16.348213, 16.541666, 16.678572, 16.8125, 16.6875, 16.75, 16.8125, 16.875, 16.9375, 17, 17, 17, 17, 17, 17, 17, 17.089287, 17.223213, 17.1875, 17.1875, 17.125, 17.3125, 17.5625, 17.75, 18, 18, 18, 18.0625, 18.0625, 18.1875, 18.375, 18.625, 18.75, 18.8125, 18.875, 18.785713, 18.642857, 18.448978, 18.5625, 18.6875, 18.6875, 18.75, 18.875, 18.8125, 18.8125, 18.65625, 18.46875, 18.397322, 18.21875, 18.25, 18.392857, 18.979168, 19.223215, 19.4375, 19.6875, 19.6875, 19.455357, 19.321428, 19.0625, 19.1875, 19.4375, 19.75, 19.9375, 20, 19.919643, 19.776787, 19.785713, 19.642857, 19.705357, 19.75, 19.875, 19.875, 19.90625, 19.90625, 20.03125, 20.15625, 20.169643, 20, 19.9375, 19.875, 19.875, 20, 20.25, 20.333334, -10, -10, -10, -10, -10, -10, -10, -10, -10, -10, -10, -10, -10, 7.125, 7.166667, 7.1875, 7.1875, 7.25, 7.25, 7.3125, 7.375, 7.4375, 7.625, 7.6875, 7.6875, 7.625, 7.4375, 7.3125, 7.1875, 7.125, 7.25, 7.1875, 7.1875, 7.25, 7.0625, 7.125, 7.25, 7.25, 7.375, 7.5, 7.625, 7.75, 7.6875, 7.5, 7.3125, 7.3125, 7.4375, 7.5625, 7.5625, 7.4375, 7.375, 7.3125, 7.3125, 7.3125, 7.25, 7.25, 7.3125, 7.3125, 7.375, 7.4375, 7.375, 7.3125, 7.1875, 7.125, 7.1875, 7.25, 7.3125, 7.375, 7.375, 7.4375, 7.5, 7.5, 7.5, 7.5, 7.5625, 7.625, 7.5625, 7.5625, 7.5, 7.4375, 7.5625, 7.5625, 7.5, 7.4375, 7.3125, 7.25, 7.1875, 7.25, 7.3125, 7.375, 7.4375, 7.5, 7.6875, 7.9196429, 8.1875, 8.3125, 8.3125, 8.4375, 8.4375, 8.5, 8.625, 8.625, 8.5625, 8.625, 8.625, 8.625, 8.6875, 8.6875, 8.75, 8.6875, 8.75, 8.625, 8.2624998, 8.1741066, 7.96875, 8.03125, 8.03125, 8, 8.0625, 8, 7.9375, 7.8125, 7.6875, 7.5, 7.3125, 7.25, 7.25, 7.4375, 7.604167, -10, -10, -10, -10, -10, -10, 18.625, 18.666666, 18.75, 18.875, 19, 19.3125, 19.4375, 19.5625, 19.75, 19.8125, 19.9375, 19.964287, 20.25, 20.482143, 20.875, 21.583334, 21.583334, 21.479166, 21.568451, 21.848213, 21.9375, 22.0625, 21.75, 21.303572, 20.422619, 19.883928, 19.4375, 19.178572, 18.654167, 18.625, 18.5, 18.5, 18.5625, 18.5625, 18.5, 18.4375, 18.3125, 18.25, 18.25, 18.25, 18.137501, 18.25, 18.194445, 17.75, 17.666666, 7.25, 7.479167, 7.4166665, -10, -10, -10, -10, -10, -10, -10, 18.375, 18.333334, 18.375, 18.4375, 18.625, 18.8125, 18.875, 18.9375, 18.9375, 18.9375, 18.9375, 18.9375, 18.9375, 19.071428, 19.223213, 19.1875, 19.267857, 19.333334, 19.428572, 19.625, 19.75, 19.9375, 20, 20.205357, 20.583334, 20.520834, 20.354166, 20.133928, 20.325893, 20.885416, 21.325893, 21.65625, 21.723213, 21.651787, 21.6875, 21.75, 21.910713, 22, 22.0625, 22.125, 22.1875, 22.107143, 21.901787, 21.901787, 22.044643, 22.366072, 22.5, 22.583334, 22.666666, -10, -10, -10, -10, -10, -10, -10, 23.5625, 23.833334, 24.538691, 24.622025, 24.351191, 24.1875, 23.9375, 24, 24, 24.0625, 24.3125, 24.3125, 24.5625, 24.6875, 24.625, 24.875, 24.875, 24.9375, 25, 24.9375, 24.84375, 24.78125, 24.84375, 25.15625, 25.6875, 26.339287, 26.625, 26.859375, 26.921875, 26.859375, -10, -10, -10, 10.214286, 10.52381, 10.535714, 10.87585, 12.8, 13.928571, 15.041667, 15.551021, 16.056547, 16.339285, 16.514881, 16.479166, 16.299107, 16.46875, 16.46875, 16.5625, 16.625, 16.5, 16.4375, 16.4375, 16.5, 16.5625, 16.6875, 16.8125, 16.875, 16.9375, 17, 17, 17.0625, 17.214287, 17.392857, 17.25, 17.25, 17.0625, 17.25, 17.5, 17.625, 17.875, 17.875, 17.875, 18, 18, 18.0625, 18.1875, 18.4375, 18.625, 18.669643, 18.479166, 18.30357, 18.080357, 18.080357, 18.125, 18.3125, 18.375, 18.5625, 18.660713, 18.464287, 18.5625, 18.450893, 18.28125, 18.272322, 18.111607, 18.333334, 18.571428, 19.166668, 19.348215, 19.5, 19.616072, 19.416666, 19.223213, 19.133928
7.0625, 7.125, 7.125, 7.1875, 7.25, 7.25, 7.375, 7.4375, 7.4375, 7.375, 7.1875, 7.0625, 7, 7, 7.125, 7.125, 7.125, 7.125, 7, 7, 7.0625, 7.0625, 7.125, 7.25, 7.375, 7.5625, 7.5625, 7.4375, 7.25, 7.1875, 7.25, 7.3125, 7.3125, 7.1875, 7.125, 7.0625, 7.0625, 7.0625, 7, 7, 7.0625, 7.0625, 7.125, 7.25, 7.25, 7.25, 7.1875, 7.0625, 7.125, 7.1875, 7.1875, 7.25, 7.1875, 7.1875, 7.3125, 7.3125, 7.375, 7.4375, 7.4375, 7.5, 7.4375, 7.375, 7.3125, 7.25, 7.3125, 7.3125, 7.25, 7.1875, 7.0625, 7, 7, 7.0625, 7.125, 7.1875, 7.25, 7.3125, 7.4375, 7.5625, 7.75, 7.8125, 7.8125, 8, 8.0625, 8.1875, 8.375, 8.375, 8.375, 8.4375, 8.5, 8.625, 8.75, 8.8125, 8.875, 8.75, 8.75, 8.5446434, 8.0625, 8.03125, 7.71875, 7.875, 7.875, 7.90625, 8.03125, 8, 7.9375, 7.75, 7.5625, 7.375, 7.1875, 7.125, 7.125, 7.3125, 7.4375005, -10, -10, -10, -10, -10, -10, 18.875, 18.916666, 18.9375, 19, 19, 19.25, 19.4375, 19.625, 19.875, 19.9375, 20, 20.0625, 20.3125, 20.5, 20.8125, 21.333334, 21.395834, 21.354166, 21.541666, 21.8125, 21.9375, 22.0625, 21.875, 21.482143, 20.380953, 19.821428, 19.357143, 18.883928, 18.279167, 18.112499, 18.020834, 17.892857, 18.0625, 18.0625, 18.125, 18.125, 18.0625, 18, 18.0625, 18.1875, 18.1875, 18.25, 18.208334, 17.916666, 17.777777, 7.0833335, 7.416667, 7.375, -10, -10, -10, -10, -10, 18, 18.166668, 18.1875, 18.145834, 18.1875, 18.1875, 18.4375, 18.6875, 18.8125, 18.866072, 18.6875, 18.6875, 18.75, 18.90625, 18.96875, 19.120537, 19.254463, 19.25, 19.321428, 19.270834, 19.428572, 19.5625, 19.75, 19.9375, 20, 20.267857, 20.770834, 20.833334, 20.863094, 20.883928, 20.96875, 21.28125, 21.575893, 21.78125, 21.9375, 21.9375, 21.9375, 22, 22.098213, 22.125, 22.125, 22.1875, 22.125, 21.982143, 21.714287, 21.651787, 21.794643, 22.178572, 22.348213, 22.416668, -10, -10, -10, -10, -10, -10, -10, -10, 24.229166, 24.533333, 24.883928, 24.723215, 24.297619, 24.125, 24, 24.125, 24.1875, 24.25, 24.375, 24.3125, 24.5, 24.625, 24.625, 24.875, 24.875, 24.9375, 24.9375, 24.75, 24.53125, 24.370537, 24.40625, 24.78125, 25.375, 26.07143, 26.3125, 26.578125, 26.703125, 26.682291, -10, -10, -10, 13.666667, 13.888889, 13.916667, 14.198413, 14.833333, 15.081633, 15.928572, 16.107143, 16.348213, 16.267857, 16.229168, 16.166666, 16.09375, 16.28125, 16.28125, 16.375, 16.4375, 16.375, 16.3125, 16.375, 16.375, 16.375, 16.5, 16.625, 16.75, 16.875, 17.0625, 17.0625, 17.1875, 17.401787, 17.455357, 17.3125, 17.25, 17.0625, 17.3125, 17.625, 17.75, 17.9375, 17.9375, 17.875, 18, 18, 18, 18.0625, 18.25, 18.375, 18.419643, 18.135416, 17.924107, 17.84375, 17.84375, 17.9375, 18.1875, 18.25, 18.5, 18.598213, 18.401787, 18.40625, 18.169643, 18, 18, 17.986607, 18.208334, 18.581633, 19.069445, 19.098215, 19.3125, 19.321428, 19.050594, 18.910713, 18.821428, 18.75, 18.9375, 19.0625, 19.3125, 19.375, 19.3125, 19.107143, 18.901787, 19.0625, 19.294643, 19.5625, 19.6875, 19.8125, 19.8125, 19.78125, 19.78125, 19.78125, 19.84375, 19.803572, 19.5625, 19.4375, 19.25, 19.3125, 19.3125, 19.4375, 19.5, -10, -10, -10, -10, -10, -10, -10, -10, -10, -10, -10, -10, -10, 7, 7.0833335, 7, 7, 7, 6.9375, 7, 7, 7.0625, 7.1875, 7.25, 7.25, 7.1875, 7.0625, 7, 7, 7, 7.125, 7.125, 7.125, 7.125, 7, 7, 7, 7, 7, 7.0625, 7.1875, 7.3125, 7.375, 7.3125, 7.1875, 7.125, 7.125, 7.125, 7.125, 7.0625, 7, 7, 7, 7, 7, 7, 7, 7, 7, 7.0625, 7.125, 7.125, 7.125, 7.0625, 7.0625, 7.0625, 7.0625, 7.0625, 7, 7, 7.0625, 7.0625, 7.125, 7.1875, 7.1875, 7.25, 7.1875, 7.125, 7.0625, 7, 7.0625, 7.0625, 7.0625, 7.0625, 7, 7, 7, 7, 7, 7, 7, 7.125, 7.1875, 7.25, 7.375, 7.375, 7.4375, 7.625, 7.75, 7.875, 8.0625, 8.125, 8.125, 8.1875, 8.25, 8.4375, 8.6875, 8.8125, 8.9375, 8.8125, 8.6875, 8.4821434, 8, 7.96875, 7.71875, 7.8125, 7.8125, 7.84375, 7.96875, 8, 8, 7.75, 7.5, 7.25, 7, 7, 7, 7.25, 7.3333335, -10, -10, -10, -10, -10, -10, 18.75, 18.75, 18.8125, 18.9375, 19.107143, 19.375, 19.625, 19.75, 19.9375, 20.0625, 20.098213, 20.125, 20.3125, 20.4375, 20.6875, 20.9375, 21.0625, 21.25, 21.5, 21.75, 21.9375, 22, 21.866072, 21.252977, 20.238096, 19.678572, 19.107143, 18.392857, 17.609524, 17.362499, 17.208334, 17.142857, 17.3125, 17.383928, 17.770834, 17.857143, 17.875, 17.875, 17.9375, 18, 18, 18, 17.9375, 17.8125, 17.770832, 17.833332, 7.3888893, 7.3888893, -10, -10, -10, -10, -10, 18.083334, 18.166666, 18.28125, 18.208334, 18.1875, 18.1875, 18.375, 18.625, 18.875, 18.928572, 18.6875, 18.625, 18.625, 18.734375, 18.921875, 19.140625, 19.265625, 19.34375, 19.290178, 19.270834, 19.366072, 19.5625, 19.848213, 20, 20.125, 20.330357, 20.895834, 21.020834, 20.988094, 21.008928, 21.080357, 21.520834, 21.785713, 21.9375, 22, 22, 22, 22, 22.125, 22.1875, 22.1875, 22.3125, 22.1875, 21.982143, 21.714287, 21.651787, 21.723213, 22.0625, 22.254463, 22.291668, -10, -10, -10, -10, -10, -10, -10, -10, 24.854166, 25.438097, 25.491072, 24.895834, 24.404762, 24.0625, 24, 24.1875, 24.25, 24.3125, 24.375, 24.25, 24.4375, 24.5625, 24.625, 24.875, 24.9375, 25.0625, 25.0625, 24.875, 24.59375, 24.370537, 24.40625, 24.71875, 25.25, 25.839287, 26.0625, 26.34375, 26.53125, 26.541666, -10, -10, -10, 14.928572, 15.04762, 15.071428, 15.2517, 15.628572, 15.803572, 16.044643, 16.1875, 16.160713, 16.017857, 16.041668, 16.041666, 15.96875, 16.15625, 16.09375, 16.125, 16.25, 16.25, 16.25, 16.3125, 16.25, 16.1875, 16.25, 16.375, 16.5625, 16.75, 16.9375, 17, 17.0625, 17.214287, 17.267857, 17.125, 17.1875, 17.0625, 17.3125, 17.625, 17.6875, 17.8125, 17.875, 17.8125, 17.9375, 18, 18, 18, 18.125, 18.1875, 18.169643, 17.947916, 17.799107, 17.78125, 17.84375, 17.9375, 18.1875, 18.25, 18.5, 18.517857, 18.138393, 18.071428, 17.857143, 17.875, 17.90625, 17.892857, 18.083334, 18.05102, 18.35034, 18.785715, 19.116072, 19, 18.738094, 18.598213, 18.508928
