22.035713, 21.830357, 21.696428, 21.625, 21.625, 21.625, 21.5, 21.3125, 21.125, 21.125, 21.1875, 21.1875, 21.1875, 21.0625, 21, 20.9375, 20.8125, 20.75, 20.75, 20.625, 20.5, 20.3125, 20, 19.9375, 20.017857, 20.125, 20.125, 20.125, 20, 20, 20, 20, 20, 20, 19.9375, 19.75, 19.5, 19.25, 19.0625, 19, 19, 19, 19, 19, 19, 19, 19, 18.9375, 18.75, 18.5, 18.375, 18.375, 18.3125, 18.375, 18.25, 18.0625, 18.0625, 18, 18, 18, 18, 18, 18, 17.875, 17.75, 17.5625, 17.375, 17.25, 17.1875, 17.125, 17.0625, 17.0625, 17, 17, 17, 17, 17, 17, 16.9375, 16.9375, 16.8125, 16.75, 16.625, 16.375, 16.3125, 16.25, 16.3125, 16.375, 16.3125, 16.1875, 16.0625, 16, 16, 16, 16, 15.9375, 15.6875, 15.5, 15.25, 15.0625, 15.0625, 15, 15, 14.9375, 14.8125, 14.6875, 14.625, 14.5625, 14.625, 14.5, 14.3125, 14.1875, 14.0625, 14.1875, 14.1875, 14.1875, 14.125, 14, 14, 14, 13.875, 13.6875, 13.6875, 13.6875, 13.8125, 13.75, 13.5, 13.25, 13, 13, 13, 13, 13, 13, 13, 13, 12.875, 12.875, 12.75, 12.5625, 12.4375, 12.1875, 12.0625, 12, 12, 12, 12, 12, 12, 12, 11.9375, 11.8125, 11.625, 11.375, 11.15625, 11.09375, 11.15625, 11.15625, 11.1875, 11.125, 11, 11, 11, 11, 11, 11, 11, 11, 10.9375, 10.75, 10.5, 10.25, 10.1875, 10.3125, 10.294643, 10.1875, 10.125, 9.9375, 9.9375, 9.75, 9.4375, 9.1428566, 9, 8.9375, 9, 9, 9, 9, 9, 9, 9, 9, 9, 9.0625, 9.25, 9.4375, 9.4375, 9.625, 9.6875, 9.75, 9.875, 9.75, 9.75, 9.75, 9.875, 10.0625, 10.1875, 10.3125, 10.5625, 10.75, 10.875, 10.9375, 10.875, 10.875, 10.9375, 11.107143, 11.1875, 11.25, 11.1875, 11.089286, 11.0625, 11, 10.904761, 11.151787, 11.321428, 11.770833, 11.866072, 12, 12.1875, 12.40625, 12.709822, 13.004464, 12.857142, -10, -10, -10, -10, -10, -10, -10, -10, -10, -10, -10, -10, -10, -10, 36.416664, 36.179165, 36.125, 36, 36.25, 36.5, 36.8125, 37.1875, 37.375, 37.5625, 37.803574, 38.291668, 38.625, 39.017857, 39.836308, 40.327381, 40.428574, 40.526787, 40.40625, 40.25, 40.245537, -10, -10, -10, -10, 36.339287, 36.392857, 36.6875, 37.795834, 37.788689, 37.651787, 37.379166, 16.333334, 16.5, 16.479166, 16.4375, 16.455357, 16.669643, 16.741072, 16.875, 16.875, 16.910713, 16.839287, 16.875, 16.875, 17.125, 17.1875, 17.3125, 17.4375, 17.375, 17.375, 17.375, 17.375, 17.482143, 17.6625, 18.071428, 18.392857, 18.625, 18.6875, 18.616072, 18.424999, 18.419643, 18.1875, 18.3125, 18.25, 18.1875, 18.1875, 18.169643, 18.1875, 18.339287, 18.607143, 18.866072, 19, 19, 19.071428, 19.395834, 19.544643, 19.666666, -10, -10, -10, -10, -10, -10, -10, -10, -10, -10, -10, -10, -10, -10, -10, -10, -10, -10, -10, 24, 24.083334, 24.125, 24.125, 24, 23.875, 23.6875, 23.5625, 23.5625, 23.5, 23.375, 23.3125, 23.1875, 23.0625, 23.0625, 23, 23, 22.875, 22.75, 22.75, 22.75, 22.875, 23, 23, 22.75, 22.5, 22.25, 22, 22, 22, 22, 22.0625, 22.035713, 21.892857, 21.821428, 21.75, 21.75, 21.625, 21.4375, 21.3125, 21.125, 21.125, 21.125, 21.0625, 21.0625, 21, 20.9375, 20.8125, 20.625, 20.5, 20.5, 20.4375, 20.375, 20.25, 20.0625, 20.0625, 20.125, 20.125, 20.125, 20.0625, 20, 20, 20, 20, 20.0625, 20.0625, 20.0625, 19.9375, 19.6875, 19.4375, 19.1875, 19.0625, 19, 19, 19, 19, 19, 19, 19, 19, 18.8125, 18.5625, 18.375, 18.25, 18.1875, 18.1875, 18.125, 18, 18, 18, 18, 18, 18, 18, 17.9375, 17.8125, 17.75, 17.625, 17.5, 17.4375, 17.3125, 17.1875, 17.125, 17.0625, 17, 17, 17, 17, 17, 16.9375, 16.875, 16.875, 16.6875, 16.625, 16.5, 16.25, 16.25, 16.25, 16.3125, 16.375, 16.3125, 16.1875, 16.0625, 16, 16, 16, 15.9375, 15.875, 15.625, 15.4375, 15.25, 15.0625, 15.0625, 15, 15, 14.9375, 14.8125, 14.75, 14.625, 14.5, 14.5625, 14.4375, 14.3125, 14.25, 14.125, 14.25, 14.3125, 14.375, 14.3125, 14.125, 14.0625, 14, 13.875, 13.6875, 13.6875, 13.6875, 13.8125, 13.75, 13.5, 13.25, 13, 13, 13, 13, 13, 13, 13, 13, 12.875, 12.875, 12.8125, 12.6875, 12.5625, 12.3125, 12.125, 12, 12, 12, 12, 12, 12, 12, 11.875, 11.6875, 11.4375, 11.25, 11.15625, 11.21875, 11.28125, 11.21875, 11.1875, 11.0625, 11, 11, 11, 11, 11, 11, 11, 11, 10.875, 10.625, 10.375, 10.125, 10.125, 10.3125, 10.294643, 10.1875, 10.125, 9.9375, 9.9375, 9.6875, 9.375, 9.0803566, 9, 9, 9.0625, 9.0625, 9, 9, 9, 9, 9, 9, 9, 9.0625, 9.3125, 9.5625, 9.5625, 9.75, 9.75, 9.75, 9.9375, 9.875, 9.875, 9.875, 9.9375, 10.0625, 10.1875, 10.3125, 10.5625, 10.6875, 10.75, 10.75, 10.6875, 10.78125, 10.9375, 11.200893, 11.34375, 11.3125, 11.21875, 11.089286, 11, 10.9375, 10.842261, 11.089287, 11.258928, 11.770833, 11.866072, 12, 12.125, 12.21875, 12.28125, 12.53125, 12.541666, 13, -10, -10, -10, -10, -10, -10, -10, -10, -10, -10, -10, -10, -10, 36.333332, 36.116665, 36.125, 36.0625, 36.3125, 36.5625, 36.8125, 37.125, 37.3125, 37.4375, 37.741074, 38.229168, 38.607143, 39.080357, 39.898808, 40.327381, 40.366074, 40.339287, 40.15625, 40.03125, 40.089287, -10, -10, -10, -10, 36.333332, 36.400002, 36.836735, 38.295834, 38.163689, 37.964287, 37.650002, 16.375, 16.333334, 16.4375, 16.5, 16.517857, 16.6875, 16.6875, 16.8125, 16.875, 16.910713, 16.839287, 16.8125, 16.8125, 17.0625, 17.125, 17.25, 17.3125, 17.1875, 17.1875, 17.3125, 17.348213, 17.3125, 17.454166, 18.050594, 18.401785, 18.6875, 18.6875, 18.553572, 18.362499, 18.357143, 18.25, 18.4375, 18.5, 18.625, 18.625, 18.4375, 18.25, 18.276787, 18.482143, 18.741072, 18.9375, 18.9375, 19.071428, 19.395834, 19.616072, 19.916666, -10, -10, -10
22, 22, 22, 21.9375, 21.875, 21.75, 21.5625, 21.4375, 21.25, 21.125, 21.0625, 21, 21, 21, 20.9375, 20.8125, 20.5625, 20.375, 20.3125, 20.1875, 20.1875, 20.125, 20, 20, 20, 20, 20, 20, 20, 20, 20, 20.0625, 20.125, 20.125, 20.125, 20, 19.8125, 19.5625, 19.3125, 19.125, 19, 19, 19, 19, 19, 19, 19, 18.9375, 18.75, 18.5, 18.3125, 18.25, 18.1875, 18.1875, 18.125, 18.0625, 18.0625, 18.0625, 18.0625, 18, 18, 18, 17.9375, 17.875, 17.803572, 17.5625, 17.5, 17.375, 17.25, 17.125, 17.0625, 17, 17, 17, 17, 17, 17, 16.875, 16.875, 16.8125, 16.625, 16.625, 16.4375, 16.25, 16.25, 16.25, 16.3125, 16.375, 16.3125, 16.1875, 16.0625, 16, 16, 16, 15.875, 15.75, 15.5, 15.3125, 15.1875, 15.0625, 15.0625, 15, 15.0625, 15, 14.875, 14.875, 14.625, 14.5, 14.5625, 14.375, 14.3125, 14.25, 14.125, 14.25, 14.3125, 14.375, 14.3125, 14.125, 14.0625, 14, 13.9375, 13.8125, 13.8125, 13.8125, 13.875, 13.8125, 13.5625, 13.3125, 13.0625, 13, 13, 13, 13, 13, 12.9375, 12.9375, 12.8125, 12.8125, 12.875, 12.75, 12.625, 12.375, 12.125, 12, 12, 12, 12, 12, 12, 12, 11.8125, 11.5625, 11.3125, 11.125, 11.09375, 11.28125, 11.34375, 11.28125, 11.25, 11.0625, 11, 11, 10.9375, 10.9375, 10.9375, 10.875, 10.875, 10.8125, 10.625, 10.4375, 10.25, 10.0625, 10.0625, 10.1875, 10.169643, 10.0625, 10.0625, 9.9375, 10, 9.75, 9.4375, 9.2053566, 9.125, 9.125, 9.1875, 9.125, 9, 9, 9, 9, 9, 9, 9, 9.0625, 9.3125, 9.5625, 9.625, 9.8125, 9.8125, 9.8125, 10, 10, 10, 10, 10, 10.0625, 10.1875, 10.3125, 10.5625, 10.625, 10.5625, 10.464286, 10.4375, 10.709822, 10.973214, 11.263393, 11.40625, 11.375, 11.28125, 11.089286, 10.875, 10.75, 10.946428, 11.357143, 11.625, 11.9375, 11.9375, 12, 12.0625, 12.125, 12.1875, 12.4375, 12.499999, -10, -10, -10, -10, -10, -10, -10, -10, -10, -10, -10, -10, -10, 36, 36.166668, 36.104164, 36.0625, 36.125, 36.4375, 36.6875, 37, 37.3125, 37.4375, 37.5625, 37.803574, 38.229168, 38.544643, 38.830357, 39.208332, 39.613094, 39.824406, 39.89286, 39.90625, 39.90625, 39.982143, -10, -10, -10, -10, 36.988094, 38.266666, 38.380951, 38.754166, 38.413689, 38.130955, 37.644444, 16.125, 16.145834, 16.375, 16.5625, 16.5625, 16.625, 16.625, 16.625, 16.839287, 16.946428, 16.839287, 16.8125, 16.75, 17, 17, 17.1875, 17.25, 17.125, 17.25, 17.4375, 17.473213, 17.375, 17.391666, 17.934523, 18.485119, 18.770834, 18.625, 18.428572, 18.112499, 18.107143, 18.125, 18.4375, 18.5625, 18.580357, 18.446428, 18.25, 18.0625, 18.089287, 18.294643, 18.491072, 18.6875, 18.6875, 18.821428, 19.208334, 19.482143, 20.020832, -10, -10, -10, -10, -10, -10, -10, -10, -10, -10, -10, -10, -10, -10, -10, -10, -10, -10, -10, 24, 24.166668, 24.25, 24.25, 24.25, 24.0625, 23.8125, 23.6875, 23.625, 23.4375, 23.3125, 23.25, 23.0625, 23.0625, 23.0625, 23, 23, 22.875, 22.75, 22.75, 22.75, 22.8125, 22.875, 22.75, 22.5625, 22.4375, 22.25, 22.125, 22.0625, 22, 22.0625, 22.0625, 22.0625, 22.0625, 22, 22, 22, 21.9375, 21.8125, 21.625, 21.375, 21.1875, 21.0625, 21, 21, 21.0625, 21, 20.875, 20.6875, 20.375, 20.25, 20.125, 20.0625, 20.0625, 20, 20, 20, 20, 20, 20, 20, 20, 20, 20.0625, 20.125, 20.125, 20.125, 20.0625, 19.9375, 19.6875, 19.4375, 19.1875, 19, 19, 19, 19, 19, 19, 19, 18.9375, 18.75, 18.5625, 18.3125, 18.1875, 18.125, 18.0625, 18.0625, 18.125, 18.125, 18.125, 18.125, 18, 18, 18, 17.875, 17.75, 17.616072, 17.375, 17.4375, 17.375, 17.3125, 17.1875, 17.0625, 17, 17, 17, 17, 17, 17, 16.875, 16.875, 16.8125, 16.6875, 16.625, 16.375, 16.1875, 16.0625, 16.0625, 16.125, 16.125, 16.125, 16.0625, 16, 16, 15.9375, 15.875, 15.6875, 15.5625, 15.375, 15.1875, 15.1875, 15.0625, 15.0625, 15.0625, 15.0625, 15, 14.875, 14.8125, 14.5625, 14.5, 14.5, 14.375, 14.3125, 14.1875, 14.125, 14.25, 14.3125, 14.375, 14.3125, 14.125, 14.0625, 14, 14, 13.9375, 13.9375, 13.9375, 13.9375, 13.875, 13.625, 13.375, 13.125, 13, 13, 13, 13, 13, 12.9375, 12.9375, 12.875, 12.875, 12.9375, 12.875, 12.75, 12.5, 12.25, 12.0625, 12, 12, 12, 12, 12, 12, 11.75, 11.5625, 11.375, 11.25, 11.34375, 11.46875, 11.46875, 11.34375, 11.25, 11.0625, 11, 11, 10.9375, 10.9375, 10.9375, 10.8125, 10.75, 10.625, 10.375, 10.25, 10.125, 10, 10, 10.0625, 10.0625, 10.0625, 10.0625, 10, 10, 9.8125, 9.5625, 9.3303566, 9.25, 9.1875, 9.1875, 9.125, 9, 9, 9, 9.0625, 9.0625, 9.0625, 9.0625, 9, 9.25, 9.5, 9.625, 9.875, 9.875, 9.875, 10, 9.9375, 9.9375, 9.9375, 9.9375, 10.0625, 10.125, 10.25, 10.5, 10.5625, 10.491072, 10.130953, 10.080357, 10.397322, 10.830358, 11.200893, 11.40625, 11.4375, 11.40625, 11.276786, 11.125, 11.0625, 11.25, 11.544643, 11.8125, 12, 12, 12, 12, 12.0625, 12.1875, 12.4375, 12.583333, -10, -10, -10, -10, -10, -10, -10, -10, -10, -10, -10, -10, -10, 36, 35.958336, 35.958332, 35.9375, 36.0625, 36.375, 36.633926, 37.145832, 37.428574, 37.625, 37.6875, 37.866074, 38.291668, 38.455357, 38.535713, 38.435371, 38.530613, 39.107143, 39.428574, 39.625, 39.625, 39.669643, 38.666664, 38.549999, 39.75, 40.071426, 39.180553, 39.19286, 39.066326, 38.900002, 38.348213, 38.193455, 16, 16.375, 16.395834, 16.5, 16.651787, 16.625, 16.580357, 16.625, 16.5, 16.776787, 16.883928, 16.839287, 16.9375, 16.848213, 16.830357, 16.830357, 17, 17.125, 17.125, 17.1875, 17.25, 17.223213, 17, 16.954166, 17.559523, 18.154762, 18.395834, 18.25, 18.125, 18, 18, 18.125, 18.553572, 18.705357, 18.736607, 18.540178, 18.34375, 18.25, 18.25, 18.3125, 18.3125, 18.375, 18.375, 18.508928, 18.690477, 19.196428, 19.916666, -10, -10, -10
22.0625, 22.0625, 22, 22, 22, 21.9375, 21.8125, 21.6875, 21.5, 21.3125, 21.1875, 21.0625, 21, 21.125, 21.0625, 21, 20.875, 20.5, 20.375, 20.25, 20.125, 20.125, 20.0625, 20, 20, 20, 20, 20, 20, 20, 20, 20.0625, 20.125, 20.125, 20.125, 20.0625, 20, 19.75, 19.5, 19.25, 19, 19, 19, 19, 19, 19, 19, 18.9375, 18.8125, 18.6875, 18.375, 18.1875, 18.0625, 17.9375, 18, 18.125, 18.125, 18.1875, 18.1875, 18.0625, 18.0625, 18, 17.875, 17.75, 17.553572, 17.25, 17.3125, 17.25, 17.25, 17.1875, 17.0625, 17, 17, 17, 17, 17, 17, 16.8125, 16.8125, 16.75, 16.625, 16.5625, 16.3125, 16.125, 16, 16, 16, 16, 16, 16, 16, 16, 15.9375, 15.8125, 15.5625, 15.375, 15.1875, 15.125, 15.25, 15.1875, 15.1875, 15.125, 15.0625, 15.0625, 15, 14.9375, 14.625, 14.5, 14.4375, 14.3125, 14.3125, 14.1875, 14.125, 14.1875, 14.25, 14.25, 14.214286, 14.160714, 14.0625, 14.0625, 14, 14, 14, 14, 14, 13.875, 13.625, 13.375, 13.125, 13, 13, 13, 13, 13, 12.9375, 12.9375, 12.9375, 12.9375, 13, 12.9375, 12.8125, 12.5625, 12.3125, 12.125, 12, 12, 12, 12, 12, 12, 11.8125, 11.6875, 11.5625, 11.5, 11.5625, 11.5625, 11.4375, 11.25, 11.125, 11, 11, 11, 10.9375, 10.9375, 10.9375, 10.8125, 10.75, 10.5625, 10.3125, 10.1875, 10.0625, 10, 10, 10, 10, 10, 10, 10, 10, 9.875, 9.75, 9.625, 9.5, 9.375, 9.3125, 9.1875, 9.0625, 9.0625, 9, 9.0625, 9.0625, 9.0625, 9.0625, 9, 9.25, 9.5, 9.6875, 9.9375, 9.9375, 9.9375, 10, 9.875, 9.875, 9.9375, 10.044643, 10.1875, 10.1875, 10.25, 10.375, 10.4375, 10.428572, 10.130953, 10.205357, 10.522322, 10.892858, 11.09375, 11.28125, 11.375, 11.53125, 11.5, 11.375, 11.3125, 11.375, 11.625, 11.875, 12, 12, 12, 11.9375, 11.964286, 12.133928, 12.291667, 12.444444, -10, -10, -10, -10, -10, -10, -10, -10, -10, -10, -10, -10, -10, 36, 35.833336, 35.8125, 35.8125, 35.9375, 36.125, 36.383926, 36.895832, 37.223213, 37.5, 37.6875, 37.75, 38.017857, 38.24107, 38.205357, 38.066326, 38.035713, 38.78125, 38.959824, 39.25, 39.375, 39.419643, 38.777775, 38.795238, 39.944443, 40.214283, 40.083332, 39.725002, 39.494049, 39.333332, 38.773808, 38.354168, 38.111111, 16.625, 16.604168, 16.59375, 16.705357, 16.75, 16.642857, 16.642857, 16.4375, 16.589287, 16.723213, 16.8125, 16.9375, 16.910713, 16.767857, 16.767857, 16.9375, 17.0625, 17.1875, 17.3125, 17.375, 17.419643, 17.163265, 17.057821, 17.438095, 18.011906, 18.074406, 18.0625, 18, 18, 18.035713, 18.017857, 18.383928, 18.455357, 18.486607, 18.352678, 18.28125, 18.375, 18.4375, 18.330357, 18.196428, 18.125, 18.1875, 18.3125, 18.5, 18.901787, 19.583334, -10, -10, -10, -10, -10, -10, -10, -10, -10, -10, -10, -10, -10, -10, -10, -10, -10, -10, -10, 24, 24, 24, 24, 24, 24, 24, 24, 24, 23.75, 23.5, 23.25, 23, 23, 23, 23, 23, 23, 22.910713, 22.705357, 22.705357, 22.625, 22.625, 22.5, 22.3125, 22.25, 22.1875, 22.25, 22.1875, 22.125, 22.125, 22.0625, 22.0625, 22.0625, 22, 22, 22, 22, 21.9375, 21.8125, 21.625, 21.3125, 21.089287, 21, 20.9375, 21.0625, 21.0625, 21.0625, 20.9375, 20.625, 20.5, 20.375, 20.25, 20.25, 20.125, 20, 20, 20, 20, 20, 20, 20, 20, 20.0625, 20.0625, 20.0625, 20.0625, 20, 20, 19.75, 19.5, 19.25, 19, 19, 19, 19, 19, 19, 19, 18.9375, 18.875, 18.8125, 18.625, 18.4375, 18.25, 18.0625, 18, 18.125, 18.125, 18.25, 18.25, 18.125, 18.125, 18, 17.9375, 17.875, 17.678572, 17.303572, 17.125, 17, 17, 17.0625, 17, 17, 17, 17, 17, 17, 17, 16.8125, 16.8125, 16.75, 16.625, 16.5625, 16.3125, 16.125, 16, 16, 16, 16, 16, 16, 16, 16, 15.9375, 15.8125, 15.5625, 15.375, 15.1875, 15.125, 15.25, 15.1875, 15.1875, 15.125, 15.0625, 15.0625, 15.0625, 15, 14.75, 14.6875, 14.5, 14.3125, 14.25, 14.0625, 14, 14.0625, 14.0625, 14, 14.026786, 14.035714, 14, 14.0625, 14, 14, 14, 14, 14, 13.875, 13.625, 13.375, 13.125, 13, 13, 13, 13, 13, 12.9375, 12.9375, 12.9375, 12.9375, 12.9375, 12.8125, 12.75, 12.5, 12.3125, 12.1875, 12, 12, 12, 11.9375, 11.875, 11.875, 11.75, 11.75, 11.6875, 11.5625, 11.5, 11.375, 11.25, 11.125, 11.0625, 11, 11, 11, 10.9375, 10.9375, 10.9375, 10.8125, 10.75, 10.5625, 10.375, 10.3125, 10.1875, 10.125, 10.0625, 10, 10, 10, 10, 10, 10, 9.9375, 9.875, 9.6875, 9.5625, 9.4375, 9.375, 9.375, 9.25, 9.1875, 9.0625, 9.0625, 9.0625, 9.0625, 9.125, 9.125, 9.375, 9.625, 9.75, 9.875, 9.8125, 9.75, 9.75, 9.625, 9.6875, 9.8125, 10.044643, 10.25, 10.25, 10.3125, 10.3125, 10.4375, 10.491072, 10.255953, 10.392857, 10.616072, 10.892858, 11, 11.125, 11.25, 11.5, 11.5, 11.4375, 11.4375, 11.4375, 11.6875, 11.9375, 12, 12, 12, 11.875, 11.870536, 12.040178, 12.104167, -10, -10, -10, -10, -10, -10, -10, -10, -10, -10, -10, -10, -10, -10, 36, 35.750004, 35.75, 35.75, 35.8125, 35.9375, 36.133926, 36.583332, 36.910713, 37.25, 37.5, 37.5625, 37.767857, 37.883926, 37.776787, 37.870537, 37.84375, 38.40625, 38.54911, 38.982143, 39.116074, 39.232143, 38.869045, 38.846428, 39.958332, 40.160713, 40.489582, -10, -10, -10, -10, 38.229168, 37.888889, 16.666666, 16.6875, 16.86875, 16.9375, 17.0625, 16.767857, 16.642857, 16.3125, 16.401787, 16.598213, 16.75, 17, 16.973213, 16.830357, 16.830357, 16.9375, 17.125, 17.3125, 17.5, 17.5625, 17.696428, 18, 17.734694, 17.414286, 17.752977, 17.699406, 17.75, 17.8125, 18, 18.160713, 18.080357, 18.383928, 18.330357, 18.236607, 18.165178, 18.21875, 18.4375, 18.5625, 18.517857, 18.383928, 18.25, 18.375, 18.4375, 18.5625, 18.955357, 19.416668, -10, -10, -10
22.0625, 22.0625, 22, 21.9375, 21.875, 21.8125, 21.6875, 21.6875, 21.5625, 21.3125, 21.151787, 21, 21, 21.125, 21.125, 21.0625, 20.875, 20.5625, 20.4375, 20.375, 20.25, 20.3125, 20.25, 20.125, 20.125, 20.0625, 20, 20, 20, 20, 20, 20, 20, 20, 20, 20, 19.9375, 19.6875, 19.4375, 19.1875, 19, 19, 19, 19, 19, 19, 19, 18.9375, 18.875, 18.875, 18.75, 18.625, 18.5, 18.25, 18.125, 18.125, 18.0625, 18.1875, 18.1875, 18.125, 18.125, 18, 17.9375, 17.875, 17.6875, 17.428572, 17.1875, 17.0625, 17, 17.0625, 17, 17, 17, 17, 17, 17, 17, 16.8125, 16.8125, 16.8125, 16.75, 16.6875, 16.4375, 16.1875, 16, 16, 16, 16, 16, 16, 16, 16, 15.9375, 15.8125, 15.5625, 15.375, 15.1875, 15.125, 15.25, 15.1875, 15.1875, 15.125, 15, 15, 15, 14.9375, 14.8125, 14.75, 14.5625, 14.375, 14.25, 14.0625, 14, 14, 14, 13.9375, 13.964286, 14.035714, 14, 14.0625, 14, 14, 14, 14, 14, 13.875, 13.625, 13.375, 13.125, 13, 13, 13, 12.9375, 12.9375, 12.9375, 12.9375, 13, 12.9375, 12.8125, 12.6875, 12.625, 12.4375, 12.3125, 12.1875, 12, 12, 12, 11.9375, 11.875, 11.875, 11.8125, 11.8125, 11.75, 11.625, 11.5, 11.3125, 11.1875, 11.0625, 11, 11, 11, 11, 11, 11, 11, 10.9375, 10.875, 10.75, 10.5625, 10.4375, 10.25, 10.125, 10.0625, 10, 10, 10, 10, 10, 10, 10, 10, 9.8125, 9.6875, 9.5, 9.375, 9.375, 9.25, 9.1875, 9.0625, 9.0625, 9.0625, 9.0625, 9.125, 9.125, 9.375, 9.625, 9.6875, 9.75, 9.5625, 9.5, 9.791667, 9.7678566, 9.875, 9.9375, 10.107143, 10.25, 10.3125, 10.375, 10.375, 10.5625, 10.678572, 10.541667, 10.642857, 10.6875, 10.857143, 10.9375, 11.0625, 11.1875, 11.4375, 11.5, 11.5, 11.625, 11.625, 11.8125, 12, 11.9375, 11.9375, 11.9375, 11.8125, 11.870536, 11.977678, 11.958334, -10, -10, -10, -10, -10, -10, -10, -10, -10, -10, -10, -10, -10, -10, 36, 35.750004, 35.75, 35.75, 35.75, 35.8125, 35.883926, 36.208332, 36.504463, 36.84375, 37.15625, 37.28125, 37.455357, 37.508926, 37.464287, 37.727676, 37.808037, 38.291668, 38.464287, 38.825893, 38.959824, 39.125, 39.035713, 39.033928, 40.020832, 40.246429, 40.569443, -10, -10, -10, -10, 38.0625, 37.833336, 37.666668, 16.875, 16.99375, 17, 17.0625, 16.705357, 16.517857, 16.1875, 16.1875, 16.375, 16.65625, 16.96875, 17.066963, 16.924107, 16.892857, 16.875, 17.0625, 17.3125, 17.5, 17.5625, 17.696428, 17.75, 17.517857, 17.405357, 17.544643, 17.553572, 17.75, 17.8125, 18.0625, 18.160713, 18.017857, 18.196428, 18.080357, 18.09375, 18.15625, 18.34375, 18.625, 18.8125, 18.767857, 18.696428, 18.5625, 18.6875, 18.75, 18.75, 19.089287, 19.312502, -10, -10, -10, -10, -10, -10, -10, -10, -10, -10, -10, -10, -10, -10, -10, -10, -10, -10, -10, 24, 23.916666, 23.75, 23.75, 23.75, 23.8125, 24, 24.0625, 24.0625, 23.8125, 23.580357, 23.3125, 23.0625, 23.0625, 22.9375, 22.9375, 22.9375, 22.9375, 22.848213, 22.642857, 22.642857, 22.625, 22.75, 22.6875, 22.5, 22.375, 22.25, 22.25, 22.1875, 22.125, 22.0625, 22, 22, 22, 22, 21.875, 21.8125, 21.75, 21.625, 21.75, 21.625, 21.375, 21.214287, 21, 21, 21.0625, 21.0625, 21, 20.75, 20.5625, 20.4375, 20.375, 20.3125, 20.25, 20.214287, 20.232143, 20.232143, 20.1875, 20.0625, 20, 20.0625, 20.125, 20.125, 20.125, 20.0625, 20, 20, 20, 19.9375, 19.6875, 19.5, 19.3125, 19.125, 19.125, 19.0625, 19, 19, 18.9375, 18.9375, 18.875, 18.8125, 18.8125, 18.6875, 18.5625, 18.4375, 18.25, 18.125, 18.0625, 18, 18.125, 18.0625, 18.0625, 18.0625, 17.9375, 18, 17.9375, 17.75, 17.491072, 17.125, 17, 16.9375, 17, 17, 17, 17, 17, 16.9375, 16.9375, 16.9375, 16.75, 16.75, 16.75, 16.6875, 16.6875, 16.5, 16.25, 16.0625, 16, 16, 16, 16, 16, 16, 16, 15.9375, 15.8125, 15.625, 15.4375, 15.3125, 15.25, 15.25, 15.1875, 15.125, 15.0625, 15, 15, 15, 15, 14.9375, 14.875, 14.75, 14.5625, 14.4375, 14.25, 14.125, 14.0625, 14, 13.9375, 13.964286, 14.035714, 14, 14.0625, 14, 14, 14, 14, 14, 13.875, 13.625, 13.4375, 13.1875, 13.0625, 13.0625, 13, 12.9375, 12.9375, 12.9375, 12.9375, 13, 12.875, 12.6875, 12.5, 12.375, 12.25, 12.1875, 12.1875, 12.125, 12.125, 12.125, 12, 11.875, 11.8125, 11.75, 11.6875, 11.625, 11.5, 11.375, 11.25, 11.125, 11.0625, 11, 11, 11, 11, 11, 11, 11, 11, 11, 10.9375, 10.8125, 10.625, 10.375, 10.1875, 10.0625, 10, 10, 10, 10, 10, 10, 10, 10, 9.875, 9.75, 9.5625, 9.4375, 9.375, 9.25, 9.1875, 9.125, 9.0625, 9.0625, 9.0625, 9.0625, 9.125, 9.25, 9.4642859, 9.6785717, 9.708333, 9.5267859, 9.5, 9.791667, 9.8928566, 10, 10.0625, 10.169643, 10.3125, 10.4375, 10.4375, 10.4375, 10.5625, 10.6875, 10.875, 11, 11, 11, 11, 11.0625, 11.125, 11.375, 11.5, 11.5625, 11.75, 11.75, 11.875, 12, 12, 12, 12, 11.875, 11.870536, 11.852678, 11.79762, -10, -10, -10, -10, -10, -10, -10, -10, -10, -10, -10, -10, -10, -10, 36.125, 35.916668, 35.875, 35.8125, 35.8125, 35.78125, 35.71875, 35.78125, 36.044643, 36.450893, 36.84375, 37.03125, 37.142857, 37.160713, 37.196426, 37.46875, 37.513393, 37.8125, 38.035713, 38.325893, 38.522324, 38.6875, 38.754463, 38.99107, 39.6875, 40.233334, -10, -10, -10, -10, -10, 38, 37.750004, 37.666668, 16.75, 16.889584, 16.848215, 16.8125, 16.5625, 16.330357, 16.125, 16.125, 16.383928, 16.864584, 17.075893, 17.15625, 17.09375, 17, 17, 17.125, 17.375, 17.625, 17.75, 17.883928, 17.9375, 17.642857, 17.467857, 17.5625, 17.616072, 17.875, 17.9375, 18.125, 18.160713, 18.017857, 18.017857, 18, 18.0625, 18.169643, 18.25, 18.5625, 18.866072, 18.928572, 19.008928, 18.9375, 19.0625, 19.125, 19.125, 19.4375, 19.416668, -10, -10, -10
22.0625, 22.0625, 22.0625, 21.875, 21.8125, 21.75, 21.6875, 21.75, 21.5625, 21.3125, 21.089287, 20.9375, 21, 21, 21, 20.9375, 20.6875, 20.625, 20.5, 20.4375, 20.4375, 20.375, 20.401787, 20.419643, 20.357143, 20.25, 20.125, 20.0625, 20.1875, 20.3125, 20.25, 20.25, 20.125, 20, 19.9375, 19.875, 19.8125, 19.5625, 19.4375, 19.375, 19.25, 19.3125, 19.25, 19.125, 19, 18.8125, 18.8125, 18.75, 18.6875, 18.6875, 18.5625, 18.4375, 18.375, 18.25, 18.125, 18.0625, 18, 18.0625, 18, 18, 18, 17.9375, 18, 17.875, 17.6875, 17.428572, 17.0625, 17, 16.9375, 17, 17, 17, 17, 17, 16.875, 16.8125, 16.8125, 16.6875, 16.6875, 16.75, 16.6875, 16.625, 16.5, 16.25, 16.0625, 16, 16, 16, 16, 16, 15.9375, 15.875, 15.75, 15.6875, 15.625, 15.5625, 15.5625, 15.375, 15.25, 15.125, 15, 15, 15, 15, 15, 15, 15, 15, 14.875, 14.6875, 14.5625, 14.375, 14.25, 14.1875, 14.0625, 14, 14.0625, 14.125, 14.125, 14.125, 14.0625, 14, 14, 14, 14, 13.875, 13.625, 13.4375, 13.1875, 13.0625, 13.0625, 13, 12.9375, 12.9375, 12.9375, 12.9375, 13, 12.875, 12.625, 12.375, 12.1875, 12.0625, 12.0625, 12.125, 12.1875, 12.1875, 12.1875, 12.0625, 11.8125, 11.6875, 11.5625, 11.4375, 11.375, 11.25, 11.125, 11.0625, 11, 11, 11, 11, 11, 11, 11, 11, 11, 11, 11, 10.9375, 10.8125, 10.625, 10.375, 10.1875, 10.0625, 10, 10, 10, 10, 10, 10, 10, 10, 9.875, 9.75, 9.5, 9.25, 9.1875, 9, 8.9375, 8.9375, 8.875, 8.9375, 9, 9.0625, 9.0625, 9.125, 9.3392859, 9.5982141, 9.645833, 9.5267859, 9.5, 9.791667, 9.9553566, 10.0625, 10.0625, 10.0625, 10.1875, 10.375, 10.4375, 10.5625, 10.6875, 10.6875, 10.875, 10.9375, 10.9375, 11, 11, 11, 11, 11.1875, 11.3125, 11.4375, 11.625, 11.6875, 11.8125, 11.9375, 11.9375, 11.9375, 11.9375, 11.9375, 11.96875, 11.84375, 11.880953, 12.475, -10, -10, -10, -10, -10, -10, -10, -10, -10, -10, -10, -10, -10, 36.166668, 36.166668, 36.1875, 36.0625, 36, 35.90625, 35.65625, 35.65625, 35.875, 36.441963, 36.888393, 37.09375, 37.0625, 36.839287, 36.883926, 37.169643, 37.357143, 37.59375, 37.816963, 38.075893, 38.209824, 38.4375, 38.504463, 38.700893, 39.145836, -10, -10, -10, -10, -10, -10, 38, 37.687504, 37.666668, 16.541666, 16.733334, 16.669643, 16.5625, 16.375, 16.1875, 16.0625, 16.0625, 16.330357, 16.927084, 17.075893, 17.21875, 17.09375, 17, 17, 17.0625, 17.3125, 17.5, 17.5625, 17.625, 17.5, 17.375, 17.455357, 17.625, 17.75, 17.9375, 18, 18.0625, 18.125, 18.125, 18.1875, 18.25, 18.3125, 18.357143, 18.3125, 18.5, 18.803572, 19.071428, 19.25, 19.25, 19.3125, 19.4375, 19.395834, 19.416666, 19.333334, -10, -10, -10, -10, -10, -10, -10, -10, -10, -10, -10, -10, -10, -10, -10, -10, -10, -10, -10, 24, 24, 23.875, 23.741072, 23.5625, 23.5, 23.625, 23.8125, 23.75, 23.625, 23.392857, 23.1875, 23.125, 23.125, 23, 23, 22.9375, 22.9375, 22.9375, 22.9375, 22.9375, 22.9375, 22.9375, 22.875, 22.75, 22.6875, 22.5, 22.3125, 22.1875, 22, 22, 22.0625, 22.0625, 22.0625, 22.0625, 21.875, 21.8125, 21.75, 21.625, 21.625, 21.4375, 21.25, 21.125, 21, 21.0625, 21.0625, 21.0625, 21, 20.8125, 20.75, 20.625, 20.5, 20.4375, 20.375, 20.464287, 20.544643, 20.482143, 20.3125, 20.1875, 20.125, 20.25, 20.375, 20.25, 20.25, 20.125, 20, 19.875, 19.75, 19.5625, 19.339287, 19.348213, 19.3125, 19.3125, 19.3125, 19.25, 19.125, 19, 18.8125, 18.8125, 18.75, 18.625, 18.5625, 18.375, 18.25, 18.25, 18.1875, 18.125, 18.0625, 18, 18, 17.9375, 17.9375, 17.9375, 17.9375, 18, 17.875, 17.6875, 17.4375, 17.1875, 17.0625, 17, 17, 17, 17, 17, 16.9375, 16.75, 16.6875, 16.6875, 16.6875, 16.75, 16.8125, 16.8125, 16.6875, 16.5625, 16.3125, 16.0625, 16, 16, 16, 16, 16, 15.9375, 15.8125, 15.6875, 15.625, 15.625, 15.625, 15.625, 15.4375, 15.25, 15.125, 15, 15, 15, 15, 15, 15, 15, 15, 14.875, 14.6875, 14.5625, 14.4375, 14.3125, 14.25, 14.125, 14, 14.0625, 14.125, 14.125, 14.125, 14.0625, 13.9375, 13.9375, 13.9375, 13.9375, 13.9375, 13.6875, 13.5, 13.25, 13.0625, 13.0625, 13, 12.9375, 12.9375, 12.9375, 12.9375, 13, 12.875, 12.625, 12.4375, 12.25, 12.125, 12.125, 12.125, 12.25, 12.223214, 12.151786, 12.1875, 11.973214, 11.8125, 11.580357, 11.375, 11.25, 11.1875, 11.125, 11.0625, 11, 11, 11, 11, 11, 11, 11, 11, 11, 11, 11, 10.9375, 10.75, 10.5625, 10.3125, 10.125, 10.0625, 10, 10, 10, 10, 10, 10, 10, 10, 9.9375, 9.75, 9.375, 9.0625, 8.9732141, 8.8125, 8.875, 8.875, 8.9375, 9, 9.0625, 9.0625, 8.9375, 8.9375, 9.1517859, 9.5357141, 9.708333, 9.7142859, 9.75, 10.041667, 10.205357, 10.25, 10.1875, 10.0625, 10.125, 10.375, 10.5, 10.75, 10.875, 10.8125, 10.9375, 10.9375, 10.9375, 11, 11, 11, 11, 11.125, 11.25, 11.375, 11.5, 11.5625, 11.6875, 11.8125, 11.8125, 11.875, 11.875, 12, 12.125, 12, 12.130953, 12.566667, 13.2, -10, -10, -10, -10, -10, -10, -10, -10, -10, -10, -10, -10, -10, 36.375, 36.333332, 36.25, 36.1875, 36.125, 35.90625, 35.84375, 35.958332, 36.422619, 36.934525, 37.125, 37.083332, 36.401787, 36.5625, 37.023811, 37.32143, 37.59375, 37.758926, 37.875, 37.9375, 38.09375, 38.21875, 38.482143, 38.6875, -10, -10, -10, -10, -10, 38, 38, 37.708336, 37.666668, 16.375, 16.333334, 16.3125, 16.1875, 16.125, 16.0625, 16, 16, 16.276787, 17.072918, 17.183037, 17.34375, 17.15625, 17, 17, 17, 17.1875, 17.3125, 17.3125, 17.3125, 17.25, 17.25, 17.5, 17.8125, 17.9375, 18.0625, 18.0625, 18, 18.0625, 18.125, 18.25, 18.4375, 18.5, 18.482143, 18.3125, 18.4375, 18.678572, 18.946428, 19.125, 19.125, 19.25, 19.5, 19.583334, 19.434523, 19.35, -10, -10, -10
22, 22, 22, 21.9375, 21.9375, 21.9375, 21.875, 21.75, 21.5, 21.3125, 21.125, 21.0625, 21.0625, 21, 21, 21, 20.9375, 20.9375, 20.875, 20.75, 20.6875, 20.5, 20.464287, 20.482143, 20.419643, 20.3125, 20.25, 20.25, 20.3125, 20.4375, 20.3125, 20.25, 20.125, 20, 19.875, 19.6875, 19.5, 19.339287, 19.348213, 19.375, 19.375, 19.3125, 19.25, 19.125, 19, 18.8125, 18.8125, 18.75, 18.625, 18.5, 18.25, 18.0625, 18, 18, 18, 18, 18, 18, 17.9375, 17.9375, 17.9375, 17.9375, 18, 17.875, 17.75, 17.5, 17.3125, 17.25, 17.1875, 17.1875, 17.125, 17.0625, 17, 16.9375, 16.75, 16.6875, 16.6875, 16.75, 16.8125, 16.8125, 16.75, 16.5625, 16.4375, 16.25, 16.0625, 16, 16, 16, 16, 16, 15.9375, 15.75, 15.625, 15.5625, 15.5625, 15.625, 15.625, 15.4375, 15.3125, 15.1875, 15.0625, 15.0625, 15, 15, 15, 15, 15, 15, 14.875, 14.75, 14.6875, 14.5625, 14.4375, 14.3125, 14.125, 14, 14.0625, 14.125, 14.125, 14.125, 14.0625, 13.9375, 13.9375, 13.875, 13.8125, 13.75, 13.5, 13.375, 13.1875, 13.0625, 13.0625, 13, 13, 13, 13, 13, 13, 12.9375, 12.75, 12.625, 12.5, 12.3125, 12.25, 12.1875, 12.25, 12.160714, 12.089286, 12.125, 11.910714, 11.8125, 11.580357, 11.4375, 11.375, 11.3125, 11.25, 11.125, 11, 11, 11, 11, 11, 11, 11, 11, 11, 11, 11, 10.9375, 10.8125, 10.625, 10.375, 10.1875, 10.0625, 10, 10, 10, 10, 10, 10, 10, 10, 9.875, 9.625, 9.25, 8.9375, 8.9732141, 8.9375, 9, 9, 9, 9, 9.0625, 9.125, 9, 9, 9.2142859, 9.5982141, 9.833333, 9.9642859, 10, 10, 10.0625, 10.0625, 10.0625, 10, 10.125, 10.3125, 10.5, 10.75, 10.875, 10.875, 10.9375, 10.9375, 10.9375, 11, 11, 11, 11, 11.0625, 11.125, 11.1875, 11.25, 11.375, 11.5625, 11.75, 11.875, 11.9375, 11.9375, 12.125, 12.25, 12.25, 12.464286, 12.7375, 13.244445, -10, -10, -10, -10, -10, -10, -10, -10, -10, -10, -10, -10, -10, 36.541664, 36.345833, 36.3125, 36.166668, 36.166668, 35.958332, 35.875, 35.986111, -10, -10, -10, -10, 35.964287, 36.125, 36.782314, 37.047619, 37.303574, 37.446426, 37.5625, 37.5625, 37.75, 37.90625, 38.107143, 38.25, -10, -10, -10, -10, -10, 38, 37.916668, 37.666668, 37.583332, 16.25, 16.25, 16.1875, 16.125, 16.125, 16.125, 16.1875, 16.25, 16.526787, 17.291668, 17.401787, 17.5625, 17.3125, 17.125, 17.0625, 17, 17.1875, 17.25, 17.25, 17.3125, 17.3125, 17.4375, 17.6875, 17.9375, 18, 18.0625, 18.0625, 18, 18.0625, 18.125, 18.25, 18.4375, 18.4375, 18.357143, 18.125, 18.25, 18.491072, 18.758928, 18.875, 18.875, 19.0625, 19.375, 19.583334, 19.372023, 19.266666, -10, -10, -10, -10, -10, -10, -10, -10, -10, -10, -10, -10, -10, -10, -10, -10, -10, -10, -10, 24, 24, 23.875, 23.616072, 23.3125, 23.125, 23.125, 23.25, 23.1875, 23.1875, 23.0625, 23, 23.0625, 23, 23, 23, 22.9375, 23, 22.9375, 22.9375, 22.9375, 22.875, 22.839287, 22.8125, 22.6875, 22.625, 22.4375, 22.25, 22.125, 22, 21.9375, 21.9375, 21.9375, 21.9375, 22, 22, 22, 22, 21.9375, 21.6875, 21.4375, 21.3125, 21.1875, 21.25, 21.25, 21.125, 21.0625, 21, 21, 21, 21, 20.9375, 20.875, 20.75, 20.625, 20.5, 20.4375, 20.375, 20.375, 20.375, 20.3125, 20.3125, 20.1875, 20.125, 20.0625, 20, 19.8125, 19.5625, 19.3125, 19.151787, 19.160713, 19.1875, 19.25, 19.1875, 19.1875, 19.125, 19, 18.875, 18.875, 18.8125, 18.6875, 18.5625, 18.375, 18.1875, 18.125, 18.0625, 18, 18, 18, 18, 18, 18, 18, 18, 18, 17.9375, 17.8125, 17.625, 17.5, 17.4375, 17.375, 17.3125, 17.1875, 17.0625, 17, 16.9375, 16.8125, 16.75, 16.75, 16.8125, 16.875, 16.8125, 16.6875, 16.4375, 16.25, 16.125, 16, 16, 16, 16, 16, 16, 15.9375, 15.75, 15.6875, 15.625, 15.5625, 15.5625, 15.5, 15.3125, 15.25, 15.1875, 15.0625, 15.0625, 15, 15, 15, 15, 15, 14.9375, 14.8125, 14.6875, 14.5625, 14.5, 14.375, 14.25, 14.125, 14, 14.0625, 14.125, 14.125, 14.125, 14.0625, 13.9375, 13.9375, 13.8125, 13.6875, 13.5625, 13.3125, 13.1875, 13.0625, 13.0625, 13.0625, 13.0625, 13.0625, 13, 13, 12.9375, 12.9375, 12.9375, 12.8125, 12.8125, 12.75, 12.5, 12.375, 12.1875, 12.125, 12.035714, 11.964286, 12.0625, 11.910714, 11.875, 11.705357, 11.5625, 11.4375, 11.375, 11.3125, 11.1875, 11.125, 11.0625, 11, 11, 11.0625, 11.0625, 11.0625, 11.0625, 11, 11, 11, 10.9375, 10.8125, 10.625, 10.375, 10.1875, 10.0625, 10, 10, 10, 10, 10, 10, 10, 10, 9.8125, 9.5625, 9.1875, 8.875, 8.9732141, 9, 9.0625, 9, 9, 8.9375, 9, 9.1875, 9.125, 9.25, 9.5, 9.6696434, 9.875, 10, 10, 10, 10, 10, 10, 10, 10.0625, 10.1875, 10.375, 10.625, 10.8125, 10.875, 10.9375, 10.9375, 10.9375, 11, 11, 11, 11, 11, 11, 11, 11, 11.1875, 11.4375, 11.6875, 11.8125, 11.875, 11.875, 12.125, 12.375, 12.4375, 12.6875, 12.9375, 13.233333, -10, -10, -10, -10, -10, -10, -10, -10, -10, -10, -10, -10, -10, 36.608334, 36.200001, 36.205357, 36, -10, -10, -10, -10, -10, -10, -10, -10, 35.651787, 35.799999, 36.378967, 37.092262, 37.241074, 37.25, 37.3125, 37.375, 37.625, 37.6875, 37.75, 37.895836, 38, 38.266666, -10, -10, -10, 37.875, 37.75, 37.5625, 37.416668, 16.375, 16.416666, 16.3125, 16.3125, 16.3125, 16.3125, 16.4375, 16.5625, 16.830357, 17.333334, 17.419643, 17.5, 17.25, 17.1875, 17.125, 17.125, 17.3125, 17.3125, 17.3125, 17.3125, 17.3125, 17.5, 17.75, 18, 18.0625, 18.125, 18.1875, 18.125, 18.1875, 18.1875, 18.25, 18.4375, 18.348213, 18.214287, 18.125, 18.125, 18.3125, 18.535713, 18.75, 18.919643, 19.25, 19.625, 19.770834, 19.434523, 19.266666, -10, -10, -10
21.8125, 21.8125, 21.875, 21.9375, 22, 22, 21.9375, 21.678572, 21.3125, 21.3125, 21.294643, 21.4375, 21.4375, 21.25, 21.125, 21, 21, 21, 21, 20.9375, 20.875, 20.6875, 20.5, 20.4375, 20.375, 20.3125, 20.276787, 20.25, 20.125, 20.125, 20.0625, 20, 20, 20, 19.875, 19.625, 19.3125, 19.151787, 19.098213, 19.0625, 19.125, 19, 19, 19, 19, 19, 19, 18.9375, 18.8125, 18.625, 18.4375, 18.25, 18.125, 18.0625, 18, 18, 18, 18, 18, 18, 18, 18, 18, 18, 17.875, 17.75, 17.6875, 17.5625, 17.5, 17.4375, 17.25, 17.125, 17.0625, 16.9375, 16.875, 16.875, 16.875, 16.9375, 17, 16.8125, 16.625, 16.375, 16.125, 16.0625, 16, 16, 16, 16, 16, 16, 16, 15.875, 15.875, 15.75, 15.5625, 15.4375, 15.3125, 15.1875, 15.1875, 15.1875, 15.0625, 15.0625, 14.9375, 14.9375, 14.9375, 14.9375, 14.9375, 14.8125, 14.6875, 14.625, 14.5, 14.4375, 14.3125, 14.125, 14.0625, 14.0625, 14.125, 14.1875, 14.1875, 14.125, 14.0625, 13.9375, 13.9375, 13.75, 13.5625, 13.5, 13.3125, 13.25, 13.1875, 13.125, 13.0625, 13.0625, 13.0625, 13, 13, 12.9375, 12.9375, 12.9375, 12.8125, 12.8125, 12.8125, 12.625, 12.5, 12.3125, 12.125, 11.973214, 11.901786, 12, 11.973214, 12, 11.892857, 11.8125, 11.625, 11.5, 11.375, 11.1875, 11.125, 11.0625, 11, 11, 11.0625, 11.0625, 11.0625, 11.0625, 11, 11, 11, 11, 10.9375, 10.75, 10.5, 10.3125, 10.125, 10.0625, 10.0625, 10, 10, 10, 10, 10, 10, 9.8125, 9.5625, 9.25, 9, 9.0982141, 9.1875, 9.25, 9.1875, 9.1875, 9.0625, 9.0625, 9.1875, 9.1875, 9.375, 9.625, 9.75, 9.9375, 10, 10, 10, 10, 10, 10, 10, 10, 10.0625, 10.25, 10.5, 10.75, 10.9375, 11, 11, 11, 11, 11, 11, 11, 11, 11, 11, 11, 11.1875, 11.4375, 11.6875, 11.875, 11.9375, 11.9375, 12.125, 12.375, 12.4375, 12.6875, 13, 13.370833, -10, -10, -10, -10, -10, -10, -10, -10, -10, -10, -10, -10, 37, 36.441666, 35.799999, 35.910713, 35.708332, -10, -10, -10, -10, -10, -10, -10, -10, 35.25, 35.325001, 35.949402, 36.404762, 36.678574, 36.75, 36.9375, 37.0625, 37.3125, 37.4375, 37.46875, 37.666668, 37.916668, 38.225399, -10, -10, -10, 37.8125, 37.625, 37.4375, 37.25, 16.625, 16.666666, 16.5625, 16.5625, 16.5625, 16.5625, 16.6875, 16.8125, 17.008928, 17.333334, 17.419643, 17.4375, 17.25, 17.25, 17.1875, 17.1875, 17.375, 17.375, 17.4375, 17.4375, 17.375, 17.4375, 17.625, 17.8125, 17.9375, 18.0625, 18.125, 18.125, 18.1875, 18.1875, 18.1875, 18.375, 18.348213, 18.276787, 18.142857, 18.071428, 18.1875, 18.375, 18.625, 18.919643, 19.25, 19.5, 19.6875, 19.517857, 19.433332, -10, -10, -10, -10, -10, -10, -10, -10, -10, -10, -10, -10, -10, -10, -10, -10, -10, -10, -10, 23.75, 23.916668, 23.75, 23.5625, 23.330357, 23.0625, 23, 23, 23, 23.0625, 23.0625, 23.0625, 23.0625, 23, 23.125, 23.125, 23.0625, 22.892857, 22.625, 22.5625, 22.625, 22.625, 22.651787, 22.625, 22.5625, 22.5625, 22.4375, 22.3125, 22.125, 22, 21.9375, 21.875, 21.8125, 21.8125, 21.9375, 22.125, 22.25, 22.142857, 22.071428, 21.803572, 21.4375, 21.4375, 21.357143, 21.5, 21.5, 21.3125, 21.1875, 21, 21, 21, 21, 21, 20.9375, 20.75, 20.5, 20.375, 20.3125, 20.1875, 20.151787, 20.125, 20, 20.0625, 20.0625, 20, 20, 20, 19.875, 19.625, 19.375, 19.1875, 19.0625, 19.0625, 19.0625, 19, 19, 19, 19, 19, 18.9375, 18.875, 18.75, 18.5625, 18.4375, 18.25, 18.125, 18.0625, 18, 18, 18, 18, 18, 18, 18, 18, 18, 18, 17.8125, 17.6875, 17.625, 17.5, 17.5, 17.4375, 17.25, 17.125, 17.0625, 17, 17, 17, 17, 17, 17, 16.75, 16.5, 16.25, 16, 16, 16, 16, 16, 16, 16, 16, 16, 15.9375, 15.9375, 15.75, 15.5, 15.3125, 15.25, 15.1875, 15.25, 15.25, 15.0625, 15.0625, 14.9375, 14.9375, 14.9375, 14.9375, 14.875, 14.75, 14.6875, 14.625, 14.625, 14.5625, 14.375, 14.1875, 14.0625, 14.0625, 14.1875, 14.25, 14.25, 14.1875, 14.0625, 14, 13.9375, 13.6875, 13.5, 13.375, 13.3125, 13.3125, 13.25, 13.1875, 13.0625, 13.0625, 13.0625, 13, 13, 12.9375, 12.9375, 12.9375, 12.8125, 12.75, 12.75, 12.625, 12.5, 12.375, 12.125, 11.9375, 11.9375, 11.9375, 11.9375, 12, 12, 11.9375, 11.75, 11.5625, 11.375, 11.1875, 11.125, 11.0625, 11, 11, 11.0625, 11.0625, 11.0625, 11.0625, 11, 11, 11, 11, 11, 10.75, 10.5, 10.3125, 10.0625, 10.0625, 10.0625, 10, 10, 10, 10, 10, 10, 9.8125, 9.5625, 9.3125, 9.0625, 9.0625, 9.1875, 9.1875, 9.1875, 9.125, 9, 9, 9.125, 9.1875, 9.375, 9.625, 9.75, 9.9375, 10, 10, 10, 10, 10, 10, 10.0625, 10.0625, 10.0625, 10.25, 10.4375, 10.6875, 10.9375, 11, 11, 11, 11.03125, 11.09375, 11.15625, 11.21875, 11.25, 11.25, 11.321428, 11.45, 11.508928, 11.696428, 11.8125, 12, 12, 12, 12.1875, 12.375, 12.4375, 12.6875, 13, 13.370833, -10, -10, -10, -10, -10, -10, -10, -10, -10, -10, -10, -10, -10, 36.441666, 35.799999, 35.848213, 35.583332, -10, -10, -10, -10, -10, -10, -10, -10, -10, 35.100002, 35.220238, 35.690475, 36.035713, 36.28125, 36.59375, 36.78125, 37.03125, 37.1875, 37.1875, 37.4375, 37.8125, 38.106548, 38.125, 38.125, 38, 37.8125, 37.5625, 37.416668, 37.111111, 16.791666, 16.854166, 16.8125, 16.8125, 16.75, 16.776787, 16.973213, 17.0625, 17.25, 17.25, 17.25, 17.276787, 17.294643, 17.428572, 17.375, 17.3125, 17.4375, 17.4375, 17.5625, 17.5625, 17.4375, 17.375, 17.5, 17.6875, 17.875, 18.0625, 18.125, 18.125, 18.125, 18.125, 18.0625, 18.25, 18.410713, 18.401787, 18.294643, 18.321428, 18.410713, 18.5625, 18.75, 18.982143, 19.1875, 19.375, 19.5, 19.4375, 19.416666, -10, -10, -10
21.9375, 22, 22.125, 22.25, 22.3125, 22.142857, 22.071428, 21.866072, 21.5, 21.4375, 21.357143, 21.4375, 21.4375, 21.3125, 21.1875, 21, 21, 21, 21, 21, 20.9375, 20.75, 20.5625, 20.5, 20.375, 20.25, 20.151787, 20, 19.9375, 20, 20, 20, 19.9375, 19.875, 19.6875, 19.4375, 19.25, 19.0625, 19, 19, 19, 19, 18.9375, 18.9375, 18.9375, 18.9375, 18.9375, 18.9375, 18.8125, 18.625, 18.5, 18.25, 18.125, 18.0625, 18, 18, 18, 18, 18, 18, 18, 18, 18, 18, 17.75, 17.625, 17.5, 17.3125, 17.3125, 17.25, 17.125, 17.0625, 17.0625, 17, 17, 17, 17, 16.9375, 16.875, 16.6875, 16.5, 16.3125, 16.125, 16.0625, 16.0625, 16.0625, 16.0625, 16.0625, 16, 16, 16, 16, 16, 15.8125, 15.625, 15.375, 15.3125, 15.25, 15.1875, 15.25, 15.0625, 15.0625, 15, 14.9375, 14.9375, 14.9375, 14.8125, 14.625, 14.5625, 14.4375, 14.4375, 14.5, 14.3125, 14.1875, 14.125, 14.0625, 14.1875, 14.25, 14.25, 14.1875, 14.0625, 14, 13.875, 13.625, 13.5, 13.4375, 13.4375, 13.4375, 13.3125, 13.1875, 13.0625, 13.0625, 13.0625, 12.9375, 12.875, 12.8125, 12.8125, 12.875, 12.8125, 12.75, 12.75, 12.625, 12.5, 12.375, 12.125, 12, 12, 12, 12, 12, 12, 11.9375, 11.6875, 11.5, 11.3125, 11.125, 11.125, 11.0625, 11, 11, 11.0625, 11.0625, 11.0625, 11.0625, 11, 11, 11, 10.9375, 10.875, 10.625, 10.375, 10.25, 10.0625, 10.0625, 10.0625, 10, 10, 10, 10, 10, 10, 9.875, 9.6875, 9.4375, 9.1875, 9.0625, 9.0625, 9.0625, 9.0625, 9.0625, 9, 9.0625, 9.125, 9.1875, 9.3125, 9.5, 9.6875, 9.875, 10, 10, 10, 10, 10, 10, 10.205357, 10.45238, 10.520409, 10.714286, 10.857142, 11.071428, 11.321428, 11.367347, 11.4, 11.285714, 11.424107, 11.53125, 11.53125, 11.53125, 11.59375, 11.6875, 12, 12.307142, 12.045918, 12.224489, 12.25, 12.357142, 12.357142, 12.357142, 12.489797, 12.666667, 12.607143, 12.78125, 13.09375, 13.495833, -10, -10, -10, -10, -10, -10, -10, -10, -10, -10, -10, -10, -10, 36.545834, 35.974998, 35.941963, 35.697914, 36.125, -10, -10, -10, -10, -10, -10, -10, -10, -10, 35.198414, 35.482143, 35.773811, 35.9375, 36.25, 36.5, 36.660713, 36.791668, 37.071426, 37.330357, 37.75, 37.960716, 37.916668, 37.833332, 37.75, 37.6875, 37.5625, 37.388889, 16.416668, 16.791666, 16.8125, 16.8125, 16.75, 16.696428, 16.851786, 16.928572, 17.0625, 17.125, 17.0625, 16.9375, 16.901787, 16.982143, 17.241072, 17.3125, 17.3125, 17.375, 17.375, 17.5, 17.5, 17.375, 17.25, 17.375, 17.5625, 17.8125, 18.0625, 18.125, 18.125, 18.1875, 18.25, 18.25, 18.5, 18.785713, 18.776787, 18.669643, 18.633928, 18.598213, 18.75, 18.9375, 19.169643, 19.3125, 19.4375, 19.4375, 19.3125, 19.25, -10, -10, -10, -10, -10, -10, -10, -10, -10, -10, -10, -10, -10, -10, -10, -10, -10, -10, -10, 23.625, 23.666668, 23.625, 23.5625, 23.517857, 23.4375, 23.375, 23.25, 23.125, 23.1875, 23.125, 23.125, 23.0625, 23, 23.035713, 22.830357, 22.696428, 22.392857, 22.1875, 22.1875, 22.25, 22.3125, 22.375, 22.375, 22.375, 22.4375, 22.375, 22.1875, 22, 21.875, 21.875, 22, 22.125, 22.1875, 22.25, 22.3125, 22.25, 22.017857, 21.883928, 21.678572, 21.375, 21.3125, 21.232143, 21.25, 21.25, 21.1875, 21.125, 21.0625, 21.0625, 21.0625, 21.0625, 21, 20.9375, 20.75, 20.625, 20.5625, 20.375, 20.1875, 20.026787, 19.875, 19.875, 20, 20, 20.0625, 19.973213, 19.767857, 19.642857, 19.375, 19.25, 19.125, 19, 19, 19.0625, 19.0625, 19, 19, 18.9375, 18.9375, 18.9375, 18.9375, 18.8125, 18.5625, 18.375, 18.125, 18, 18, 18, 18, 18, 18, 18, 18, 18, 18, 18, 18, 17.75, 17.5625, 17.375, 17.125, 17.125, 17.125, 17.0625, 17.0625, 17.0625, 17, 17, 17, 17, 16.875, 16.75, 16.625, 16.5, 16.375, 16.25, 16.1875, 16.125, 16.125, 16.125, 16.0625, 16, 16, 16, 16, 16, 15.875, 15.75, 15.5625, 15.5, 15.4375, 15.375, 15.4375, 15.3125, 15.25, 15.125, 15, 14.9375, 14.9375, 14.75, 14.5625, 14.4375, 14.25, 14.3125, 14.375, 14.25, 14.25, 14.25, 14.25, 14.4375, 14.4375, 14.375, 14.25, 14.0625, 14, 13.8125, 13.5625, 13.4375, 13.375, 13.4375, 13.4375, 13.3125, 13.125, 13, 13, 13, 12.9375, 12.8125, 12.75, 12.75, 12.8125, 12.8125, 12.75, 12.6875, 12.5625, 12.4375, 12.3125, 12.125, 12, 12, 12, 12, 12, 12, 12, 11.75, 11.5625, 11.375, 11.1875, 11.1875, 11.125, 11.0625, 11, 11, 11, 11, 11, 11, 11, 11, 10.875, 10.75, 10.5, 10.25, 10.1875, 10.0625, 10.0625, 10.0625, 10, 10, 10, 10, 10, 9.9375, 9.875, 9.75, 9.5, 9.3125, 9.125, 9, 9, 9, 9, 9, 9.125, 9.1875, 9.1875, 9.3125, 9.5, 9.7946434, 10.125, 10.375, 10.285714, 10.392858, 10.489797, 10.535714, 10.571428, 10.806122, 12.180556, 12.255952, 12.458333, 12.5, 12.666667, 12.916667, 12.773808, 12.025, 12.333333, 11.799107, 11.90625, 11.96875, 12.138393, 12.28125, 12.5, 13.142858, 13.565306, 13.839286, 13.964286, 13.791667, 13.666667, 13.666667, 13.583333, 13.601192, 13.041667, 12.857143, 12.90625, 13.15625, 13.529166, -10, -10, -10, -10, -10, -10, -10, -10, -10, -10, -10, -10, -10, 36.583332, 36.183334, 36.111607, 35.802082, 35.958332, 35.916664, -10, -10, -10, -10, -10, -10, -10, -10, -10, 35.166668, 35.53175, 35.75, 36.125, 36.395832, 36.473213, 36.604168, 36.946426, 37.205357, 37.669643, 37.785713, 37.8125, 37.71875, 37.65625, 37.65625, 37.635418, 16, 16.111113, 16.491667, 16.741072, 16.833334, 16.8125, 16.9375, 17.021429, 17.053572, 17.0625, 17, 16.9375, 16.8125, 16.839287, 16.982143, 17.178572, 17.25, 17.1875, 17.1875, 17.1875, 17.375, 17.5, 17.5, 17.4375, 17.5, 17.625, 17.875, 18.125, 18.125, 18.125, 18.1875, 18.3125, 18.375, 18.625, 18.9375, 19, 18.919643, 18.946428, 18.910713, 19.125, 19.25, 19.205357, 19.133928, 19.125, 19.125, 19.0625, 19.083334, -10, -10, -10
22.1875, 22.25, 22.3125, 22.375, 22.25, 22.017857, 21.883928, 21.75, 21.625, 21.4375, 21.25, 21.125, 21.0625, 21.0625, 21.0625, 21.0625, 21.0625, 21.0625, 21.0625, 20.9375, 20.875, 20.75, 20.6875, 20.625, 20.4375, 20.25, 20.0625, 19.9375, 19.9375, 20, 20, 20.0625, 19.973213, 19.767857, 19.642857, 19.375, 19.25, 19.125, 19, 19, 19.0625, 19.0625, 19, 19, 18.9375, 18.9375, 18.9375, 18.9375, 18.8125, 18.625, 18.4375, 18.1875, 18.125, 18.125, 18.125, 18.125, 18.0625, 18, 18, 18, 18, 18, 18, 18, 17.8125, 17.625, 17.375, 17.125, 17.0625, 17.0625, 17.125, 17.125, 17.125, 17.0625, 17, 17, 17, 16.8125, 16.6875, 16.625, 16.5625, 16.5625, 16.5, 16.4375, 16.303572, 16.125, 16.125, 16, 16, 15.9375, 15.875, 15.875, 15.875, 15.875, 15.875, 15.6875, 15.5625, 15.5, 15.375, 15.4375, 15.375, 15.25, 15.1875, 15.0625, 15, 15, 14.75, 14.5625, 14.5, 14.25, 14.3125, 14.375, 14.1875, 14.25, 14.3125, 14.3125, 14.5, 14.4375, 14.3125, 14.1875, 14, 14, 13.741072, 13.208333, 13.104167, 13.107143, 13.241072, 13.3125, 13.1875, 13.0625, 13, 13, 13, 12.875, 12.6875, 12.5625, 12.5, 12.625, 12.75, 12.8125, 12.75, 12.5625, 12.375, 12.1875, 12.0625, 12, 12, 12, 12, 12, 12, 12, 11.8125, 11.6875, 11.5625, 11.4375, 11.4375, 11.375, 11.25, 11.125, 11.0625, 11, 11, 11, 11, 11, 11, 10.875, 10.6875, 10.4375, 10.1875, 10.0625, 10, 10, 10, 10, 10, 10, 10, 10, 9.9375, 9.9375, 9.875, 9.625, 9.4375, 9.1875, 9, 9, 9, 9, 9, 9.125, 9.25, 9.375, 9.6785717, 10.053572, 10.224489, 10.632653, 10.964286, 11.6, 12.25, 12.476192, 12.583333, 12.666667, 12.803571, 12.930273, 12.790816, 12.857142, 12.714286, 12.821428, 13.083333, 12.806122, 12.528571, 12.5, 12.174107, 12.40625, 12.647322, 12.995536, 13.15625, 13.642858, 13.959184, 14.057142, 14.32653, 14.32653, 14.142858, 14.071428, 14.142858, 14.071428, 14.086736, 13.541667, 13.232143, 13.15625, 13.28125, 13.424999, -10, -10, -10, -10, -10, -10, -10, -10, -10, -10, -10, -10, -10, 36.5625, 36.395832, 36.28125, 36.03125, 35.96875, 35.944443, -10, -10, -10, -10, -10, -10, -10, -10, -10, -10, -10, -10, 36.083332, 36.361111, 36.380951, 36.354168, 36.696426, 36.892857, 37.232143, 37.321426, 37.5, 37.40625, 37.46875, 37.46875, 37.510418, 37.444447, 16.208334, 16.491667, 16.776785, 16.895834, 16.875, 17, 17.083929, 17.116072, 17.125, 17, 16.9375, 16.8125, 16.839287, 16.982143, 17.116072, 17.1875, 17.125, 17.0625, 17.0625, 17.1875, 17.3125, 17.375, 17.4375, 17.5, 17.625, 17.9375, 18.160713, 18.1875, 18.1875, 18.1875, 18.3125, 18.4375, 18.625, 18.8125, 18.875, 18.964287, 19.160713, 19.223213, 19.4375, 19.5625, 19.455357, 19.383928, 19.375, 19.1875, 19.125, 19.083334, -10, -10, -10, -10, -10, -10, -10, -10, -10, -10, -10, -10, -10, -10, -10, -10, -10, -10, -10, 23.875, 23.75, 23.6875, 23.625, 23.625, 23.625, 23.625, 23.4375, 23.3125, 23.25, 23.125, 23.125, 23, 22.875, 22.785713, 22.455357, 22.321428, 22.392857, 22.535713, 22.5625, 22.455357, 22.25, 22.25, 22.3125, 22.375, 22.5, 22.4375, 22.3125, 22.223213, 22.017857, 21.946428, 22, 22.1875, 22.25, 22.25, 22.1875, 22, 21.875, 21.8125, 21.75, 21.6875, 21.5, 21.3125, 21.125, 21, 21, 21, 21.0625, 21.0625, 21.0625, 21.0625, 20.9375, 20.9375, 20.75, 20.6875, 20.625, 20.375, 20.3125, 20.125, 20, 20, 20, 20, 20.0625, 19.973213, 19.767857, 19.705357, 19.4375, 19.3125, 19.1875, 19, 19, 19.125, 19.1875, 19.1875, 19.1875, 19.0625, 19, 19, 19, 18.9375, 18.75, 18.5, 18.3125, 18.25, 18.3125, 18.3125, 18.25, 18.125, 18, 18, 18, 18, 18, 18, 17.9375, 17.8125, 17.6875, 17.4375, 17.25, 17.125, 17.0625, 17.125, 17.125, 17.125, 17.0625, 17.0625, 17.0625, 17, 16.776787, 16.625, 16.5625, 16.5625, 16.5625, 16.5625, 16.5, 16.366072, 16.1875, 16.125, 16, 16, 15.9375, 15.875, 15.875, 15.875, 15.9375, 15.9375, 15.8125, 15.625, 15.5, 15.375, 15.375, 15.375, 15.25, 15.25, 15.125, 15.0625, 15.0625, 14.8125, 14.625, 14.5625, 14.375, 14.375, 14.375, 14.1875, 14.1875, 14.25, 14.3125, 14.4375, 14.375, 14.25, 14.125, 14, 14, 13.732143, 13.083333, 12.979167, 12.919643, 13.053572, 13.125, 13.0625, 13, 12.9375, 12.875, 12.8125, 12.625, 12.4375, 12.3125, 12.25, 12.4375, 12.6875, 12.8125, 12.75, 12.5, 12.25, 12.0625, 12, 12, 12, 12, 12, 12, 12, 12, 11.875, 11.8125, 11.75, 11.6875, 11.6875, 11.5625, 11.375, 11.1875, 11.0625, 11, 11, 11, 11, 11, 11, 10.8125, 10.5625, 10.3125, 10.0625, 10, 10, 10, 10, 10, 10, 10, 10, 10, 9.9375, 9.9375, 9.9375, 9.75, 9.5625, 9.375, 9.125, 9.0625, 9.0625, 9, 9, 9.1875, 9.4375, 9.8035717, 10.285715, 10.954082, 11.726192, 12.184525, 12.5, 12.666667, 12.857142, 13.12245, 13.285714, 13.346939, 13.129251, 13.104167, 12.982142, 13.1875, 13.0625, 13.125, 12.928572, 12.892857, 12.65, 12.6875, 12.580357, 12.875, 13.178572, 13.831633, 13.982142, 14.25, 14.241072, 14.357143, 14.5, 14.4375, 14.3125, 14.25, 14.375, 14.375, 14.357143, 14.041667, 13.607143, 13.40625, 13.46875, 13.458333, -10, -10, -10, -10, -10, -10, -10, -10, -10, -10, -10, 36, 36, 36.5, 36.348213, 36.111607, 35.924107, 35.84375, 35.833332, 35.625, 35.5, -10, -10, -10, -10, -10, -10, -10, -10, -10, -10, -10, -10, -10, 36.138889, 36.595238, 36.455357, 36.59864, 36.852676, 37.09375, 37.0625, 37.1875, 37.21875, 37.322918, 37.222225, 16.083334, 16.325001, 16.651785, 16.770834, 16.8125, 17.0625, 17.119644, 17.080357, 17.1875, 17.125, 17.294643, 17.3125, 17.142857, 17.303572, 17.104166, 17.071428, 17, 17, 16.9375, 17.026787, 17.294643, 17.5, 17.660713, 17.580357, 17.642857, 17.875, 18.098213, 18.1875, 18.1875, 18.1875, 18.28125, 18.4375, 18.625, 18.75, 18.84375, 19, 19.098213, 19.25, 19.5625, 19.785713, 19.767857, 19.696428, 19.5625, 19.3125, 19.1875, 19.083334, -10, -10, -10
22.125, 22.125, 22.125, 22.0625, 21.9375, 21.875, 21.75, 21.625, 21.625, 21.4375, 21.375, 21.25, 21.0625, 21.0625, 21, 21.0625, 21.0625, 21.0625, 21.0625, 20.9375, 20.9375, 20.75, 20.625, 20.5, 20.25, 20.1875, 20.0625, 20, 20, 20, 20, 20, 19.910713, 19.767857, 19.767857, 19.625, 19.5, 19.3125, 19.0625, 19, 19.1875, 19.3125, 19.375, 19.375, 19.1875, 19.0625, 19, 19, 18.9375, 18.75, 18.5, 18.375, 18.375, 18.5, 18.5, 18.375, 18.1875, 18, 18, 18, 18, 18, 18, 17.9375, 17.875, 17.8125, 17.5625, 17.375, 17.1875, 17.0625, 17.125, 17.125, 17.125, 17.0625, 17.0625, 17.0625, 17, 16.776787, 16.625, 16.5625, 16.5625, 16.5625, 16.5625, 16.5, 16.303572, 16.125, 16.0625, 15.9375, 16, 15.9375, 15.875, 15.875, 15.875, 15.9375, 15.9375, 15.8125, 15.625, 15.5, 15.375, 15.3125, 15.3125, 15.1875, 15.1875, 15.125, 15.0625, 15.0625, 14.875, 14.75, 14.6875, 14.5625, 14.5, 14.375, 14.1875, 14.125, 14.1875, 14.25, 14.375, 14.375, 14.285714, 14.1875, 14.0625, 14, 13.732143, 13.083333, 12.916667, 12.794643, 12.928572, 13, 13, 13, 12.9375, 12.875, 12.8125, 12.625, 12.4375, 12.25, 12.125, 12.25, 12.4375, 12.5625, 12.5, 12.3125, 12.125, 12, 12, 12, 12, 12, 11.9375, 11.875, 11.875, 11.875, 11.875, 11.9375, 11.875, 11.875, 11.875, 11.6875, 11.5, 11.25, 11.0625, 11, 11, 11, 11, 11, 11, 10.8125, 10.625, 10.4375, 10.1875, 10.125, 10.0625, 10, 10, 10, 10, 10, 10, 10, 9.9375, 9.9375, 9.9375, 9.75, 9.5625, 9.4375, 9.25, 9.1875, 9.1875, 9.0625, 9, 9.125, 9.375, 9.9196434, 10.873215, 11.585034, 12.285714, 12.419643, 12.75, 12.9375, 13.1875, 13.419643, 13.625, 13.803572, 13.604167, 13.4375, 13.196428, 13.25, 13.0625, 13.0625, 12.8125, 12.625, 12.625, 12.5, 12.5625, 12.875, 13.303572, 14.021428, 14.008928, 14.267857, 14.25, 14.285714, 14.4375, 14.3125, 14.1875, 14.1875, 14.25, 14.25, 14.25, 14.125, 13.6875, 13.4375, 13.4375, 13.333333, -10, -10, -10, -10, -10, -10, -10, -10, -10, -10, -10, 36, 36, 36.3125, 36.223213, 36.017857, 35.955357, 35.816963, 35.714287, 35.654762, 35.333332, -10, -10, -10, -10, -10, -10, -10, -10, -10, -10, -10, -10, -10, -10, -10, 36.083332, 36.365082, 36.290176, 36.635418, 36.6875, 36.9375, 36.96875, 37.09375, 37.166668, 16, 16.325001, 16.776785, 17.002977, 17.107143, 17.241072, 17.232143, 17.294643, 17.375, 17.4375, 17.669643, 17.8125, 18.166666, 17.803572, 17.479166, 17.258928, 17.0625, 16.892857, 16.75, 16.848215, 17.315477, 17.6875, 17.910713, 17.767857, 17.830357, 17.9375, 18.098213, 18.1875, 18.1875, 18.1875, 18.21875, 18.25, 18.339287, 18.375, 18.53125, 19.020834, 19.214285, 19.5, 19.8125, 20.035713, 20.017857, 19.946428, 19.8125, 19.625, 19.5, 19.416666, -10, -10, -10, -10, -10, -10, -10, -10, -10, -10, -10, -10, -10, -10, -10, -10, -10, -10, -10, 24.125, 24.166666, 24.0625, 24.125, 24, 23.875, 23.875, 23.6875, 23.6875, 23.625, 23.5, 23.375, 23.1875, 23, 22.9375, 22.8125, 22.75, 22.892857, 23.035713, 22.875, 22.642857, 22.4375, 22.375, 22.5625, 22.6875, 22.75, 22.75, 22.8125, 22.821426, 22.473213, 22.267857, 22.0625, 22, 22, 22, 22, 22, 22, 21.875, 21.8125, 21.8125, 21.5625, 21.5625, 21.375, 21.125, 21.125, 21, 21, 21, 20.9375, 20.9375, 20.875, 20.875, 20.75, 20.5625, 20.375, 20.125, 20.0625, 20, 20, 20, 20, 20, 19.9375, 19.875, 19.875, 19.875, 19.75, 19.5625, 19.375, 19.1875, 19.125, 19.25, 19.3125, 19.3125, 19.3125, 19.1875, 19.0625, 19, 19, 18.875, 18.75, 18.5, 18.4375, 18.5625, 18.625, 18.625, 18.4375, 18.1875, 18, 18, 18, 18, 18, 18, 17.9375, 17.9375, 17.875, 17.625, 17.4375, 17.1875, 17.0625, 17.125, 17.125, 17.125, 17.0625, 17.0625, 17.0625, 17, 16.839287, 16.75, 16.6875, 16.625, 16.5625, 16.5, 16.4375, 16.303572, 16.125, 16.0625, 15.9375, 16, 15.9375, 15.875, 15.875, 15.875, 15.9375, 15.9375, 15.75, 15.5, 15.3125, 15.125, 15.0625, 15.0625, 15, 15.0625, 15.0625, 15.0625, 15.0625, 14.9375, 14.875, 14.875, 14.8125, 14.75, 14.553572, 14.1875, 14.0625, 14, 14.0625, 14.125, 14.1875, 14.160714, 14.125, 14.0625, 14, 13.794643, 13.208333, 13.104167, 13.044643, 13.116072, 13.125, 13.0625, 13, 12.9375, 12.875, 12.75, 12.5, 12.3125, 12.1875, 12.0625, 12.1875, 12.375, 12.4375, 12.4375, 12.3125, 12.125, 12, 12, 11.9375, 11.9375, 11.9375, 11.875, 11.8125, 11.8125, 11.8125, 11.875, 11.9375, 11.8125, 11.75, 11.6875, 11.5625, 11.4375, 11.25, 11.0625, 11, 11, 11, 11, 11, 10.9375, 10.8125, 10.625, 10.4375, 10.25, 10.125, 10.0625, 10, 10, 10, 10, 10, 10, 10, 10, 9.9375, 9.875, 9.75, 9.5, 9.5, 9.4375, 9.375, 9.375, 9.1875, 9.0625, 9.0625, 9.3928566, 10.46131, 11.542856, 12.074405, 12.571428, 12.732143, 12.9375, 13, 13.125, 13.25, 13.4375, 13.616072, 13.416667, 13.375, 13.196428, 13.25, 13.0625, 12.9375, 12.5625, 12.4375, 12.5, 12.4375, 12.625, 12.9375, 13.303572, 13.914286, 13.928572, 14.305357, 14.196428, 14.285714, 14.25, 14.125, 14, 14.0625, 14.125, 14.1875, 14.1875, 14.125, 13.75, 13.4375, 13.375, 13.299999, -10, -10, -10, -10, -10, -10, -10, -10, -10, -10, -10, -10, 36, 36.125, 36.098213, 35.955357, 36.017857, 35.848213, 35.776787, 35.741074, 35.607143, 36.190475, 35.599998, -10, -10, -10, -10, -10, -10, -10, -10, -10, -10, -10, -10, -10, -10, -10, 35.886906, 36.347225, 36.34375, 36.635418, 36.71875, 36.84375, 36.96875, 37, 16.875, 17.098213, 17.294643, 17.294643, 17.1875, 17.1875, 17.107143, 17.25, 17.4375, 17.776787, 18, 18.125, 17.991072, 17.604166, 17.321428, 17, 16.767857, 16.642857, 16.869049, 17.369049, 17.75, 17.910713, 17.767857, 17.830357, 17.875, 17.973213, 18.0625, 18.0625, 18.125, 18.21875, 18.25, 18.276787, 18.330357, 18.677084, 19.199406, 19.401785, 19.625, 19.8125, 19.973213, 20.125, 20.125, 20.0625, 19.875, 19.75, 19.666666, -10, -10, -10
22, 22, 22, 22, 22, 22, 21.8125, 21.6875, 21.6875, 21.5, 21.5625, 21.4375, 21.1875, 21.125, 21, 21, 21, 20.875, 20.8125, 20.75, 20.75, 20.6875, 20.482143, 20.1875, 20, 19.9375, 20, 20, 20, 20, 20, 19.9375, 19.875, 19.875, 19.875, 19.8125, 19.6875, 19.5, 19.3125, 19.1875, 19.25, 19.3125, 19.3125, 19.3125, 19.1875, 19.0625, 19, 18.9375, 18.75, 18.625, 18.4375, 18.4375, 18.5625, 18.5625, 18.5, 18.3125, 18.125, 18, 18, 18, 18, 18, 18, 17.9375, 17.9375, 17.875, 17.625, 17.4375, 17.1875, 17, 17, 17, 17, 17, 17.0625, 17.0625, 17, 16.901787, 16.75, 16.625, 16.5, 16.3125, 16.3125, 16.3125, 16.25, 16.25, 16.125, 15.9375, 15.875, 15.875, 15.875, 15.9375, 16, 16, 15.9375, 15.75, 15.5, 15.25, 15.0625, 15, 15, 14.9375, 15, 15, 15, 15, 14.9375, 14.9375, 14.9375, 15, 14.875, 14.616072, 14.25, 14.0625, 13.9375, 13.9375, 13.9375, 14, 14.035714, 14.0625, 14.0625, 14, 13.866072, 13.625, 13.5, 13.375, 13.375, 13.25, 13.1875, 13.0625, 12.875, 12.8125, 12.6875, 12.5, 12.4375, 12.375, 12.3125, 12.3125, 12.4375, 12.375, 12.3125, 12.25, 12.0625, 12, 12, 11.9375, 11.9375, 11.9375, 11.875, 11.75, 11.75, 11.75, 11.8125, 11.875, 11.75, 11.625, 11.5, 11.375, 11.25, 11.125, 11, 11, 11, 11, 11, 11, 10.875, 10.6875, 10.5, 10.3125, 10.1875, 10.125, 10.0625, 10, 10, 10, 10, 10, 10, 10, 10, 9.9375, 9.875, 9.8125, 9.625, 9.6875, 9.6875, 9.5625, 9.5625, 9.4375, 9.4196434, 9.3571424, 9.9553566, 10.96131, 11.926786, 12.208333, 12.455357, 12.5, 12.625, 12.6875, 12.875, 13, 13.1875, 13.366072, 13.166667, 13.258928, 13.321428, 13.5, 13.5, 13.3125, 13, 12.8125, 12.75, 12.6875, 12.75, 12.9375, 13.1875, 13.744643, 13.910714, 14.305357, 14.321428, 14.410714, 14.25, 14.017857, 13.875, 13.875, 13.9375, 14.0625, 14.0625, 13.991072, 13.5625, 13.3125, 13.25, 13.299999, -10, -10, -10, -10, -10, -10, -10, -10, -10, -10, -10, -10, 36.125, 36.145832, 36.098213, 35.892857, 35.892857, 35.785713, 35.714287, 35.866074, 35.773808, 36.190475, -10, -10, -10, -10, -10, -10, -10, -10, -10, -10, -10, -10, -10, -10, -10, -10, -10, -10, 35.96875, 36.239586, 36.46875, 36.71875, 36.90625, 37, 17.285715, 17.3125, 17.482143, 17.419643, 17.25, 17.125, 16.919643, 17.0625, 17.375, 17.955357, 18.321428, 18.46875, 18.334822, 17.822916, 17.446428, 17.0625, 16.830357, 16.767857, 17.056549, 17.619049, 18, 18.098213, 17.955357, 17.955357, 17.875, 17.9375, 18, 18, 18.1875, 18.34375, 18.375, 18.526787, 18.580357, 18.927084, 19.386906, 19.428572, 19.5625, 19.6875, 19.848213, 20, 20.0625, 20, 19.875, 19.75, 19.666666, -10, -10, -10, -10, -10, -10, -10, -10, -10, -10, -10, -10, -10, -10, -10, -10, -10, -10, -10, 24.125, 24.166666, 24.125, 24.25, 24.1875, 24.0625, 24, 23.75, 23.75, 23.75, 23.75, 23.75, 23.5625, 23.375, 23.1875, 23.0625, 23, 23, 23, 22.875, 22.6875, 22.5625, 22.5625, 22.625, 22.625, 22.5625, 22.5, 22.5, 22.410713, 22.169643, 22.008928, 21.875, 21.9375, 22, 22, 22, 22, 22, 21.8125, 21.6875, 21.625, 21.4375, 21.5, 21.375, 21.1875, 21.125, 21, 21, 20.9375, 20.8125, 20.6875, 20.5625, 20.625, 20.625, 20.464287, 20.125, 20, 19.875, 20, 20, 20, 20, 20, 19.9375, 19.875, 19.875, 19.875, 19.875, 19.8125, 19.6875, 19.5, 19.3125, 19.25, 19.1875, 19.125, 19.125, 19.0625, 19, 18.9375, 18.875, 18.625, 18.5, 18.375, 18.3125, 18.4375, 18.375, 18.3125, 18.1875, 18.0625, 18, 18, 18, 18, 18, 18, 18, 18, 17.875, 17.625, 17.375, 17.125, 17, 17, 17, 17, 17, 17, 17, 17, 16.9375, 16.75, 16.625, 16.4375, 16.25, 16.3125, 16.375, 16.3125, 16.3125, 16.1875, 15.9375, 15.8125, 15.8125, 15.8125, 15.875, 15.9375, 15.9375, 15.875, 15.625, 15.4375, 15.1875, 15, 15, 15, 14.875, 14.8125, 14.8125, 14.8125, 14.8125, 14.8125, 14.75, 14.6875, 14.75, 14.625, 14.366072, 14.0625, 13.9375, 13.875, 13.9375, 13.9375, 14, 14.035714, 14.0625, 14.0625, 14, 13.875, 13.75, 13.5625, 13.4375, 13.375, 13.25, 13.1875, 13.0625, 12.9375, 12.9375, 12.8125, 12.625, 12.5625, 12.5, 12.4375, 12.375, 12.375, 12.1875, 12.151786, 12.294643, 12.169643, 12.125, 12.0625, 11.9375, 11.9375, 11.9375, 11.875, 11.75, 11.75, 11.75, 11.8125, 11.875, 11.75, 11.625, 11.4375, 11.3125, 11.1875, 11.0625, 11, 11, 11, 11, 10.9375, 10.875, 10.75, 10.625, 10.5, 10.375, 10.3125, 10.1875, 10.125, 10.0625, 10, 10, 10, 10, 10, 10, 10, 9.9375, 9.875, 9.8125, 9.6875, 9.6875, 9.6875, 9.5625, 9.5625, 9.625, 9.8482141, 10.476191, 10.663264, 11.542518, 12.132143, 12.333333, 12.455357, 12.40625, 12.4375, 12.4375, 12.625, 12.75, 12.9375, 13.1875, 13.25, 13.5, 13.625, 13.6875, 13.75, 13.5, 13.3125, 13.1875, 13.125, 13, 12.9375, 13, 13.1875, 13.744643, 13.973214, 14.430357, 14.508928, 14.723214, 14.625, 14.401786, 14.020833, 13.9375, 13.875, 14, 13.9375, 13.741072, 13.267857, 13.0625, 13.0625, 13.266666, -10, -10, -10, -10, -10, -10, -10, -10, -10, -10, -10, -10, 36.25, 36.25, 36.1875, 36.125, 36.0625, 35.910713, 35.776787, 35.866074, 35.773808, -10, -10, -10, -10, -10, -10, -10, -10, -10, -10, -10, -10, -10, -10, -10, -10, -10, -10, -10, 35.75, 36.027779, 36.291668, 36.71875, 36.90625, 37, 17.1875, 17.333334, 17.482143, 17.419643, 17.21875, 17.125, 16.919643, 17, 17.265625, 17.801338, 18.241072, 18.359375, 18.28125, 17.90625, 17.515625, 17.125, 16.830357, 16.892857, 17.217262, 17.699406, 18, 18.0625, 18.0625, 18.0625, 18, 18, 18, 18.0625, 18.3125, 18.5, 18.5625, 18.651787, 18.642857, 18.958334, 19.386906, 19.428572, 19.5, 19.5625, 19.6875, 19.875, 20, 20, 19.875, 19.75, 19.666666, -10, -10, -10
21.9375, 22, 22, 22, 22.0625, 22.0625, 21.9375, 21.875, 21.75, 21.5625, 21.5, 21.3125, 21.125, 21.0625, 21, 20.9375, 20.8125, 20.6875, 20.5625, 20.5, 20.625, 20.6875, 20.526787, 20.1875, 20.0625, 19.875, 20.0625, 20.125, 20.125, 20.125, 20.0625, 20, 20, 20, 20, 19.9375, 19.875, 19.75, 19.5625, 19.375, 19.1875, 19.0625, 19, 19, 19, 19, 18.9375, 18.875, 18.625, 18.5625, 18.5, 18.4375, 18.5625, 18.375, 18.25, 18.125, 18, 18, 18, 18, 18, 18, 18, 18, 17.9375, 17.75, 17.5, 17.25, 17.0625, 16.9375, 16.9375, 16.9375, 16.9375, 17, 17, 17, 17, 17, 16.875, 16.6875, 16.4375, 16.1875, 16.1875, 16.3125, 16.3125, 16.3125, 16.1875, 15.9375, 15.8125, 15.8125, 15.8125, 15.875, 15.9375, 15.9375, 15.8125, 15.5625, 15.375, 15.125, 14.9375, 14.9375, 14.9375, 14.8125, 14.8125, 14.8125, 14.8125, 14.75, 14.75, 14.6875, 14.5625, 14.625, 14.5625, 14.366072, 14.1875, 14.1875, 14.125, 14.1875, 14.125, 14.0625, 14, 14, 14, 13.9375, 13.8125, 13.6875, 13.5625, 13.5, 13.5, 13.375, 13.25, 13.125, 12.9375, 13, 12.9375, 12.794643, 12.6875, 12.6875, 12.625, 12.5625, 12.5, 12.25, 12.214286, 12.419643, 12.357143, 12.3125, 12.1875, 12, 11.9375, 11.9375, 11.9375, 11.875, 11.875, 11.875, 11.875, 11.875, 11.8125, 11.6875, 11.5, 11.4375, 11.25, 11.125, 11.0625, 11, 11, 11, 10.9375, 10.8125, 10.6875, 10.625, 10.4375, 10.3125, 10.25, 10.0625, 10.0625, 10.0625, 10, 10, 10, 10, 10, 10, 10, 9.9375, 9.8125, 9.75, 9.625, 9.5625, 9.5625, 9.5, 9.5625, 9.8125, 10.285714, 10.959184, 11.367347, 11.885417, 12.232143, 12.375, 12.3125, 12.28125, 12.3125, 12.375, 12.625, 12.875, 13.0625, 13.25, 13.25, 13.375, 13.4375, 13.5625, 13.75, 13.625, 13.625, 13.5625, 13.5, 13.4375, 13.3125, 13.3125, 13.4375, 13.825893, 14.214286, 14.6625, 14.727678, 14.8125, 14.59375, 14.308036, 13.958333, 13.875, 13.875, 14, 13.866072, 13.491072, 13.017857, 12.75, 12.830357, 13.183333, -10, -10, -10, -10, -10, -10, -10, -10, -10, -10, -10, -10, 36.25, 36.333332, 36.25, 36.25, 36.125, 35.90625, 35.78125, 35.78125, 35.815475, -10, -10, -10, -10, -10, -10, -10, -10, -10, -10, -10, -10, -10, -10, -10, -10, -10, -10, -10, -10, -10, -10, 36.78125, 36.90625, 37, 17.0625, 17.166668, 17.25, 17.28125, 17.3125, 17.15625, 16.96875, 17.03125, 17.265625, 17.863838, 18.303572, 18.421875, 18.34375, 17.96875, 17.578125, 17.21875, 17, 17.142857, 17.520834, 17.803572, 18, 18, 18, 18, 18.0625, 18.125, 18.1875, 18.3125, 18.5, 18.6875, 18.8125, 18.9375, 18.955357, 19.208334, 19.366072, 19.3125, 19.3125, 19.375, 19.5, 19.75, 19.9375, 20, 19.875, 19.8125, 19.75, -10, -10, -10, -10, -10, -10, -10, -10, -10, -10, -10, -10, -10, -10, -10, -10, -10, -10, -10, 23.875, 23.916666, 23.9375, 23.9375, 24, 23.9375, 23.875, 23.75, 23.75, 23.6875, 23.75, 23.875, 23.6875, 23.5625, 23.3125, 23.0625, 23, 23, 22.9375, 22.9375, 22.875, 22.75, 22.8125, 22.625, 22.4375, 22.3125, 22.125, 22.0625, 21.9375, 21.839287, 21.8125, 21.8125, 22, 22.0625, 22.0625, 22.0625, 22, 22, 21.875, 21.8125, 21.75, 21.625, 21.5, 21.3125, 21.125, 21, 21, 20.875, 20.75, 20.6875, 20.5625, 20.5625, 20.6875, 20.75, 20.589287, 20.25, 20.1875, 19.9375, 20.0625, 20.017857, 20, 20, 20, 20, 20, 20, 20, 20, 19.9375, 19.75, 19.5, 19.25, 19.0625, 19, 19, 19, 19, 19, 18.9375, 18.875, 18.625, 18.5625, 18.5625, 18.5, 18.625, 18.4375, 18.25, 18.125, 18, 18, 18, 18, 18, 18, 18, 18, 17.9375, 17.75, 17.5, 17.25, 17.0625, 16.9375, 16.9375, 16.9375, 16.9375, 17, 17, 17, 17, 17, 16.875, 16.625, 16.375, 16.125, 16.125, 16.25, 16.25, 16.25, 16.125, 15.9375, 15.8125, 15.8125, 15.8125, 15.875, 15.9375, 15.9375, 15.8125, 15.625, 15.5, 15.25, 15, 14.901786, 14.875, 14.75, 14.8125, 14.8125, 14.75, 14.6875, 14.6875, 14.625, 14.5, 14.5, 14.4375, 14.25, 14.25, 14.25, 14.1875, 14.1875, 14.125, 14.0625, 14, 13.9375, 13.9375, 13.875, 13.75, 13.6875, 13.5625, 13.4375, 13.4375, 13.3125, 13.1875, 13.125, 12.9375, 13.0625, 13.035714, 12.8125, 12.791667, 12.875, 12.8125, 12.75, 12.5, 12.1875, 12.151786, 12.419643, 12.482143, 12.5, 12.3125, 12.125, 12, 11.9375, 11.875, 11.8125, 11.8125, 11.875, 11.875, 11.8125, 11.75, 11.625, 11.5625, 11.5625, 11.375, 11.25, 11.0625, 10.964286, 11.035714, 11, 11, 10.75, 10.625, 10.5625, 10.375, 10.3125, 10.25, 10.0625, 10.0625, 10.0625, 10, 10, 10, 10, 10, 10, 10, 10, 9.9375, 9.875, 9.75, 9.5625, 9.5, 9.4375, 9.5625, 10, 10.629464, 11.245537, 11.65625, 11.9375, 12.125, 12.1875, 12.1875, 12.21875, 12.25, 12.375, 12.6875, 13.044643, 13.25, 13.4375, 13.4375, 13.4375, 13.4375, 13.5625, 13.75, 13.75, 13.875, 13.8125, 13.75, 13.75, 13.625, 13.625, 13.75, 14.075893, 14.419643, 14.6875, 14.8125, 14.78125, 14.625, 14.276786, 14.020833, 13.9375, 13.9375, 14.0625, 13.794643, 13.241072, 12.767857, 12.5, 12.723213, 13.133333, -10, -10, -10, -10, -10, -10, -10, -10, -10, -10, -10, -10, 36.25, 36.333332, 36.25, 36.25, 36.125, 35.90625, 35.760418, 35.708332, 35.611111, -10, -10, -10, -10, -10, -10, -10, -10, -10, -10, -10, -10, -10, -10, -10, -10, -10, -10, -10, -10, -10, -10, 36.875, 36.9375, 37, 16.357143, 16.750002, 16.875, 17.046875, 17.234375, 17.140625, 17.109375, 17.21875, 17.359375, 17.912947, 18.241072, 18.296875, 18.34375, 18.03125, 17.765625, 17.46875, 17.339287, 17.607143, 17.794643, 17.9375, 17.964287, 17.9375, 17.9375, 18, 18.125, 18.1875, 18.25, 18.4375, 18.5, 18.6875, 18.875, 19, 19.0625, 19.125, 19.1875, 19.125, 19.125, 19.1875, 19.3125, 19.5, 19.75, 19.875, 19.8125, 19.8125, 19.75, -10, -10, -10
22, 22.0625, 22.0625, 22.0625, 22, 21.9375, 21.8125, 21.75, 21.625, 21.5625, 21.4375, 21.25, 21.125, 21, 20.96875, 20.78125, 20.59375, 20.53125, 20.4375, 20.5625, 20.75, 20.75, 20.669643, 20.375, 20.25, 20.0625, 20.0625, 20.017857, 20, 20, 20, 20, 20, 20, 20, 20, 19.875, 19.6875, 19.4375, 19.1875, 19.0625, 19, 19, 19, 19, 19, 18.9375, 18.9375, 18.75, 18.6875, 18.6875, 18.5625, 18.625, 18.4375, 18.25, 18.125, 18, 18, 18, 18, 18, 18, 18, 18, 17.9375, 17.6875, 17.4375, 17.1875, 17, 16.9375, 16.9375, 16.9375, 16.9375, 17, 17, 17, 17, 17, 16.875, 16.625, 16.375, 16.125, 16.125, 16.1875, 16.1875, 16.1875, 16.0625, 16, 15.9375, 15.9375, 15.9375, 15.9375, 15.9375, 15.9375, 15.8125, 15.6875, 15.625, 15.375, 15.0625, 14.866072, 14.8125, 14.75, 14.8125, 14.75, 14.625, 14.5625, 14.625, 14.625, 14.5625, 14.5, 14.5, 14.375, 14.4375, 14.5, 14.4375, 14.375, 14.3125, 14.25, 14.1875, 14.125, 14.0625, 13.9375, 13.75, 13.6875, 13.625, 13.4375, 13.375, 13.25, 13.0625, 13.0625, 13, 13.0625, 12.973214, 12.6875, 12.541667, 12.625, 12.5625, 12.5625, 12.3125, 12.0625, 12.089286, 12.357143, 12.482143, 12.5, 12.25, 12, 11.8125, 11.6875, 11.625, 11.6875, 11.75, 11.875, 11.9375, 11.8125, 11.6875, 11.5625, 11.5, 11.5, 11.3125, 11.125, 10.875, 10.714286, 10.785714, 10.8125, 10.875, 10.625, 10.5625, 10.5, 10.3125, 10.375, 10.3125, 10.125, 10.125, 10.0625, 10, 10, 10, 10, 10, 10, 10, 10, 9.9375, 9.8125, 9.625, 9.375, 9.3125, 9.375, 9.5, 9.9375, 10.522322, 11.174109, 11.638393, 11.9375, 12.0625, 12.125, 12.125, 12.09375, 12.125, 12.1875, 12.508928, 13.044643, 13.3125, 13.625, 13.625, 13.625, 13.5, 13.5, 13.642857, 13.8125, 13.9375, 14, 13.9375, 13.9375, 13.875, 13.875, 13.9375, 14.138393, 14.3125, 14.5625, 14.625, 14.65625, 14.625, 14.383928, 14.208333, 14.125, 14.0625, 14.125, 13.794643, 13.25, 12.892857, 12.5625, 12.785713, 13.133333, -10, -10, -10, -10, -10, -10, -10, -10, -10, -10, -10, 36, 36.208332, 36.285713, 36.116074, 36.1875, 36.0625, 35.90625, 35.78125, -10, -10, -10, -10, -10, -10, -10, -10, -10, -10, -10, -10, -10, -10, -10, -10, -10, -10, -10, -10, -10, -10, -10, -10, 37, 37, 37, 16.0625, 16.333334, 16.5, 16.796875, 17.109375, 17.140625, 17.234375, 17.34375, 17.421875, 17.734375, 17.919643, 18.015625, 18.125, 18, 17.828125, 17.59375, 17.526787, 17.767857, 17.919643, 18, 17.964287, 17.9375, 17.9375, 18, 18.125, 18.25, 18.3125, 18.5625, 18.625, 18.75, 18.9375, 19, 19.0625, 19.0625, 19.125, 19.0625, 19.0625, 19.1875, 19.3125, 19.4375, 19.6875, 19.8125, 19.8125, 19.875, 19.833334, -10, -10, -10, -10, -10, -10, -10, -10, -10, -10, -10, -10, -10, -10, -10, -10, -10, -10, -10, 23.75, 23.833332, 23.875, 23.875, 24, 24, 24, 24, 23.9375, 23.8125, 23.75, 23.75, 23.6875, 23.598213, 23.330357, 23.071428, 23, 23, 22.9375, 22.9375, 22.9375, 22.875, 22.8125, 22.5625, 22.3125, 22.125, 22, 22, 22, 22, 22, 22, 22.0625, 22.0625, 22.0625, 22.0625, 22, 21.875, 21.6875, 21.625, 21.5625, 21.5625, 21.5, 21.3125, 21.125, 20.9375, 20.90625, 20.71875, 20.59375, 20.53125, 20.5, 20.625, 20.6875, 20.6875, 20.5625, 20.375, 20.25, 20.125, 20.0625, 20.017857, 20, 20, 20, 20, 20, 20, 20, 20, 19.8125, 19.5625, 19.3125, 19.125, 19.125, 19.125, 19.125, 19.0625, 19, 19, 19, 19, 18.875, 18.875, 18.875, 18.8125, 18.8125, 18.5625, 18.3125, 18.125, 18, 18, 18, 18, 18, 17.9375, 17.875, 17.875, 17.8125, 17.6875, 17.5, 17.25, 17.0625, 16.9375, 16.9375, 16.9375, 16.9375, 17, 17, 17, 17, 17, 16.9375, 16.6875, 16.4375, 16.25, 16.1875, 16.25, 16.25, 16.1875, 16.0625, 16, 16, 16, 16, 16, 16, 16, 15.9375, 15.875, 15.8125, 15.5625, 15.125, 14.830357, 14.8125, 14.8125, 14.830357, 14.696428, 14.5, 14.4375, 14.5, 14.5625, 14.5625, 14.5, 14.5, 14.4375, 14.5625, 14.6875, 14.625, 14.5625, 14.5, 14.4375, 14.375, 14.25, 14.125, 13.9375, 13.8125, 13.8125, 13.75, 13.5625, 13.4375, 13.25, 13.0625, 13.0625, 13, 13.0625, 12.973214, 12.75, 12.604167, 12.6875, 12.6875, 12.625, 12.375, 12.1875, 12.125, 12.25, 12.375, 12.3125, 12.0625, 11.8125, 11.5625, 11.4375, 11.375, 11.5, 11.5625, 11.6875, 11.75, 11.5625, 11.5, 11.375, 11.375, 11.4375, 11.1875, 11, 10.75, 10.589286, 10.723214, 10.8125, 10.9375, 10.75, 10.6875, 10.5625, 10.3125, 10.375, 10.3125, 10.25, 10.25, 10.125, 10.0625, 10, 10, 10, 10, 10, 10, 10, 9.9375, 9.75, 9.5, 9.25, 9.1875, 9.3125, 9.4375, 9.8125, 10.28125, 10.995537, 11.558036, 11.84375, 12, 12, 12, 11.9375, 12, 12.125, 12.383928, 12.950893, 13.21875, 13.53125, 13.59375, 13.5625, 13.3125, 13.276786, 13.5, 13.803572, 14, 14.0625, 14, 14, 14, 14.0625, 14.0625, 14.09375, 14.1875, 14.3125, 14.375, 14.34375, 14.3125, 14.125, 14.1875, 14.1875, 14.125, 14.125, 13.857143, 13.40625, 13.15625, 12.78125, 12.941963, 13.166666, -10, -10, -10, -10, -10, -10, -10, -10, -10, -10, -10, 36.166668, 36.25, 36.244045, 36.053574, 36.026787, 35.9375, 35.84375, 35.84375, -10, -10, -10, -10, -10, -10, -10, -10, -10, -10, -10, -10, -10, -10, -10, -10, -10, -10, -10, -10, -10, -10, -10, -10, 37.083332, 37.0625, 37, 16, 16.35, 16.625, 16.796875, 17.104912, 17.078125, 17.171875, 17.34375, 17.28125, 17.46875, 17.5, 17.625, 17.9375, 18.035713, 17.9375, 17.745537, 17.651787, 17.767857, 17.919643, 17.9375, 17.901787, 17.9375, 18, 18.0625, 18.1875, 18.3125, 18.3125, 18.5625, 18.625, 18.75, 18.9375, 19, 19.0625, 19.0625, 19.125, 19.0625, 19.0625, 19.1875, 19.3125, 19.375, 19.625, 19.75, 19.75, 19.9375, 19.916666, -10, -10, -10
22.125, 22, 21.9375, 21.9375, 21.8125, 21.6875, 21.5, 21.4375, 21.4375, 21.5, 21.5, 21.3125, 21.125, 20.875, 20.84375, 20.71875, 20.65625, 20.65625, 20.625, 20.6875, 20.6875, 20.6875, 20.5625, 20.375, 20.25, 20.125, 20, 19.892857, 19.875, 19.875, 19.9375, 20, 19.9375, 19.9375, 19.9375, 19.875, 19.6875, 19.4375, 19.1875, 19.0625, 19.125, 19.125, 19.125, 19.0625, 19, 19, 19, 19, 18.9375, 18.9375, 18.9375, 18.875, 18.8125, 18.5625, 18.3125, 18.125, 18, 18, 18, 18, 18, 17.875, 17.8125, 17.8125, 17.8125, 17.75, 17.5625, 17.375, 17.1875, 17.1875, 17.1875, 17.125, 17.0625, 17, 17, 17, 17, 16.9375, 16.8125, 16.5625, 16.375, 16.3125, 16.375, 16.5, 16.4375, 16.375, 16.25, 16.125, 16.125, 16.0625, 16, 16, 16, 16, 15.9375, 15.8125, 15.714286, 15.5, 15.125, 14.892857, 14.875, 14.875, 14.830357, 14.696428, 14.5, 14.4375, 14.4375, 14.4375, 14.4375, 14.375, 14.375, 14.3125, 14.375, 14.4375, 14.375, 14.375, 14.375, 14.375, 14.375, 14.25, 14.125, 14, 13.9375, 14, 13.9375, 13.75, 13.5, 13.25, 13.0625, 13, 13, 13, 12.848214, 12.642857, 12.604167, 12.6875, 12.75, 12.6875, 12.428572, 12.125, 12.0625, 12.0625, 12.1875, 12.125, 11.9375, 11.6875, 11.5, 11.3125, 11.1875, 11.3125, 11.3125, 11.4375, 11.5, 11.3125, 11.25, 11.125, 11.125, 11.1875, 10.9375, 10.8125, 10.625, 10.526786, 10.723214, 10.8125, 10.9375, 10.8125, 10.75, 10.625, 10.4375, 10.4375, 10.4375, 10.4375, 10.375, 10.25, 10.125, 10, 10, 10, 10, 10, 10, 10, 9.9375, 9.75, 9.5, 9.25, 9.1875, 9.3125, 9.4375, 9.75, 10.15625, 10.825893, 11.477678, 11.78125, 12, 12, 12, 11.9375, 11.9375, 11.9375, 12.133928, 12.638393, 12.950893, 13.28125, 13.40625, 13.4375, 13.3125, 13.339286, 13.5625, 13.866072, 14.0625, 14.125, 14.0625, 14.0625, 14, 14.125, 14.1875, 14.1875, 14.3125, 14.3125, 14.34375, 14.34375, 14.28125, 14.15625, 14.1875, 14.1875, 14.125, 14.125, 13.928572, 13.609375, 13.359375, 13.015625, 13.028274, 13.222221, -10, -10, -10, -10, -10, -10, -10, -10, -10, -10, -10, 36.125, 36.25, 36.098213, 35.928574, 35.901787, 35.919643, 35.9375, 36.041668, -10, -10, -10, -10, -10, -10, -10, -10, -10, -10, -10, -10, -10, -10, -10, -10, -10, -10, 36.875, -10, -10, -10, -10, 37.75, 37.270832, 37.229168, 37, 16, 16.329166, 16.5625, 16.640625, 16.823662, 16.796875, 16.890625, 17.0625, 16.96875, 16.96875, 16.9375, 17.125, 17.535713, 17.785713, 17.8125, 17.714287, 17.776787, 17.955357, 18.107143, 18.0625, 17.901787, 17.875, 17.9375, 18.0625, 18.1875, 18.25, 18.1875, 18.3125, 18.4375, 18.625, 18.875, 19, 19.0625, 19.0625, 19.0625, 19, 19, 19.125, 19.25, 19.25, 19.4375, 19.5, 19.5, 19.75, 19.75, -10, -10, -10, -10, -10, -10, -10, -10, -10, -10, -10, -10, -10, -10, -10, -10, -10, -10, -10, 23.875, 23.916666, 23.9375, 23.9375, 24, 24, 24.0625, 24.0625, 24.125, 23.946428, 23.395832, 23.383928, 23.482143, 23.535713, 23.392857, 23.196428, 23, 23, 23, 23, 23, 22.9375, 22.8125, 22.5625, 22.375, 22.1875, 22.0625, 22.0625, 22, 22.0625, 22.0625, 22.0625, 22.0625, 21.875, 21.8125, 21.75, 21.6875, 21.5625, 21.375, 21.375, 21.3125, 21.375, 21.375, 21.1875, 21.0625, 20.8125, 20.78125, 20.71875, 20.65625, 20.71875, 20.6875, 20.6875, 20.6875, 20.6875, 20.5625, 20.375, 20.1875, 20.0625, 20, 20, 20, 20, 20.0625, 20.0625, 20, 20, 19.875, 19.75, 19.5625, 19.3125, 19.1875, 19.1875, 19.3125, 19.3125, 19.25, 19.125, 19, 19, 19, 19, 18.9375, 18.9375, 18.9375, 18.875, 18.8125, 18.5625, 18.3125, 18.125, 18, 18, 18, 18, 18, 17.875, 17.8125, 17.8125, 17.8125, 17.75, 17.5625, 17.375, 17.1875, 17.1875, 17.1875, 17.125, 17.0625, 17, 17, 17.0625, 17.035713, 16.830357, 16.633928, 16.4375, 16.3125, 16.3125, 16.4375, 16.5625, 16.5625, 16.5, 16.375, 16.1875, 16.1875, 16.1875, 16.125, 16.125, 16.0625, 16, 15.875, 15.75, 15.651786, 15.4375, 15.1875, 14.991072, 14.9375, 14.9375, 14.830357, 14.696428, 14.5625, 14.5, 14.428572, 14.3, 14.357143, 14.25, 14.3125, 14.25, 14.3125, 14.375, 14.375, 14.375, 14.375, 14.375, 14.375, 14.3125, 14.1875, 14.0625, 14, 14, 13.9375, 13.8125, 13.625, 13.375, 13.1875, 13.0625, 13, 12.9375, 12.8125, 12.75, 12.625, 12.625, 12.6875, 12.625, 12.491072, 12.1875, 12.0625, 11.9375, 12, 11.9375, 11.8125, 11.625, 11.4375, 11.25, 11.125, 11.1875, 11.25, 11.375, 11.4375, 11.3125, 11.25, 11.125, 11.0625, 11.0625, 10.75, 10.625, 10.5625, 10.5, 10.6875, 10.8125, 10.875, 10.875, 10.875, 10.75, 10.5625, 10.5, 10.4375, 10.4375, 10.375, 10.1875, 10.0625, 9.9375, 9.9375, 10, 10, 10, 10, 10, 9.9375, 9.75, 9.5625, 9.3125, 9.1875, 9.3125, 9.3125, 9.5, 9.8125, 10.401786, 11.321428, 11.705357, 11.9375, 11.9375, 11.9375, 11.875, 11.9375, 11.9375, 12.008928, 12.40625, 12.763393, 13.138393, 13.28125, 13.4375, 13.375, 13.401786, 13.6875, 13.991072, 14.1875, 14.25, 14.1875, 14.125, 14.0625, 14.25, 14.375, 14.366072, 14.3, 14.366072, 14.366072, 14.375, 14.3125, 14.1875, 14.125, 14.125, 14.0625, 14.0625, 14, 13.796875, 13.546875, 13.234375, 13.09375, -10, -10, -10, -10, -10, -10, -10, -10, -10, -10, -10, 36, 36.166668, 36.375, 36.181549, 35.991074, 35.901787, 35.919643, 36.0625, 36.208332, -10, -10, -10, -10, -10, -10, -10, -10, -10, -10, -10, -10, -10, -10, -10, -10, 36.5, 36.666668, 36.833332, 37, 37, 37, 37.125, 37.333332, 37.208332, 37.229168, 15.75, 15.916667, 16.245834, 16.5875, 16.508928, 16.669643, 16.625, 16.75, 16.9375, 16.875, 16.875, 16.875, 17.0625, 17.410713, 17.660713, 17.625, 17.589287, 17.6875, 17.785713, 18.035713, 18.0625, 18, 17.9375, 18, 18.0625, 18.125, 18.1875, 18.125, 18.1875, 18.4375, 18.625, 18.9375, 19.098213, 19.026787, 19.0625, 19, 19, 19.0625, 19.1875, 19.25, 19.291666, 19.583334, 19.553572, 19.455357, 19.5625, 19.5, -10, -10, -10
22.0625, 21.875, 21.8125, 21.75, 21.6875, 21.5625, 21.375, 21.375, 21.3125, 21.3125, 21.3125, 21.125, 21, 20.8125, 20.8125, 20.8125, 20.8125, 20.9375, 20.9375, 20.875, 20.8125, 20.75, 20.5, 20.3125, 20.125, 20.0625, 20.0625, 20.0625, 20.0625, 20, 20.0625, 20.0625, 20, 20, 19.8125, 19.625, 19.4375, 19.1875, 19.1875, 19.25, 19.375, 19.375, 19.25, 19.125, 19, 19, 19, 19, 18.9375, 18.875, 18.8125, 18.8125, 18.8125, 18.625, 18.4375, 18.1875, 18, 18, 18, 18, 18, 17.8125, 17.6875, 17.6875, 17.6875, 17.6875, 17.5625, 17.3125, 17.0625, 17.0625, 17.0625, 17.0625, 17.0625, 17, 17, 17.0625, 16.973213, 16.705357, 16.571428, 16.375, 16.3125, 16.375, 16.375, 16.5625, 16.625, 16.5625, 16.5, 16.25, 16.25, 16.25, 16.1875, 16.1875, 16.0625, 16, 15.8125, 15.625, 15.464286, 15.25, 15.125, 15.026786, 15, 15, 14.892857, 14.758928, 14.6875, 14.625, 14.428572, 14.3, 14.294643, 14.125, 14.1875, 14.0625, 14.0625, 14.125, 14.125, 14.1875, 14.1875, 14.1875, 14.1875, 14.125, 14.0625, 14, 13.9375, 13.9375, 13.875, 13.8125, 13.75, 13.5625, 13.375, 13.1875, 13.0625, 13, 12.9375, 12.9375, 12.875, 12.875, 12.9375, 12.875, 12.741072, 12.375, 12.1875, 12, 12, 11.9375, 11.875, 11.8125, 11.6875, 11.5, 11.267857, 11.1875, 11.1875, 11.3125, 11.375, 11.3125, 11.25, 11.125, 11.0625, 11.0625, 10.8125, 10.75, 10.75, 10.75, 10.9375, 11, 11, 11, 11, 10.9375, 10.75, 10.5625, 10.4375, 10.375, 10.3125, 10.1875, 10.0625, 9.9375, 9.9375, 9.9375, 9.875, 9.875, 9.875, 9.9375, 9.9375, 9.8125, 9.6875, 9.5, 9.3125, 9.3125, 9.25, 9.375, 9.75, 10.401786, 11.321428, 11.705357, 11.9375, 11.9375, 11.9375, 11.875, 11.9375, 12, 12.0625, 12.28125, 12.665178, 13.058036, 13.200893, 13.3125, 13.3125, 13.401786, 13.732143, 14.053572, 14.25, 14.25, 14.25, 14.125, 14.0625, 14.25, 14.446428, 14.699405, 14.591667, 14.453571, 14.553572, 14.491072, 14.4375, 14.3125, 14.125, 14.0625, 14, 14, 13.96875, 13.765625, 13.515625, 13.140625, 12.947917, -10, -10, -10, -10, -10, -10, -10, -10, -10, -10, -10, -10, -10, 36.416668, 36.229164, 36.125, 35.964287, 36.044643, 36.166668, 36.333332, -10, -10, -10, -10, -10, -10, -10, -10, -10, -10, -10, -10, -10, -10, -10, -10, 36.666668, 36.777782, 36.875, 36.916668, 36.833332, 36.666668, 36.666668, 37, 37.065475, 37.229168, 15.75, 15.916667, 16.1625, 16.525, 16.446428, 16.607143, 16.5625, 16.625, 16.830357, 16.958334, 16.982143, 17, 17.0625, 17.348213, 17.535713, 17.5, 17.464287, 17.5, 17.625, 17.910713, 18, 18, 17.9375, 18.0625, 18.125, 18.125, 18.089287, 18, 18, 18.3125, 18.5625, 18.875, 19.098213, 19.089287, 19.125, 19.0625, 19, 19, 19, 18.9375, 18.979166, 19.208334, 19.241072, 19.267857, 19.375, 19.333334, -10, -10, -10, -10, -10, -10, -10, -10, -10, -10, -10, -10, -10, -10, -10, -10, -10, -10, -10, 24, 24, 24, 24, 24, 24, 24.0625, 24.0625, 24.1875, 24.008928, 23.395832, 23.321428, 23.232143, 23.25, 23.25, 23.125, 23, 23, 23, 23, 23, 23, 23, 22.75, 22.5625, 22.375, 22.1875, 22.1875, 22.125, 22.125, 22.0625, 22.0625, 22.0625, 21.875, 21.8125, 21.75, 21.6875, 21.5625, 21.375, 21.25, 21.125, 21.125, 21.125, 21.0625, 21, 20.875, 20.875, 20.875, 20.875, 21, 21, 21, 20.9375, 20.8125, 20.5625, 20.3125, 20.125, 20.125, 20.125, 20.125, 20.125, 20, 20.0625, 20.0625, 20, 20, 19.75, 19.5, 19.3125, 19.125, 19.25, 19.3125, 19.375, 19.3125, 19.125, 19.0625, 19, 19, 19, 19, 18.9375, 18.8125, 18.75, 18.75, 18.75, 18.625, 18.4375, 18.25, 18.0625, 18.0625, 18.0625, 18, 18, 17.875, 17.8125, 17.8125, 17.8125, 17.6875, 17.5, 17.3125, 17.125, 17.25, 17.3125, 17.241072, 16.979166, 16.892857, 16.875, 17, 16.910713, 16.642857, 16.508928, 16.3125, 16.3125, 16.375, 16.285713, 16.339287, 16.4375, 16.375, 16.4375, 16.25, 16.25, 16.25, 16.1875, 16.1875, 16.0625, 16, 15.8125, 15.625, 15.464286, 15.25, 15.1875, 15.1875, 15.125, 15.125, 15.0625, 14.830357, 14.8125, 14.75, 14.535715, 14.35, 14.473214, 14.303572, 14.366072, 13.979167, 13.892857, 13.875, 13.9375, 14, 14, 14, 14, 14, 14, 14, 13.875, 13.875, 13.875, 13.8125, 13.8125, 13.6875, 13.4375, 13.25, 13.125, 13, 13, 13, 12.9375, 12.9375, 12.9375, 12.9375, 12.866072, 12.5625, 12.4375, 12.1875, 12.125, 12, 11.875, 11.892857, 12.020833, 11.833333, 11.517857, 11.375, 11.3125, 11.4375, 11.5, 11.5, 11.3125, 11.1875, 11.0625, 11, 10.875, 10.8125, 10.75, 10.75, 10.875, 10.9375, 11, 11, 11, 11, 10.8125, 10.5625, 10.4375, 10.25, 10.1875, 10.125, 10, 9.9375, 9.9375, 10, 9.9107141, 9.8392859, 9.875, 9.875, 9.9375, 9.875, 9.8125, 9.6875, 9.5625, 9.5625, 9.5, 9.5, 9.7767859, 10.366072, 11.25, 11.674107, 11.90625, 11.9375, 11.9375, 11.9375, 12, 12.125, 12.25, 12.375, 12.758928, 13.151786, 13.232143, 13.276786, 13.4375, 13.544643, 13.78125, 14.09375, 14.1875, 14.1875, 14.15625, 13.96875, 13.875, 14, 14.258928, 14.574405, 14.466667, 14.417857, 14.660715, 14.598215, 14.5, 14.3125, 14.0625, 14, 14, 14, 13.897322, 13.463542, 13.252232, 12.984375, 12.96131, -10, -10, -10, -10, -10, -10, -10, -10, -10, -10, -10, -10, -10, 36.25, 36.104164, 36.0625, 36, 36.107143, -10, -10, -10, -10, -10, -10, -10, -10, -10, -10, -10, -10, 37, 37, 37, 36.875, 36.875, 36.875, 36.6875, 36.833336, 36.84375, 36.875, 36.75, 36.625, 36.5, 36.714287, 37.107143, 37.291668, 37.5, 15.916667, 16.0625, 16.3375, 16.383928, 16.517857, 16.5, 16.5, 16.580357, 16.770834, 16.857143, 16.9375, 17.0625, 17.285713, 17.375, 17.375, 17.3125, 17.4375, 17.6875, 18.035713, 18.25, 18.1875, 18.0625, 18.0625, 18.125, 18.1875, 18.151787, 18.125, 18, 18.25, 18.5, 18.8125, 19.098213, 19.089287, 19.1875, 19.1875, 19.125, 19.1875, 19.1875, 19.0625, 18.997023, 19.092262, 19.116072, 19.205357, 19.25, 19.250002, -10, -10, -10
22, 21.9375, 21.9375, 21.875, 21.8125, 21.625, 21.4375, 21.232143, 20.964287, 21.0625, 21.035713, 21.0625, 21.0625, 20.9375, 20.9375, 20.9375, 20.9375, 21, 21, 21, 20.9375, 20.75, 20.5, 20.25, 20.0625, 20.125, 20.125, 20.125, 20.125, 20, 20.125, 20.125, 20.125, 20.0625, 19.6875, 19.5, 19.3125, 19.25, 19.5, 19.491072, 19.375, 19.3125, 19.0625, 19.125, 19.0625, 19.0625, 19.0625, 19, 18.875, 18.75, 18.6875, 18.6875, 18.6875, 18.5625, 18.375, 18.25, 18.125, 18.125, 18.125, 18, 18, 17.9375, 17.875, 17.875, 17.8125, 17.625, 17.4375, 17.1875, 17, 17.125, 17.25, 17.223215, 16.833332, 16.785713, 16.75, 16.9375, 16.910713, 16.705357, 16.571428, 16.4375, 16.4375, 16.4375, 16.348213, 16.276787, 16.375, 16.25, 16.25, 16.125, 16.125, 16.1875, 16.1875, 16.1875, 16.0625, 16, 15.875, 15.8125, 15.6875, 15.4375, 15.3125, 15.1875, 15.125, 15.125, 15.125, 14.866071, 14.776786, 14.8125, 14.598215, 14.5375, 14.723214, 14.553572, 14.544643, 13.979167, 13.892857, 13.8125, 13.9375, 14, 14, 14, 14, 14, 14, 14, 13.9375, 13.9375, 13.9375, 13.8125, 13.75, 13.625, 13.375, 13.25, 13.125, 13, 13, 13, 12.9375, 12.9375, 12.9375, 12.9375, 12.9375, 12.8125, 12.6875, 12.4375, 12.25, 12.0625, 11.875, 11.955357, 12.083333, 11.958333, 11.642857, 11.5, 11.5, 11.5625, 11.625, 11.625, 11.375, 11.25, 11.125, 11, 10.9375, 10.875, 10.8125, 10.75, 10.8125, 10.875, 10.9375, 11, 11, 11, 10.75, 10.5, 10.3125, 10.0625, 10.0625, 10, 9.9375, 9.9375, 9.9375, 10, 9.9107141, 9.8392859, 9.875, 9.875, 10, 10, 10, 9.9375, 9.8125, 9.75, 9.5625, 9.4375, 9.5892859, 10.116072, 11.071429, 11.59375, 11.84375, 11.9375, 12.008928, 12.1875, 12.1875, 12.330357, 12.4375, 12.410714, 12.651786, 13.142858, 13.160715, 13.339286, 13.5625, 13.705358, 13.84375, 13.986607, 13.9375, 13.9375, 13.96875, 13.90625, 13.910714, 13.901786, 14.196428, 14.556547, 14.466667, 14.542857, 14.723215, 14.598215, 14.5, 14.25, 14.0625, 14, 14, 13.928572, 13.563989, 13.081845, 12.861607, 12.6875, 12.794643, 13, -10, -10, -10, -10, -10, -10, -10, -10, -10, -10, -10, -10, 36.25, 36.166664, 36.125, 36, 36, -10, -10, -10, -10, -10, -10, -10, -10, -10, 36.625, 36.75, 36.875, 37, 36.916668, 36.916668, 36.833332, 36.833332, 36.916668, 36.8125, 36.916668, 36.875, 36.833332, 36.583332, 36.333332, 36.291668, 36.875, 37.169643, 37.375, 37.666668, 15.916667, 15.916667, 16.2125, 16.258928, 16.392857, 16.4375, 16.375, 16.392857, 16.645834, 16.857143, 17, 17.125, 17.25, 17.25, 17.25, 17.25, 17.375, 17.625, 17.973213, 18.1875, 18.1875, 18.125, 18.125, 18.125, 18.125, 18.089287, 18.0625, 18, 18.1875, 18.4375, 18.75, 19.035713, 19.089287, 19.1875, 19.125, 19.0625, 19.125, 19.125, 19.0625, 18.997023, 19.092262, 19.1875, 19.405357, 19.258928, 19.266668, -10, -10, -10, -10, -10, -10, -10, -10, -10, -10, -10, -10, -10, -10, -10, -10, -10, -10, -10, 24, 24, 24, 24, 24, 24, 24, 24, 24, 23.875, 23.625, 23.4375, 23.25, 23.25, 23.25, 23.1875, 23.125, 23, 23, 23, 23, 23, 22.875, 22.625, 22.375, 22.1875, 22.25, 22.3125, 22.3125, 22.25, 22.0625, 22, 22, 22, 22, 22, 22, 21.75, 21.625, 21.294643, 21.026787, 21.1875, 21.160713, 21.25, 21.1875, 21.0625, 21, 21, 21, 21, 21, 21, 20.9375, 20.75, 20.5, 20.25, 20.0625, 20.125, 20.0625, 20, 20, 19.875, 20.0625, 20.1875, 20.25, 20.178572, 19.666666, 19.517857, 19.3125, 19.25, 19.401787, 19.303572, 19.125, 19.125, 18.9375, 19.125, 19.125, 19.125, 19.125, 19, 18.9375, 18.75, 18.6875, 18.625, 18.5, 18.5, 18.3125, 18.25, 18.25, 18.1875, 18.1875, 18.0625, 18, 17.9375, 17.875, 17.8125, 17.6875, 17.5, 17.25, 17.0625, 16.9375, 17.0625, 17.25, 17.223215, 16.833332, 16.785713, 16.75, 16.875, 16.875, 16.8125, 16.6875, 16.5, 16.5, 16.5, 16.410713, 16.339287, 16.3125, 16.125, 16.125, 16.0625, 16.0625, 16.0625, 16.0625, 16.0625, 16, 16, 15.9375, 15.875, 15.6875, 15.4375, 15.25, 15.125, 15.125, 15.125, 15.125, 14.928571, 14.901786, 14.919643, 14.586309, 14.558928, 14.678572, 14.616072, 14.544643, 14.041667, 13.955357, 13.9375, 14.125, 14.1875, 14.125, 14.0625, 14, 14, 14, 14, 13.875, 13.875, 13.875, 13.6875, 13.625, 13.5, 13.25, 13.1875, 13.125, 13, 13, 13, 13, 13, 13, 12.9375, 12.9375, 12.875, 12.8125, 12.625, 12.375, 12.125, 11.875, 11.955357, 12.145833, 12.083333, 11.830357, 11.75, 11.6875, 11.625, 11.625, 11.5625, 11.3125, 11.25, 11.125, 11, 11, 10.9375, 10.875, 10.8125, 10.8125, 10.875, 10.9375, 11, 11, 11, 10.8125, 10.625, 10.4375, 10.1875, 10.125, 10.0625, 10, 10, 10, 10, 9.9107141, 9.8392859, 9.875, 9.875, 10, 10, 10.0625, 10.125, 10.0625, 10, 9.8125, 9.625, 9.7767859, 10.321428, 11.008929, 11.558037, 11.84375, 12, 12.071428, 12.25, 12.1875, 12.267857, 12.4375, 12.410714, 12.589286, 13.098215, 13.160715, 13.339286, 13.6875, 13.830358, 13.90625, 13.986607, 13.8125, 13.8125, 13.84375, 13.84375, 13.848214, 13.839286, 14.133928, 14.565475, 14.666667, 14.542857, 14.544643, 14.410715, 14.3125, 14.1875, 14.0625, 14, 14, 13.857143, 13.230656, 12.715774, 12.549107, 12.53125, 12.773809, 13, -10, -10, -10, -10, -10, -10, -10, -10, -10, -10, -10, -10, 36.125, 36.083332, 36.0625, 36, 35.9375, -10, -10, -10, -10, -10, -10, 36.375, 36.291664, 36.25, 36.583332, 36.75, 36.833332, 36.9375, 36.875, 36.875, 36.875, 37, 37.104168, 36.916668, 37, -10, -10, -10, -10, -10, 37.42857, 37.482143, 37.625, 37.666668, 16.083334, 16.104166, 16.419643, 16.464285, 16.678572, 16.479166, 16.258928, 16.142857, 16.458334, 16.669643, 16.875, 17.0625, 17.1875, 17.1875, 17.1875, 17.1875, 17.25, 17.4375, 17.75, 18, 18.125, 18.25, 18.232143, 18.125, 18.125, 18.026787, 18.0625, 18, 18.125, 18.375, 18.625, 18.9375, 19.125, 19.1875, 19.1875, 19.0625, 19.0625, 19.0625, 19.0625, 18.955357, 18.883928, 19.008928, 19.262501, 19.196428, 19.266668, -10, -10, -10
22, 22.0625, 22.035713, 22, 22.083334, 21.633928, 21.642857, 21.294643, 21.089287, 21.3125, 21.285713, 21.375, 21.3125, 21.125, 21, 21, 21, 21, 21, 21, 20.9375, 20.8125, 20.5625, 20.3125, 20.125, 20.0625, 20, 19.9375, 20, 19.9375, 20.125, 20.25, 20.25, 20.178572, 19.729166, 19.642857, 19.5, 19.4375, 19.464287, 19.303572, 19.0625, 19.0625, 19, 19.1875, 19.1875, 19.1875, 19.125, 19, 18.9375, 18.8125, 18.8125, 18.75, 18.625, 18.625, 18.375, 18.3125, 18.375, 18.223213, 18.151787, 18.0625, 17.9375, 17.9375, 17.9375, 17.794643, 17.526787, 17.3125, 17, 17, 17, 17.1875, 17.375, 17.285715, 16.833332, 16.785713, 16.75, 16.875, 16.9375, 16.9375, 16.75, 16.5625, 16.5625, 16.5625, 16.535713, 16.401787, 16.25, 16, 16, 16, 16, 16, 16, 16, 16, 16, 16, 15.9375, 15.75, 15.5, 15.25, 15.125, 15.125, 15.125, 15.125, 14.991071, 15.026786, 15.017858, 14.604166, 14.442857, 14.491072, 14.491072, 14.419643, 13.979167, 13.955357, 14, 14.1875, 14.25, 14.1875, 14.125, 14.0625, 14.0625, 14.0625, 13.9375, 13.875, 13.875, 13.875, 13.75, 13.5625, 13.375, 13.125, 13.0625, 13.0625, 13, 13, 13, 13, 13, 13, 12.875, 12.8125, 12.75, 12.6875, 12.5625, 12.375, 12.125, 11.875, 11.892857, 12.083333, 12.083333, 11.9375, 11.9375, 11.875, 11.6875, 11.5625, 11.4375, 11.1875, 11.1875, 11.125, 11, 11.0625, 11, 10.9375, 10.875, 10.8125, 10.875, 10.9375, 11, 11, 11, 10.875, 10.75, 10.5625, 10.375, 10.25, 10.125, 10.0625, 10, 10, 10.0625, 10.035714, 9.9642859, 9.9375, 9.8125, 9.875, 9.875, 10, 10.1875, 10.1875, 10.1875, 10.0625, 9.75, 9.7767859, 10.142857, 10.830358, 11.477678, 11.78125, 12, 12.133928, 12.4375, 12.4375, 12.348213, 12.383928, 12.348214, 12.5625, 13.098215, 13.241072, 13.464286, 13.8125, 13.955358, 13.96875, 13.924107, 13.6875, 13.6875, 13.71875, 13.78125, 13.848214, 13.839286, 14.125, 14.357143, 14.446428, 14.226191, 14.116072, 14.089286, 14.0625, 14.125, 14.0625, 14.0625, 14.0625, 13.794643, 13.136906, 12.622024, 12.455357, 12.5625, 12.857143, 13, -10, -10, -10, -10, -10, -10, -10, -10, -10, -10, -10, -10, 36, 36, 36, 36.0625, 36.125, 36.446426, 36.625, 36.839287, 36.75, 36.625, 36.375, 36.333332, 36.361111, 36.5, 36.75, 36.875, 36.9375, 36.9375, 36.833332, 36.833332, 36.875, 37, 37.138889, -10, -10, -10, -10, -10, -10, -10, 37.666668, 37.75, 37.791668, 16, 15.958334, 16.104166, 16.648809, 17.096939, 16.919643, 16.458332, 16.205357, 16, 16.125, 16.3125, 16.5, 16.8125, 17, 17.0625, 17.125, 17.125, 17.1875, 17.3125, 17.625, 17.9375, 18.232143, 18.4375, 18.348213, 18.0625, 18.125, 18, 18.125, 18.0625, 18.0625, 18.3125, 18.5625, 18.8125, 19, 19.0625, 19.0625, 19.125, 19.1875, 19.25, 19.375, 19.267857, 19.196428, 19.258928, 19.325001, 19.133928, 19.183334, -10, -10, -10, -10, -10, -10, -10, -10, -10, -10, -10, -10, -10, -10, -10, -10, -10, -10, -10, 24, 24, 24, 24, 24, 23.9375, 23.9375, 23.9375, 23.8125, 23.6875, 23.5, 23.375, 23.4375, 23.5, 23.4375, 23.3125, 23.125, 23, 23, 23, 23, 22.9375, 22.8125, 22.625, 22.375, 22.1875, 22.1875, 22.1875, 22.1875, 22.1875, 22.0625, 22, 22, 22.0625, 21.973213, 21.9375, 21.958334, 21.571428, 21.642857, 21.294643, 21.116072, 21.3125, 21.285713, 21.375, 21.3125, 21.125, 21, 21, 21, 21, 21, 21, 21, 20.9375, 20.75, 20.5625, 20.375, 20.25, 20.1875, 20.0625, 20.125, 20.0625, 20.1875, 20.3125, 20.25, 20.178572, 19.791666, 19.767857, 19.6875, 19.5625, 19.464287, 19.303572, 19, 19.0625, 19.0625, 19.1875, 19.25, 19.25, 19.125, 18.964287, 18.875, 18.8125, 18.875, 18.8125, 18.75, 18.75, 18.5, 18.375, 18.3125, 18.035713, 17.901787, 17.8125, 17.6875, 17.75, 17.75, 17.607143, 17.276787, 17, 16.75, 16.8125, 16.982143, 17.125, 17.25, 17.169643, 16.916666, 16.892857, 16.875, 16.9375, 17, 16.9375, 16.6875, 16.5, 16.5, 16.5625, 16.6875, 16.625, 16.375, 16.125, 16, 16, 16, 16, 16, 16, 15.9375, 15.875, 15.875, 15.8125, 15.625, 15.4375, 15.1875, 15, 15, 15, 15.0625, 15.098214, 15.151786, 15.142858, 14.747024, 14.580357, 14.4375, 14.375, 14.241072, 14.0625, 14, 14, 14.125, 14.125, 14.125, 14.125, 14.0625, 14.0625, 14.0625, 13.9375, 13.9375, 13.9375, 13.9375, 13.875, 13.6875, 13.5, 13.3125, 13.1875, 13.125, 13.0625, 13, 13, 12.9375, 12.9375, 12.9375, 12.75, 12.6875, 12.5625, 12.4375, 12.375, 12.25, 12.125, 12, 12, 12, 12, 11.9375, 11.875, 11.8125, 11.5625, 11.4375, 11.375, 11.25, 11.3125, 11.25, 11.125, 11.1875, 11.125, 11.125, 11.0625, 10.9375, 10.9375, 10.9375, 11, 11, 11, 10.9375, 10.875, 10.625, 10.4375, 10.25, 10.0625, 10.0625, 10, 10, 10, 10, 10, 9.9375, 9.875, 9.875, 9.875, 10, 10.1875, 10.25, 10.223214, 10.026786, 9.75, 9.6875, 10, 10.723215, 11.428572, 11.75, 12, 12.133928, 12.5, 12.5, 12.348213, 12.321428, 12.285714, 12.5, 13.098215, 13.366072, 13.6875, 13.9375, 13.973214, 13.9375, 13.830357, 13.6875, 13.75, 13.8125, 13.9375, 14.035714, 14.089286, 14.375, 14.607143, 14.758928, 14.511905, 14.196428, 14.107143, 14, 14.0625, 14.0625, 14.0625, 14.0625, 13.723215, 12.958334, 12.705357, 12.4375, 12.5625, 12.6875, 12.75, -10, -10, -10, -10, -10, -10, -10, -10, -10, -10, -10, -10, 36.25, 36.166668, 36.1875, 36.25, 36.3125, 36.630951, 36.75, 36.892857, 36.833332, 36.75, 36.666668, 36.5625, 36.583332, 36.75, 36.8125, 36.9375, 37, 36.9375, -10, -10, 36.916668, 37.083332, -10, -10, -10, -10, -10, -10, -10, -10, -10, 37.75, 37.833336, 37.777779, 16.083334, 16.270832, 16.773809, 16.991072, 16.973213, 16.333332, 16.142857, 15.9375, 16.125, 16.25, 16.375, 16.625, 16.75, 16.875, 17.0625, 17.125, 17.1875, 17.3125, 17.5, 17.8125, 18.169643, 18.4375, 18.410713, 18.0625, 18.0625, 17.875, 18, 18, 18.0625, 18.3125, 18.5625, 18.8125, 19.0625, 19.0625, 19.0625, 19.1875, 19.125, 19.125, 19.25, 19.25, 19.3125, 19.446428, 19.512501, 19.258928, 19.266666, -10, -10, -10
