-10, -10, -10, -10, -10, -10, -10, -10, -10, -10, -10, -10, 52.400002, 52.777775, 53.119049, 53.142857, 53.142857, 53.142857, 53.166668, 53.166668, 53.208332, 53.25, 53.291668, 53.291668, 53.035713, 52.875, 52.848213, 52.714287, 52.8125, 52.8125, 53.107143, 53.142857, 53.107143, 53.07143, 53.142857, 53.142857, 53.07143, 53, 52.785713, 52.714287, 52.857143, 53, 53.07143, 53.142857, 52.464287, 52.651787, 52.897957, 52.785713, 52.82143, 52.625, 52.6875, 52.964287, 52.897957, 52.589287, 52.6875, 52.75, 53, 53.1875, 53.1875, 53.42857, 53.392857, 53.32143, 53.32143, 53.25, 53.25, 53.25, 53.214287, 53.142857, 53, 52.892857, 52.857143, 52.857143, 52.92857, 53, 53.035713, 53.07143, 52.8125, 52.75, 52.6875, 52.75, 52.875, 52.875, 52.57143, 53.107143, 53.107143, 52.9375, 53.125, 53.1875, 53.125, 53.089287, 53.214287, 53.17857, 53.357143, 53.357143, 53.285713, 53.0625, 53, 53.214287, 53.214287, 53.25, 53.07143, 53.142857, 53.214287, 53.214287, 53.392857, 52.785713, 53, 52.9375, 52.8125, 52.723213, 52.651787, 52.92857, 52.392857, 52.71875, 53, 53.142857, 53.25, 53.32143, 53.285713, 53, 53, 52.642857, 52.57143, 52.57143, 52.5, 53.035713, 53.107143, 53.142857, 53.214287, 53.214287, 53.25, 53.270409, 53.335716, 53.224487, 53.017857, 52.785713, 53.25, 53.25, 53.25, 53.1875, 53.0625, 52.875, 52.75, 52.6875, 52.732143, 52.75, 52.892857, 52.964287, 53, 53.265308, 53.464287, 53.464287, 53.5, 53.357143, 53.25, 53.25, 53.32143, 53.57143, 53.67857, 53.642857, 53.520409, 53.357143, 53.0625, 53.32143, 53.285713, 53.357143, 53.42857, 53.125, 53.125, 53.125, 53.1875, 53.25, 53.5, 53.5, 53.5, 53.57143, 53.57143, 53.25, 53.125, 53.0625, 53, 53.125, 53.1875, 52.92857, 53.09375, 52.96875, 53.107143, 53.107143, 53.285713, 53.357143, 53.32143, 53.25, 53.333332, 53.035713, 52.9375, 52.9375, 52.875, 52.9375, 53, 53, 53.125, 53.32143, 53.25, 53.285713, 53.416668, 53.357143, 53.392857, 53.357143, 53.392857, 53.285713, 53.125, 53.25, 53.34375, 53.65625, 54.09375, 54.772324, 55.711311, 56.755955, 57.464287, 57.919643, 58.321426, 58.8125, 59.0625, 59.952381, 60.791668, 61.267857, 61.895832, 62.178574, 62.866074, 63.482143, 64.03125, 64.70536, 65.699409, 66.523811, 67.25, 68.273811, 68.973213, 69.544647, 70.0625, 70.5, 70.5, 70.5, 70, 69.5, 69.25, 68.9375, 68.8125, 68.5625, 68.125, 67.73214, 67.428574, 67.041664, 66.722794, 66.081627, 65.491074, 64.91964, 64.5, 64.09375, 63.65625, 63.299107, 62.96875, 62.625, 62.375, 62.0625, 61.6875, 61.375, 60.955357, 60.5625, 60.3125, 60, 59.625, 59.3125, 58.82143, 58.229168, 57.714287, 57.212498, 57.166664, 56.508926, 56.241074, 55.875, 55.5625, 55.241074, 54.729168, 54.25, 53.892857, 53.75, 53.5, 53.375, 53.1875, 53, 52.866074, 52.559525, 52.797619, 52.92857, 53.07143, 53.214287, 53.142857, 53.142857, 53.142857, 53.07143, 53, 53, 52.857143, 52.714287, 52.785713, 53.132656, 53.414967, 53.099998, 53.349998, 53.349998, -10, -10, -10, -10, -10, -10, -10, -10, -10, -10, -10, -10, -10, -10, -10, -10, -10, -10, -10, -10, -10, -10, -10, -10, -10, -10, -10, -10, -10, -10, -10, -10, -10, -10, -10, -10, -10, -10, -10, -10, -10, -10, -10, -10, -10, -10, -10, -10, -10, -10, -10, -10, -10, -10, -10, -10, -10, -10, -10, -10, -10, -10, -10, -10, -10, -10, -10, -10, -10, -10, -10, -10, -10, -10, -10, -10, -10, -10, -10, 54.388885, 54.142857, 54.142857, 54, 54, 54.214287, 53.958332, 53.958332, 54.17857, 54.142857, 54.142857, 54.07143, 54, 53.92857, 53.785713, 53.82143, 53.964287, 53.90625, 54.03125, 54.32143, 54.32143, 54.392857, 54.285713, 54.142857, 53.8125, 53.5625, 53.714287, 53.82143, 54, 53.875, 54.107143, 54.208332, 53.852043, 53.82653, 53.714287, 53.714287, 53.4375, 53.5625, 53.65625, 53.691963, 53.745537, 54.07143, 54.107143, 54.214287, 54.285713, 54.285713, 54.285713, 54.285713, 54.214287, 54, 53.9375, 54, 54, 54, 53.9375, 53.75, 53.6875, 53.625, 53.625, 53.6875, 54.035713, 54.142857, 54.214287, 54.214287, 54.07143, 53.92857, 53.92857, 53.92857, 53.92857, 54.166668, 54.035713, 54.07143, 53.9375, 54, 54, 54.142857, 54.17857, 54.285713, 54.285713, 54.392857, 54.285713, 54, 54, 54.142857, 54.25, 54.285713, 54.32143, 54.17857, 54.214287, 54.25, 54.25, 54.357143, 54.458332, 54.07143, 53.964287, 54, 54.040813, 54.102043, 54.214287, 54.291668, 53.94643, 53.71875, 53.950893, 54.147324, 54, 54.1875, 54.214287, 54.142857, 54.291668, 54.208332, 54.291668, 54.333332, 54.142857, 54.17857, 53.9375, 54, 54, 54, 54.017857, 54.012501, 54.183674, 54.224487, 54.5, 54.392857, 54.32143, 54.25, 54.17857, 53.9375, 53.875, 53.57143, 53.8125, 54.086735, 54.107143, 54.107143, 54.25, 54.285713, 54.489799, 54.607143, 54.57143, 54.535713, 54.357143, 54.285713, 54.285713, 54.392857, 54.4375, 54.5, 54.4375, 54.581631, 54.464287, 54.32143, 54.357143, 54.0625, 54.0625, 54.0625, 54, 54.214287, 54.32143, 54.392857, 54.357143, 54.125, 54.125, 54.1875, 54.3125, 54.3125, 54.1875, 54.285713, 54.25, 54.214287, 54.25, 54.214287, 54.375, 54.03125, 54.09375, 53.785713, 53.785713, 54.1875, 54.357143, 54.285713, 54.17857, 54.07143, 53.92857, 53.92857, 53.6875, 53.6875, 54.035713, 54.142857, 54.285713, 54.464287, 54.464287, 54.357143, 54.392857, 54.285713, 54.32143, 54.392857, 54.32143, 54.285713, 54.142857, 53.875, 53.875, 53.90625, 54.15625, 54.53125, 55.03125, 55.845238, 56.639881, 57.178574, 57.669643, 58.133926, 58.625, 58.9375, 60.035717, 60.916668, 61.455357, 61.848213, 62.0625, 62.696426, 63.440475, 64.03125, 64.696434, 65.8125, 66.523811, 67.214287, 68.35714, 68.964287, 69.5, 70, 70.482147, 70.5, 70.5, 70, 69.5, 69.25, 68.875, 68.6875, 68.375, 67.9375, 67.714287, 67.464287, 66.970238, 66.776779, 66.3125, 65.580353, 65.10714, 64.75, 64.40625, 63.96875, 63.549107, 62.947918, 62.571426, 62.3125, 62.125, 61.8125, 61.5, 61.142857, 60.6875, 60.375, 60.125, 59.75, 59.428574, 58.800594, 58.238094, 57.75, 57.149998, 57.104164, 56.446426, 56.241074, 55.9375, 55.6875, 55.303574, 54.791668, 54.3125, 54.0625, 54, 53.875, 53.8125, 53.6875, 53.625, 53.537415, 53.666668, 54, 54.010201, 53.8125, 54, 53.9375, 54, 54, 53.875, 54.107143, 53.875, 53.8125, 53.666668, 53.299999, 53.488098, 53.817459, -10, -10, -10, -10, -10, -10, -10, -10, -10, -10, -10, -10, -10, -10, -10, -10, -10, -10, -10, -10, -10, -10, -10, -10, -10, -10, -10, -10, -10, -10, -10, -10, -10, -10, -10
-10, -10, -10, -10, -10, -10, -10, -10, -10, -10, -10, -10, -10, 54.799999, 55.035713, 54.895832, 55, 55, 55.0625, 55.416668, 55.333332, 55, 54.9375, 55, 55, 55.142857, 55.17857, 55.07143, 54.772324, 54.71875, 54.84375, 54.90625, 55.17857, 55.214287, 55.285713, 55.25, 55.17857, 55.035713, 54.857143, 54.785713, 54.857143, 55, 55, 55.07143, 54.964287, 54.836735, 54.660713, 54.625, 54.392857, 54.285713, 54.357143, 54.464287, 54.816963, 55.158165, 55.32143, 55.32143, 55.357143, 55.32143, 55, 55.0625, 55.0625, 55.0625, 54.785713, 54.9375, 54.9375, 54.875, 54.875, 54.875, 54.75, 54.892857, 54.785713, 54.785713, 54.625, 54.875, 55.214287, 55.214287, 55.32143, 55.214287, 55.07143, 55.07143, 55.07143, 55, 55.07143, 54.8125, 54.964287, 54.964287, 54.92857, 55, 54.875, 55.0625, 55.540813, 55.5, 55.276787, 55.0625, 54.875, 55.107143, 55.107143, 55.214287, 55.285713, 55.285713, 55.107143, 55.107143, 55.17857, 55.25, 55.32143, 55.285713, 55.142857, 55.142857, 55.290813, 55.377552, 55.479591, 55.42857, 55.32143, 55.142857, 54.8125, 54.919643, 54.991074, 55.458332, 55.214287, 55.17857, 55.214287, 55.214287, 55.214287, 55.285713, 55.357143, 55.32143, 55.285713, 55.0625, 55.0625, 55, 55, 54.9375, 54.8125, 54.875, 55.17857, 55.285713, 55.32143, 55.25, 55.107143, 55.035713, 55.07143, 55.07143, 55.291668, 55.07143, 55.193878, 55.214287, 55.32143, 55.5, 55.5, 55.535713, 55.535713, 55.42857, 55.392857, 55.285713, 55.214287, 55.285713, 55.357143, 55.535713, 55.67857, 55.642857, 55.642857, 55.57143, 55.464287, 55.464287, 55.125, 55.0625, 54.785713, 55, 55.32143, 55.42857, 55.464287, 55.25, 55.1875, 55.0625, 55.0625, 55.205357, 55.3125, 55.464287, 55.5, 55.42857, 55.464287, 55.464287, 55.392857, 55.357143, 55.357143, 55.464287, 55.708332, 55.625, 55.357143, 55.0625, 54.9375, 54.875, 54.875, 54.8125, 54.875, 54.57143, 55.035713, 55.17857, 55.285713, 55.42857, 55.607143, 55.5, 55.32143, 55.125, 55, 55, 55.125, 55.125, 55.125, 54.991074, 54.604168, 54.517857, 54.5, 54.75, 55.125, 55.5, 56.116074, 56.598217, 57, 57.482143, 58, 58.482143, 58.9375, 60.044643, 60.773811, 61.3125, 61.785713, 62.107143, 62.696426, 63.333332, 63.78125, 64.428574, 65.895836, 66.39286, 67.071426, 68.1875, 68.821426, 69.375, 69.9375, 70.464287, 70.5, 70.5, 70, 69.5, 69.25, 68.875, 68.625, 68.25, 67.767853, 67.5625, 67.151787, 66.559525, 66.276779, 65.785713, 65.455353, 65.133926, 64.875, 64.5625, 64.1875, 63.705357, 63.104168, 62.696426, 62.4375, 62.25, 61.875, 61.580357, 61.3125, 60.8125, 60.5, 60.25, 59.875, 59.544643, 58.872025, 58.508926, 57.991074, 57.399998, 57.229164, 56.508926, 56.241074, 55.9375, 55.625, 55.3125, 55.0625, 54.75, 54.625, 54.392857, 54.357143, 54.32143, 54.25, 54.785713, 55.444443, 55.444443, 55.119049, 54.821426, 54.6875, 54.75, 54.75, 55.122448, 55.214287, 54.9375, 55.190479, 54.5, 54.549999, 54.75, -10, -10, -10, -10, -10, -10, -10, -10, -10, -10, -10, -10, -10, -10, -10, -10, -10, -10, -10, -10, -10, -10, -10, -10, -10, -10, -10, -10, -10, -10, -10, -10, -10, -10, -10, -10, -10, -10, -10, -10, -10, -10, -10, -10, -10, -10, -10, -10, -10, -10, -10, -10, -10, -10, -10, -10, -10, -10, -10, -10, -10, -10, -10, -10, -10, -10, -10, -10, -10, -10, -10, -10, -10, -10, -10, -10, -10, -10, -10, -10, -10, -10, -10, -10, -10, -10, 55.75, 55.770832, 56.035713, 56, 56.142857, 56.214287, 56.142857, 56.142857, 56, 56, 56.142857, 56.142857, 56.214287, 56.142857, 56.025513, 55.892857, 55.964287, 55.71875, 55.875, 55.910713, 55.901787, 55.9375, 56.07143, 56.107143, 56, 55.92857, 55.964287, 55.8125, 55.8125, 55.875, 55.8125, 55.75, 55.75, 55.964287, 56.125, 56.083332, 56.125, 56.229168, 56.17857, 56.32143, 56.5, 56.5, 56.392857, 56.125, 55.9375, 55.875, 55.8125, 56, 56.208332, 55.92857, 55.92857, 55.857143, 55.857143, 55.92857, 55.857143, 55.92857, 55.92857, 56, 56, 56.107143, 56.142857, 55.875, 56.214287, 56.17857, 56, 55.892857, 55.857143, 55.625, 55.75, 55.75, 55.75, 55.8125, 56.07143, 55.642857, 56, 56.392857, 56.540813, 56.5, 56.214287, 55.9375, 55.8125, 55.8125, 55.8125, 55.875, 55.9375, 55.9375, 55.875, 55.875, 56, 56.125, 56.1875, 56.25, 56.125, 56.32143, 56.469387, 56.5, 56.607143, 56.535713, 56.392857, 56.285713, 56.17857, 56.265308, 56.346943, 56.42857, 56.392857, 56.0625, 56.0625, 56, 55.9375, 56, 56.125, 56.32143, 56.357143, 56.392857, 56.357143, 56.214287, 56.17857, 56.107143, 55.8125, 55.714287, 56.0625, 56.1875, 56.1875, 56.125, 55.785713, 55.714287, 56.0625, 56.357143, 56.32143, 56.214287, 56.204079, 56.214287, 56.357143, 56.57143, 56.642857, 56.607143, 56.375, 56.3125, 56.035713, 56, 55.92857, 56, 56.3125, 56.607143, 56.642857, 56.607143, 56.607143, 56.57143, 56.607143, 56.57143, 56.392857, 56.285713, 56.458332, 56.214287, 56.32143, 56.392857, 56.32143, 56.32143, 56.285713, 56.25, 56.32143, 56.448978, 56.5, 56.42857, 56.42857, 56.285713, 56.32143, 56.285713, 56.214287, 56.285713, 56.392857, 56.57143, 56.67857, 56.57143, 56.464287, 56.0625, 55.642857, 55.57143, 56.107143, 56.142857, 56.142857, 56.333332, 56.07143, 56.107143, 56.214287, 56.32143, 56.42857, 56.32143, 56.142857, 55.875, 55.8125, 55.8125, 55.9375, 55.9375, 56, 55.991074, 55.440479, 55.377552, 55.25, 55.6875, 55.875, 56.0625, 56.4375, 56.732143, 57.017857, 57.482143, 58, 58.482143, 59, 60.125, 60.714287, 61.3125, 61.785713, 62.169643, 62.705357, 63.297619, 63.75, 64.339287, 65.583336, 66.380951, 67.071426, 68.0625, 68.660713, 69.21875, 69.84375, 70.446426, 70.5, 70.5, 70.0625, 69.625, 69.375, 68.9375, 68.580353, 68.125, 67.642853, 67.5, 67.089287, 66.559525, 66.339279, 65.848213, 65.517853, 65.258926, 65, 64.8125, 64.5, 63.955357, 63.318455, 62.830357, 62.354168, 62.258926, 61.9375, 61.598213, 61.321426, 60.8125, 60.5, 60.1875, 59.8125, 59.482143, 58.747025, 58.446426, 57.982147, 57.549999, 57.333332, 56.883926, 56.625, 56.375, 56.125, 55.875, 55.6875, 55.4375, 55.4375, 55.875, 56.041668, 56.208332, 56.291668, 56.285713, 56.666664, 56.559521, 56.129253, 55.82653, 55.4375, 55.678574, 55.773808, 56.396259, 55.75, 55.650002, 55.716667, -10, -10, -10, -10, -10, -10, -10, -10, -10, -10, -10, -10, -10, -10, -10, -10, -10, -10, -10, -10, -10, -10, -10, -10, -10, -10, -10, -10, -10, -10, -10, -10, -10, -10, -10, -10, -10, -10, -10, -10, -10
-10, -10, -10, -10, -10, -10, -10, -10, -10, -10, -10, -10, -10, -10, 56.111111, 56.595238, 56.714287, 56.714287, 57.0625, 57.0625, 56.9375, 56.875, 56.8125, 56.875, 57, 57, 57, 57.107143, 57.079082, 56.78125, 56.84375, 56.84375, 56.875, 56.785713, 56.714287, 56.8125, 56.875, 57.25, 57.285713, 57.214287, 57.142857, 57.107143, 57.107143, 57.107143, 57.107143, 57.07143, 57.035713, 57.107143, 57.0051, 56.887756, 56.964287, 56.982143, 57.160713, 57.03125, 57.15625, 57.125, 57, 57.142857, 57.035713, 57.07143, 57.07143, 57, 56.877552, 56.785713, 56.625, 56.732143, 56.8125, 56.642857, 56.57143, 57.17857, 57.142857, 57.142857, 57.07143, 57.035713, 56.8125, 56.8125, 56.9375, 56.9375, 56.875, 56.5, 56.464287, 56.357143, 56.42857, 56.75, 57.107143, 57.214287, 57.285713, 57.583332, 57.32143, 57.392857, 57.397957, 57.285713, 57.17347, 57.035713, 56.964287, 56.75, 56.75, 56.6875, 56.625, 56.651787, 56.794643, 56.866074, 57.214287, 57.285713, 57.214287, 57.214287, 57.25, 57.285713, 57.433674, 57.5, 57.535713, 57.25, 57.125, 57.25, 57.142857, 57.204082, 57.2449, 57.285713, 57.214287, 57.17857, 57.214287, 57.107143, 57.07143, 56.8125, 56.9375, 57.214287, 57.285713, 57.392857, 57.32143, 57.25, 57.25, 57.25, 57.142857, 57.375, 57.142857, 57.107143, 57.107143, 57.07143, 57.291668, 57.375, 57.285713, 57.464287, 57.25, 57.125, 57.125, 57.0625, 57.125, 57.25, 57.42857, 57.42857, 57.42857, 57.42857, 57.75, 57.791668, 57.791668, 57.833332, 57.607143, 57.57143, 57.3125, 57.25, 57.1875, 57.25, 57.5, 57.464287, 57.357143, 57.25, 57.285713, 57.32143, 57.42857, 57.1875, 57.0625, 57, 57.17857, 57.25, 57.357143, 57.413265, 57.464287, 57.0625, 56.9375, 56.8125, 56.875, 56.982143, 57, 57.392857, 57.5, 57.375, 57.4375, 57.3125, 57.285713, 57.142857, 57.208332, 57.166668, 57.07143, 57.214287, 57.285713, 57.285713, 57.17857, 56.875, 56.9375, 57.0625, 57.107143, 56.9375, 56.875, 56.857143, 56.875, 57.107143, 57.107143, 57.07143, 57.07143, 57.061226, 57.111115, 57.261902, 57.25, 57.107143, 57, 56.785713, 57.1875, 57.25, 57.392857, 57.732143, 58.1875, 58.607143, 59.0625, 59.895832, 60.57143, 61.1875, 61.931545, 62.348213, 62.830357, 63.315475, 63.6875, 64.303574, 65.791664, 66.738098, 67.392853, 68.083336, 68.535713, 69.0625, 69.6875, 70.321426, 70.4375, 70.4375, 70.125, 69.6875, 69.4375, 69, 68.580353, 68.0625, 67.517853, 67.3125, 66.848213, 66.580353, 66.321426, 65.8125, 65.517853, 65.25, 65, 64.875, 64.625, 64.125, 63.398811, 62.892857, 62.354168, 62.258926, 62.0625, 61.723213, 61.300594, 60.803574, 60.4375, 60.1875, 59.8125, 59.544643, 58.854168, 58.508926, 58.116074, 57.75, 57.5, 57.3125, 57.1875, 57, 56.875, 56.75, 56.785713, 56.714287, 56.75, 56.82143, 57.035713, 57.285713, 57.464287, 57.57143, 57.690472, 57.333332, 56.863098, 56.660713, 56.785713, 57.073132, 56.883926, 57.004761, -10, -10, -10, -10, -10, -10, -10, -10, -10, -10, -10, -10, -10, -10, -10, -10, -10, -10, -10, -10, -10, -10, -10, -10, -10, -10, -10, -10, -10, -10, -10, -10, -10, -10, -10, -10, -10, -10, -10, -10, -10, -10, -10, -10, -10, -10, -10, -10, -10, -10, -10, -10, -10, -10, -10, -10, -10, -10, -10, -10, -10, -10, -10, -10, -10, -10, -10, -10, -10, -10, -10, -10, -10, -10, -10, -10, -10, -10, -10, -10, -10, -10, -10, -10, -10, -10, -10, -10, -10, -10, -10, -10, -10, 57.833332, 58.75, 58.583332, 58.316326, 58.17857, 58, 57.75, 57.892857, 58, 58, 58, 58, 57.9375, 57.928574, 58.07143, 58.142857, 58.107143, 58.142857, 57.755951, 57.660717, 58.107143, 58.07143, 58.285713, 58.285713, 58.25, 58.17857, 58.035713, 58.107143, 58.17857, 58.214287, 58.214287, 58.107143, 58.07143, 57.785713, 57.776787, 57.875, 57.875, 58, 57.9375, 57.9375, 57.9375, 57.9375, 58, 58.25, 58.285713, 58.285713, 58, 57.556122, 57.464287, 57.6875, 57.943878, 58, 58.291668, 58.375, 58.25, 58.25, 58.17857, 58.035713, 57.8125, 57.8125, 57.964287, 57.875, 57.8125, 58, 58.166668, 58.166668, 58.208332, 58.166668, 58.208332, 58.142857, 58.285713, 58.357143, 58.42857, 58.392857, 58.125, 58.098213, 58, 57.839287, 57.75, 57.892857, 57.892857, 57.892857, 57.625, 57.5625, 57.526787, 57.908165, 57.989799, 58.107143, 58.142857, 57.946426, 57.904758, 57.976189, 58.166668, 58.169643, 58.125, 58.1875, 58.125, 58.125, 58.1875, 58.0625, 58, 57.9375, 57.875, 57.8125, 58.035713, 58.142857, 58.142857, 58, 58, 58.0625, 58.053574, 57.9375, 58.0625, 58, 58, 58.214287, 58.25, 58.214287, 58.285713, 58.25, 57.9375, 57.875, 57.8125, 58.142857, 58.285713, 58.392857, 58.5, 58.357143, 58.214287, 58.142857, 58.07143, 57.9375, 58.0625, 58.125, 58.1875, 58.5, 58.464287, 58.535713, 58.535713, 58.535713, 58.642857, 58.642857, 58.607143, 58.3125, 58.25, 57.92857, 58.25, 58.3125, 58.3125, 58.25, 58.15625, 58.1875, 58.32143, 58.32143, 58.214287, 57.875, 57.875, 57.875, 57.9375, 58.285713, 58.142857, 58.25, 57.857143, 57.714287, 57.57143, 57.642857, 58.107143, 58.1875, 58.42857, 58.5, 58.3125, 58.25, 58.125, 57.9375, 57.8125, 58, 58, 57.8125, 57.9375, 58, 58, 57.8125, 57.714287, 57.857143, 57.991074, 58.107143, 57.642857, 57.9375, 58.158165, 58.285713, 58.357143, 58.32143, 58.285713, 58, 57.928574, 58.023811, 58.081631, 58.07143, 58.107143, 58.107143, 58.25, 58.035713, 57.9375, 58, 58.125, 58.4375, 58.794643, 59.1875, 59.8125, 60.44643, 61, 61.770832, 62.285713, 62.875, 63.339287, 63.5625, 64, 65.321426, 66.31292, 67.196426, 67.928574, 68.513397, 69.03125, 69.65625, 70.245537, 70.40625, 70.40625, 70.1875, 69.78125, 69.53125, 69.09375, 68.611603, 68.0625, 67.517853, 67.25, 66.75, 66.5625, 66.3125, 65.803574, 65.392853, 65.1875, 64.9375, 64.875, 64.625, 64.1875, 63.660713, 62.988098, 62.354168, 62.133926, 61.955357, 61.735714, 61.247025, 60.875, 60.5, 60.25, 59.8125, 59.491074, 58.9375, 58.625, 58.375, 58.1875, 58.0625, 57.9375, 57.8125, 57.75, 58, 58.107143, 58.025513, 57.82143, 57.857143, 57.82143, 58.142857, 58.392857, 58.535713, 58.607143, 58.3125, 58.125, 57.863098, 57.292858, 57.349998, 57.702381, -10, -10, -10, -10, -10, -10, -10, -10, -10, -10, -10, -10, -10, -10, -10, -10, -10, -10, -10, -10, -10, -10, -10, -10, -10, -10, -10, -10, -10, -10, -10, -10, -10, -10, -10, -10, -10, -10, -10, -10, -10, -10, -10, -10, -10, -10
-10, -10, -10, -10, -10, -10, -10, -10, -10, -10, -10, -10, -10, -10, -10, -10, 59.714287, 59.476192, 59.352043, 59.142857, 58.8125, 58.78125, 58.71875, 59.035713, 59.07143, 59.035713, 58.964287, 58.892857, 59.035713, 59.17857, 59.32143, 59.392857, 59.392857, 59.523808, 59.392857, 59.142857, 59, 59.142857, 58.9375, 58.9375, 58.875, 58.75, 59.035713, 59.107143, 59.17857, 59.214287, 58.9375, 58.9375, 58.540813, 59.030613, 59.07143, 58.964287, 59.07143, 58.8125, 58.8125, 58.875, 59.07143, 59.142857, 59.25, 59.357143, 59.357143, 59.214287, 59.178574, 59.166668, 58.857143, 58.979591, 59.07143, 59.07143, 59.142857, 59.17857, 59.214287, 59, 58.875, 58.8125, 59.035713, 59.07143, 59.142857, 59.142857, 59.17857, 59.142857, 59.142857, 59.142857, 59.035713, 59.07143, 59.17857, 59.357143, 59.25, 59.25, 59.1875, 59, 58.8125, 58.75, 58.5625, 58.5625, 58.5625, 58.785713, 58.857143, 58.785713, 58.785713, 58.7449, 58.732143, 58.803574, 58.875, 58.9375, 59.008926, 59.777775, 59.736111, 59.104168, 58.946426, 58.8125, 58.875, 58.9375, 59.142857, 59.25, 59.107143, 58.9375, 59, 58.875, 58.875, 58.8125, 58.8125, 59.035713, 59.07143, 59.07143, 59.17857, 59.204082, 58.9375, 58.785713, 58.9375, 59, 59.0625, 59.125, 59.125, 59.1875, 59.25, 59.107143, 58.875, 58.75, 58.875, 59, 59.125, 59.25, 59.125, 59, 58.875, 58.8125, 58.875, 58.9375, 59, 59.125, 59.42857, 59.3125, 59.375, 59.3125, 59.3125, 59.375, 59.4375, 59.642857, 59.535713, 59.464287, 59.625, 59.464287, 59.42857, 59.357143, 59.25, 59.107143, 59.214287, 59.214287, 59.0625, 59.03125, 58.875, 58.57143, 58.57143, 58.714287, 59.125, 59.125, 59.32143, 59.5, 59.458332, 59.273808, 59.315475, 59.265308, 59.42857, 59.535713, 59.57143, 59.535713, 59.25, 59.125, 59, 58.9375, 58.875, 58.875, 58.8125, 58.8125, 58.75, 58.6875, 58.625, 58.633926, 59.122448, 59.346943, 59.336735, 59.333332, 59.142857, 59.122448, 59.25, 59.32143, 59.25, 59.17857, 59.035713, 59, 58.9375, 59.0625, 58.857143, 58.857143, 58.785713, 59.214287, 59, 58.6875, 58.857143, 58.919643, 59.125, 59.3125, 59.5625, 60.0625, 60.589287, 61.0625, 61.708332, 62.178574, 63.020832, 63.482143, 63.71875, 63.986607, 64.202377, 64.825401, 67.029762, 67.883926, 68.53125, 69.03125, 69.65625, 70.245537, 70.40625, 70.40625, 70.25, 69.90625, 69.6875, 69.25, 68.709824, 67.9375, 67.446426, 67.1875, 66.875, 66.723213, 66.392853, 65.866074, 65.392853, 65.1875, 64.9375, 64.9375, 64.6875, 64.25, 63.607143, 62.880951, 62.229168, 62.008926, 61.892857, 61.717857, 61.247025, 60.9375, 60.625, 60.375, 60, 59.75, 59.3125, 59.0625, 58.9375, 58.8125, 58.875, 58.57143, 58.57143, 59.07143, 59.142857, 59.214287, 59.132656, 59, 58.8125, 58.5, 59.0625, 59.1875, 59.3125, 59.354168, 58.833332, 58.666668, 58.523811, -10, -10, -10, -10, -10, -10, -10, -10, -10, -10, -10, -10, -10, -10, -10, -10, -10, -10, -10, -10, -10, -10, -10, -10, -10, -10, -10, -10, -10, -10, -10, -10, -10, -10, -10, -10, -10, -10, -10, -10, -10, -10, -10, -10, -10, -10, -10, -10, -10, -10, -10, -10, -10, -10, -10, -10, -10, -10, -10, -10, -10, -10, -10, -10, -10, -10, -10, -10, -10, -10, -10, -10, -10, -10, -10, -10, -10, -10, -10, -10, -10, -10, -10, -10, -10, -10, -10, -10, -10, -10, -10, -10, -10, -10, -10, -10, -10, -10, -10, 60.400002, 60.166668, 60.110119, 59.9375, 60.107143, 60.17857, 60.142857, 59.96875, 59.90625, 59.8125, 59.6875, 59.857143, 60.035713, 60.214287, 60.42857, 60.57143, 60.607143, 60.5, 60.357143, 60.25, 59.875, 59.9375, 59.9375, 59.875, 59.75, 59.6875, 59.75, 59.8125, 59.875, 59.875, 60, 60.07143, 60.273808, 60.122448, 60.142857, 60.035713, 60.07143, 60, 59.92857, 60, 60.142857, 60.17857, 60.0625, 60.125, 60.0625, 60.17857, 60.010204, 60, 59.892857, 59.732143, 59.8125, 59.875, 59.9375, 59.9375, 59.9375, 60, 59.964287, 60.07143, 60.214287, 60.32143, 60.392857, 60.392857, 60.357143, 60.285713, 60.17857, 59.875, 59.776787, 59.848213, 59.875, 60.0625, 60.0625, 60.071426, 60.1875, 60, 59.607143, 60, 59.5625, 59.625, 59.625, 59.6875, 59.75, 59.857143, 59.892857, 59.908165, 59.794643, 59.866074, 59.875, 60, 60.117344, 60.452381, 60.345238, 60.154762, 59.974487, 59.6875, 59.75, 59.8125, 59.875, 60.17857, 60.07143, 60, 60, 59.857143, 59.857143, 59.82143, 59.75, 59.875, 60, 60, 60.25, 60.168369, 59.964287, 60.208332, 59.857143, 59.964287, 60.07143, 60.229591, 60.32143, 60.42857, 60.392857, 60.285713, 60.214287, 59.75, 59.57143, 59.9375, 60, 60.0625, 60, 59.9375, 59.9375, 59.9375, 60.142857, 60.25, 60.285713, 60.392857, 60.5, 60.535713, 60.3125, 60.125, 60.125, 60.1875, 60.3125, 60.67857, 60.642857, 60.535713, 60.5, 60.535713, 60.464287, 60.464287, 60.392857, 59.75, 60.125, 60.125, 60.1875, 60.357143, 60.285713, 60.541668, 60.5, 60.541668, 60.357143, 60.357143, 60.42857, 60.5, 60.5, 60.306122, 60.341835, 60.418365, 60.535713, 60.642857, 60.642857, 60.535713, 60.357143, 60.25, 60.142857, 60.142857, 60.142857, 60.142857, 60.07143, 59.5, 59.5, 59.464287, 59.6875, 59.974487, 60.158165, 60.346943, 60.346935, 60.142857, 60.107143, 59.857143, 59.9375, 60, 59.9375, 59.875, 59.75, 60, 60.035713, 60.07143, 60.375, 60.333332, 60.416668, 60.0625, 59.9375, 59.57143, 59.982143, 59.982143, 60, 60.0625, 60.125, 60.4375, 60.857143, 61.25, 61.833332, 62.178574, 62.895832, 63.25, 63.46875, 63.799107, 64.039116, 64.653069, 67.041672, 67.991074, 68.763397, 69.21875, 69.78125, 70.263397, 70.40625, 70.40625, 70.25, 69.90625, 69.6875, 69.25, 68.63839, 67.830353, 67.383926, 67.125, 66.9375, 66.785713, 66.455353, 65.928574, 65.392853, 65.1875, 64.9375, 64.9375, 64.6875, 64.25, 63.607143, 62.916668, 62.330357, 62.008926, 61.830357, 61.700001, 61.238094, 61, 60.75, 60.6875, 60.5, 60.375, 60.125, 60.142857, 60.107143, 60, 60.07143, 60.333332, 60.375, 60.17857, 60.214287, 60, 59.928574, 60, 60.035713, 60.277775, 59.799999, 59.849998, 59.75, 59.638889, -10, -10, -10, -10, -10, -10, -10, -10, -10, -10, -10, -10, -10, -10, -10, -10, -10, -10, -10, -10, -10, -10, -10, -10, -10, -10, -10, -10, -10, -10, -10, -10, -10, -10, -10, -10, -10, -10, -10, -10, -10, -10, -10, -10, -10, -10, -10, -10, -10, -10, -10, -10
-10, -10, -10, -10, -10, -10, -10, -10, -10, -10, -10, -10, -10, -10, -10, -10, -10, 60.916668, 60.922619, 61, 61.107143, 61.214287, 61.17857, 61.142857, 61.035713, 60.875, 60.591835, 60.57143, 60.892857, 61.214287, 61.32143, 61.464287, 61.5, 61.25, 61.1875, 61.125, 61.142857, 61.07143, 60.964287, 60.82143, 60.625, 60.857143, 60.75, 60.8125, 60.75, 60.75, 60.6875, 61, 61.07143, 61.17857, 61, 60.9375, 60.9375, 61.107143, 61.07143, 61.17857, 61.285713, 61, 61, 60.9375, 60.9375, 61, 61, 60.785713, 60.875, 60.75, 60.6875, 60.892857, 60.8125, 60.875, 61, 60.642857, 61.142857, 61.17857, 61.285713, 61.357143, 61.392857, 61.42857, 61.214287, 61.102043, 61.07653, 60.6875, 60.714287, 60.969387, 60.75, 60.9375, 61, 61.10714, 61.57143, 61.464287, 61.625, 61.25, 61.07143, 61, 60.92857, 60.892857, 60.892857, 60.82143, 60.964287, 61.07143, 61.142857, 61.214287, 61.214287, 61.214287, 61.071426, 61.395832, 61.023808, 61.104168, 60.946426, 61.07143, 61.107143, 60.9375, 60.9375, 61, 60.875, 60.75, 60.8125, 61, 61.07143, 60.75, 61.107143, 61.214287, 61.25, 61.0625, 61.0625, 60.991074, 61.051022, 60.904762, 60.517857, 60.5625, 60.6875, 61.086735, 61.25, 61.42857, 61.392857, 61.32143, 61.214287, 61.208332, 61.208332, 61.07143, 61, 61, 60.9375, 61.035713, 60.92857, 61.07143, 61.214287, 61.392857, 61.5, 61.535713, 61.57143, 61.607143, 61.5, 61.32143, 61.25, 61.214287, 61.25, 61.357143, 61.357143, 61.125, 61.25, 61.3125, 61.3125, 61.57143, 61.5, 61.645832, 61.464287, 61.357143, 61.392857, 61.44643, 61.42857, 61.57143, 61.57143, 61.57143, 61.464287, 61.42857, 61.372448, 61.316326, 61.5, 61.1875, 61.267857, 61.3125, 61.375, 61.67857, 61.607143, 61.464287, 61.285713, 61.142857, 61.17857, 61.285713, 61.357143, 61.42857, 61.357143, 61.5, 61.458332, 61.375, 61.107143, 61.17347, 61.044643, 61.178574, 61.1875, 60.857143, 61, 60.9375, 60.9375, 60.9375, 60.714287, 60.9375, 60.8125, 60.875, 61.107143, 61.214287, 61.357143, 61.214287, 61.214287, 61.142857, 61, 61.25, 61.265308, 61.265308, 61.285713, 61.25, 61, 61.1875, 61.375, 61.5625, 61.8125, 62.125, 62.770832, 63.125, 63.34375, 63.59375, 63.808037, 64.33036, 66.398819, 67.678574, 68.602676, 69.15625, 69.834824, 70.370537, 70.46875, 70.46875, 70.25, 69.96875, 69.75, 69.375, 68.76339, 67.955353, 67.571426, 67.25, 67.1875, 66.955353, 66.473213, 65.928574, 65.375, 65.1875, 64.9375, 64.875, 64.625, 64.1875, 63.589287, 62.916668, 62.330357, 62.008926, 61.767857, 61.700001, 61.508926, 61.446426, 61.375, 61.375, 61.3125, 61.5, 61.357143, 61.25, 61.17857, 61.035713, 61.07143, 61.142857, 61.142857, 61.107143, 61.07143, 60.883926, 61.053574, 61.214287, 60.599998, 60.683331, -10, -10, -10, -10, -10, -10, -10, -10, -10, -10, -10, -10, -10, -10, -10, -10, -10, -10, -10, -10, -10, -10, -10, -10, -10, -10, -10, -10, -10, -10, -10, -10, -10, -10, -10, -10, -10, -10, -10, -10, -10, -10, -10, -10, -10, -10, -10, -10, -10, -10, -10, -10, -10, -10, -10, -10, -10, -10, -10, -10, -10, -10, -10, -10, -10, -10, -10, -10, -10, -10, -10, -10, -10, -10, -10, -10, -10, -10, -10, -10, -10, -10, -10, -10, -10, -10, -10, -10, -10, -10, -10, -10, -10, -10, -10, -10, -10, -10, -10, -10, -10, -10, -10, -10, -10, -10, -10, 61.222225, 61.666664, 61.642857, 62.25, 62.03125, 61.96875, 61.915176, 62.232143, 62.285713, 62.630951, 62.5, 62.198978, 62.214287, 62, 62.0625, 62.0625, 61.9375, 62.07143, 62.17857, 62.214287, 62.285713, 61.958332, 61.791668, 61.791668, 62.142857, 62.142857, 62.07143, 61.92857, 61.82143, 61.625, 61.8125, 61.9375, 62.0625, 62.125, 62.285713, 62.285713, 62.214287, 62.214287, 62.285713, 62.285713, 62.17857, 62.107143, 61.8125, 61.875, 62.214287, 62.285713, 62.5, 62.17857, 62.107143, 62.035713, 62.07143, 62.07143, 62.07143, 62.17857, 62.416668, 62.285713, 62.285713, 62.357143, 62.357143, 62.285713, 62.125, 61.875, 61.776787, 61.785713, 61.625, 61.92347, 61.933674, 61.964287, 62.142857, 62.25, 62.479588, 62.642857, 62.535713, 62.42857, 62.214287, 62.17857, 62.17857, 62.17857, 62.17857, 61.833332, 61.75, 62.17857, 62.32143, 62.392857, 62.392857, 62.392857, 62.285713, 62.32143, 62.42857, 62.458332, 62.357143, 62.32143, 62.214287, 62.214287, 62.142857, 62, 61.892857, 61.852043, 61.660713, 61.75, 62, 62, 62.208332, 62.07143, 62.142857, 62.142857, 62.142857, 62.17857, 62.214287, 61.982143, 61.583336, 61.413265, 61.392857, 61.57143, 61.765308, 62.125, 62.25, 62.42857, 62.32143, 62.25, 62.07143, 62.07143, 62.07143, 62.107143, 62.142857, 62.142857, 61.9375, 61.642857, 62.32143, 62.42857, 62.57143, 62.642857, 62.642857, 62.642857, 62.67857, 62.607143, 62.5, 62.42857, 62.125, 61.857143, 61.92857, 61.92857, 61.857143, 62.25, 62.25, 62.392857, 62.464287, 62.42857, 62.392857, 62.42857, 62.32143, 62.285713, 62.392857, 62.464287, 62.57143, 62.57143, 62.57143, 62.464287, 62.5, 62.232143, 61.887756, 62.3125, 62.1875, 62.510201, 62.57143, 62.535713, 62.57143, 62.25, 62.125, 62, 61.875, 61.9375, 62, 62.285713, 62.357143, 62.32143, 62.285713, 62.25, 62.17857, 62.214287, 62.275513, 62.25, 62.1875, 62.25, 62.333332, 62.035713, 61.92857, 61.92857, 61.92857, 62.166668, 62, 61.92857, 62.107143, 62.214287, 62.32143, 62.42857, 62.0625, 62, 61.90625, 61.84375, 62.17857, 62.382656, 62.418369, 62.357143, 62.285713, 62.142857, 62.17857, 62.125, 62.25, 62.375, 62.5625, 63.020832, 63.205357, 63.53125, 63.84375, 64.183037, 64.79464, 66.607147, 67.785721, 68.633926, 69.125, 70.011909, 70.517853, 70.5625, 70.5, 70.25, 70, 69.78125, 69.46875, 68.91964, 68.142853, 67.821426, 67.4375, 67.4375, 67.205353, 66.660713, 66.071426, 65.517853, 65.1875, 64.875, 64.75, 64.5, 64.125, 63.598213, 63.125, 62.674107, 62.477676, 62.21875, 62.09375, 62, 61.9375, 62, 62.25, 62.32143, 62.392857, 62.32653, 62.091835, 61.830357, 61.6875, 61.75, 61.9375, 62, 61.979168, 61.333332, 61.464283, 61.75, 61.799999, -10, -10, -10, -10, -10, -10, -10, -10, -10, -10, -10, -10, -10, -10, -10, -10, -10, -10, -10, -10, -10, -10, -10, -10, -10, -10, -10, -10, -10, -10, -10, -10, -10, -10, -10, -10, -10, -10, -10, -10, -10, -10, -10, -10, -10, -10, -10, -10, -10, -10, -10, -10, -10, -10, -10, -10, -10, -10
-10, -10, -10, -10, -10, -10, -10, -10, -10, -10, -10, -10, -10, -10, -10, -10, -10, -10, 63.388889, 63.472218, 63.32143, 63.1875, 63.125, 63.071426, 63.357143, 63.392857, 63.469387, 63.357143, 63.198978, 63.142857, 62.9375, 62.9375, 63, 62.714287, 62.75, 62.892857, 63.5, 63.57143, 63.708332, 63.541668, 63.458332, 63.214287, 63.214287, 63.214287, 63.07143, 62.92857, 62.857143, 62.964287, 63.035713, 63.17857, 63.25, 63.17857, 63.17857, 63.17857, 63.25, 63.32143, 63.285713, 63.142857, 63, 62.892857, 63, 63.214287, 63.357143, 63.357143, 63.285713, 63.142857, 63, 63.035713, 63.107143, 63.17857, 63.32143, 63.357143, 63.32143, 63.214287, 63.17857, 63, 62.9375, 63, 62.8125, 62.776787, 62.540813, 62.708332, 62.892857, 62.848213, 63.07143, 63.107143, 63.142857, 63.295918, 63.1875, 63.0625, 63, 62.875, 62.875, 63.142857, 63.142857, 63.142857, 63.25, 63.208332, 63.107143, 63.214287, 63.357143, 63.357143, 63.357143, 63.25, 63.17857, 63.25, 63.214287, 63.32143, 63.32143, 63.32143, 63.392857, 63.392857, 62.892857, 62.767857, 62.776787, 62.738098, 62.791668, 62.958332, 62.916668, 63, 62.785713, 62.857143, 62.857143, 63.125, 63.357143, 63.32143, 63.193878, 63.194443, 63.136906, 63.125, 63.291668, 63.321426, 63.107143, 63.0625, 63.0625, 63.0625, 63.0625, 62.9375, 62.9375, 62.9375, 62.9375, 63.25, 63.25, 63.17857, 63.333332, 63.25, 63.392857, 63.5, 63.57143, 63.5, 63.42857, 63.5, 63.5, 63.535713, 63.464287, 63.392857, 63.541668, 63.541668, 63.625, 63.583332, 63.464287, 63.464287, 63.25, 63.28125, 63.28125, 63.28125, 63.28125, 63.1875, 63.0625, 63.0625, 63.125, 63.25, 63.3125, 63.375, 63.3125, 63.375, 63.551022, 63.642857, 63.5, 63.515308, 63.607143, 63.607143, 63.535713, 63.25, 63.125, 63.0625, 62.9375, 62.9375, 62.9375, 62.9375, 62.9375, 63, 63.208336, 63, 63.035713, 62.92857, 62.964287, 63.5, 63.464287, 63.464287, 63.25, 63.142857, 63, 62.92857, 63.010201, 63.157143, 63.081631, 63.163265, 63.07143, 63.25, 63.392857, 63.464287, 63.464287, 63.214287, 63.107143, 62.84375, 62.96875, 63.15625, 63.21875, 63.1875, 63.0625, 63.142857, 63.107143, 63.17857, 63.285713, 63.392857, 63.1875, 63.1875, 63.25, 63.375, 63.75, 64.1875, 64.683037, 65.258926, 66.752975, 67.839287, 68.602676, 69.09375, 70.011909, 70.517853, 70.5625, 70.5, 70.25, 70, 69.75, 69.375, 68.848213, 68.330353, 68.0625, 67.75, 67.625, 67.357147, 66.830353, 66.142853, 65.535713, 65.1875, 64.875, 64.6875, 64.4375, 64.125, 63.776787, 63.482143, 63.174107, 63.040176, 62.84375, 62.78125, 62.964287, 63.07143, 63.214287, 63.392857, 63.125, 63.125, 63.035713, 62.767857, 62.705357, 62.5625, 62.083332, 62.25, 62.5, 62.566669, -10, -10, -10, -10, -10, -10, -10, -10, -10, -10, -10, -10, -10, -10, -10, -10, -10, -10, -10, -10, -10, -10, -10, -10, -10, -10, -10, -10, -10, -10, -10, -10, -10, -10, -10, -10, -10, -10, -10, -10, -10, -10, -10, -10, -10, -10, -10, -10, -10, -10, -10, -10, -10, -10, -10, -10, -10, -10, -10, -10, -10, -10, -10, -10, -10, -10, -10, -10, -10, -10, -10, -10, -10, -10, -10, -10, -10, -10, -10, -10, -10, -10, -10, -10, -10, -10, -10, -10, -10, -10, -10, -10, -10, -10, -10, -10, -10, -10, -10, -10, -10, -10, -10, -10, -10, -10, -10, -10, -10, -10, -10, -10, -10, -10, 63.799999, 64.476189, 64.369041, 64.321426, 64.178574, 64.117348, 64.25, 64.0625, 64.223213, 64.1875, 64.08036, 64.0625, 64.25, 64.178574, 64.178574, 64.375, 64.5, 64.583336, 64.464287, 64.571426, 64.464287, 64.285713, 64.25, 63.9375, 63.9375, 63.875, 63.92857, 63.82143, 63.785713, 63.92857, 64, 64.10714, 64, 63.9375, 63.9375, 64, 64.285713, 64.1875, 64.1875, 64.0625, 63.67857, 63.916668, 63.775513, 64.104164, 64.133926, 64.125, 64.125, 64.0625, 63.9375, 63.875, 63.875, 63.875, 64, 64.0625, 64.0625, 63.9375, 63.9375, 63.857143, 63.729164, 63.958336, 63.857143, 63.989796, 64.190475, 64.208336, 64.291664, 64, 64.071426, 63.9375, 64.0625, 63.969387, 63.92857, 63.785713, 63.642857, 63.607143, 63.875, 63.875, 63.875, 63.9375, 64.14286, 64.244896, 63.785713, 63.946426, 64.071426, 64, 64.071426, 63.976192, 63.918369, 63.964287, 64.080353, 64.0625, 64.0625, 64.125, 64.25, 64.428574, 64.017853, 64.091835, 64.137756, 64.571434, 64.541664, 64.625, 64.541664, 64.5, 64.5, 64.416664, 64.291664, 64.214287, 64.35714, 64.428574, 64.418365, 64.309525, 64.295921, 64.214287, 64.25, 64.214287, 63.8125, 63.875, 63.875, 63.8125, 64.035713, 64, 64.071426, 64.10714, 64.14286, 64.214287, 64.214287, 64.25, 64.285713, 64.39286, 64.5, 64.3125, 64.375, 64.3125, 64, 64.3125, 64.3125, 64.60714, 64.571426, 64.535713, 64.5, 64.464287, 64.535713, 64.535713, 64.60714, 64.5, 64.464287, 64.21875, 64.21875, 64.28125, 64.21875, 64.321426, 64.0625, 63.846943, 63.918369, 64.166664, 64.133926, 64.285713, 64.25, 64.39286, 64.489792, 64.479591, 64.535713, 64.489792, 64.556122, 64.4375, 64.375, 64.3125, 64.0625, 64.285713, 64.25, 64.285713, 64.321426, 64.214287, 63.642857, 63.714287, 64.208336, 64.583336, 64.583336, 64.5, 64.625, 64.535713, 64.60714, 64.60714, 64.1875, 64.0625, 63.9375, 63.875, 63.946426, 64.335716, 64.008926, 64.017853, 64.071426, 64.14286, 64.35714, 64.39286, 64.1875, 64, 64, 63.92857, 64.10714, 64.285713, 64.39286, 64.428574, 64.125, 63.785713, 64.0625, 64.125, 64.428574, 64.464287, 64.39286, 64.35714, 64.125, 64.1875, 64.375, 64.625, 64.950897, 65.473213, 66.544647, 67.482147, 68.328873, 68.90625, 69.886909, 70.5, 70.5625, 70.5, 70.25, 70, 69.75, 69.375, 68.991074, 68.5625, 68.3125, 68.0625, 67.8125, 67.544647, 66.955353, 66.267853, 65.660713, 65.25, 64.9375, 64.6875, 64.5, 64.375, 64.125, 63.9375, 63.84375, 63.92857, 63.892857, 63.892857, 63.892857, 64, 64.178574, 64.35714, 64.1875, 64.116074, 63.785713, 63.023808, 62.940475, 63, -10, -10, -10, -10, -10, -10, -10, -10, -10, -10, -10, -10, -10, -10, -10, -10, -10, -10, -10, -10, -10, -10, -10, -10, -10, -10, -10, -10, -10, -10, -10, -10, -10, -10, -10, -10, -10, -10, -10, -10, -10, -10, -10, -10, -10, -10, -10, -10, -10, -10, -10, -10, -10, -10, -10, -10, -10, -10, -10, -10, -10, -10, -10, -10, -10, -10
-10, -10, -10, -10, -10, -10, -10, -10, -10, -10, -10, -10, -10, -10, -10, -10, -10, -10, -10, 65.333328, 65.041664, 65.214287, 65.10714, 64.883926, 65.125, 64.918373, 65.035713, 65.035713, 65.535713, 65.5, 65.428574, 65.321426, 65.346939, 65.510201, 65.595238, 65.440475, 65.448982, 65.3125, 65.3125, 65.21875, 65.09375, 64.90625, 64.78125, 64.75, 64.75, 64.633926, 64.3125, 64.395836, 64.666664, 64.883926, 65.0625, 65.0625, 65, 65, 65, 65.178574, 65.214287, 65.14286, 65.416664, 65.583336, 65.577385, 64.895828, 64.767853, 64.6875, 64.8125, 65.035713, 65.10714, 64.875, 64.875, 64.875, 64.875, 64.9375, 64.9375, 64.8125, 64.875, 64.857147, 64.729164, 65.273811, 65.071426, 65.224487, 65, 65.204086, 65, 64.928574, 64.89286, 65.071426, 65.178574, 65.541664, 65.583336, 65.5, 65.458336, 65.375, 65.10714, 64.9375, 64.9375, 65, 65, 65.089287, 65.583336, 65.071426, 65.071426, 64.875, 64.883926, 65.402779, 65.39286, 65.375, 65.091835, 64.9375, 65, 65.285713, 65.35714, 65.321426, 65.091835, 65.056122, 65.122452, 65.346939, 65.285713, 65.321426, 65.285713, 65.285713, 65.35714, 65.35714, 65, 65.39286, 65.5, 65.535713, 65.535713, 65.535713, 65.464287, 65.321426, 65.0625, 64.9375, 64.75, 64.8125, 64.875, 64.875, 64.714287, 65.25, 65.25, 65.25, 65.25, 65.0625, 65.125, 65.1875, 65.1875, 65.428574, 65.5, 65.428574, 65.5, 65.428574, 65.583336, 65.5, 65.571426, 65.64286, 65.64286, 65.64286, 65.64286, 65.64286, 65.64286, 65.64286, 65.571426, 65.464287, 65.5, 65.410713, 65.48214, 65.553574, 65.48214, 65.464287, 65.428574, 65.726189, 65.76786, 65.404762, 65.133926, 64.85714, 65.0625, 65.1875, 65.3125, 65.375, 65.4375, 65.375, 65.392853, 65.64286, 65.60714, 65.571426, 65.39286, 65.464287, 65.464287, 65.464287, 65.39286, 65.214287, 65.166664, 65.166664, 65.238098, 65.214287, 65.214287, 65.14286, 65.25, 65.35714, 65.428574, 65.464287, 65.35714, 65.25, 65.178574, 65.071426, 65.081627, 65.228569, 65.010201, 65.056122, 65.035713, 64.9375, 65.125, 65.125, 65, 64.8125, 64.6875, 64.65625, 64.84375, 65.26786, 65.375, 65.39286, 65.285713, 65.333336, 65.10714, 65.178574, 65.285713, 65.321426, 65.25, 65.25, 65.178574, 65.178574, 65.125, 65.25, 65.46875, 65.973213, 66.9375, 67.544647, 68.302086, 68.897324, 69.815475, 70.392853, 70.5, 70.4375, 70.25, 70, 69.75, 69.375, 69.053574, 68.625, 68.375, 68.125, 67.75, 67.5, 67, 66.392853, 65.910713, 65.5625, 65.3125, 65.125, 64.9375, 64.875, 64.75, 64.75, 64.84375, 64.78125, 64.71875, 64.65625, 64.732147, 64.794647, 65.178574, 65.25, 65.178574, 65.096939, 64.130951, -10, -10, -10, -10, -10, -10, -10, -10, -10, -10, -10, -10, -10, -10, -10, -10, -10, -10, -10, -10, -10, -10, -10, -10, -10, -10, -10, -10, -10, -10, -10, -10, -10, -10, -10, -10, -10, -10, -10, -10, -10, -10, -10, -10, -10, -10, -10, -10, -10, -10, -10, -10, -10, -10, -10, -10, -10, -10, -10, -10, -10, -10, -10, -10, -10, -10, -10, -10, -10, -10, -10, -10, -10, -10, -10, -10, -10, -10, -10, -10, -10, -10, -10, -10, -10, -10, -10, -10, -10, -10, -10, -10, -10, -10, -10, -10, -10, -10, -10, -10, -10, -10, -10, -10, -10, -10, -10, -10, -10, -10, -10, -10, -10, -10, -10, -10, -10, -10, -10, -10, -10, -10, 65.55555, 65.854164, 65.958336, 65.9375, 66, 66.321426, 66.726189, 66.833336, 66.875, 66.678574, 66.60714, 66.535713, 66.535713, 66.339287, 66.724487, 66.773811, 66.416664, 66.392853, 66.375, 66.3125, 66.35714, 66.25, 66.071426, 65.71875, 65.6875, 65.928574, 65.758926, 65.132652, 65.095238, 65.604164, 65.803574, 66.25, 66.285713, 66.214287, 66.25, 66, 65.785713, 65.85714, 66, 66.285713, 66.35714, 66.31633, 65.708328, 65.377548, 65.39286, 65.535713, 65.64286, 66.214287, 66.071426, 66.10714, 66.14286, 66, 66, 65.9375, 65.8125, 66.14286, 66.193878, 65.976189, 66.202385, 66.122452, 66.321426, 66.583336, 66.116074, 65.875, 65.830353, 65.591835, 66.178574, 66.234695, 66.25, 66.25, 66.214287, 66.214287, 66.178574, 66.10714, 66.14286, 66.14286, 66.214287, 66.285713, 66.387756, 66.428574, 66.224487, 66.117348, 65.89286, 65.903061, 65.833336, 65.979591, 65.928574, 65.841835, 65.964287, 66.10714, 66.214287, 66.0625, 66, 65.830353, 65.830353, 65.9375, 66.160713, 66.1875, 66.1875, 66.125, 66.0625, 66.0625, 66.214287, 66.333336, 66.285713, 66.428574, 66.535713, 66.571426, 66.5, 66.428574, 66.285713, 66, 65.64286, 66, 66, 66.071426, 66.10714, 66.5, 66.35714, 66.285713, 66.285713, 66.285713, 66.321426, 66.464287, 66.428574, 66.39286, 66.464287, 66.428574, 66.35714, 66.35714, 66.321426, 66.35714, 66.535713, 66.64286, 66.678574, 66.678574, 66.678574, 66.678574, 66.678574, 66.375, 66.375, 66.3125, 66.25, 66.375, 66.535713, 66.60714, 66.678574, 66.535713, 66.535713, 66.571426, 66.658165, 66.729591, 66.476189, 66.331627, 66.5, 66.0625, 66.1875, 66.25, 66.25, 66.5, 66.428574, 66.520409, 66.678574, 66.678574, 66.714287, 66.571426, 66.60714, 66.60714, 66.375, 66.25, 66.125, 66.178574, 66.10714, 66.052086, 65.96875, 65.9375, 65.9375, 66.0625, 66.125, 66.1875, 66.125, 66.214287, 66.178574, 66.14286, 66.071426, 65.821426, 65.949997, 65.821426, 65.892853, 65.875, 65.9375, 66.0625, 66, 65.875, 65.75, 65.6875, 65.6875, 65.8125, 66, 66, 66.214287, 66.178574, 66.071426, 65.8125, 65.875, 65.9375, 66, 66, 66, 66.178574, 66.10714, 65.875, 65.9375, 66.09375, 66.392853, 66.916664, 67.383926, 68.052086, 68.709824, 69.419647, 70.142853, 70.348213, 70.375, 70.25, 70, 69.75, 69.375, 68.991074, 68.5625, 68.3125, 68.0625, 67.6875, 67.5, 67.0625, 66.633926, 66.330353, 66.0625, 65.9375, 65.8125, 65.6875, 65.6875, 65.928574, 66.071426, 66.178574, 66.10714, 66.035713, 65.75, 66.158165, 65.982147, 66.125, 65.583336, 65.5, 65.404762, -10, -10, -10, -10, -10, -10, -10, -10, -10, -10, -10, -10, -10, -10, -10, -10, -10, -10, -10, -10, -10, -10, -10, -10, -10, -10, -10, -10, -10, -10, -10, -10, -10, -10, -10, -10, -10, -10, -10, -10, -10, -10, -10, -10, -10, -10, -10, -10, -10, -10, -10, -10, -10, -10, -10, -10, -10, -10, -10, -10, -10, -10, -10, -10, -10, -10, -10, -10, -10, -10
-10, -10, -10, -10, -10, -10, -10, -10, -10, -10, -10, -10, -10, -10, -10, -10, -10, -10, -10, -10, 66.222221, 66.958336, 67.178574, 67.214287, 67.35714, 67.551018, 67.678574, 67.714287, 67.678574, 67.375, 67.28125, 67.535713, 67.709183, 68.010201, 68.095238, 67.78231, 67.67347, 67.571426, 67.60714, 67.535713, 67.464287, 67.321426, 67.10714, 66.964287, 66.964287, 66.903061, 66.76786, 66.638893, 66.761902, 67.061226, 67.321426, 67.39286, 67.25, 67.14286, 67.14286, 67.458336, 67.5, 67.125, 67.1875, 67.25, 67.276787, 66.895828, 67.261902, 67.25, 67.25, 67.416664, 67.25, 67.14286, 67.178574, 67.14286, 67.14286, 67.214287, 67.25, 67.25, 67.35714, 67.346939, 67.095238, 66.958336, 67.051018, 67.244896, 67.35714, 67.346939, 67.14286, 67.163261, 67.547615, 67.285713, 67.142853, 67.1875, 67.1875, 67.1875, 67.125, 67, 66.875, 67.10714, 67.10714, 67.214287, 67.35714, 67.479591, 67.3125, 67.32653, 66.883926, 66.85714, 66.633926, 66.770836, 66.732147, 66.75, 66.616074, 66.651787, 67.035713, 66.8125, 66.875, 66.75, 66.75, 66.75, 66.8125, 66.9375, 67.035713, 67.035713, 66.875, 66.75, 66.6875, 66.6875, 66.85714, 67.10714, 67.285713, 67.39286, 67.3125, 67.25, 67.25, 67.125, 67.214287, 67.333336, 67.035713, 67.10714, 67.25, 67.35714, 67.428574, 67.39286, 67.285713, 67.285713, 67.35714, 67.39286, 67.464287, 67.35714, 67.321426, 67.25, 67.1875, 67.125, 67.0625, 67, 67.0625, 67.25, 67.571426, 67.64286, 67.64286, 67.64286, 67.571426, 67.571426, 67.3125, 67.3125, 67.3125, 67.464287, 67.60714, 67.535713, 67.535713, 67.5, 67.321426, 67.39286, 67.3125, 67.482147, 67.607147, 67.595238, 67.469383, 67.428574, 67.35714, 67.464287, 67.5, 67.1875, 67.1875, 67.285713, 67.295914, 67.428574, 67.428574, 67.375, 67.535713, 67.60714, 67.678574, 67.535713, 67.1875, 67.0625, 66.96875, 66.90625, 66.90625, 66.78125, 66.6875, 66.8125, 67.071426, 66.9375, 66.875, 66.75, 66.75, 66.75, 66.8125, 66.8125, 66.78125, 66.84375, 66.84375, 67.035713, 67.035713, 67.071426, 67.178574, 67.10714, 67.035713, 66.89286, 66.785713, 66.85714, 66.964287, 66.9375, 66.785713, 67.0625, 67.089287, 66.785713, 66.821426, 66.892853, 66.875, 66.9375, 67.0625, 67.125, 67.0625, 67, 66.9375, 66.9375, 67.0625, 67.25, 67.375, 67.5625, 68.083336, 68.616074, 69.232147, 69.973221, 70.33036, 70.375, 70.3125, 70.0625, 69.75, 69.4375, 69.089287, 68.625, 68.375, 68.0625, 67.6875, 67.5625, 67.25, 67.125, 66.973213, 66.642853, 66.580353, 66.714287, 66.785713, 66.964287, 67.10714, 67.321426, 67.39286, 67.35714, 67.285713, 67.214287, 67.408165, 66.771431, 66.849998, -10, -10, -10, -10, -10, -10, -10, -10, -10, -10, -10, -10, -10, -10, -10, -10, -10, -10, -10, -10, -10, -10, -10, -10, -10, -10, -10, -10, -10, -10, -10, -10, -10, -10, -10, -10, -10, -10, -10, -10, -10, -10, -10, -10, -10, -10, -10, -10, -10, -10, -10, -10, -10, -10, -10, -10, -10, -10, -10, -10, -10, -10, -10, -10, -10, -10, -10, -10, -10, -10, -10, -10, -10, -10, -10, -10, -10, -10, -10, -10, -10, -10, -10, -10, -10, -10, -10, -10, -10, -10, -10, -10, -10, -10, -10, -10, -10, -10, -10, -10, -10, -10, -10, -10, -10, -10, -10, -10, -10, -10, -10, -10, -10, -10, -10, -10, -10, -10, -10, -10, -10, -10, -10, -10, -10, -10, -10, -10, 68.095238, 68.14286, 68.178574, 68.0625, 68.294647, 68.4375, 68.5, 68.5, 68.4375, 68.34375, 68.660713, 68.928574, 69.18367, 69.261909, 68.972786, 68.765305, 68.64286, 68.678574, 68.696426, 68.660713, 68.48214, 68.303574, 68.10714, 67.8125, 67.696426, 67.622452, 67.476189, 67.738091, 68.020409, 68, 68.0625, 67.9375, 67.8125, 68.035713, 68.14286, 68.14286, 68.214287, 68.178574, 68.14286, 68.204086, 68.023811, 68.040817, 68.035713, 68, 68.10714, 68.10714, 68.10714, 68.214287, 68, 68.0625, 68.35714, 68.39286, 68.5, 68.535713, 68.5, 68.285713, 67.9375, 67.919647, 67.991074, 68.0625, 68.31633, 68.214287, 68.306122, 68.505104, 68.321426, 68.377548, 68.321426, 68.0625, 68.0625, 67.9375, 67.8125, 67.8125, 67.9375, 68, 68.125, 68.5, 68.5, 68.464287, 68.1875, 68, 67.571426, 67.741074, 67.64286, 67.571426, 67.64286, 67.598213, 67.776787, 67.714287, 67.64286, 67.64286, 67.75, 67.928574, 67.785713, 67.785713, 67.85714, 67.928574, 68.071426, 67.875, 67.535713, 67.464287, 67.535713, 67.5, 67.9375, 68, 68, 68.0625, 68, 68.178574, 68.14286, 68.10714, 68.071426, 68, 68.10714, 68.285713, 68.39286, 68.3125, 68.25, 68.125, 68.1875, 68.39286, 68.464287, 68.3125, 68.1875, 68.1875, 68.25, 68.1875, 68.285713, 68.026787, 67.775513, 67.846939, 68.071426, 68.375, 68.3125, 68.3125, 68.3125, 68.3125, 68.375, 68.464287, 68.39286, 68.35714, 68.285713, 68.464287, 68.464287, 68.25, 68.25, 68.125, 68.1875, 68.25, 68.25, 68.5, 68.35714, 68.285713, 68.35714, 68.39286, 68.535713, 68.60714, 68.464287, 68.25, 68.116074, 67.9375, 68.071426, 68.208336, 68.25, 68.267853, 68.25, 68.428574, 68.321426, 68.14286, 68.10714, 68.10714, 68.10714, 68.10714, 67.964287, 67.85714, 67.928574, 68, 68.071426, 68, 67.39286, 67.428574, 67.5, 67.571426, 67.571426, 67.84375, 68.10714, 68.178574, 68.25, 68.25, 68.0625, 68.285713, 68.14286, 68.035713, 67.938774, 67.805557, 67.888893, 68.119041, 68.117348, 68.25, 68.071426, 68.17347, 68.458336, 68.010201, 68.020409, 67.928574, 68.071426, 68.214287, 68.25, 68.270409, 68.321426, 68.321426, 68.321426, 68.285713, 68.25, 68, 68.0625, 68.3125, 68.741074, 69.232147, 69.928574, 70.33036, 70.375, 70.375, 70.125, 69.75, 69.5, 69.25, 68.8125, 68.625, 68.3125, 68, 67.9375, 67.75, 67.75, 67.785713, 67.642853, 67.448982, 67.464287, 67.535713, 68.214287, 68.214287, 68.321426, 68.285713, 68.285713, 67.949997, 67.900002, 68.085716, -10, -10, -10, -10, -10, -10, -10, -10, -10, -10, -10, -10, -10, -10, -10, -10, -10, -10, -10, -10, -10, -10, -10, -10, -10, -10, -10, -10, -10, -10, -10, -10, -10, -10, -10, -10, -10, -10, -10, -10, -10, -10, -10, -10, -10, -10, -10, -10, -10, -10, -10, -10, -10, -10, -10, -10, -10, -10, -10, -10, -10, -10, -10, -10, -10, -10, -10, -10, -10, -10, -10, -10, -10, -10, -10
-10, -10, -10, -10, -10, -10, -10, -10, -10, -10, -10, -10, -10, -10, -10, -10, -10, -10, -10, -10, -10, 68.44445, 68.85714, 69.041664, 69, 69.0625, 69.0625, 69.1875, 69.5, 69.535713, 69.60714, 69.714287, 70.020409, 70.178574, 70.25, 70.056122, 69.598213, 69.5, 69.5, 69.714287, 69.714287, 69.60714, 69.5, 69.25, 69.035713, 68.6875, 68.544647, 68.4375, 68.5625, 68.732147, 68.875, 68.875, 68.8125, 68.75, 68.75, 68.875, 68.875, 69, 69, 69.178574, 69.25, 68.875, 68.9375, 68.9375, 68.9375, 69, 68.875, 68.875, 69.071426, 69, 69.10714, 69.178574, 69.25, 69.39286, 69.39286, 69.321426, 69.178574, 69.071426, 68.989799, 68.866074, 68.875, 69, 69.0625, 69.142853, 69.348213, 69.0625, 69.295914, 69.321426, 69.285713, 69.35714, 69.214287, 68.75, 69.071426, 69.178574, 69.285713, 69.464287, 69.571426, 69.375, 69.535713, 69.428574, 69.25, 69.333336, 68.989799, 68.75, 68.785713, 68.928574, 69.112244, 69.17347, 69.458336, 69.333336, 69.375, 68.969383, 68.806122, 68.690475, 68.5625, 68.6875, 68.875, 69, 69.285713, 69.416664, 69.333336, 69.25, 69.083336, 69.035713, 68.875, 68.9375, 68.785713, 68.9375, 69, 69, 69, 69, 68.875, 68.875, 69.14286, 69.285713, 69.39286, 69.39286, 69.35714, 69.35714, 69.285713, 69.25, 69.125, 69.25, 69.39286, 69.535713, 69.428574, 69.35714, 69.280617, 69.601189, 69.726189, 69.833336, 69.5, 69.1875, 69.1875, 69.1875, 69.1875, 69.428574, 69.321426, 69, 69, 69, 69.1875, 69.25, 69.25, 69.25, 69.321426, 69.39286, 69.464287, 69.1875, 69.1875, 69.0625, 69, 69.125, 69.428574, 69.535713, 69.60714, 69.5, 69.5, 69.346939, 68.64286, 69.071426, 69.145836, 69.125, 69.080353, 69, 69.0625, 69, 68.875, 68.875, 68.84375, 69.053574, 69.125, 69.089287, 69.071426, 68.866074, 68.800003, 68.991074, 69.132652, 69.375, 69.416664, 69.333336, 69.291664, 69.25, 69.035713, 69.178574, 69.285713, 69.39286, 69.428574, 69.428574, 69.428574, 69.321426, 69.25, 69.188774, 69.652779, 69.611115, 69.226189, 69.117348, 69, 69.071426, 69.244896, 69.428574, 69.295914, 69.234695, 69.071426, 69.178574, 69.0625, 69.125, 69.448982, 69.535713, 69.535713, 69.535713, 69.464287, 69.321426, 68.9375, 68.875, 68.9375, 69.125, 69.4375, 70.053574, 70.45536, 70.5, 70.5, 70.3125, 70, 69.875, 69.625, 69.25, 69.125, 68.875, 68.6875, 68.6875, 68.625, 68.75, 69.07653, 69.020409, 69.428566, 69.5, 69.5, 69.25, 69.085716, 68.666664, 68.583336, 68.583336, -10, -10, -10, -10, -10, -10, -10, -10, -10, -10, -10, -10, -10, -10, -10, -10, -10, -10, -10, -10, -10, -10, -10, -10, -10, -10, -10, -10, -10, -10, -10, -10, -10, -10, -10, -10, -10, -10, -10, -10, -10, -10, -10, -10, -10, -10, -10, -10, -10, -10, -10, -10, -10, -10, -10, -10, -10, -10, -10, -10, -10, -10, -10, -10, -10, -10, -10, -10, -10, -10, -10, -10, -10, -10, -10, -10, -10, -10, -10, -10, -10, -10, -10, -10, -10, -10, -10, -10, -10, -10, -10, -10, -10, -10, -10, -10, -10, -10, -10, -10, -10, -10, -10, -10, -10, -10, -10, -10, -10, -10, -10, -10, -10, -10, -10, -10, -10, -10, -10, -10, -10, -10, -10, -10, -10, -10, -10, -10, -10, -10, -10, -10, -10, -10, 70, 69.979164, 70.023811, 70.14286, 70, 70.35714, 70.571426, 70.64286, 70.714287, 70.678574, 70.89286, 70.8125, 70.875, 70.705353, 70.410713, 70.5, 70.5, 70.64286, 70.714287, 70.571426, 70.464287, 70.285713, 70.035713, 69.928574, 69.785713, 69.714287, 69.5625, 69.625, 69.75, 69.8125, 70.035713, 70.071426, 69.5, 69.571426, 69.571426, 70.0625, 70.0625, 70, 70, 69.8125, 69.8125, 69.75, 69.928574, 69.928574, 69.6875, 69.75, 69.75, 69.6875, 69.75, 69.8125, 69.875, 69.9375, 69.875, 69.8125, 69.8125, 70.158165, 70.14286, 70.178574, 69.9375, 70, 70.125, 70.1875, 70.25, 70.125, 70.125, 70.1875, 70.39286, 70.464287, 70.35714, 70.375, 70.214287, 70.285713, 70.428574, 70.535713, 70.5, 70.464287, 70.464287, 70.5, 70.39286, 70.285713, 70.132652, 69.85714, 69.928574, 70.035713, 70.163261, 70.193878, 70.285713, 70.178574, 70.214287, 70.040817, 69.580353, 69.479164, 69.5, 69.75, 69.928574, 70.071426, 70.214287, 70.25, 70.285713, 70.214287, 70.071426, 70.14286, 70.10714, 70.178574, 70.583336, 70.214287, 70.25, 70.25, 70.214287, 70.178574, 70.035713, 69.8125, 69.875, 70.0625, 70.1875, 70.5, 70.428574, 70.35714, 70, 69.875, 69.875, 70.10714, 70.321426, 70.5, 70.5, 70.428574, 70.352043, 70.479591, 70.551018, 70.60714, 70.428574, 70, 70, 70.0625, 70.285713, 70.428574, 70.1875, 69.806122, 69.821426, 69.85714, 70, 70.60714, 70.714287, 70.75, 70.622452, 70.535713, 70.5, 70.321426, 70.125, 70.0625, 70.125, 70.25, 70.3125, 70.375, 70.4375, 70.678574, 70.785713, 70.668373, 70.666664, 70.438774, 70.452385, 70.39286, 70.080353, 69.714287, 70.0625, 70, 69.678574, 69.958336, 69.75, 69.85714, 70.208336, 70.166664, 70.39286, 70.153061, 69.800003, 70.204086, 70.275513, 70.428574, 70.5, 70.428574, 70.39286, 70.285713, 69.96875, 70.09375, 70.339287, 70.410713, 70.464287, 70.39286, 70.35714, 70.285713, 70.214287, 70.260201, 70.523811, 70.488098, 70.190475, 69.883926, 69.875, 69.9375, 70.089287, 70.1875, 70.255104, 70.224487, 70.14286, 70.0625, 70.1875, 70.25, 70.556122, 70.678574, 70.60714, 70.535713, 70.35714, 70, 70.035713, 70, 69.8125, 69.875, 70.0625, 70.375, 70.669647, 70.6875, 70.6875, 70.5625, 70.3125, 70.25, 70.1875, 70, 70.214287, 70.178574, 70.071426, 70.071426, 70.071426, 70.10714, 70.163261, 70.153061, 70.224487, 70.285713, 70, 69.583336, 69.349998, -10, -10, -10, -10, -10, -10, -10, -10, -10, -10, -10, -10, -10, -10, -10, -10, -10, -10, -10, -10, -10, -10, -10, -10, -10, -10, -10, -10, -10, -10, -10, -10, -10, -10, -10, -10, -10, -10, -10, -10, -10, -10, -10, -10, -10, -10, -10, -10, -10, -10, -10, -10, -10, -10, -10, -10, -10, -10, -10, -10, -10, -10, -10, -10, -10, -10, -10, -10, -10, -10, -10, -10, -10, -10, -10, -10, -10, -10, -10, -10, -10
-10, -10, -10, -10, -10, -10, -10, -10, -10, -10, -10, -10, -10, -10, -10, -10, -10, -10, -10, -10, -10, -10, -10, 71.190475, 71.14286, 71.321426, 71.397957, 71.341835, 71.520409, 71.375, 71.5, 71.5, 71.625, 71.625, 71.625, 71.5625, 71.276787, 71.1875, 71.125, 71.25, 71.571426, 71.535713, 71.3125, 71.428574, 71.25, 71.214287, 71.178574, 70.75, 71.035713, 70.877548, 70.928574, 70.928574, 71.071426, 71.214287, 71.333336, 71.333336, 71.25, 71.178574, 71.25, 71.25, 71.25, 70.75, 70.791664, 70.773811, 71.102043, 70.833336, 71, 70.803574, 70.675003, 70.803574, 70.866074, 70.875, 70.875, 70.60714, 70.535713, 70.571426, 70.64286, 71.044647, 71.214287, 71.25, 71.14286, 71.178574, 71.321426, 71.35714, 71.464287, 71.428574, 71.321426, 71.321426, 71.35714, 71.428574, 71.39286, 71.285713, 71.25, 71.214287, 71.321426, 71.1875, 71.1875, 71.1875, 71.25, 71.60714, 71.535713, 71.25, 71.053574, 71, 71.071426, 71.14286, 71.0625, 71.125, 71.125, 71, 70.9375, 70.848213, 70.642853, 70.833328, 70.89286, 70.89286, 71, 70.8125, 71, 71.0625, 71.125, 71.0625, 71.071426, 71.071426, 71.10714, 71.285713, 71.428574, 71.285713, 71.214287, 71.14286, 71.14286, 71.14286, 71, 70.89286, 70.75, 71.071426, 71.25, 71.39286, 71.25, 71.0625, 70.9375, 70.875, 70.714287, 70.785713, 71.25, 71.3125, 71.25, 71.321426, 71.089287, 71.294647, 71.419647, 71.5, 71.3125, 71.0625, 71.0625, 71.35714, 71.21875, 71.40625, 71.571426, 71.755951, 71.708336, 71.708336, 71.708336, 71.64286, 71.785713, 71.821426, 71.801018, 71.678574, 71.60714, 71.428574, 71.39286, 71.35714, 71.35714, 71.39286, 71.428574, 71.464287, 71.571426, 71.714287, 71.85714, 71.744896, 71.64286, 71.612244, 71.547623, 71.464287, 71.367348, 71.458336, 71.285713, 71.35714, 71.625, 71.75, 71.833336, 71.958336, 72, 71.916664, 71.535713, 71.224487, 71.057144, 71.239799, 71.346939, 71.60714, 71.571426, 71.428574, 71.428574, 71.125, 71.125, 71.25, 71.25, 71.3125, 71.3125, 71.25, 71.1875, 71.0625, 71.25, 71.255104, 71.208336, 71.145836, 70.854164, 70.696426, 70.85714, 70.964287, 71.14286, 71, 71, 70.9375, 71.035713, 71.10714, 71.178574, 71.25, 71.367348, 71.428574, 71.1875, 71.125, 70.9375, 70.75, 71, 71.071426, 71.10714, 70.9375, 70.9375, 71, 71.125, 71.1875, 71.25, 71.1875, 70.9375, 70.875, 70.982147, 71.158165, 71.321426, 71.25, 71.214287, 71.214287, 71.14286, 71.14286, 71.10714, 70.583336, 70.666664, 70.75, -10, -10, -10, -10, -10, -10, -10, -10, -10, -10, -10, -10, -10, -10, -10, -10, -10, -10, -10, -10, -10, -10, -10, -10, -10, -10, -10, -10, -10, -10, -10, -10, -10, -10, -10, -10, -10, -10, -10, -10, -10, -10, -10, -10, -10, -10, -10, -10, -10, -10, -10, -10, -10, -10, -10, -10, -10, -10, -10, -10, -10, -10, -10, -10, -10, -10, -10, -10, -10, -10, -10, -10, -10, -10, -10, -10, -10, -10, -10, -10, -10, -10, -10, -10, -10, -10, -10, -10, -10, -10, -10, -10, -10, -10, -10, -10, -10, -10, -10, -10, -10, -10, -10, -10, -10, -10, -10, -10, -10, -10, -10, -10, -10, -10, -10, -10, -10, -10, -10, -10, -10, -10, -10, -10, -10, -10, -10, -10, -10, -10, -10, -10, -10, -10, -10, -10, -10, -10, -10, -10, -10, 71.55555, 72.214287, 72.404762, 72.505104, 72.448982, 72.392853, 72.14286, 72.5625, 72.714287, 72.392853, 72.3125, 72.25, 72.25, 72.0625, 72.071426, 71.976189, 72.061226, 72.25, 72.25, 72.693878, 72.440475, 72.224487, 72.25, 72.35714, 72.541664, 72.35714, 72.163261, 72.10714, 71.875, 72.178574, 72.25, 72.214287, 72.14286, 72.14286, 72.178574, 72.285713, 72.285713, 72.214287, 72.291664, 72.375, 72.422615, 72.17347, 72.416664, 72.035713, 72.025513, 71.914284, 72.061226, 72.061226, 72, 71.928574, 72.041664, 72, 72.166664, 72.208336, 72.158165, 72.25, 72.321426, 72.321426, 72.39286, 72.5, 72.5, 72.571426, 72.535713, 72.321426, 72.214287, 72, 72.0625, 72.0625, 72.0625, 72.0625, 72.0625, 71.928574, 71.928574, 72.1875, 72.25, 72.3125, 72.64286, 72.535713, 72.35714, 72.178574, 71.964287, 72, 71.875, 71.9375, 71.9375, 71.9375, 71.8125, 71.8125, 72.020409, 71.867348, 72.044212, 72.214287, 72.25, 71.785713, 71.678574, 71.821426, 72.125, 72.1875, 72.125, 71.714287, 71.714287, 72.0625, 72.25, 72.375, 72.25, 72.116074, 71.925003, 72.053574, 72.053574, 71.9375, 71.8125, 72.071426, 72.178574, 72.0625, 72.125, 71.9375, 71.875, 72.035713, 72, 72.291664, 72.25, 72.25, 72.125, 72.0625, 72, 71.875, 71.9375, 72.125, 72.35714, 72.39286, 72.35714, 72.35714, 72.5, 72.535713, 72.678574, 72.714287, 72.719383, 72.714287, 72.75, 72.714287, 72.75, 72.5625, 72.5, 72.693878, 72.571426, 72.5, 72.39286, 72.428574, 72.428574, 72.5, 72.3125, 72.3125, 72.25, 72.535713, 72.678574, 72.785713, 72.5625, 72.5625, 72.4375, 72.464287, 72.35714, 72.25, 72.285713, 72.39286, 72.535713, 72.678574, 72.678574, 72.64286, 72.714287, 72.75, 72.785713, 72.678574, 72.196426, 72.314285, 72.178574, 72.241074, 72.4375, 72.375, 72.25, 72.5, 72.321426, 72.285713, 72.321426, 72.214287, 72.25, 72.125, 72.125, 72.1875, 72.080353, 71.9375, 72.151787, 72.089287, 71.785713, 71.8125, 71.6875, 71.85714, 71.6875, 71.8125, 71.8125, 71.8125, 71.875, 71.875, 72, 71.85714, 71.928574, 72, 72.1875, 72.125, 72.0625, 72, 71.875, 71.875, 72.14286, 72.178574, 72.25, 72.25, 71.9375, 72, 72, 72.178574, 72.10714, 71.75, 71.8125, 71.982147, 72.044647, 72.428574, 72.321426, 72.25, 72.178574, 71.75, 71.5, 71.416664, -10, -10, -10, -10, -10, -10, -10, -10, -10, -10, -10, -10, -10, -10, -10, -10, -10, -10, -10, -10, -10, -10, -10, -10, -10, -10, -10, -10, -10, -10, -10, -10, -10, -10, -10, -10, -10, -10, -10, -10, -10, -10, -10, -10, -10, -10, -10, -10, -10, -10, -10, -10, -10, -10, -10, -10, -10, -10, -10, -10, -10, -10, -10, -10, -10, -10, -10, -10, -10, -10, -10, -10, -10, -10, -10, -10, -10, -10, -10, -10, -10, -10, -10, -10, -10, -10, -10
-10, -10, -10, -10, -10, -10, -10, -10, -10, -10, -10, -10, -10, -10, -10, -10, -10, -10, -10, -10, -10, -10, -10, -10, 73.238091, 73.452377, 73.57653, 73.556114, 73.663261, 73.916664, 73.785713, 73.75, 73.330353, 73.25, 72.928574, 72.928574, 72.785713, 73.071426, 73.736115, 73.809525, 74, 74, 73.836739, 73.654762, 73.199402, 72.98214, 73.60714, 73.60714, 73.60714, 73.448975, 73.25, 73.14286, 72.9375, 72.9375, 72.9375, 72.875, 72.875, 72.9375, 73.0625, 73.35714, 73.39286, 73.35714, 73.428574, 73.469383, 73.459183, 73.469383, 73.163261, 73.153061, 73.057144, 73.275513, 73.346939, 73.285713, 73.14286, 73.035713, 73, 73.14286, 73.25, 73.044647, 73.0625, 73.0625, 73, 73.321426, 73.464287, 73.464287, 73.60714, 73.294647, 72.892853, 72.791664, 72.895836, 72.919647, 72.9375, 72.875, 73.071426, 73.14286, 73.541664, 73.625, 73.35714, 73.35714, 73.428574, 73.535713, 73.535713, 73.5, 73.0625, 72.8125, 72.830353, 72.64286, 72.916664, 72.958336, 73.25, 73.178574, 73.10714, 73.178574, 73.14286, 73.306114, 73.5, 73.5, 73.708336, 73.5, 73.458336, 73.178574, 73.214287, 73.285713, 73.416664, 73.5, 73.35714, 73.464287, 73.571426, 73.464287, 73.053574, 72.800003, 72.928574, 72.991074, 73.214287, 73.25, 73.25, 73.214287, 73.10714, 72.84375, 72.65625, 72.65625, 72.928574, 73, 73.071426, 73, 73.178574, 73, 73.0625, 73.0625, 72.64286, 72.928574, 72.925003, 73.116074, 73.336739, 73.39286, 73.39286, 73.571426, 73.719383, 73.785713, 73.780617, 73.566963, 73.5625, 73.625, 73.5625, 73.5625, 73.5625, 73.5, 73.482147, 73.3125, 73.1875, 73.35714, 73.1875, 73.1875, 73.3125, 73.5, 73.5, 73.375, 73.4375, 73.5, 73.455353, 73.375, 73.3125, 73.1875, 73.125, 73.125, 73.125, 73.25, 73.25, 73.3125, 73.375, 73.3125, 73.3125, 73.4375, 73.5, 73.5625, 73.5, 73.510201, 73.5, 73.5, 73.535713, 73.64286, 73.571426, 73.418373, 73.285713, 73.25, 73.178574, 73.285713, 72.89286, 72.89286, 73.125, 73.39286, 73.39286, 73.270401, 72.875, 73.31633, 73.244896, 73.5, 73.10714, 73.035713, 72.8125, 72.75, 72.6875, 72.5, 72.64286, 72.821426, 73.051018, 73.25, 73.583336, 73.5, 73.416664, 73, 73.178574, 73.214287, 73.25, 73.214287, 73.14286, 73.178574, 73.178574, 73.178574, 73.25, 73.214287, 73.285713, 73.285713, 73.285713, 73.214287, 73, 73.071426, 73.301025, 73.408165, 73.535713, 72.666664, 72.583336, 72.5, -10, -10, -10, -10, -10, -10, -10, -10, -10, -10, -10, -10, -10, -10, -10, -10, -10, -10, -10, -10, -10, -10, -10, -10, -10, -10, -10, -10, -10, -10, -10, -10, -10, -10, -10, -10, -10, -10, -10, -10, -10, -10, -10, -10, -10, -10, -10, -10, -10, -10, -10, -10, -10, -10, -10, -10, -10, -10, -10, -10, -10, -10, -10, -10, -10, -10, -10, -10, -10, -10, -10, -10, -10, -10, -10, -10, -10, -10, -10, -10, -10, -10, -10, -10, -10, -10, -10, -10, -10, -10, -10, -10, -10, -10, -10, -10, -10, -10, -10, -10, -10, -10, -10, -10, -10, -10, -10, -10, -10, -10, -10, -10, -10, -10, -10, -10, -10, -10, -10, -10, -10, -10, -10, -10, -10, -10, -10, -10, -10, -10, -10, -10, -10, -10, -10, -10, -10, -10, -10, -10, -10, -10, -10, -10, -10, -10, -10, -10, 73.55555, 74.333328, 74.410713, 74.653061, 74.724487, 74.785713, 74.821426, 74.785713, 74.591835, 74.5, 74.666664, 74.666664, 74.625, 74.438774, 74.702385, 74.729599, 74.85714, 74.89286, 74.908165, 74.726189, 74.839287, 74.833336, 74.40625, 74.375, 74.5, 74.367348, 74.10714, 73.928574, 73.821426, 73.5625, 73.625, 73.625, 73.625, 73.89286, 74.071426, 74.178574, 74.214287, 74.214287, 74.1875, 74.223213, 74.479599, 74.540817, 74.080353, 74.071426, 74.171432, 74.244896, 74.244896, 74.178574, 74.035713, 73.8125, 73.8125, 74, 74.125, 74.321426, 74.35714, 74, 73.875, 74, 74.0625, 74.0625, 74.1875, 74.107147, 73.830353, 73.511902, 73.895836, 73.857147, 73.928574, 73.75, 74.25, 74.397957, 74.535713, 74.464287, 74.321426, 74.214287, 74.0625, 74.125, 74.125, 74.35714, 74.25, 74.14286, 74.234688, 74.583336, 74.625, 74.708336, 74.428574, 74.39286, 74.35714, 74.39286, 74.35714, 74.484688, 74.60714, 74.571426, 74.535713, 74.35714, 74.39286, 74.321426, 74.39286, 74.39286, 74.285713, 74.285713, 74.25, 74.285713, 74.428574, 74.428574, 74.311226, 74.128578, 74.204086, 74.204086, 74.214287, 74.214287, 74.178574, 74.10714, 73.8125, 73.71875, 73.35714, 73.464287, 73.60714, 73.714287, 74, 73.875, 73.9375, 73.9375, 74.214287, 74.321426, 74.541664, 74.275513, 74.050003, 74.178574, 74.196426, 74.419647, 74.419647, 74.5625, 74.844383, 74.59375, 74.558037, 74.53125, 74.4375, 74.571426, 74.535713, 74.535713, 74.535713, 74.535713, 74.571426, 74.3125, 74.1875, 74.1875, 74.1875, 74.1875, 74.535713, 74.5, 74.5, 74.571426, 74.60714, 74.64286, 74.267853, 74.125, 74, 73.875, 73.875, 73.9375, 74.178574, 74.321426, 74.39286, 74.25, 74.25, 73.928574, 73.85714, 74.1875, 74.1875, 74.25, 74.464287, 74.35714, 74.428574, 74.428574, 74.5, 74.535713, 74.428574, 74.311226, 73.9375, 74, 74.178574, 74.540817, 74.666664, 74.583336, 74.25, 74.321426, 74.39286, 74.377548, 74.214287, 74.352043, 74.31633, 74.35714, 74.214287, 74.14286, 73.928574, 73.81633, 73.669647, 73.31633, 73.35714, 73.5, 74.265312, 74.428574, 74.428574, 74.35714, 74.285713, 74.214287, 74.285713, 74.285713, 74.285713, 74.285713, 74.25, 74.285713, 74.125, 73.85714, 74.125, 74.321426, 74.39286, 74.35714, 74.39286, 74.39286, 74.25, 74.35714, 73.885719, 73.985718, 74.050003, -10, -10, -10, -10, -10, -10, -10, -10, -10, -10, -10, -10, -10, -10, -10, -10, -10, -10, -10, -10, -10, -10, -10, -10, -10, -10, -10, -10, -10, -10, -10, -10, -10, -10, -10, -10, -10, -10, -10, -10, -10, -10, -10, -10, -10, -10, -10, -10, -10, -10, -10, -10, -10, -10, -10, -10, -10, -10, -10, -10, -10, -10, -10, -10, -10, -10, -10, -10, -10, -10, -10, -10, -10, -10, -10, -10, -10, -10, -10, -10, -10, -10, -10, -10, -10, -10, -10, -10, -10, -10, -10, -10, -10
-10, -10, -10, -10, -10, -10, -10, -10, -10, -10, -10, -10, -10, -10, -10, -10, -10, -10, -10, -10, -10, -10, -10, -10, -10, 75, 75.464287, 75.619041, 75.5, 75.5625, 75.65625, 75.65625, 75.831627, 75.785713, 75.714287, 75.64286, 75.571426, 75.612244, 75.583336, 75.607147, 75.6875, 75.6875, 75.669647, 75.773804, 75.647957, 75.571426, 75.39286, 75.133926, 75.3125, 75.1875, 74.765312, 74.60714, 74.464287, 74.35714, 74.428574, 74.666664, 74.75, 74.75, 74.875, 74.9375, 74.785713, 74.821426, 75.39286, 75.080353, 75.35714, 75.32653, 75.127548, 75.198975, 75.14286, 74.9375, 74.9375, 74.8125, 74.928574, 74.85714, 74.85714, 74.964287, 75.10714, 75.25, 75.35714, 75.214287, 74.9375, 75, 74.9375, 74.9375, 75, 74.794647, 74.765312, 75.117058, 75.023811, 75.122452, 75, 74.8125, 75.428574, 75.57653, 75.678574, 75.34375, 75.214287, 74.918373, 74.880943, 74.958336, 74.803574, 74.830353, 75.311226, 75.35714, 75.520401, 75.571426, 75.428574, 75.428574, 75.39286, 75.464287, 75.5, 75.5, 75.39286, 75.367348, 75.25, 75.3125, 75.375, 75.3125, 75.3125, 75.25, 75.428574, 75.1875, 75.0625, 75, 74.9375, 74.9375, 75.0625, 75.0625, 75.17347, 75.171432, 75.244896, 75.116074, 75.1875, 74.928574, 74.85714, 75, 74.9375, 75.035713, 75.229164, 75.3125, 75.270836, 75.208336, 75.035713, 75, 75.035713, 75.10714, 75.178574, 75.25, 75.285713, 75.204086, 75.164291, 75.311226, 75.367348, 75.658165, 75.658165, 75.85714, 75.897957, 75.785713, 75.81633, 75.785713, 75.5, 75.4375, 75.267853, 75.1875, 75.321426, 75.35714, 75.428574, 75.35714, 75.285713, 75.428574, 75.469383, 75.5, 75.678574, 75.375, 75.375, 75.678574, 75.678574, 75.60714, 75.341835, 75, 74.8125, 74.6875, 74.75, 75.035713, 75.14286, 75.25, 75.285713, 75.321426, 75.1875, 75.625, 75.583336, 75.428574, 75.428574, 75.25, 75.3125, 75.1875, 75.1875, 75.125, 75.125, 75.1875, 75.125, 75.053574, 74.9375, 75, 75.346939, 75.57653, 75.5, 75.428574, 75.321426, 75.125, 75.1875, 75.438774, 75.428574, 75.214287, 75.151787, 75.125, 75.14286, 75.178574, 75.071426, 74.714287, 74.979599, 75.154762, 75.25, 75.416664, 75.479599, 75.60714, 75.375, 75.3125, 75.1875, 75.25, 75.25, 75, 75, 75, 75.14286, 75.214287, 75.285713, 75.541664, 75.1875, 75.125, 75.1875, 75.0625, 75.309525, 74.949997, 74.900002, 75.050003, -10, -10, -10, -10, -10, -10, -10, -10, -10, -10, -10, -10, -10, -10, -10, -10, -10, -10, -10, -10, -10, -10, -10, -10, -10, -10, -10, -10, -10, -10, -10, -10, -10, -10, -10, -10, -10, -10, -10, -10, -10, -10, -10, -10, -10, -10, -10, -10, -10, -10, -10, -10, -10, -10, -10, -10, -10, -10, -10, -10, -10, -10, -10, -10, -10, -10, -10, -10, -10, -10, -10, -10, -10, -10, -10, -10, -10, -10, -10, -10, -10, -10, -10, -10, -10, -10, -10, -10, -10, -10, -10, -10, -10, -10, -10, -10, -10, -10, -10, -10, -10, -10, -10, -10, -10, -10, -10, -10, -10, -10, -10, -10, -10, -10, -10, -10, -10, -10, -10, -10, -10, -10, -10, -10, -10, -10, -10, -10, -10, -10, -10, -10, -10, -10, -10, -10, -10, -10, -10, -10, -10, -10, -10, -10, -10, -10, -10, -10, -10, -10, -10, -10, -10, -10, -10, -10, 76.3125, 76.416664, 76.4375, 76.375, 76.678574, 76.75, 76.821426, 76.89286, 76.85714, 76.785713, 76.714287, 76.714287, 76.714287, 76.714287, 76.714287, 76.714287, 76.5625, 76.59375, 76.53125, 76.46875, 76.28125, 76.196426, 76.428574, 76.125, 76.452385, 76.333336, 76.375, 76.416664, 76.458336, 76.5, 76.214287, 76.178574, 76.214287, 76.0625, 76.666664, 76.75, 76.428574, 76.142853, 76.1875, 76.098213, 75.955353, 75.955353, 75.875, 75.9375, 76, 75.9375, 75.875, 75.8125, 75.8125, 75.64286, 75.785713, 76.1875, 76.428574, 76.25, 76.071426, 75.964287, 75.6875, 75.75, 75.875, 75.515312, 75.714287, 76.207481, 75.958336, 76.275513, 76.14286, 76.178574, 76.60714, 76.755104, 76.785713, 76.40625, 76.494896, 76.726189, 76.638885, 75.895836, 75.525513, 75.627548, 76.178574, 76.571426, 76.724487, 76.714287, 76.375, 76.375, 76.3125, 76.375, 76.60714, 76.60714, 76.3125, 76.25, 76.25, 76.25, 76.25, 76.39286, 76.428574, 76.464287, 76.464287, 76.428574, 76, 75.9375, 75.875, 75.8125, 75.9375, 75.875, 75.8125, 76.178574, 76.25, 76.35714, 76.39286, 76.5, 76.375, 76.071426, 76.214287, 76.344383, 76.375, 76.446426, 76.26786, 76.14286, 76.14286, 76.14286, 76.178574, 76.25, 76.03125, 76.03125, 76.03125, 75.928574, 76.099998, 75.991074, 76.234695, 76.561226, 76.765312, 76.89286, 76.948982, 76.785713, 76.836731, 76.821426, 76.678574, 76.5, 76.017853, 75.901787, 76.044647, 76.178574, 76.3125, 76.25, 76.428574, 76.571426, 76.612244, 76.64286, 76.75, 76.60714, 76.60714, 76.5, 76.5, 76.40625, 76.111603, 76.14286, 75.964287, 75.928574, 76.10714, 75.9375, 76.0625, 76.125, 76.125, 76.428574, 76.464287, 76.571426, 76.571426, 76.60714, 76.5, 76.464287, 76.428574, 76.125, 76.1875, 76.125, 76.0625, 76.0625, 76, 75.866074, 76, 76.178574, 76.053574, 76.285713, 76.25, 76.125, 76.0625, 76.0625, 76.25, 76.321426, 76.39286, 76.321426, 76.125, 76.125, 75.785713, 76.125, 76.0625, 76.102043, 76.122452, 76.061226, 76.14286, 76.321426, 76.561226, 76.678574, 76.60714, 76.571426, 76.39286, 76.321426, 76.0625, 76, 75.991074, 75.8125, 75.8125, 75.875, 76.321426, 76.428574, 76.464287, 76.35714, 76.1875, 75.5, 75.611115, -10, -10, -10, -10, -10, -10, -10, -10, -10, -10, -10, -10, -10, -10, -10, -10, -10, -10, -10, -10, -10, -10, -10, -10, -10, -10, -10, -10, -10, -10, -10, -10, -10, -10, -10, -10, -10, -10, -10, -10, -10, -10, -10, -10, -10, -10, -10, -10, -10, -10, -10, -10, -10, -10, -10, -10, -10, -10, -10, -10, -10, -10, -10, -10, -10, -10, -10, -10, -10, -10, -10, -10, -10, -10, -10, -10, -10, -10, -10, -10, -10, -10, -10, -10, -10, -10, -10, -10, -10, -10, -10, -10, -10, -10, -10, -10, -10, -10, -10
-10, -10, -10, -10, -10, -10, -10, -10, -10, -10, -10, -10, -10, -10, -10, -10, -10, -10, -10, -10, -10, -10, -10, -10, -10, -10, 77, 77.619041, 77.64286, 77.375, 77.53125, 77.65625, 77.71875, 78.035713, 77.928574, 77.785713, 77.714287, 77.714287, 77.714287, 77.714287, 77.714287, 77.714287, 77.64286, 77.571426, 77.428574, 77.35714, 77.321426, 77.295914, 77.39286, 77.214287, 77.137756, 77.071426, 77.214287, 77.35714, 77.464287, 77.571426, 77.5, 77.428574, 77.428574, 77.428574, 77.571426, 77.571426, 77.39286, 77.198975, 77.14286, 76.9375, 76.9375, 76.9375, 76.8125, 76.89286, 76.928574, 76.928574, 77.132652, 77.255104, 77.214287, 77.398811, 77.333336, 77.25, 77.1875, 77.125, 77.0625, 76.64286, 76.75, 77.14286, 77.14286, 77.25, 77.309525, 77.147957, 77.10714, 77.285713, 77.214287, 77.285713, 77.5, 77.591835, 77.660713, 77.589287, 77.637756, 77.693886, 77.619041, 77.238098, 77.202385, 77.136902, 77.204086, 77.39286, 77.5, 77.5, 77.428574, 77.428574, 77.428574, 77.428574, 77.428574, 77.35714, 77.35714, 77.35714, 77.39286, 77.5, 77.464287, 77.464287, 77.5, 77.535713, 77.3125, 77.39286, 77.14286, 77.035713, 77, 77, 77.10714, 76.794647, 76.6875, 76.875, 76.9375, 77.35714, 77.464287, 77.35714, 77.285713, 77.214287, 77.39286, 77.612244, 77.60714, 77.64286, 77.25, 77.125, 77.125, 77.35714, 77.39286, 77.428574, 77.321426, 77.03125, 77.03125, 76.714287, 76.785713, 76.785713, 76.887756, 77.428574, 77.607147, 77.625, 77.75, 77.571426, 77.571426, 77.571426, 77.464287, 77.285713, 76.767853, 76.714287, 76.857147, 76.991074, 77.285713, 77.214287, 77.25, 77.39286, 77.43367, 77.535713, 77.64286, 77.60714, 77.678574, 77.678574, 77.678574, 77.40625, 77.21875, 77.321426, 77.214287, 77.214287, 77.35714, 77.321426, 77.35714, 77.35714, 77.39286, 77.464287, 77.464287, 77.5, 77.5, 77.571426, 77.535713, 77.571426, 77.535713, 77.428574, 77.464287, 77.321426, 77.14286, 77.071426, 76.964287, 76.89286, 77.035713, 77.14286, 76.9375, 77.125, 77, 76.9375, 77.25, 77.25, 77.125, 77.1875, 77.1875, 77.285713, 77.214287, 77.14286, 77.25, 77.14286, 77.14286, 77.122452, 77.204086, 77.053574, 77.1875, 77.25, 77.3125, 77.5, 77.39286, 77.39286, 77.25, 77.178574, 77.10714, 77, 76.954086, 76.5625, 76.696426, 76.714287, 77.25, 77.458336, 77.050003, 76.900002, 76.900002, -10, -10, -10, -10, -10, -10, -10, -10, -10, -10, -10, -10, -10, -10, -10, -10, -10, -10, -10, -10, -10, -10, -10, -10, -10, -10, -10, -10, -10, -10, -10, -10, -10, -10, -10, -10, -10, -10, -10, -10, -10, -10, -10, -10, -10, -10, -10, -10, -10, -10, -10, -10, -10, -10, -10, -10, -10, -10, -10, -10, -10, -10, -10, -10, -10, -10, -10, -10, -10, -10, -10, -10, -10, -10, -10, -10, -10, -10, -10, -10, -10, -10, -10, -10, -10, -10, -10, -10, -10, -10, -10, -10, -10, -10, -10, -10, -10, -10, -10, -10, -10, -10, -10, -10, -10, -10, -10, -10, -10, -10, -10, -10, -10, -10, -10, -10, -10, -10, -10, -10, -10, -10, -10, -10, -10, -10, -10, -10, -10, -10, -10, -10, -10, -10, -10, -10, -10, -10, -10, -10, -10, -10, -10, -10, -10, -10, -10, -10, -10, -10, -10, -10, -10, -10, -10, -10, -10, -10, -10, -10, -10, -10, 78.523804, 78.583328, 78.535713, 78.660713, 78.839287, 78.71875, 78.71875, 78.625, 78.5, 78.64286, 78.714287, 78.64286, 78.64286, 78.64286, 78.64286, 78.4375, 78.375, 78.25, 78.1875, 78.464287, 78.469383, 78.3125, 78.116074, 77.901787, 77.875, 78, 78.25, 78.375, 78.714287, 78.678574, 78.64286, 78.64286, 78.64286, 78.64286, 78.375, 78.125, 77.892853, 78.035713, 78.071426, 78.071426, 78.035713, 78.035713, 77.75, 77.60714, 77.916664, 78.418373, 78.540817, 78.428574, 78.306114, 78.234688, 78.335709, 78.224487, 78.306114, 78.285713, 78.5, 78.541664, 78.39286, 78.321426, 78.178574, 78.193886, 77.910713, 78.14286, 78.285713, 78.285713, 78.125, 78.25, 78.375, 78.4375, 78.678574, 78.693886, 78.544647, 78.479164, 78.40477, 78.31633, 78.224487, 78.053574, 78.125, 78.1875, 78.1875, 78.35714, 78.39286, 78.321426, 78.214287, 78.0625, 78.0625, 78.0625, 78.39286, 78.39286, 78.428574, 78.39286, 78.125, 78.125, 78.0625, 78.25, 78.452385, 78.321426, 78.041664, 78.285713, 78.285713, 78.35714, 78.122452, 77.85714, 77.6875, 77.75, 78, 78.125, 78.0625, 78, 78.178574, 78.321426, 78.505104, 78.591835, 78.714287, 78.535713, 78.5, 78.39286, 78.35714, 78.428574, 78.464287, 78.428574, 78.39286, 78.25, 78.333336, 78.375, 78.416664, 78.541664, 78.438774, 78.571426, 78.375, 78.375, 78.3125, 78.34375, 78.3125, 78.1875, 78, 77.674103, 77.852043, 78.051025, 78.204086, 78.39286, 77.785713, 77.85714, 78.035713, 78.112244, 78.214287, 78.285713, 78.5, 78.714287, 78.64286, 78.571426, 78.428574, 78.25, 78.214287, 78.178574, 78.285713, 78.39286, 78.321426, 78.39286, 78.39286, 78.464287, 78.571426, 78.3125, 78.3125, 78.3125, 78.375, 78.375, 78.64286, 78.64286, 78.60714, 78.571426, 78.39286, 78.214287, 78.10714, 77.875, 77.571426, 78, 78, 77.875, 78, 77.9375, 78, 78.39286, 78.39286, 78.464287, 78.464287, 78.25, 78.1875, 78.125, 77.785713, 78, 77.785713, 77.85714, 77.89286, 78.428574, 78.428574, 78.428574, 78.321426, 78.125, 78.125, 78.0625, 78.0625, 77.9375, 77.75, 77.625, 77.785713, 77.775513, 77.714287, 77.891159, 77.8125, 77.900002, 78.183334, -10, -10, -10, -10, -10, -10, -10, -10, -10, -10, -10, -10, -10, -10, -10, -10, -10, -10, -10, -10, -10, -10, -10, -10, -10, -10, -10, -10, -10, -10, -10, -10, -10, -10, -10, -10, -10, -10, -10, -10, -10, -10, -10, -10, -10, -10, -10, -10, -10, -10, -10, -10, -10, -10, -10, -10, -10, -10, -10, -10, -10, -10, -10, -10, -10, -10, -10, -10, -10, -10, -10, -10, -10, -10, -10, -10, -10, -10, -10, -10, -10, -10, -10, -10, -10, -10, -10, -10, -10, -10, -10, -10, -10, -10, -10, -10, -10, -10, -10, -10, -10, -10, -10, -10
-10, -10, -10, -10, -10, -10, -10, -10, -10, -10, -10, -10, -10, -10, -10, -10, -10, -10, -10, -10, -10, -10, -10, -10, -10, -10, -10, 78.833336, 79.291664, 79.511902, 79.60714, 79.75, 79.821426, 79.5625, 79.5, 79.4375, 79.4375, 79.632652, 79.1875, 79.1875, 79.125, 79.25, 79.5, 79.5, 79.5, 79.5, 79.571426, 79.571426, 79.535713, 79.178574, 78.64286, 78.64286, 79, 79.125, 79.25, 79.64286, 79.755104, 79.785713, 79.785713, 79.714287, 79.375, 79.25, 79.0625, 78.9375, 78.714287, 79.0625, 79, 79.178574, 79.10714, 78.928574, 79.25, 79.291664, 79.311226, 79.43367, 79.39286, 79.142853, 79.142853, 79.262497, 79.133926, 79.377548, 79.321426, 79.285713, 79.285713, 79.321426, 79.214287, 78.9375, 78.9375, 78.875, 78.9375, 79.0625, 79.125, 79.1875, 79.25, 79.375, 79.4375, 79.4375, 79.375, 79.25, 79.1875, 79.25, 79.321426, 79.321426, 79.25, 79.0625, 79.0625, 79.125, 79.1875, 79.25, 79.125, 79, 79, 79, 79.125, 79.25, 79.1875, 79.1875, 79.0625, 78.9375, 79, 78.75, 78.85714, 79.333336, 79.464287, 79.75, 79.464287, 79.5, 79.5, 79.229599, 78.928574, 78.821426, 78.6875, 78.9375, 79.0625, 79, 78.9375, 79.25, 79.125, 79.348213, 79.455353, 79.5625, 79.678574, 79.714287, 79.571426, 79.428574, 79.1875, 79.15625, 79.303574, 79.339287, 79.23214, 79.14286, 79.214287, 79.25, 79.321426, 79.362244, 79.21875, 79.1875, 79.25, 79.25, 79.15625, 79.0625, 78.875, 78.6875, 78.75, 78.908165, 79.132652, 79.31633, 79.5, 79.583336, 79.5, 79.583336, 79.583336, 79.625, 79.666664, 79.5, 79.571426, 79.3125, 79.3125, 79.28125, 78.954086, 78.964287, 78.964287, 79.035713, 79.25, 79.214287, 79.3125, 79.133926, 79.403061, 79.35714, 79.285713, 79.285713, 79.35714, 79.5, 79.60714, 79.678574, 79.678574, 79.678574, 79.375, 79.1875, 79.0625, 79.14286, 79.14286, 79.375, 79.25, 79.214287, 79.178574, 79.321426, 79.25, 79.285713, 79.464287, 79.39286, 79.464287, 79.535713, 79.464287, 79.428574, 79.39286, 79.583336, 79.583336, 79.666664, 79.666664, 79.75, 79.64286, 79.678574, 79.678574, 79.5, 79.0625, 79.0625, 79, 78.883926, 78.650002, 78.696426, 78.633926, 78.452377, 78.071434, 78.199997, 78.447617, -10, -10, -10, -10, -10, -10, -10, -10, -10, -10, -10, -10, -10, -10, -10, -10, -10, -10, -10, -10, -10, -10, -10, -10, -10, -10, -10, -10, -10, -10, -10, -10, -10, -10, -10, -10, -10, -10, -10, -10, -10, -10, -10, -10, -10, -10, -10, -10, -10, -10, -10, -10, -10, -10, -10, -10, -10, -10, -10, -10, -10, -10, -10, -10, -10, -10, -10, -10, -10, -10, -10, -10, -10, -10, -10, -10, -10, -10, -10, -10, -10, -10, -10, -10, -10, -10, -10, -10, -10, -10, -10, -10, -10, -10, -10, -10, -10, -10, -10, -10, -10, -10, -10, -10, -10, -10, -10, -10, -10, -10, -10, -10, -10, -10, -10, -10, -10, -10, -10, -10, -10, -10, -10, -10, -10, -10, -10, -10, -10, -10, -10, -10, -10, -10, -10, -10, -10, -10, -10, -10, -10, -10, -10, -10, -10, -10, -10, -10, -10, -10, -10, -10, -10, -10, -10, -10, -10, -10, -10, -10, -10, -10, -10, -10, -10, -10, -10, -10, -10, 79.722221, 80.479164, 80.520836, 80.5625, 80.5625, 80.4375, 80.3125, 80.428574, 80.428574, 80.303574, 79.928574, 79.964287, 79.89286, 80.035713, 80.25, 80.5, 80.535713, 80.535713, 80.64286, 80.64286, 80.571426, 80.454086, 80.416664, 80.416664, 80.25, 80.35714, 80.25, 80.4375, 80.755104, 80.785713, 80.714287, 80.571426, 80.25, 80.321426, 80.285713, 80.25, 80.541664, 80.428574, 80.285713, 80.214287, 80.178574, 79.964287, 80.035713, 80.14286, 80.053574, 80.223213, 80.25, 80.142853, 80.341835, 80.478569, 80.367348, 80.341835, 80.1875, 80.1875, 80.1875, 80, 79.85714, 79.714287, 79.64286, 79.833336, 80.178574, 80.285713, 80.35714, 80.35714, 80.39286, 80.39286, 80.35714, 80.39286, 80.1875, 80.125, 80.0625, 80, 80.0625, 80.321426, 80.285713, 80.14286, 80.071426, 80.10714, 80.14286, 80.25, 80, 80.071426, 80.10714, 80.14286, 80.25, 80.428574, 80.1875, 80.125, 79.9375, 79.8125, 79.875, 80.333336, 80.541664, 80.523811, 80.464287, 80.535713, 80.464287, 80.571426, 80.60714, 80.418373, 80.214287, 79.75, 80.071426, 80.214287, 80.321426, 80.321426, 80.25, 80.25, 80.178574, 80.214287, 80.306114, 80.5, 80.571426, 80.64286, 80.571426, 80.25, 80.125, 80.0625, 80, 80, 79.9375, 79.9375, 80.0625, 80.09375, 80.15625, 80.15625, 80.09375, 80.0625, 80.285713, 80.321426, 80.260201, 80.299995, 80.010201, 79.867348, 79.821426, 80.035713, 80.178574, 80.39286, 80.535713, 80.428574, 80.428574, 80.428574, 80.428574, 80.464287, 80.25, 80.25, 80.25, 80.125, 80.125, 80.35714, 80.726189, 80.833336, 80.833336, 80.791664, 80.25, 80.276787, 80.571426, 80.196426, 80.258926, 80.125, 80, 80.25, 80.321426, 80.5, 80.678574, 80.714287, 80.64286, 80.571426, 80.1875, 80, 80.214287, 80.25, 80.35714, 80.428574, 80.39286, 80.352043, 80.515312, 80.622452, 80.60714, 80.5, 80.464287, 80.125, 80.125, 80.25, 80.464287, 80.5, 80.535713, 80.428574, 80.35714, 80.35714, 80.285713, 80.39286, 80.571426, 80.678574, 80.64286, 80.464287, 80.14286, 80.035713, 80.071426, 80.010201, 79.338097, 79.214279, 79.114281, 79.458328, -10, -10, -10, -10, -10, -10, -10, -10, -10, -10, -10, -10, -10, -10, -10, -10, -10, -10, -10, -10, -10, -10, -10, -10, -10, -10, -10, -10, -10, -10, -10, -10, -10, -10, -10, -10, -10, -10, -10, -10, -10, -10, -10, -10, -10, -10, -10, -10, -10, -10, -10, -10, -10, -10, -10, -10, -10, -10, -10, -10, -10, -10, -10, -10, -10, -10, -10, -10, -10, -10, -10, -10, -10, -10, -10, -10, -10, -10, -10, -10, -10, -10, -10, -10, -10, -10, -10, -10, -10, -10, -10, -10, -10, -10, -10, -10, -10, -10, -10, -10, -10, -10, -10, -10, -10, -10, -10, -10, -10, -10
-10, -10, -10, -10, -10, -10, -10, -10, -10, -10, -10, -10, -10, -10, -10, -10, -10, -10, -10, -10, -10, -10, -10, -10, -10, -10, -10, -10, -10, 81.726189, 81.702385, 81.64286, 81.4375, 81.3125, 81.25, 81.25, 81.25, 81.303574, 81.625, 81.708336, 81.666664, 81.75, 81.3125, 81.375, 81.4375, 81.4375, 81.64286, 81.571426, 81.25, 81.31633, 81.214287, 81.285713, 81.285713, 81.35714, 81.464287, 81.571426, 81.755104, 81.785713, 81.4375, 81.25, 81.0625, 81.214287, 81.321426, 81.428574, 81.571426, 81.535713, 81.39286, 81.321426, 81.285713, 81, 81.0625, 81.125, 81.125, 81.125, 81.321426, 81.285713, 81.295914, 81.262497, 81.469383, 81.205353, 81.428574, 81.39286, 81.1875, 81.666664, 81.625, 81.583336, 81.583336, 81.583336, 81.35714, 81.428574, 81.428574, 81.35714, 81.125, 81.0625, 81, 81, 80.9375, 80.875, 80.8125, 80.8125, 80.9375, 81, 81, 80.803574, 80.5625, 80.59375, 80.59375, 80.78125, 81.071426, 81.14286, 81.25, 81.35714, 81.428574, 81.464287, 81.35714, 81.25, 81.10714, 81.14286, 80.958336, 81.39286, 81.5, 81.333336, 81.3125, 81.375, 81.375, 81.4375, 81.64286, 81.535713, 81.35714, 81.375, 81.14286, 81.14286, 81.214287, 81.214287, 81.14286, 81.178574, 81.10714, 80.875, 80.955353, 81.0625, 81.125, 81.25, 81.464287, 81.428574, 81.285713, 81.214287, 80.9375, 80.9375, 80.64286, 80.9375, 81.285713, 81.25, 81.09375, 81.09375, 81.178574, 81.285713, 81.265312, 81, 81.15625, 81.396935, 81.008926, 81.045914, 80.946426, 81.10714, 81.214287, 81.39286, 81.3125, 81.1875, 81.285713, 81.1875, 81.1875, 81.25, 81.3125, 81.25, 81.25, 81.125, 81.125, 81.464287, 81.622452, 81.714287, 81.64286, 81.535713, 81.321426, 81.280617, 81.35714, 81.153061, 81.260201, 81.0625, 81.0625, 81.1875, 81.25, 81.3125, 81.571426, 81.5, 81.1875, 81.1875, 81.0625, 81, 81.35714, 81.428574, 81.464287, 81.428574, 81.1875, 81.352043, 81.622452, 81.765312, 81.714287, 81.535713, 81.1875, 81, 80.9375, 81.071426, 81.395836, 81.482147, 81.714287, 81.267853, 81.125, 81.0625, 81, 81.0625, 81.1875, 81.1875, 81.09375, 81.178574, 80.928574, 80.708336, 80.650002, 80.564285, 80.545837, -10, -10, -10, -10, -10, -10, -10, -10, -10, -10, -10, -10, -10, -10, -10, -10, -10, -10, -10, -10, -10, -10, -10, -10, -10, -10, -10, -10, -10, -10, -10, -10, -10, -10, -10, -10, -10, -10, -10, -10, -10, -10, -10, -10, -10, -10, -10, -10, -10, -10, -10, -10, -10, -10, -10, -10, -10, -10, -10, -10, -10, -10, -10, -10, -10, -10, -10, -10, -10, -10, -10, -10, -10, -10, -10, -10, -10, -10, -10, -10, -10, -10, -10, -10, -10, -10, -10, -10, -10, -10, -10, -10, -10, -10, -10, -10, -10, -10, -10, -10, -10, -10, -10, -10, -10, -10, -10, -10, -10, -10, -10, -10, -10, -10, -10, -10, -10, -10, -10, -10, -10, -10, -10, -10, -10, -10, -10, -10, -10, -10, -10, -10, -10, -10, -10, -10, -10, -10, -10, -10, -10, -10, -10, -10, -10, -10, -10, -10, -10, -10, -10, -10, -10, -10, -10, -10, -10, -10, -10, -10, -10, -10, -10, -10, -10, -10, -10, -10, -10, -10, -10, -10, -10, -10, -10, -10, 82.333328, 82.488098, 82.39286, 82.428574, 82.428574, 82.428574, 82.5, 82.428574, 82.387756, 82.428574, 82.5, 82.535713, 82.678574, 82.571426, 82.60714, 82.64286, 82.64286, 82.4375, 82.375, 82.25, 81.928574, 81.928574, 82.25, 82.25, 82.5, 82.571426, 82.60714, 82.535713, 82.5625, 82.375, 82.125, 82, 82, 82.125, 82.464287, 82.571426, 82.3125, 82.464287, 82.464287, 82.428574, 82.39286, 82.464287, 82.469383, 82.306114, 82.224487, 82.25, 82.125, 82.223213, 82.3125, 82.267853, 82.321426, 82.285713, 82.25, 82.214287, 82.285713, 82.35714, 82.428574, 82.5, 82.571426, 82.464287, 82.428574, 82.321426, 82, 81.9375, 81.875, 81.875, 81.9375, 81.9375, 81.8125, 82, 82, 81.875, 81.714287, 82, 81.596939, 81.321426, 81.35714, 81.39286, 81.571426, 81.90625, 82.14286, 82.14286, 82.285713, 82.39286, 82.464287, 82.5, 82.428574, 82.321426, 82.39286, 82.708336, 82.60714, 82.64286, 82.375, 82.3125, 82.25, 82.428574, 82.5, 82.535713, 82.5, 82.464287, 82.35714, 82.321426, 81.85714, 82.125, 82.0625, 82.017853, 82.125, 82.0625, 81.821426, 82.0625, 81.785713, 81.85714, 82.1875, 82.3125, 82.535713, 82.428574, 82.39286, 82.214287, 82.071426, 82.25, 82.071426, 82.178574, 82.125, 82.125, 82.053574, 81.910713, 82, 81.857147, 81.848213, 82, 82.289795, 82.117348, 82.010201, 81.928574, 82.035713, 82.071426, 82, 82.0625, 82, 81.910713, 81.875, 82.239799, 82.229599, 82.321426, 82.25, 82.214287, 82.14286, 82.25, 82.428574, 82.482147, 82.5625, 82.5, 82.375, 82.1875, 81.959183, 82, 81.795914, 82.133926, 82.35714, 82.35714, 82.464287, 82.428574, 82.39286, 82.25, 82.1875, 82.125, 81.964287, 82.1875, 82.428574, 82.571426, 82.5, 82.35714, 82.17347, 82.071426, 82.102043, 82.515312, 82.693886, 82.4375, 82.464287, 81.9375, 81.6875, 81.6875, 81.928574, 82.559525, 82.729599, 82.75, 82.267853, 82.125, 81.785713, 81.714287, 81.9375, 82, 81.9375, 81.84375, 81.458336, 81.208336, 81.19445, -10, -10, -10, -10, -10, -10, -10, -10, -10, -10, -10, -10, -10, -10, -10, -10, -10, -10, -10, -10, -10, -10, -10, -10, -10, -10, -10, -10, -10, -10, -10, -10, -10, -10, -10, -10, -10, -10, -10, -10, -10, -10, -10, -10, -10, -10, -10, -10, -10, -10, -10, -10, -10, -10, -10, -10, -10, -10, -10, -10, -10, -10, -10, -10, -10, -10, -10, -10, -10, -10, -10, -10, -10, -10, -10, -10, -10, -10, -10, -10, -10, -10, -10, -10, -10, -10, -10, -10, -10, -10, -10, -10, -10, -10, -10, -10, -10, -10, -10, -10, -10, -10, -10, -10, -10, -10, -10, -10, -10, -10, -10, -10, -10, -10, -10, -10
-10, -10, -10, -10, -10, -10, -10, -10, -10, -10, -10, -10, -10, -10, -10, -10, -10, -10, -10, -10, -10, -10, -10, -10, -10, -10, -10, -10, -10, -10, 82.777779, 83, 83.25, 83.5, 83.535713, 83.60714, 83.535713, 83.571426, 83.4375, 83.5, 83.5625, 83.5625, 83.678574, 83.678574, 83.678574, 83.678574, 83.64286, 83.571426, 83.464287, 83.625, 83.625, 83.464287, 83.5, 83.571426, 83.64286, 83.64286, 83.714287, 83.64286, 83.39286, 83.14286, 83, 83.071426, 83, 83.125, 83.1875, 83.0625, 83.25, 83.285713, 83.35714, 83.464287, 83.60714, 83.68367, 83.520401, 83.196426, 83.1875, 83.25, 83.505104, 83.535713, 83.205353, 83.0625, 83, 82.9375, 82.9375, 83.0625, 83.1875, 83.3125, 83.4375, 83.714287, 83.60714, 83.3125, 83.125, 82.875, 82.75, 82.89286, 83, 83.178574, 83.285713, 83.214287, 83.214287, 83.14286, 83.14286, 83.416664, 83.040817, 83.132935, 83.345238, 83.326385, 83.24305, 83.252975, 83.10714, 83, 82.785713, 83.1875, 83.5, 83.535713, 83.5, 83.464287, 83.428574, 83.464287, 83.535713, 83.5, 83.39286, 83.403061, 83.514282, 83.295914, 83.377548, 83.1875, 83.3125, 83.3125, 83.25, 83.125, 83.0625, 83.416664, 83, 83, 82.955353, 83.35714, 83.321426, 83.541664, 83.285713, 83.458336, 83.5, 83.35714, 83.464287, 83.535713, 83.571426, 83.571426, 83.464287, 83.35714, 83.35714, 83, 83.0625, 83, 83, 82.714287, 82.553574, 82.60714, 82.794647, 82.660713, 82.84375, 82.941071, 82.821426, 82.758926, 82.65625, 82.6875, 82.625, 82.6875, 82.71875, 82.8125, 82.910713, 82.9375, 83.116074, 83.107147, 83.1875, 83.09375, 83.03125, 82.90625, 83.214287, 83.285713, 83.39286, 83.3125, 83.25, 83.25, 83.25, 83.666664, 83.666664, 83.666664, 83.5, 83.535713, 83.5, 83.5, 83.35714, 83, 83, 83, 83.178574, 83.625, 83.535713, 83.60714, 83.64286, 83.464287, 83.0625, 82.839287, 82.75, 82.776787, 83.169647, 83.357147, 83.375, 83.3125, 82.714287, 82.5, 83, 83.096939, 83.523811, 83.658165, 83.714287, 83.556114, 83.428574, 83.541664, 83.5, 83.214287, 82.449997, 82.166664, 82.041664, -10, -10, -10, -10, -10, -10, -10, -10, -10, -10, -10, -10, -10, -10, -10, -10, -10, -10, -10, -10, -10, -10, -10, -10, -10, -10, -10, -10, -10, -10, -10, -10, -10, -10, -10, -10, -10, -10, -10, -10, -10, -10, -10, -10, -10, -10, -10, -10, -10, -10, -10, -10, -10, -10, -10, -10, -10, -10, -10, -10, -10, -10, -10, -10, -10, -10, -10, -10, -10, -10, -10, -10, -10, -10, -10, -10, -10, -10, -10, -10, -10, -10, -10, -10, -10, -10, -10, -10, -10, -10, -10, -10, -10, -10, -10, -10, -10, -10, -10, -10, -10, -10, -10, -10, -10, -10, -10, -10, -10, -10, -10, -10, -10, -10, -10, -10, -10, -10, -10, -10, -10, -10, -10, -10, -10, -10, -10, -10, -10, -10, -10, -10, -10, -10, -10, -10, -10, -10, -10, -10, -10, -10, -10, -10, -10, -10, -10, -10, -10, -10, -10, -10, -10, -10, -10, -10, -10, -10, -10, -10, -10, -10, -10, -10, -10, -10, -10, -10, -10, -10, -10, -10, -10, -10, -10, -10, -10, -10, -10, -10, -10, -10, -10, -10, 84.666664, 84.5, 84.571426, 84.64286, 84.714287, 84.64286, 84.64286, 84.64286, 84.571426, 84.64286, 84.64286, 84.64286, 84.714287, 84.714287, 84.714287, 84.678574, 84.64286, 84.60714, 84.571426, 84.5, 84.535713, 84.535713, 84.571426, 84.678574, 84.678574, 84.64286, 84.3125, 84.125, 83.9375, 83.875, 84.25, 84, 84, 84.080353, 83.785713, 83.85714, 83.964287, 84.25, 84.375, 84.4375, 84.68367, 84.520401, 84.331627, 84.35714, 84.39286, 84.43367, 84.5, 84.341835, 84.0625, 84, 83.875, 83.875, 84, 84.0625, 84.1875, 84.5, 84.571426, 84.571426, 84.571426, 84.39286, 84.214287, 84.10714, 84.14286, 84.285713, 84.428574, 84.5, 84.428574, 84.428574, 84.35714, 84.35714, 84.35714, 84.18367, 84.149658, 84.295914, 84.279762, 84.136902, 84.038261, 84.089287, 84.214287, 84.541664, 84.5, 84.5, 84.464287, 84.35714, 84.285713, 84.35714, 84.25, 84.3125, 84.3125, 84.1875, 84.196426, 84.621422, 84.196426, 84.330353, 84.3125, 84.3125, 84.276787, 84.1875, 84.0625, 84.25, 84.285713, 84.214287, 84.214287, 84.306114, 84.535713, 84.535713, 84.678574, 84.60714, 84.64286, 84.64286, 84.60714, 84.64286, 84.60714, 84.678574, 84.678574, 84.60714, 84.464287, 84.35714, 84, 83.9375, 84.117348, 84.321426, 84.583336, 84.5, 84.375, 83.989799, 83.969383, 83.928574, 83.928574, 83.73214, 83.678574, 83.60714, 83.571426, 83.48214, 83.428574, 83.65625, 83.75, 84.112244, 84.25, 84.331627, 84.204086, 84.25, 83.96875, 83.96875, 83.90625, 83.90625, 83.9375, 84.071426, 84.3125, 84.1875, 84.377548, 84.321426, 84.285713, 84.285713, 84.285713, 84.321426, 84.35714, 84.321426, 84.125, 84, 83.875, 83.875, 84.178574, 84.35714, 84.535713, 84.571426, 84.535713, 84.25, 84.125, 83.9375, 83.776787, 83.5, 83.5, 84.0625, 84.1875, 84.321426, 84.321426, 84.25, 84.25, 84.10714, 84.163269, 84.270836, 84.294647, 84.25, 84.438774, 84.416672, 84, 84, 83.900002, -10, -10, -10, -10, -10, -10, -10, -10, -10, -10, -10, -10, -10, -10, -10, -10, -10, -10, -10, -10, -10, -10, -10, -10, -10, -10, -10, -10, -10, -10, -10, -10, -10, -10, -10, -10, -10, -10, -10, -10, -10, -10, -10, -10, -10, -10, -10, -10, -10, -10, -10, -10, -10, -10, -10, -10, -10, -10, -10, -10, -10, -10, -10, -10, -10, -10, -10, -10, -10, -10, -10, -10, -10, -10, -10, -10, -10, -10, -10, -10, -10, -10, -10, -10, -10, -10, -10, -10, -10, -10, -10, -10, -10, -10, -10, -10, -10, -10, -10, -10, -10, -10, -10, -10, -10, -10, -10, -10, -10, -10, -10, -10, -10, -10, -10, -10, -10, -10, -10, -10, -10, -10
