-10, -10, -10, -10, -10, -10, -10, -10, -10, -10, 34.125, 34.083332, 34, 34, 34, 34.125, 34.1875, 34.1875, 34.125, 34.0625, 34.0625, 34.125, 34.3125, 34.25, 34.25, 34.1875, 33.9375, 33.875, 33.830357, 33.825001, 33.696426, 33.767857, 33.8125, 33.9375, 34, 34.0625, 34.0625, 34.1875, 34.3125, 34.375, 34.410713, 34.142857, 34.008926, 34.017857, 34.208332, 34.169643, 34, 33.892857, 33.9375, 33.9375, 34.0625, 33.9375, 33.90625, 33.96875, 33.96875, 34.03125, 34.0625, 34, 34, 34, 34, 34, 34, 34, 34.0625, 34.1875, 34.1875, 34.1875, 34.1875, 34.1875, 34.1875, 34.1875, 34.125, 34, 34.0625, 34.151787, 34.357143, 34.419643, 34.4375, 34.303574, 33.979168, 34.017857, 34.0625, 34.160713, 34.3125, 34.40625, 34.379463, 34.34375, 34.174107, 34.125, 34.0625, 34.0625, 34.0625, 34, 34, 34.0625, 34.25, 34.4375, 34.5625, 34.5625, 34.4375, 34.3125, 34.3125, 34.3125, 34.4375, 34.625, 34.678574, 34.461311, 34.113094, 33.955357, 33.75, 33.839287, 33.9375, 33.9375, 34.0625, 34, 34.1875, 34.1875, 34.1875, 34.25, 34.0625, 34.0625, 34.0625, 34, 34, 34.125, 34.25, 34.375, 34.5625, 34.6875, 34.616074, 34.354168, 34.205357, 34.0625, 34.098213, 34.0625, 34.0625, 34, 34, 34, 34.0625, 34.1875, 34.25, 34.25, 34.1875, 34.1875, 34.25, 34.25, 34.25, 34.125, 34, 34, 34.1875, 34.3125, 34.4375, 34.5, 34.375, 34.4375, 34.5, 34.5, 34.6875, 34.75, 34.625, 34.553574, 34.1875, 34, 33.9375, 34, 34, 34, 34, 34, 34.25, 34.25, 34.3125, 34.375, 34.1875, 34.25, 34.3125, 34.4375, 34.4375, 34.375, 34.25, 34.1875, 34.1875, 34.375, 34.5, 34.5, 34.4375, 34.25, 34.125, 34.0625, 34.125, 34.1875, 34.3125, 34.4375, 34.5625, 34.625, 34.5, 34.5, 34.375, 34.25, 34.375, 34.450893, 34.419643, 34.375, 34.1875, 34.15625, 34.160713, 34.151787, 34.1875, 34.125, 34.125, 34.0625, 34.125, 34.125, 34.125, 34.125, 34.1875, 34.25, 34.25, 34.375, 34.375, 34.205357, 34.026787, 33.9375, 33.875, 34.205357, 34.375, 34.4375, 34.5625, 34.4375, 34.625, 34.75, 34.8125, 34.8125, 34.6875, 34.580357, 34.491074, 34.599998, 34.3125, 34.258926, 34.1875, 34.1875, 34.1875, 34.1875, 34.1875, 34.125, 34.1875, 34.1875, 34.125, 34.1875, 34.125, 34.0625, 34.0625, 34, 34.0625, 34.214287, 34.482143, 34.482143, 34.375, 34.3125, 34.1875, 34.3125, 34.3125, 34.1875, 34.3125, 34.4375, 34.5625, 34.625, 34.4375, 34.1875, 34.0625, 34, 34, 34.0625, 34.1875, 34.3125, 34.5625, 34.75, 34.875, 35, 34.875, 34.6875, 34.5, 34.375, 34.5, 34.625, 34.75, 34.75, 34.5625, 34.375, 34.25, 34.125, 34.25, 34.25, 34.25, 34.3125, 34.125, 34.1875, 34.3125, 34.3125, 34.3125, 34.3125, 34.125, 34, 34, 33.875, 33.875, 34.0625, 34.1875, 34.3125, 34.3125, 34.1875, 34, 34, 34.25, 34.473213, 34.625, 34.75, 34.75, 34.8125, 34.875, 34.875, 34.875, 34.8125, 34.8125, 34.875, 34.8125, 34.901787, 35.044643, 35.116074, 35.125, 35, 35, 34.9375, 34.9375, 34.9375, 34.9375, 34.8125, 34.8125, 34.6875, 34.580357, 34.785713, 34.75, 34.8125, 34.75, 34.6875, 34.6875, 34.75, 34.875, 34.9375, 35, 35.0625, 35.125, 35.125, 35.0625, 34.9375, 34.8125, 34.625, 34.5, -10, -10, -10, -10, -10, -10, -10, -10, -10, -10, -10, -10, -10, -10, -10, -10, -10, -10, -10, -10, -10, -10, -10, -10, -10, 34.25, 34.166664, 34.125, 34.1875, 34.1875, 34.3125, 34.3125, 34.25, 34.125, 34, 34, 34.0625, 34.1875, 34.1875, 34.1875, 34.125, 34, 34, 33.9375, 33.8125, 33.75, 33.6875, 33.75, 33.875, 34, 34.0625, 34.0625, 34.1875, 34.25, 34.375, 34.410713, 34.205357, 34.133926, 34.125, 34.125, 34.0625, 33.875, 33.830357, 33.9375, 33.9375, 34.0625, 33.9375, 33.90625, 33.96875, 33.96875, 34.03125, 34.0625, 34, 34, 34, 34, 34, 34, 34, 34.125, 34.25, 34.25, 34.25, 34.25, 34.25, 34.3125, 34.3125, 34.1875, 34, 33.9375, 34.089287, 34.330357, 34.419643, 34.5, 34.303574, 33.979168, 34.017857, 34.0625, 34.160713, 34.1875, 34.15625, 34.03125, 34.03125, 34.03125, 34.0625, 34.125, 34.1875, 34.25, 34.25, 34.25, 34.25, 34.375, 34.5625, 34.625, 34.625, 34.5, 34.3125, 34.3125, 34.375, 34.5625, 34.75, 34.803574, 34.604168, 34.383926, 34.1875, 33.9375, 33.901787, 33.9375, 33.9375, 34.0625, 34, 34.125, 34.125, 34.1875, 34.25, 34.125, 34.125, 34.0625, 34, 34, 34.0625, 34.125, 34.1875, 34.375, 34.5625, 34.625, 34.6875, 34.5625, 34.3125, 34.1875, 34.0625, 34, 34, 34, 34, 34.0625, 34.25, 34.375, 34.375, 34.3125, 34.1875, 34.1875, 34.1875, 34.1875, 34.125, 34, 34, 34.1875, 34.375, 34.5, 34.625, 34.5, 34.5, 34.5, 34.375, 34.5, 34.5625, 34.5, 34.491074, 34.1875, 34, 34, 34.0625, 34.0625, 34.0625, 34.0625, 34.125, 34.375, 34.4375, 34.5, 34.5, 34.3125, 34.375, 34.375, 34.4375, 34.4375, 34.3125, 34.1875, 34.1875, 34.25, 34.4375, 34.5, 34.5, 34.375, 34.1875, 34.125, 34.0625, 34.125, 34.25, 34.4375, 34.5625, 34.6875, 34.6875, 34.5625, 34.5, 34.3125, 34.1875, 34.25, 34.388393, 34.419643, 34.375, 34.1875, 34.15625, 34.098213, 34.026787, 34.0625, 34, 34.0625, 34.0625, 34.125, 34.125, 34.125, 34.125, 34.1875, 34.25, 34.3125, 34.4375, 34.5, 34.30357, 33.991074, 33.9375, 33.875, 34.205357, 34.375, 34.4375, 34.5, 34.5, 34.6875, 34.75, 34.8125, 34.75, 34.625, 34.580357, 34.491074, 34.599998, 34.375, 34.258926, 34.125, 34.1875, 34.1875, 34.25, 34.3125, 34.1875, 34.1875, 34.25, 34.1875, 34.25, 34.1875, 34.0625, 34.0625, 34, 34, 34.089287, 34.294643, 34.294643, 34.25, 34.25, 34.1875, 34.3125, 34.3125, 34.1875, 34.3125, 34.375, 34.5, 34.5625, 34.375, 34.25, 34.1875, 34.125, 34.125, 34.1875, 34.3125, 34.5, 34.75, 34.875, 34.9375, 35, 35, 34.9375, 34.794643, 34.674999, 34.866074, 34.991074, 35.116074, 34.854168, 34.633926, 34.375, 34.25, 34.125, 34.25, 34.25, 34.25, 34.375, 34.1875, 34.25, 34.375, 34.3125, 34.375, 34.3125, 34.125, 34, 33.9375, 33.875, 33.875, 34.0625, 34.1875, 34.25, 34.25, 34.125, 33.9375, 33.9375, 34.1875, 34.348213, 34.4375, 34.5625, 34.5, 34.625, 34.6875, 34.6875, 34.6875, 34.6875, 34.75, 34.875, 34.9375, 34.9375, 34.9375, 34.9375, 34.875, 34.8125, 34.875, 34.875, 34.9375, 34.9375, 34.9375, 34.875
-10, -10, -10, -10, -10, -10, -10, -10, -10, -10, 34.25, 34.166664, 34.0625, 34.125, 34.125, 34.294643, 34.375, 34.3125, 34.1875, 34.0625, 34, 34, 34, 34, 34.0625, 34.098213, 34.0625, 34.0625, 34, 33.875, 33.75, 33.705357, 33.895832, 33.982143, 34.1875, 34.25, 34.1875, 34.25, 34.1875, 34.25, 34.285713, 34.142857, 34.071426, 34, 34, 33.875, 33.6875, 33.642857, 33.75, 33.8125, 34, 34, 34.03125, 34.09375, 34.09375, 34.09375, 34.0625, 34.0625, 34.125, 34.1875, 34.25, 34.25, 34.1875, 34.125, 34.125, 34.151787, 34.294643, 34.294643, 34.3125, 34.3125, 34.375, 34.375, 34.25, 34.0625, 33.875, 34.089287, 34.330357, 34.419643, 34.5625, 34.303574, 34.041668, 34.017857, 34.0625, 34.160713, 34.125, 34.1875, 34.125, 34.1875, 34.25, 34.25, 34.3125, 34.375, 34.4375, 34.5, 34.5, 34.4375, 34.5, 34.5625, 34.5, 34.5, 34.3125, 34.125, 34.125, 34.125, 34.375, 34.625, 34.8125, 34.9375, 34.8125, 34.517857, 33.958332, 33.848213, 33.857143, 33.9375, 34.0625, 34, 34.0625, 34.0625, 34.125, 34.1875, 34.125, 34.125, 34.0625, 34, 34, 34, 34, 34.0625, 34.1875, 34.4375, 34.625, 34.669643, 34.549999, 34.491074, 34.366074, 34.25, 34.125, 34.0625, 34.0625, 34.125, 34.1875, 34.4375, 34.5, 34.4375, 34.375, 34.125, 34.0625, 34.0625, 34.0625, 34.0625, 34, 34, 34.1875, 34.375, 34.5, 34.625, 34.5, 34.5625, 34.5, 34.375, 34.4375, 34.375, 34.375, 34.366074, 34.125, 34, 34, 34.0625, 34.0625, 34.125, 34.1875, 34.25, 34.4375, 34.4375, 34.375, 34.3125, 34.125, 34.25, 34.25, 34.3125, 34.375, 34.25, 34.169643, 34.125, 34.3125, 34.410713, 34.4375, 34.375, 34.1875, 34.0625, 34.0625, 34.0625, 34.125, 34.25, 34.4375, 34.5625, 34.75, 34.75, 34.625, 34.5, 34.25, 34.125, 34.125, 34.294643, 34.325893, 34.28125, 34.15625, 34.09375, 34.0625, 34.0625, 34.0625, 34.0625, 34.125, 34.125, 34.125, 34.125, 34.125, 34.125, 34.25, 34.25, 34.1875, 34.3125, 34.4375, 34.30357, 34.053574, 34, 33.8125, 34.080357, 34.25, 34.3125, 34.4375, 34.5625, 34.6875, 34.6875, 34.75, 34.6875, 34.75, 34.9375, 34.8125, 34.75, 34.625, 34.375, 34.25, 34.1875, 34.1875, 34.3125, 34.4375, 34.375, 34.3125, 34.3125, 34.25, 34.375, 34.375, 34.3125, 34.25, 34.125, 34, 34.026787, 34.294643, 34.357143, 34.375, 34.375, 34.25, 34.25, 34.25, 34.125, 34.1875, 34.25, 34.375, 34.375, 34.3125, 34.3125, 34.3125, 34.375, 34.4375, 34.5, 34.625, 34.8125, 34.9375, 35, 35, 35.0625, 35.125, 35.1875, 35.035713, 34.654167, 34.845238, 34.991074, 35.116074, 34.979168, 34.696426, 34.4375, 34.25, 34.0625, 34.125, 34.125, 34.25, 34.4375, 34.3125, 34.4375, 34.4375, 34.3125, 34.375, 34.25, 34.125, 34.125, 34.125, 34.125, 34.125, 34.1875, 34.25, 34.25, 34.25, 34.125, 33.9375, 34, 34.1875, 34.223213, 34.276787, 34.3125, 34.25, 34.5, 34.5625, 34.625, 34.6875, 34.6875, 34.8125, 34.9375, 35, 35, 34.9375, 34.9375, 34.8125, 34.75, 34.8125, 34.8125, 34.9375, 35, 35, 35, 35, 34.875, 34.6875, 34.6875, 34.6875, 34.6875, 34.6875, 34.625, 34.625, 34.75, 34.875, 35, 35.125, 35.232143, 35.3125, 35.25, 35.125, 35.0625, 34.9375, 34.8125, 34.75, -10, -10, -10, -10, -10, -10, -10, -10, -10, -10, -10, -10, -10, -10, -10, -10, -10, -10, -10, -10, -10, -10, -10, -10, -10, 34.25, 34.166664, 34.125, 34.160713, 34.125, 34.410713, 34.491074, 34.428574, 34.125, 34.0625, 33.9375, 33.875, 33.8125, 33.875, 34.044643, 34.142857, 33.979168, 33.955357, 33.875, 33.8125, 33.75, 33.767857, 34.020832, 34.089287, 34.237499, 34.428574, 34.366074, 34.375, 34.125, 33.892857, 33.875, 33.875, 33.9375, 34, 34, 33.875, 33.6875, 33.625, 33.6875, 33.848213, 34, 34.0625, 33.9375, 33.9375, 33.9375, 33.9375, 34, 34.125, 34.25, 34.3125, 34.375, 34.3125, 34.125, 34.0625, 34.0625, 34.089287, 34.294643, 34.232143, 34.1875, 34.1875, 34.25, 34.3125, 34.25, 34.0625, 33.9375, 34.1875, 34.285713, 34.375, 34.4375, 34.178574, 33.916668, 33.892857, 33.9375, 34.098213, 34.1875, 34.3125, 34.375, 34.4375, 34.5, 34.4375, 34.4375, 34.4375, 34.5, 34.625, 34.6875, 34.625, 34.625, 34.5625, 34.375, 34.4375, 34.223213, 34.026787, 34.125, 34.0625, 34.375, 34.625, 34.8125, 35, 34.875, 34.642857, 34.177082, 34.040176, 34.013393, 34.03125, 34.0625, 34, 34, 34, 34.0625, 34.125, 34.125, 34.125, 34.0625, 34, 34, 34, 34, 34.0625, 34.1875, 34.375, 34.5625, 34.544643, 34.424999, 34.491074, 34.473213, 34.5, 34.5, 34.5, 34.5, 34.5, 34.4375, 34.5625, 34.5625, 34.4375, 34.375, 34.125, 34.0625, 34.0625, 34.0625, 34.0625, 34, 34, 34.125, 34.25, 34.3125, 34.4375, 34.4375, 34.5, 34.5, 34.375, 34.3125, 34.25, 34.1875, 34.1875, 34.0625, 33.9375, 34, 34, 34.0625, 34.1875, 34.3125, 34.375, 34.5, 34.4375, 34.3125, 34.25, 34.125, 34.1875, 34.125, 34.125, 34.25, 34.1875, 34.169643, 34.125, 34.25, 34.285713, 34.3125, 34.25, 34.0625, 34, 34, 34.0625, 34.125, 34.25, 34.375, 34.375, 34.5, 34.4375, 34.375, 34.375, 34.1875, 34.125, 34.125, 34.232143, 34.232143, 34.1875, 34.0625, 34, 34, 34, 34, 34.0625, 34.125, 34.125, 34.125, 34.1875, 34.25, 34.25, 34.3125, 34.1875, 34.0625, 34.1875, 34.375, 34.321426, 34.178574, 34.125, 34, 34.1875, 34.3125, 34.375, 34.4375, 34.625, 34.625, 34.5625, 34.625, 34.5625, 34.6875, 34.9375, 34.8125, 34.75, 34.6875, 34.5, 34.375, 34.375, 34.375, 34.5, 34.6875, 34.5625, 34.375, 34.25, 34.1875, 34.3125, 34.4375, 34.5, 34.375, 34.25, 34.0625, 33.9375, 34.0625, 34.125, 34.1875, 34.25, 34.125, 34.0625, 34.0625, 34, 34.0625, 34.125, 34.3125, 34.3125, 34.375, 34.5, 34.5, 34.625, 34.75, 34.8125, 34.875, 35, 35, 35, 35, 35.0625, 35.125, 35.1875, 35.035713, 34.654167, 34.854164, 35.116074, 35.178574, 35.041668, 34.633926, 34.375, 34.1875, 34, 34.0625, 34.0625, 34.1875, 34.375, 34.3125, 34.5, 34.4375, 34.25, 34.3125, 34.1875, 34.1875, 34.3125, 34.375, 34.375, 34.3125, 34.3125, 34.3125, 34.25, 34.3125, 34.1875, 34.125, 34.25, 34.375, 34.375, 34.339287, 34.3125, 34.1875, 34.4375, 34.5, 34.5625, 34.6875, 34.6875, 34.8125, 34.9375, 35, 35, 35, 35, 34.9375, 34.875, 34.875, 34.875, 34.9375, 35.125, 35.125, 35.125
-10, -10, -10, -10, -10, -10, -10, -10, -10, -10, 34.125, 34.083332, 34.125, 34.098213, 34.1875, 34.535713, 34.616074, 34.616074, 34.25, 34.125, 33.9375, 33.875, 33.8125, 33.9375, 34.080357, 34.035713, 33.872025, 33.830357, 33.8125, 33.8125, 33.75, 33.767857, 33.958332, 34.053574, 34.344643, 34.535713, 34.491074, 34.375, 34, 33.767857, 33.75, 33.8125, 33.9375, 34, 34, 33.875, 33.75, 33.6875, 33.75, 33.910713, 34.0625, 34.125, 33.9375, 33.830357, 33.8125, 33.875, 34.107143, 34.3125, 34.4375, 34.375, 34.267857, 34.1875, 33.9375, 33.875, 33.875, 33.901787, 34.232143, 34.232143, 34.125, 34.0625, 34.232143, 34.294643, 34.3125, 34.1875, 34, 34.1875, 34.223213, 34.1875, 34.1875, 33.9375, 33.875, 33.875, 33.8125, 33.875, 33.9375, 34, 34.285713, 34.32143, 34.392857, 34.125, 34.232143, 34.25, 34.3125, 34.5, 34.5625, 34.5, 34.5, 34.375, 34.1875, 34.3125, 34.098213, 33.964287, 33.9375, 33.875, 34.1875, 34.4375, 34.75, 34.875, 34.875, 34.705357, 34.302082, 34.227676, 34.138393, 34.09375, 34.0625, 34, 34, 34, 34.0625, 34.125, 34.125, 34.125, 34.0625, 34, 34, 34, 34, 34, 34.0625, 34.1875, 34.3125, 34.232143, 34.174999, 34.241074, 34.223213, 34.375, 34.5, 34.5, 34.833332, 34.857143, 34.8125, 34.75, 34.5625, 34.4375, 34.3125, 34.125, 34, 33.9375, 34, 34.107143, 34.1875, 34.1875, 34.1875, 34.1875, 34.125, 34.1875, 34.25, 34.3125, 34.3125, 34.1875, 34, 33.9375, 34, 34.098213, 34.0625, 34, 34, 34, 34.125, 34.25, 34.375, 34.4375, 34.4375, 34.375, 34.25, 34.1875, 34.125, 34.125, 34, 33.9375, 34.071426, 34.1875, 34.169643, 34.125, 34.1875, 34.160713, 34.1875, 34.25, 34.09375, 34.09375, 34.09375, 34.03125, 34, 34.0625, 34.125, 34.1875, 34.3125, 34.25, 34.25, 34.1875, 34.0625, 34.125, 34.1875, 34.25, 34.3125, 34.25, 34.125, 34.0625, 34, 34, 34, 34, 34.0625, 34.0625, 34.125, 34.3125, 34.4375, 34.5, 34.5, 34.375, 34.25, 34.375, 34.5625, 34.473213, 34.339287, 34.1875, 34, 34.0625, 34.1875, 34.3125, 34.5, 34.75, 34.6875, 34.625, 34.625, 34.5625, 34.6875, 34.875, 34.8125, 34.8125, 34.875, 34.75, 34.625, 34.625, 34.625, 34.75, 34.9375, 34.8125, 34.5625, 34.375, 34.25, 34.375, 34.5625, 34.6875, 34.5625, 34.4375, 34.25, 34.125, 34.178574, 34.0625, 34.125, 34.0625, 34.0625, 34.0625, 34.09375, 34.09375, 34.09375, 34.03125, 34.1875, 34.1875, 34.375, 34.625, 34.625, 34.75, 34.875, 34.875, 34.9375, 35.0625, 35, 35, 35, 35.0625, 35.1875, 35.1875, 35.035713, 34.654167, 34.791664, 35.116074, 35.178574, 35.041668, 34.633926, 34.375, 34.1875, 34, 34, 34, 34.0625, 34.1875, 34.1875, 34.3125, 34.25, 34.125, 34.1875, 34.1875, 34.375, 34.598213, 34.6875, 34.75, 34.5625, 34.5, 34.517857, 34.450001, 34.455357, 34.4375, 34.25, 34.375, 34.375, 34.25, 34.151787, 34.0625, 33.9375, 34.25, 34.375, 34.5625, 34.75, 34.75, 34.875, 34.9375, 35, 35, 35, 35, 34.9375, 34.875, 34.875, 34.875, 34.9375, 35.1875, 35.1875, 35.1875, 35.1875, 35, 34.875, 34.9375, 34.9375, 34.9375, 35, 34.8125, 34.75, 34.8125, 34.794643, 34.8125, 34.901787, 35.026787, 35.0625, 35.125, 35.0625, 35, 34.9375, 34.9375, 34.916668, -10, -10, -10, -10, -10, -10, -10, -10, -10, -10, -10, -10, -10, -10, -10, -10, -10, -10, -10, -10, -10, -10, -10, -10, -10, 34, 34, 34.0625, 34.035713, 34.1875, 34.598213, 34.741074, 34.741074, 34.375, 34.125, 33.875, 33.8125, 33.75, 33.9375, 34.142857, 34.098213, 33.934525, 33.892857, 33.8125, 33.875, 33.875, 34.017857, 34.270832, 34.303574, 34.469643, 34.535713, 34.428574, 34.3125, 33.9375, 33.642857, 33.625, 33.6875, 33.875, 34.0625, 34.125, 34, 33.875, 33.75, 33.75, 33.910713, 34.0625, 34.1875, 34, 33.892857, 33.875, 33.9375, 34.169643, 34.375, 34.5625, 34.410713, 34.232143, 34.1875, 33.875, 33.875, 33.8125, 33.776787, 34.107143, 34.107143, 34.0625, 34.0625, 34.151787, 34.107143, 34.1875, 34.1875, 34.125, 34.25, 34.25, 34.125, 34.125, 33.9375, 33.875, 33.875, 33.8125, 33.875, 34, 34.0625, 34.07143, 33.916668, 33.916668, 34.125, 34.169643, 34.0625, 34, 34.125, 34.1875, 34.25, 34.3125, 34.1875, 34.0625, 34.1875, 34.035713, 33.964287, 33.9375, 33.8125, 34.0625, 34.25, 34.5, 34.6875, 34.8125, 34.767857, 34.489582, 34.477676, 34.388393, 34.272324, 34.0625, 34, 33.9375, 34, 34, 33.9375, 33.875, 33.875, 33.9375, 34.035713, 34.0625, 34.0625, 34, 34, 34, 34.0625, 34.0625, 33.919643, 33.862499, 33.928574, 34.035713, 34.25, 34.214287, 34.625, 35.020832, 35.107143, 35.0625, 34.875, 34.5625, 34.375, 34.25, 34.1875, 34.125, 34, 34, 34.214287, 34.294643, 34.25, 34.089287, 34, 33.9375, 34, 34.0625, 34.151787, 34.223213, 34.125, 34.0625, 34, 34.1875, 34.321426, 34.142857, 34.071426, 33.9375, 33.9375, 34.125, 34.25, 34.375, 34.375, 34.25, 34.125, 34, 34.0625, 34.0625, 34.0625, 34, 33.875, 34.008926, 34.1875, 34.107143, 34.0625, 34.0625, 34.035713, 34.15625, 34.28125, 34.21875, 34.21875, 34.1875, 34.0625, 34, 34, 33.9375, 33.9375, 34, 34, 34.0625, 34.0625, 34, 34.0625, 34.1875, 34.3125, 34.375, 34.3125, 34.1875, 34.0625, 34, 34, 34, 34, 34.0625, 34.0625, 34.125, 34.375, 34.5625, 34.6875, 34.75, 34.625, 34.4375, 34.5, 34.5, 34.3125, 34.1875, 34, 33.9375, 34.035713, 34.25, 34.4375, 34.625, 34.8125, 34.6875, 34.625, 34.625, 34.625, 34.75, 34.875, 34.875, 34.9375, 35, 34.9375, 34.8125, 34.75, 34.75, 34.8125, 34.9375, 34.875, 34.6875, 34.5, 34.375, 34.526787, 34.857143, 35.044643, 34.9375, 34.75, 34.5, 34.375, 34.428574, 34.3125, 34.375, 34.3125, 34.25, 34.125, 34.058037, 34.09375, 34.200893, 34.15625, 34.3125, 34.3125, 34.419643, 34.549999, 34.678574, 34.803574, 35, 35, 35.0625, 35.125, 35, 35, 35, 35.0625, 35.125, 35, 34.866074, 34.541668, 34.550598, 34.9375, 35, 35.0625, 34.6875, 34.4375, 34.1875, 34, 34, 34, 34.0625, 34.125, 34.1875, 34.375, 34.375, 34.3125, 34.3125, 34.3125, 34.5, 34.785713, 34.9375, 35, 34.8125, 34.6875, 34.642857, 34.575001, 34.517857, 34.5, 34.3125, 34.375, 34.3125, 34.1875, 34.089287, 34.0625, 34.0625, 34.375, 34.5625, 34.75, 34.9375, 34.9375, 35, 34.9375, 34.9375, 34.9375, 34.9375, 35, 34.9375, 34.875, 34.875, 34.875, 34.9375, 35.1875, 35.1875, 35.125
-10, -10, -10, -10, -10, -10, -10, -10, -10, -10, 34, 34, 34.125, 34.098213, 34.1875, 34.491074, 34.616074, 34.616074, 34.375, 34.25, 34, 34, 33.9375, 34.0625, 34.205357, 34.0625, 33.872025, 33.830357, 33.8125, 33.9375, 34, 34.1875, 34.25, 34.25893, 34.407143, 34.410713, 34.428574, 34.3125, 33.9375, 33.705357, 33.625, 33.6875, 33.875, 34.0625, 34.125, 34.0625, 34, 33.9375, 33.9375, 34.098213, 34.25, 34.375, 34.1875, 34.017857, 33.9375, 34, 34.205357, 34.276787, 34.4375, 34.160713, 34.044643, 34.0625, 33.875, 33.9375, 33.9375, 33.875, 34, 34, 33.875, 33.964287, 34.125, 34.044643, 34.1875, 34.125, 34.125, 34.1875, 34.1875, 34.0625, 34.0625, 33.9375, 33.8125, 33.8125, 33.75, 33.8125, 33.9375, 33.9375, 34, 33.9375, 34, 34.0625, 34.089287, 33.791668, 33.633926, 33.6875, 33.8125, 33.9375, 34.0625, 34, 33.9375, 34.0625, 33.973213, 33.901787, 33.9375, 33.875, 34.0625, 34.1875, 34.3125, 34.4375, 34.625, 34.660713, 34.620537, 34.59375, 34.424107, 34.441963, 34.169643, 34.125, 33.9375, 33.9375, 33.9375, 33.875, 33.875, 33.875, 33.9375, 34.035713, 34.0625, 34.125, 34.0625, 34.0625, 34.0625, 34, 33.9375, 33.8125, 33.8125, 33.75, 33.857143, 34, 34.1875, 34.5625, 35.065475, 35.169643, 35.1875, 34.875, 34.5625, 34.4375, 34.3125, 34.375, 34.375, 34.25, 34.1875, 34.339287, 34.357143, 34.25, 34.089287, 34, 33.9375, 34, 34.0625, 34.089287, 34.160713, 34.0625, 34, 34, 34.1875, 34.321426, 34.205357, 34.133926, 34, 34, 34.125, 34.1875, 34.25, 34.25, 34.125, 34.0625, 34.0625, 34.125, 34.125, 34.0625, 33.9375, 33.8125, 33.821426, 34, 33.9375, 34, 34, 34, 34.15625, 34.34375, 34.46875, 34.504463, 34.330357, 34.133926, 34, 34, 33.9375, 33.875, 33.875, 33.875, 33.9375, 34, 34, 34.0625, 34.1875, 34.375, 34.4375, 34.375, 34.25, 34.125, 34.0625, 34.0625, 34.0625, 33.9375, 33.9375, 33.9375, 34, 34.25, 34.4375, 34.625, 34.75, 34.6875, 34.5625, 34.5, 34.4375, 34.223213, 33.955357, 33.830357, 33.875, 34.142857, 34.4375, 34.6875, 34.75, 34.8125, 34.6875, 34.625, 34.6875, 34.75, 34.8125, 34.875, 34.875, 34.9375, 35, 35, 34.9375, 34.9375, 34.9375, 34.9375, 35, 34.9375, 34.8125, 34.6875, 34.5, 34.589287, 34.857143, 34.919643, 34.875, 34.75, 34.5625, 34.5, 34.616074, 34.4375, 34.5, 34.5, 34.5, 34.4375, 34.370537, 34.40625, 34.450893, 34.40625, 34.5, 34.5625, 34.544643, 34.462502, 34.741074, 34.803574, 34.973213, 34.901787, 35.0625, 35.0625, 34.892857, 34.892857, 34.875, 34.9375, 35.0625, 34.848213, 34.651787, 34.625, 34.571426, 34.9375, 35, 34.9375, 34.625, 34.375, 34.125, 34, 34, 34.0625, 34.0625, 34.0625, 34.1875, 34.3125, 34.4375, 34.5, 34.5, 34.5625, 34.75, 34.973213, 35.0625, 35.0625, 34.875, 34.75, 34.705357, 34.700001, 34.580357, 34.5625, 34.375, 34.3125, 34.25, 34.1875, 34.1875, 34.25, 34.3125, 34.5625, 34.6875, 34.8125, 34.9375, 34.9375, 35, 34.9375, 34.9375, 34.9375, 34.9375, 35, 34.9375, 34.875, 34.875, 34.875, 34.9375, 35.125, 35.125, 35.0625, 35, 34.955357, 35, 35.0625, 35.125, 34.9375, 34.9375, 34.75, 34.625, 34.6875, 34.732143, 34.75, 34.839287, 34.919643, 34.875, 34.9375, 34.9375, 34.9375, 34.9375, 34.9375, 34.916668, -10, -10, -10, -10, -10, -10, -10, -10, -10, -10, -10, -10, -10, -10, -10, -10, -10, -10, -10, -10, -10, -10, -10, -10, -10, 34, 34, 34.0625, 34.0625, 34.1875, 34.3125, 34.5, 34.5625, 34.5, 34.375, 34.125, 34.0625, 34, 34.0625, 34.160713, 34.017857, 34.017857, 34, 33.9375, 34, 34, 34.125, 34.125, 34.151787, 34.357143, 34.232143, 34.25, 34.125, 33.875, 33.8125, 33.75, 33.875, 34.0625, 34.1875, 34.25, 34.1875, 34.125, 34.0625, 34, 34.0625, 34.1875, 34.3125, 34.25, 34.080357, 33.9375, 33.875, 33.955357, 34.07143, 34.241074, 34.035713, 33.919643, 34, 33.9375, 34, 34, 33.9375, 34, 34.125, 34.0625, 34.151787, 34.375, 34.232143, 34.3125, 34.25, 34.25, 34.25, 34.3125, 34.1875, 34.125, 34, 33.875, 33.9375, 33.875, 33.875, 33.875, 33.75, 33.75, 33.6875, 33.75, 33.875, 33.964287, 33.666668, 33.508926, 33.5, 33.5625, 33.75, 33.8125, 33.8125, 33.75, 33.8125, 33.9375, 34.044643, 34.125, 34.1875, 34.1875, 34.1875, 34.1875, 34.1875, 34.4375, 34.535713, 34.526787, 34.5625, 34.330357, 34.285713, 34.044643, 34.0625, 33.973213, 34, 34, 33.875, 33.875, 33.875, 33.9375, 34.035713, 34.0625, 34.125, 34, 33.9375, 33.9375, 33.875, 33.875, 33.875, 33.875, 33.75, 33.6875, 33.714287, 33.848213, 34.125, 34.752975, 34.919643, 35.0625, 34.875, 34.625, 34.5625, 34.5, 34.625, 34.625, 34.5, 34.366074, 34.255955, 34.25, 34.125, 34.026787, 34, 33.9375, 34, 34, 34.026787, 34.098213, 34, 34, 34, 34.1875, 34.321426, 34.267857, 34.196426, 34.0625, 34.0625, 34.125, 34.125, 34.125, 34.1875, 34.0625, 34.0625, 34.125, 34.125, 34.125, 34.0625, 33.9375, 33.8125, 33.696426, 33.901787, 33.982143, 34.044643, 34.0625, 34, 34.09375, 34.21875, 34.46875, 34.712795, 34.580357, 34.383926, 34.125, 34.0625, 33.9375, 34, 34.0625, 34.125, 34.1875, 34.1875, 34.125, 34, 34.0625, 34.357143, 34.419643, 34.4375, 34.3125, 34.1875, 34.1875, 34.1875, 34.1875, 34, 33.9375, 33.9375, 34, 34.125, 34.25, 34.4375, 34.625, 34.6875, 34.625, 34.5, 34.375, 34.223213, 34.017857, 34.017857, 34.125, 34.392857, 34.6875, 34.875, 34.875, 34.875, 34.75, 34.75, 34.875, 35, 35, 35, 34.9375, 34.875, 34.875, 34.8125, 34.75, 34.8125, 34.875, 34.9375, 35, 35, 34.9375, 34.8125, 34.5625, 34.589287, 34.794643, 34.794643, 34.8125, 34.75, 34.6875, 34.8125, 34.928574, 34.6875, 34.6875, 34.625, 34.6875, 34.6875, 34.620537, 34.65625, 34.700893, 34.65625, 34.6875, 34.6875, 34.544643, 34.417858, 34.886906, 34.982143, 35.160713, 35.026787, 35.1875, 35.125, 34.955357, 34.955357, 34.875, 34.9375, 35, 34.848213, 34.714287, 34.75, 34.75, 34.9375, 35, 34.8125, 34.5625, 34.3125, 34.0625, 34, 34, 34.0625, 34.0625, 34.0625, 34.1875, 34.3125, 34.5, 34.625, 34.6875, 34.75, 34.875, 35.035713, 35.0625, 35.0625, 34.9375, 34.875, 34.892857, 34.950001, 34.830357, 34.8125, 34.5625, 34.375, 34.1875, 34.0625, 34.0625, 34.25, 34.4375, 34.6875, 34.8125, 34.875, 34.9375, 34.9375, 35, 34.9375, 34.9375, 34.9375, 34.9375, 35, 34.9375, 34.875, 34.875, 34.875, 34.9375, 35.0625, 35.0625, 35
-10, -10, -10, -10, -10, -10, -10, -10, -10, -10, 34, 34, 34, 34, 34.0625, 34.125, 34.3125, 34.375, 34.375, 34.3125, 34.125, 34.0625, 34, 34, 34.1875, 34.1875, 34.1875, 34.1875, 34, 34.0625, 34.0625, 34.25, 34.3125, 34.25, 34.3125, 34.125, 34.125, 34.125, 34.0625, 34.0625, 34, 34.125, 34.25, 34.3125, 34.375, 34.25, 34.125, 34.0625, 34, 34.0625, 34.125, 34.25, 34.3125, 34.3125, 34.25, 34.125, 33.973213, 33.94643, 34.053574, 33.973213, 34.026787, 34.125, 34.125, 34.1875, 34.1875, 34.125, 34.0625, 34.125, 34.0625, 34.151787, 34.267857, 34.125, 34.1875, 34.1875, 34.25, 34.3125, 34.4375, 34.3125, 34.25, 34.125, 34, 34.125, 34.1875, 34.1875, 34.125, 33.964287, 33.9375, 33.9375, 34.0625, 34.125, 34.107143, 33.791668, 33.633926, 33.625, 33.6875, 33.8125, 33.75, 33.75, 33.6875, 33.75, 34.0625, 34.232143, 34.4375, 34.5625, 34.4375, 34.3125, 34.125, 34, 34.125, 34.223213, 34.276787, 34.348213, 34.267857, 34.267857, 33.875, 33.955357, 33.848213, 33.9375, 34, 33.875, 33.9375, 33.9375, 34, 34.098213, 34.0625, 34.125, 34.0625, 34, 34, 33.9375, 33.875, 33.9375, 33.875, 33.8125, 33.8125, 33.776787, 33.973213, 34.125, 34.419643, 34.625, 34.8125, 34.75, 34.6875, 34.625, 34.544643, 34.612499, 34.803574, 34.741074, 34.616074, 34.327385, 33.979168, 33.830357, 33.776787, 33.9375, 34, 34.0625, 34, 33.964287, 34.035713, 33.9375, 34.0625, 34.125, 34.357143, 34.473213, 34.392857, 34.258926, 34.125, 34.0625, 34.0625, 34.0625, 34.0625, 34.1875, 34.125, 34.125, 34.1875, 34.125, 34.125, 34.125, 34.0625, 34, 33.875, 33.964287, 34.044643, 34.044643, 34.125, 34, 34.09375, 34.15625, 34.375, 34.619045, 34.549107, 34.477676, 34.3125, 34.25, 34.151787, 34.285713, 34.25, 34.267857, 34.25, 34.1875, 34.125, 33.9375, 33.9375, 34.232143, 34.267857, 34.3125, 34.25, 34.1875, 34.3125, 34.4375, 34.473213, 34.142857, 34.008926, 33.875, 33.8125, 33.875, 34, 34.223213, 34.4375, 34.5, 34.375, 34.25, 34.125, 34.035713, 33.892857, 33.955357, 34.1875, 34.517857, 34.875, 35.125, 35.0625, 35, 34.875, 34.8125, 34.875, 35.0625, 35.0625, 35.0625, 35, 34.8125, 34.6875, 34.625, 34.5625, 34.6875, 34.75, 34.8125, 34.9375, 34.9375, 34.9375, 34.8125, 34.625, 34.651787, 34.857143, 34.794643, 34.75, 34.6875, 34.625, 34.75, 34.9375, 34.875, 34.875, 34.9375, 34.9375, 34.875, 34.776787, 34.8125, 34.857143, 34.875, 34.9375, 34.9375, 34.732143, 34.542858, 35.011906, 35.107143, 35.223213, 35.089287, 35.1875, 35.0625, 34.955357, 34.955357, 34.875, 34.9375, 35, 34.910713, 34.839287, 34.875, 34.875, 35, 35, 34.8125, 34.5625, 34.375, 34.1875, 34.1875, 34.25, 34.3125, 34.3125, 34.25, 34.3125, 34.4375, 34.625, 34.8125, 34.9375, 34.9375, 34.9375, 35, 35, 35, 34.9375, 34.9375, 34.9375, 34.9375, 34.9375, 34.8125, 34.6875, 34.5, 34.375, 34.3125, 34.3125, 34.5, 34.6875, 34.875, 35, 35, 35, 35, 35, 34.9375, 34.9375, 34.9375, 34.9375, 35, 34.9375, 34.9375, 34.9375, 34.9375, 35, 35, 35, 34.9375, 34.8125, 34.892857, 35, 35, 35.125, 34.875, 34.75, 34.625, 34.4375, 34.5, 34.625, 34.8125, 35, 35.0625, 35, 34.9375, 34.9375, 34.9375, 35, 35, 35, -10, -10, -10, -10, -10, -10, -10, -10, -10, -10, -10, -10, -10, -10, -10, -10, -10, -10, -10, -10, -10, -10, -10, -10, -10, 34, 34, 34, 34, 34, 34, 34.125, 34.1875, 34.25, 34.3125, 34.1875, 34.125, 34.0625, 34, 34.125, 34.125, 34.125, 34.125, 34, 34.0625, 34.0625, 34.25, 34.3125, 34.3125, 34.4375, 34.25, 34.25, 34.1875, 34.125, 34.1875, 34.125, 34.25, 34.3125, 34.25, 34.3125, 34.1875, 34.0625, 34.0625, 34, 34.0625, 34.125, 34.25, 34.3125, 34.3125, 34.25, 34.0625, 33.910713, 33.82143, 33.803574, 33.8125, 34, 34.232143, 34.3125, 34.3125, 34.25, 34.125, 34.0625, 34.1875, 34.0625, 34.089287, 34.223213, 34.125, 34.1875, 34.1875, 34.1875, 34.1875, 34.3125, 34.25, 34.1875, 34.125, 34, 34.1875, 34.3125, 34.3125, 34.25, 34.026787, 33.9375, 33.9375, 34.0625, 34.125, 34.107143, 33.854168, 33.758926, 33.8125, 33.875, 33.9375, 33.75, 33.6875, 33.625, 33.6875, 34.0625, 34.232143, 34.4375, 34.5625, 34.4375, 34.25, 34.125, 34.087502, 34, 34.107143, 34.089287, 34.223213, 34.205357, 34.276787, 33.9375, 33.848213, 33.785713, 33.8125, 33.9375, 33.9375, 34.125, 34.125, 34.0625, 34.026787, 33.875, 33.9375, 34.0625, 34.107143, 34.125, 34.0625, 34, 34, 33.9375, 33.9375, 33.875, 33.839287, 33.973213, 33.9375, 34.169643, 34.3125, 34.5625, 34.6875, 34.75, 34.75, 34.544643, 34.451786, 34.616074, 34.616074, 34.678574, 34.345238, 34.059525, 34.017857, 34.0625, 34.25, 34.25, 34.1875, 34.125, 34.0625, 34.125, 34.0625, 34.0625, 34.125, 34.169643, 34.3125, 34.4375, 34.294643, 34.041668, 33.955357, 33.875, 34, 34.125, 34.3125, 34.375, 34.3125, 34.3125, 34.125, 34.0625, 34.0625, 34, 34, 33.875, 33.964287, 34.107143, 34.107143, 34.1875, 34.0625, 34.0625, 34.0625, 34.25, 34.494045, 34.517857, 34.571426, 34.5, 34.428574, 34.264286, 34.526787, 34.491074, 34.580357, 34.5, 34.4375, 34.3125, 34.0625, 34, 34.169643, 34.267857, 34.3125, 34.25, 34.3125, 34.4375, 34.5625, 34.598213, 34.205357, 34.071426, 33.910713, 33.705357, 33.633926, 33.696426, 34.119045, 34.294643, 34.375, 34.25, 34.125, 34.1875, 34.285713, 34.267857, 34.330357, 34.4375, 34.669643, 34.875, 35.125, 35.0625, 35, 34.9375, 34.875, 34.875, 35, 35, 35, 35, 34.875, 34.723213, 34.517857, 34.455357, 34.5625, 34.6875, 34.8125, 34.9375, 34.9375, 34.9375, 34.8125, 34.6875, 34.6875, 34.75, 34.625, 34.5, 34.4375, 34.375, 34.5, 34.6875, 34.6875, 34.75, 34.875, 35, 35.0625, 35.0625, 35.0625, 35, 35.0625, 35.125, 35.125, 35, 34.805359, 35.083332, 35.178574, 35.160713, 35.026787, 35.0625, 34.9375, 34.892857, 34.830357, 34.75, 34.75, 34.8125, 34.785713, 34.776787, 34.875, 34.875, 35, 35, 34.875, 34.6875, 34.5625, 34.4375, 34.4375, 34.5, 34.5625, 34.5625, 34.5, 34.5, 34.5625, 34.6875, 34.875, 35, 35, 35, 35, 35, 35, 34.9375, 34.9375, 34.9375, 34.9375, 35, 34.9375, 34.875, 34.75, 34.625, 34.5, 34.5, 34.625, 34.8125, 35, 35.0625, 35.0625, 35, 35, 35, 35, 35, 35, 35, 35, 34.9375, 34.9375, 34.9375, 34.9375, 35, 35, 35, 35
-10, -10, -10, -10, -10, -10, -10, -10, -10, -10, 34, 34, 34, 34, 34.0625, 34.125, 34.1875, 34.3125, 34.25, 34.1875, 34.125, 34, 34, 34, 34.125, 34.125, 34.125, 34.125, 34, 34.0625, 34.0625, 34.25, 34.375, 34.4375, 34.5, 34.3125, 34.1875, 34.0625, 34.0625, 34.125, 34.125, 34.25, 34.3125, 34.25, 34.3125, 34.1875, 34.0625, 34.125, 34.0625, 34.0625, 34.0625, 34, 34.0625, 34.1875, 34.223213, 34.0625, 33.9375, 33.857143, 33.803574, 33.875, 34, 34.232143, 34.232143, 34.125, 34.125, 34, 34.125, 34.3125, 34.25, 34.25, 34.25, 34.1875, 34.1875, 34.25, 34.25, 34.1875, 34.3125, 34.25, 34.1875, 34.125, 34, 34.1875, 34.3125, 34.3125, 34.25, 34.089287, 34, 34, 34.0625, 34, 34, 33.875, 33.875, 33.9375, 33.9375, 34.0625, 33.9375, 33.875, 33.8125, 33.8125, 34.0625, 34.232143, 34.375, 34.5, 34.375, 34.25, 34.3125, 34.373215, 34.1875, 34.113094, 34.1875, 34.392857, 34.4375, 34.294643, 33.892857, 33.723213, 33.785713, 33.875, 34, 34.0625, 34.25, 34.3125, 34.3125, 34.214287, 33.9375, 33.839287, 34, 34.151787, 34.1875, 34.1875, 34.0625, 34, 33.9375, 33.9375, 33.875, 33.901787, 34.035713, 33.9375, 34.0625, 34.125, 34.3125, 34.5, 34.6875, 34.6875, 34.482143, 34.326786, 34.366074, 34.366074, 34.553574, 34.345238, 34.122025, 34.142857, 34.125, 34.25, 34.3125, 34.3125, 34.25, 34.276787, 34.375, 34.133926, 34.133926, 34.125, 34.169643, 34.375, 34.4375, 34.294643, 33.979168, 33.767857, 33.75, 33.9375, 34.303574, 34.598213, 34.625, 34.455357, 34.3125, 34.0625, 34, 34, 33.9375, 33.9375, 33.875, 34.026787, 34.232143, 34.169643, 34.151787, 34, 33.9375, 33.9375, 34, 34.208332, 34.4375, 34.625, 34.625, 34.491074, 34.264286, 34.633926, 34.669643, 34.830357, 34.75, 34.625, 34.4375, 34.125, 34, 34.107143, 34.205357, 34.25, 34.1875, 34.3125, 34.5, 34.625, 34.660713, 34.392857, 34.258926, 34.098213, 33.892857, 33.758926, 33.758926, 34.119045, 34.232143, 34.25, 34.0625, 34.0625, 34.333332, 34.5, 34.6875, 34.75, 34.8125, 34.875, 35, 35.125, 35.125, 35.125, 35.0625, 35, 34.9375, 35, 35, 35, 35, 34.9375, 34.758926, 34.482143, 34.455357, 34.5, 34.6875, 34.8125, 34.9375, 34.9375, 34.9375, 34.8125, 34.75, 34.75, 34.75, 34.625, 34.4375, 34.375, 34.375, 34.5, 34.5625, 34.5625, 34.625, 34.8125, 35.0625, 35.125, 35.125, 35.0625, 34.9375, 35, 35.0625, 35, 34.9375, 34.892857, 35.020832, 35.116074, 35.125, 35.0625, 34.9375, 34.8125, 34.875, 34.75, 34.6875, 34.625, 34.5, 34.5, 34.625, 34.75, 34.875, 35, 35, 34.9375, 34.8125, 34.75, 34.6875, 34.6875, 34.75, 34.75, 34.75, 34.6875, 34.625, 34.6875, 34.75, 34.875, 35, 35, 35, 35, 35.0625, 35.125, 35.0625, 35, 34.901787, 34.875, 35, 35.0625, 35.0625, 35, 34.875, 34.75, 34.6875, 34.6875, 34.8125, 34.9375, 35, 35.0625, 35, 35, 35, 35, 35, 35, 35, 35, 34.9375, 34.9375, 34.9375, 34.9375, 35, 35, 35, 35, 34.9375, 34.9375, 34.8125, 34.75, 34.8125, 34.75, 34.8125, 34.75, 34.625, 34.625, 34.625, 34.75, 34.875, 34.9375, 35, 35, 35, 35, 35, 35, 35, -10, -10, -10, -10, -10, -10, -10, -10, -10, -10, -10, -10, -10, -10, -10, -10, -10, -10, -10, -10, -10, -10, -10, -10, -10, 34, 34, 34, 34, 34.0625, 34.125, 34.125, 34.25, 34.25, 34.1875, 34.1875, 34.0625, 34, 34, 34.0625, 34.0625, 34.0625, 34.0625, 34, 34.0625, 34.0625, 34.25, 34.375, 34.4375, 34.5, 34.3125, 34.1875, 34.0625, 34.0625, 34.125, 34.125, 34.1875, 34.1875, 34.125, 34.25, 34.1875, 34.205357, 34.482143, 34.395832, 34.229168, 34.133926, 34, 34.0625, 34.1875, 34.285713, 34.25, 34.1875, 34, 33.875, 33.9375, 34.125, 34.357143, 34.357143, 34.1875, 34.125, 34, 34.125, 34.25, 34.1875, 34.1875, 34.125, 34.0625, 34.0625, 34.125, 34.125, 34.0625, 34.1875, 34.125, 34.125, 34.125, 34, 34.125, 34.25, 34.25, 34.1875, 34.151787, 34.0625, 34.0625, 34.1875, 34.125, 34.125, 34.125, 34.125, 34.125, 34.125, 34.0625, 33.75, 33.75, 33.794643, 33.875, 34.0625, 34.125, 34.1875, 34.25, 34.1875, 34.1875, 34.3125, 34.435715, 34.1875, 33.988094, 34.125, 34.392857, 34.5625, 34.544643, 34.080357, 33.785713, 33.75, 33.8125, 33.9375, 34.0625, 34.25, 34.375, 34.4375, 34.339287, 34.0625, 33.901787, 34.125, 34.401787, 34.4375, 34.4375, 34.1875, 34, 33.9375, 33.9375, 33.9375, 33.9375, 34, 33.875, 33.875, 33.9375, 34.0625, 34.25, 34.5, 34.5625, 34.419643, 34.264286, 34.241074, 34.178574, 34.375, 34.428574, 34.229168, 34.267857, 34.1875, 34.25, 34.375, 34.375, 34.375, 34.401787, 34.5, 34.258926, 34.196426, 34.25, 34.294643, 34.5, 34.5625, 34.419643, 34.041668, 33.892857, 33.9375, 34.125, 34.553574, 34.723213, 34.6875, 34.455357, 34.1875, 34, 33.9375, 34, 34.0625, 34.125, 34.125, 34.1875, 34.1875, 34.0625, 34.026787, 34, 34, 34.0625, 34.0625, 34, 34.1875, 34.375, 34.5, 34.366074, 34.201786, 34.508926, 34.482143, 34.642857, 34.625, 34.5625, 34.4375, 34.25, 34.0625, 34, 34.098213, 34.125, 34.1875, 34.375, 34.5625, 34.678574, 34.585712, 34.50893, 34.4375, 34.285713, 34.080357, 34.008926, 33.946426, 34.306545, 34.294643, 34.1875, 34.0625, 34.125, 34.458332, 34.625, 34.75, 34.6875, 34.75, 34.875, 35.044643, 35.1875, 35.1875, 35.0625, 34.9375, 34.892857, 34.875, 34.875, 34.9375, 34.875, 34.9375, 35, 34.883926, 34.669643, 34.705357, 34.625, 34.6875, 34.6875, 34.6875, 34.75, 34.8125, 34.8125, 34.875, 34.875, 34.8125, 34.6875, 34.5, 34.4375, 34.5, 34.5625, 34.5625, 34.5625, 34.625, 34.8125, 35.125, 35.1875, 35.1875, 35.125, 34.875, 34.875, 34.9375, 34.9375, 34.9375, 34.875, 34.8125, 34.8125, 34.875, 34.9375, 34.8125, 34.6875, 34.75, 34.625, 34.5625, 34.5625, 34.5, 34.5, 34.6875, 34.8125, 34.875, 35, 35, 35, 34.9375, 34.9375, 34.875, 34.875, 34.9375, 34.9375, 35, 34.9375, 34.875, 34.875, 34.875, 34.875, 34.9375, 34.9375, 34.9375, 35, 35.0625, 35.125, 35, 34.875, 34.776787, 34.75, 34.875, 35, 35.0625, 35.125, 35.107143, 34.9375, 34.9375, 34.8125, 34.9375, 34.9375, 34.875, 34.875, 34.75, 34.8125, 34.875, 35, 35.0625, 35.0625, 35.0625, 35, 34.9375, 34.9375, 34.9375, 34.9375, 35, 34.9375, 34.875, 34.875
-10, -10, -10, -10, -10, -10, -10, -10, -10, -10, 34.125, 34.049999, 33.964287, 34, 34, 34.125, 34.125, 34.25, 34.25, 34.1875, 34.1875, 34.0625, 34, 34, 34, 34, 34, 34, 34, 34, 34, 34.125, 34.25, 34.375, 34.4375, 34.3125, 34.1875, 34.0625, 34, 34, 34, 34, 34, 34, 34.125, 34.125, 34.205357, 34.482143, 34.395832, 34.229168, 34.133926, 34, 34, 34.0625, 34.160713, 34.125, 34.125, 34, 33.875, 33.9375, 34.125, 34.357143, 34.357143, 34.1875, 34.0625, 33.9375, 34.0625, 34.1875, 34.1875, 34.25, 34.1875, 34.125, 34.1875, 34.098213, 34.026787, 33.9375, 33.9375, 34, 34, 34.0625, 34, 34.0625, 34.125, 34.125, 34.125, 34.25, 34.25, 34.3125, 34.366074, 34.174999, 34.232143, 34.1875, 34.25, 34.1875, 34.1875, 34.125, 33.9375, 33.9375, 33.982143, 34, 34, 34, 34, 34, 34, 34.0625, 34.25, 34.498215, 34.3125, 34.175594, 34.3125, 34.544643, 34.625, 34.5625, 34.25, 33.892857, 33.875, 33.875, 34, 34.125, 34.25, 34.375, 34.375, 34.276787, 34.0625, 33.964287, 34.1875, 34.526787, 34.5625, 34.5, 34.25, 34, 34, 34, 34, 34, 34, 33.875, 33.875, 33.875, 33.9375, 34.125, 34.3125, 34.4375, 34.4375, 34.339287, 34.1875, 34.125, 34.25, 34.375, 34.5, 34.5625, 34.4375, 34.375, 34.375, 34.3125, 34.3125, 34.401787, 34.5, 34.321426, 34.321426, 34.375, 34.375, 34.5, 34.5, 34.357143, 33.979168, 33.955357, 34.0625, 34.3125, 34.803574, 34.848213, 34.75, 34.455357, 34.125, 34, 33.9375, 33.9375, 34.026787, 34.232143, 34.232143, 34.25, 34.1875, 34, 33.964287, 34, 34, 34.0625, 34, 33.9375, 34.0625, 34.1875, 34.3125, 34.178574, 33.987499, 34.223213, 34.294643, 34.5, 34.5625, 34.5625, 34.375, 34.25, 34.0625, 33.9375, 34.125, 34.125, 34.25, 34.5, 34.5625, 34.553574, 34.362499, 34.428574, 34.428574, 34.410713, 34.330357, 34.258926, 34.196426, 34.458332, 34.419643, 34.3125, 34.25, 34.375, 34.708332, 34.8125, 34.9375, 34.8125, 34.8125, 34.9375, 34.982143, 35.0625, 35.0625, 34.9375, 34.8125, 34.830357, 34.875, 34.875, 35, 34.9375, 35, 35.0625, 35.035713, 34.892857, 34.892857, 34.75, 34.6875, 34.625, 34.5625, 34.6875, 34.8125, 34.9375, 35, 35, 34.8125, 34.625, 34.517857, 34.645832, 34.708332, 34.604168, 34.446426, 34.375, 34.5, 34.6875, 35, 35.125, 35.125, 35.0625, 34.8125, 34.75, 34.8125, 34.875, 34.973213, 34.875, 34.776787, 34.75, 34.875, 34.9375, 34.8125, 34.6875, 34.6875, 34.625, 34.5, 34.5, 34.4375, 34.4375, 34.6875, 34.8125, 34.875, 35, 35, 35, 35, 35, 34.9375, 35, 35.0625, 35.0625, 35.125, 35.0625, 35, 35, 35, 34.875, 34.8125, 34.8125, 34.8125, 34.9375, 35.0625, 35.125, 35, 34.875, 34.776787, 34.75, 34.875, 35, 35.125, 35.25, 35.214287, 34.9375, 34.9375, 34.75, 34.9375, 34.96875, 34.96875, 34.946426, 34.678574, 34.705357, 34.75, 34.9375, 35.0625, 35.0625, 35.125, 35.0625, 35.0625, 35.0625, 35, 35, 35, 34.9375, 34.875, 34.875, 34.875, 34.9375, 34.75, 34.5625, 34.5625, 34.5625, 34.8125, 35, 35, 35, 34.9375, 34.8125, 34.8125, 34.75, 34.8125, 34.9375, 34.9375, 35, 35, 35, 35, -10, -10, -10, -10, -10, -10, -10, -10, -10, -10, -10, -10, -10, -10, -10, -10, -10, -10, -10, -10, -10, -10, -10, -10, -10, 34.125, 34.049999, 33.964287, 34, 34, 34.125, 34.125, 34.25, 34.25, 34.1875, 34.1875, 34.0625, 34, 34, 34, 34, 34.0625, 34.125, 34.125, 34.125, 34.0625, 34.0625, 34.125, 34.1875, 34.1875, 34.125, 34.0625, 34, 34, 34, 34, 34, 34, 34, 34.0625, 34.0625, 34.142857, 34.419643, 34.395832, 34.291668, 34.258926, 34.0625, 34.125, 34.1875, 34.223213, 34.25, 34.1875, 34.0625, 33.9375, 34, 34.125, 34.1875, 34.232143, 34.0625, 34, 33.875, 33.9375, 34, 34.0625, 34.294643, 34.3125, 34.375, 34.4375, 34.285713, 34.151787, 34.0625, 34, 34.0625, 34.125, 34.15625, 34.09375, 34.09375, 34.03125, 34, 34, 34.25, 34.375, 34.4375, 34.491074, 34.237499, 34.232143, 34.1875, 34.25, 34.125, 34.125, 34.125, 34.0625, 34.125, 34.232143, 34.1875, 34.0625, 34.0625, 34, 34, 34, 34.125, 34.25, 34.348213, 34.375, 34.229168, 34.4375, 34.669643, 34.6875, 34.5625, 34.3125, 34.0625, 34, 34.0625, 34.1875, 34.25, 34.3125, 34.375, 34.375, 34.3125, 34.1875, 34.151787, 34.25, 34.482143, 34.5, 34.3125, 34.125, 33.9375, 33.9375, 34, 34, 34, 34, 33.9375, 33.9375, 33.9375, 33.9375, 34, 34.125, 34.3125, 34.5, 34.5, 34.375, 34.3125, 34.3125, 34.375, 34.5, 34.5, 34.375, 34.375, 34.375, 34.3125, 34.3125, 34.339287, 34.4375, 34.321426, 34.383926, 34.5, 34.5, 34.5625, 34.4375, 34.3125, 34.1875, 34.125, 34.3125, 34.4375, 34.741074, 34.723213, 34.5, 34.330357, 34.0625, 34, 34, 33.9375, 34.026787, 34.232143, 34.232143, 34.25, 34.1875, 34, 34.026787, 34.0625, 34.0625, 34.125, 34, 33.9375, 34, 34.0625, 34.125, 33.9375, 33.875, 33.982143, 34.053574, 34.1875, 34.25, 34.25, 34.125, 34.125, 34, 33.9375, 34.0625, 34.0625, 34.1875, 34.4375, 34.5625, 34.553574, 34.424999, 34.491074, 34.428574, 34.4375, 34.5, 34.5625, 34.5625, 34.625, 34.5625, 34.4375, 34.4375, 34.625, 34.895832, 34.9375, 35, 34.8125, 34.8125, 34.9375, 35.044643, 35.125, 35.0625, 34.9375, 34.75, 34.830357, 35, 35, 35.125, 35, 34.9375, 34.964287, 35.07143, 35.03125, 35.09375, 34.90625, 34.75, 34.625, 34.5625, 34.6875, 34.8125, 34.9375, 35, 35, 34.8125, 34.6875, 34.642857, 34.770832, 34.833332, 34.729168, 34.571426, 34.5, 34.6875, 34.875, 35.107143, 35.125, 35.125, 35, 34.75, 34.5625, 34.5625, 34.625, 34.785713, 34.8125, 34.776787, 34.75, 34.9375, 35, 34.9375, 34.8125, 34.75, 34.75, 34.625, 34.6875, 34.625, 34.625, 34.8125, 34.8125, 34.875, 34.9375, 34.9375, 35, 35, 35, 34.9375, 35, 35.0625, 35.0625, 35.125, 35.0625, 35, 35, 35, 34.8125, 34.6875, 34.6875, 34.625, 34.8125, 35, 35.0625, 34.9375, 34.8125, 34.714287, 34.6875, 34.875, 35, 35.125, 35.25, 35.151787, 34.875, 34.875, 34.6875, 34.875, 34.9375, 35, 35.040176, 34.834824, 34.830357, 34.8125, 34.9375, 35.0625, 35.0625, 35.125, 35.0625, 35.125, 35.125, 35.0625, 35.0625, 35, 34.9375, 34.875, 34.875
-10, -10, -10, -10, -10, -10, -10, -10, -10, -10, 34.125, 34.049999, 33.964287, 34, 34, 34.0625, 34.0625, 34.125, 34.125, 34.125, 34.125, 34.0625, 34, 34, 34, 34, 34.0625, 34.125, 34.0625, 34.0625, 34, 33.9375, 34, 34, 34, 34, 34, 34, 34, 34, 34.0625, 34.0625, 34.0625, 34.0625, 34.0625, 34.0625, 34.142857, 34.357143, 34.333332, 34.291668, 34.258926, 34.1875, 34.25, 34.25, 34.25, 34.25, 34.1875, 34.0625, 33.9375, 34, 34.0625, 34.0625, 34.125, 34.0625, 33.9375, 33.8125, 33.6875, 33.6875, 33.75, 34.0625, 34.357143, 34.491074, 34.625, 34.473213, 34.339287, 34.25, 34.125, 34.125, 34.125, 34.15625, 34.09375, 34.03125, 33.96875, 33.9375, 33.875, 34.125, 34.25, 34.3125, 34.428574, 34.237499, 34.232143, 34.25, 34.3125, 34.1875, 34.1875, 34.1875, 34.0625, 34.125, 34.232143, 34.125, 34.0625, 34.0625, 34, 34.0625, 34.125, 34.25, 34.25, 34.1875, 34.25, 34.25, 34.4375, 34.625, 34.5625, 34.4375, 34.25, 34.0625, 34.0625, 34.1875, 34.3125, 34.375, 34.375, 34.3125, 34.3125, 34.25, 34.1875, 34.25, 34.25, 34.375, 34.375, 34.1875, 34.125, 34.0625, 34.0625, 34.125, 34.0625, 34, 34, 33.9375, 33.9375, 33.9375, 34, 34.1875, 34.348213, 34.5625, 34.6875, 34.5625, 34.375, 34.276787, 34.357143, 34.428574, 34.5625, 34.5, 34.375, 34.446426, 34.512501, 34.330357, 34.4375, 34.3125, 34.4375, 34.5, 34.5, 34.6875, 34.625, 34.5625, 34.4375, 34.3125, 34.25, 34.3125, 34.5, 34.5, 34.5625, 34.375, 34.1875, 34.1875, 34.035713, 34.0625, 34.0625, 33.9375, 34.089287, 34.294643, 34.294643, 34.25, 34.125, 34.0625, 34.1875, 34.3125, 34.3125, 34.25, 34.0625, 33.9375, 33.9375, 33.9375, 34, 33.875, 33.875, 33.875, 33.9375, 34.0625, 34.125, 34.1875, 34.0625, 34.0625, 34, 33.9375, 34.0625, 34.0625, 34.1875, 34.4375, 34.5625, 34.553574, 34.424999, 34.428574, 34.241074, 34.25, 34.375, 34.544643, 34.6875, 34.8125, 34.75, 34.6875, 34.75, 34.875, 34.9375, 34.9375, 34.9375, 34.75, 34.75, 34.875, 34.982143, 35.125, 35.0625, 34.9375, 34.75, 34.830357, 35, 35, 35.125, 35, 34.9375, 34.901787, 35.035713, 35.066963, 35.09375, 34.96875, 34.75, 34.625, 34.5625, 34.6875, 34.8125, 34.9375, 35, 35, 34.875, 34.8125, 34.830357, 34.958332, 34.958332, 34.791668, 34.633926, 34.5625, 34.75, 34.9375, 35.107143, 35.125, 35.125, 34.9375, 34.6875, 34.4375, 34.375, 34.5, 34.723213, 34.8125, 34.839287, 34.8125, 34.9375, 35, 35, 34.9375, 34.875, 34.9375, 34.8125, 34.875, 34.875, 34.875, 35, 34.9375, 34.9375, 34.9375, 34.9375, 35, 35, 35, 34.9375, 35, 35.0625, 35.0625, 35.125, 35, 34.9375, 34.9375, 34.9375, 34.8125, 34.6875, 34.6875, 34.625, 34.8125, 34.9375, 34.9375, 34.8125, 34.75, 34.75, 34.75, 34.9375, 35, 35.125, 35.25, 35.089287, 34.75, 34.6875, 34.5625, 34.8125, 34.9375, 35, 34.977676, 34.709824, 34.705357, 34.75, 34.875, 35.0625, 35.0625, 35.125, 35.0625, 35.125, 35.125, 35.0625, 35.0625, 35, 34.9375, 34.875, 34.875, 34.875, 34.9375, 34.875, 34.75, 34.6875, 34.625, 34.75, 34.875, 35.0625, 35.125, 35.125, 35, 34.9375, 34.875, 34.875, 35, 34.9375, 35, 35, 35, 35, -10, -10, -10, -10, -10, -10, -10, -10, -10, -10, -10, -10, -10, -10, -10, -10, -10, -10, -10, -10, -10, -10, -10, -10, -10, 34.125, 34.049999, 33.964287, 34, 34.0625, 34.125, 34.125, 34.0625, 33.9375, 33.9375, 33.9375, 34, 34, 34, 34, 34, 34.0625, 34.125, 34.0625, 34.0625, 34, 33.9375, 34, 34, 34, 34, 34, 34, 34, 34, 34.125, 34.125, 34.125, 34.125, 34, 34, 34, 34.0625, 34.0625, 34.25, 34.3125, 34.25, 34.3125, 34.3125, 34.3125, 34.3125, 34.25, 34.0625, 33.9375, 33.9375, 33.9375, 33.9375, 34, 33.9375, 33.8125, 33.6875, 33.625, 33.794643, 33.857143, 34.112499, 34.464287, 34.491074, 34.625, 34.348213, 34.232143, 34.333332, 34.145832, 34.0625, 34.0625, 34.03125, 34.15625, 34.09375, 34.03125, 33.9375, 33.8125, 33.9375, 34.080357, 34.357143, 34.410713, 34.299999, 34.357143, 34.270832, 34.166668, 34.0625, 34, 34.1875, 34.3125, 34.3125, 34.4375, 34.25, 34.125, 34.0625, 33.875, 33.955357, 34.208332, 34.294643, 34.3125, 34.1875, 34.1875, 34.25, 34.375, 34.5, 34.4375, 34.3125, 34.1875, 34.0625, 34.125, 34.3125, 34.5, 34.5625, 34.5625, 34.375, 34.3125, 34.3125, 34.169643, 34.1875, 34.1875, 34.1875, 34.25, 34.0625, 34.125, 34.1875, 34.25, 34.375, 34.25, 34.125, 34.0625, 34, 34, 34, 34.0625, 34.1875, 34.348213, 34.5625, 34.625, 34.5, 34.375, 34.339287, 34.482143, 34.616074, 34.75, 34.6875, 34.625, 34.758926, 34.735714, 34.410713, 34.383926, 34.1875, 34.375, 34.4375, 34.5, 34.625, 34.5, 34.4375, 34.3125, 34.1875, 34.1875, 34.1875, 34.3125, 34.3125, 34.3125, 34.1875, 34.0625, 34.1875, 34.223213, 34.3125, 34.375, 34.125, 34.089287, 34.169643, 34.044643, 34.0625, 34, 34, 34.25, 34.375, 34.4375, 34.375, 34.1875, 34.0625, 34, 34, 34, 33.9375, 33.9375, 34, 34.125, 34.25, 34.3125, 34.3125, 34.125, 34.0625, 34, 33.9375, 34.0625, 34.0625, 34.125, 34.375, 34.5, 34.5, 34.5, 34.3125, 34.125, 34.098213, 34.1875, 34.535713, 34.741074, 34.9375, 35, 35, 35, 35.0625, 35, 34.9375, 34.9375, 34.8125, 34.8125, 34.875, 34.875, 35, 34.9375, 34.9375, 34.875, 34.9375, 35, 35, 35.0625, 35.0625, 35, 34.964287, 35.098213, 35.066963, 35.09375, 35.03125, 34.875, 34.8125, 34.8125, 34.875, 34.9375, 34.9375, 34.9375, 34.9375, 34.875, 34.8125, 34.830357, 34.958332, 34.895832, 34.791668, 34.696426, 34.6875, 34.875, 35.125, 35.169643, 35.125, 35.0625, 34.75, 34.5625, 34.375, 34.375, 34.5625, 34.848213, 34.875, 34.901787, 34.875, 34.875, 34.9375, 34.9375, 34.9375, 34.9375, 35, 34.9375, 34.9375, 34.9375, 34.9375, 35, 35, 35, 35, 35, 35, 35, 35, 35, 35, 35.089287, 35.160713, 35.0625, 34.892857, 34.830357, 34.9375, 34.9375, 34.9375, 34.75, 34.75, 34.6875, 34.8125, 34.9375, 34.9375, 34.875, 34.875, 34.875, 34.875, 35, 35, 35.0625, 35.125, 34.982143, 34.75, 34.6875, 34.625, 34.8125, 35, 35.125, 35.165176, 34.959824, 34.892857, 34.875, 34.875, 35, 35, 35.0625, 35.0625, 35.125, 35.125, 35.0625, 35.0625, 35, 35, 35.0625, 35.0625
-10, -10, -10, -10, -10, -10, -10, -10, -10, -10, 34, 34, 34, 34, 34.125, 34.125, 34.125, 34, 33.8125, 33.8125, 33.8125, 33.9375, 34, 34, 33.9375, 33.9375, 34, 34.0625, 34.0625, 34.0625, 34, 33.9375, 34, 34, 34, 34, 34, 34, 34, 34, 34.0625, 34, 34, 34.0625, 34.035713, 34.0625, 34.125, 34.1875, 34.1875, 34.375, 34.375, 34.25, 34.375, 34.4375, 34.375, 34.375, 34.3125, 34.125, 34.0625, 34.0625, 34, 33.9375, 34.0625, 34.0625, 34, 33.9375, 33.875, 34.044643, 34.035713, 34.049999, 34.401787, 34.366074, 34.5, 34.3125, 34.267857, 34.333332, 34.208332, 34.0625, 34.0625, 34.03125, 34.15625, 34.09375, 34.03125, 33.9375, 33.8125, 33.875, 34.017857, 34.294643, 34.419643, 34.4375, 34.4375, 34.395832, 34.166668, 34.125, 34, 34.1875, 34.25, 34.25, 34.375, 34.1875, 34.125, 34.0625, 33.875, 33.955357, 34.208332, 34.294643, 34.3125, 34.1875, 34.1875, 34.1875, 34.25, 34.3125, 34.3125, 34.3125, 34.25, 34.1875, 34.25, 34.4375, 34.625, 34.6875, 34.625, 34.4375, 34.4375, 34.5, 34.357143, 34.25, 34.125, 34.0625, 34.1875, 34.0625, 34.1875, 34.3125, 34.375, 34.5625, 34.4375, 34.25, 34.125, 34, 34, 34.0625, 34.125, 34.25, 34.410713, 34.5625, 34.5625, 34.4375, 34.3125, 34.214287, 34.357143, 34.491074, 34.625, 34.625, 34.625, 34.758926, 34.798214, 34.446426, 34.348213, 34.1875, 34.375, 34.5, 34.5, 34.625, 34.4375, 34.375, 34.3125, 34.25, 34.3125, 34.3125, 34.4375, 34.303574, 34.0625, 34, 33.875, 34.125, 34.285713, 34.4375, 34.5625, 34.375, 34.25, 34.125, 33.9375, 33.9375, 33.9375, 34, 34.25, 34.375, 34.5, 34.5, 34.4375, 34.375, 34.3125, 34.3125, 34.1875, 34.0625, 34, 34.0625, 34.25, 34.4375, 34.5625, 34.5625, 34.4375, 34.375, 34.3125, 34.25, 34.1875, 34.125, 34.0625, 34.25, 34.5, 34.5625, 34.625, 34.375, 34.1875, 34.160713, 34.25, 34.660713, 34.803574, 35.0625, 35.1875, 35.1875, 35.1875, 35.125, 35, 35, 35, 34.9375, 34.9375, 34.9375, 34.9375, 35, 34.875, 34.875, 34.875, 34.9375, 35, 35, 35.0625, 35.169643, 35.1875, 35.276787, 35.383926, 35.21875, 35.21875, 35.03125, 34.8125, 34.75, 34.857143, 34.857143, 34.875, 34.75, 34.6875, 34.6875, 34.6875, 34.6875, 34.75, 34.75, 34.75, 34.875, 34.875, 34.9375, 35.0625, 35.25, 35.294643, 35.1875, 35.0625, 34.6875, 34.5, 34.3125, 34.375, 34.5625, 34.75, 34.8125, 34.875, 34.875, 34.875, 35, 35, 35, 35, 35, 34.9375, 34.875, 34.875, 34.875, 34.9375, 35.0625, 35.0625, 35.0625, 35.0625, 35, 35, 35, 35, 34.9375, 34.964287, 34.973213, 34.8125, 34.705357, 34.705357, 34.875, 34.9375, 35, 34.875, 34.875, 34.8125, 34.875, 34.9375, 34.9375, 34.9375, 34.9375, 34.9375, 34.9375, 35, 35, 35, 35, 34.875, 34.75, 34.6875, 34.625, 34.75, 34.90625, 34.96875, 35.09375, 35.03125, 35.0625, 35.0625, 35, 35.0625, 35, 34.9375, 34.9375, 35, 35, 35.0625, 35.0625, 35, 35, 35.0625, 35.0625, 35.0625, 35.0625, 35, 35, 34.875, 34.8125, 34.875, 34.848213, 34.955357, 34.946426, 34.9375, 35, 34.9375, 34.964287, 35.0625, 35.0625, 35.0625, 35.0625, 35, 35, 35, -10, -10, -10, -10, -10, -10, -10, -10, -10, -10, -10, -10, -10, -10, -10, -10, -10, -10, -10, -10, -10, -10, -10, -10, -10, 34, 34, 34, 34, 34.125, 34.125, 34.125, 33.9375, 33.6875, 33.6875, 33.6875, 33.875, 33.9375, 33.9375, 33.8125, 33.8125, 33.875, 33.8125, 33.875, 33.875, 33.875, 33.9375, 34, 34, 34, 34, 34.0625, 34.125, 34.125, 34.1875, 34.1875, 34.0625, 34.0625, 34.125, 34.160713, 34.1875, 34.3125, 34.3125, 34.3125, 34.4375, 34.3125, 34.1875, 34.25, 34.375, 34.375, 34.375, 34.3125, 34.1875, 34.25, 34.25, 34.1875, 34.0625, 34.125, 34.125, 34.0625, 34.125, 34.125, 34.357143, 34.285713, 34.067856, 34.276787, 34.116074, 34.25, 34.125, 34.142857, 34.270832, 34.208332, 34.0625, 34, 33.9375, 34.0625, 34, 34, 33.9375, 33.75, 33.75, 33.830357, 34.169643, 34.419643, 34.5625, 34.75, 34.681545, 34.238094, 34.125, 34, 34.232143, 34.232143, 34.125, 34.1875, 34, 34.0625, 34, 33.875, 33.955357, 34.208332, 34.294643, 34.3125, 34.1875, 34.125, 34.125, 34.125, 34.125, 34.1875, 34.25, 34.25, 34.25, 34.375, 34.4375, 34.625, 34.6875, 34.5625, 34.4375, 34.5, 34.625, 34.544643, 34.375, 34.1875, 34.0625, 34.125, 34.125, 34.3125, 34.5, 34.625, 34.8125, 34.625, 34.375, 34.1875, 34, 34, 34.125, 34.25, 34.4375, 34.660713, 34.75, 34.6875, 34.5, 34.3125, 34.151787, 34.232143, 34.366074, 34.5, 34.5625, 34.544643, 34.425594, 34.43214, 34.071426, 34.098213, 34.0625, 34.25, 34.4375, 34.375, 34.5, 34.4375, 34.3125, 34.375, 34.375, 34.3125, 34.4375, 34.5, 34.428574, 34.285713, 34.008926, 33.875, 34, 34.160713, 34.4375, 34.5625, 34.5, 34.375, 34.1875, 34, 33.9375, 33.9375, 34, 34.1875, 34.375, 34.5625, 34.625, 34.6875, 34.625, 34.5625, 34.5, 34.3125, 34.1875, 34.0625, 34.125, 34.3125, 34.5625, 34.75, 34.8125, 34.75, 34.625, 34.5625, 34.5, 34.4375, 34.375, 34.3125, 34.4375, 34.625, 34.6875, 34.625, 34.4375, 34.3125, 34.223213, 34.375, 34.723213, 34.803574, 35.0625, 35.1875, 35.125, 35.0625, 35, 34.875, 34.9375, 35, 34.9375, 34.875, 34.8125, 34.8125, 34.875, 34.875, 34.9375, 34.9375, 34.9375, 34.9375, 34.9375, 35, 35.232143, 35.3125, 35.3125, 35.205357, 35.080357, 35.125, 34.9375, 34.705357, 34.5625, 34.607143, 34.607143, 34.625, 34.5, 34.4375, 34.4375, 34.4375, 34.4375, 34.5, 34.5625, 34.625, 34.75, 34.8125, 34.8125, 34.875, 35.0625, 35.125, 35.1875, 35, 34.6875, 34.5, 34.375, 34.5, 34.6875, 34.8125, 34.8125, 34.875, 34.875, 34.9375, 35.0625, 35.0625, 35, 34.9375, 34.9375, 34.8125, 34.75, 34.75, 34.75, 34.875, 35.125, 35.125, 35.125, 35.0625, 34.9375, 34.9375, 34.9375, 35, 34.9375, 34.964287, 34.910713, 34.6875, 34.517857, 34.517857, 34.75, 34.875, 35.0625, 35, 35.0625, 35.0625, 35.0625, 35.0625, 35, 35, 35, 35, 35, 35, 35, 35, 35, 34.9375, 34.875, 34.8125, 34.75, 34.8125, 34.875, 34.875, 34.9375, 34.9375, 35.0625, 35.125, 35.125, 35.125, 35, 34.9375, 34.9375, 34.9375, 34.9375, 35, 35, 35, 35, 35.0625, 35.0625
-10, -10, -10, -10, -10, -10, -10, -10, -10, -10, 34, 34, 34, 34, 34.0625, 34.0625, 34.0625, 33.875, 33.6875, 33.6875, 33.6875, 33.8125, 33.8125, 33.8125, 33.6875, 33.75, 33.875, 33.8125, 33.9375, 33.9375, 33.9375, 34, 34, 34, 34, 34, 34.0625, 34.1875, 34.160713, 34.151787, 34.125, 33.9375, 34, 34.0625, 34.160713, 34.1875, 34.3125, 34.3125, 34.375, 34.4375, 34.3125, 34.1875, 34.25, 34.348213, 34.205357, 34.205357, 34.125, 34.1875, 34.3125, 34.3125, 34.25, 34.0625, 34.125, 34.1875, 34.1875, 34.375, 34.5, 34.732143, 34.660713, 34.299999, 34.232143, 33.9375, 34, 33.875, 33.892857, 34.083332, 34.083332, 34, 34, 34, 34.125, 34.125, 34.1875, 34.125, 34.0625, 34, 34.080357, 34.419643, 34.607143, 34.8125, 34.9375, 34.806545, 34.238094, 34.0625, 34, 34.276787, 34.276787, 34.0625, 34.125, 33.9375, 34.0625, 34, 33.875, 33.892857, 34.083332, 34.169643, 34.1875, 34.125, 34.0625, 34, 34, 34, 34.125, 34.25, 34.3125, 34.3125, 34.4375, 34.419643, 34.464287, 34.5, 34.3125, 34.3125, 34.375, 34.625, 34.607143, 34.4375, 34.25, 34.0625, 34.125, 34.1875, 34.375, 34.5625, 34.75, 34.9375, 34.75, 34.5, 34.25, 34, 34, 34.125, 34.25, 34.375, 34.5625, 34.6875, 34.625, 34.5, 34.375, 34.1875, 34.125, 34.1875, 34.3125, 34.4375, 34.419643, 34.291668, 34.107143, 33.821426, 33.955357, 34.053574, 34.1875, 34.375, 34.375, 34.5, 34.5, 34.375, 34.4375, 34.4375, 34.4375, 34.625, 34.6875, 34.678574, 34.535713, 34.25, 33.9375, 34, 34.0625, 34.375, 34.5, 34.5, 34.375, 34.1875, 34, 33.9375, 33.9375, 34, 34.125, 34.3125, 34.5625, 34.625, 34.75, 34.6875, 34.5625, 34.5, 34.375, 34.25, 34.125, 34.25, 34.3125, 34.5, 34.75, 34.875, 34.973213, 34.9375, 34.875, 34.75, 34.6875, 34.625, 34.5625, 34.625, 34.75, 34.8125, 34.75, 34.625, 34.6875, 34.598213, 34.6875, 34.928574, 34.866074, 35.0625, 35.1875, 35.0625, 34.9375, 34.8125, 34.6875, 34.8125, 34.9375, 34.9375, 34.875, 34.8125, 34.8125, 34.875, 34.8125, 34.8125, 34.75, 34.75, 34.8125, 34.875, 35, 35.232143, 35.3125, 35.3125, 35.205357, 35.142857, 35.160713, 34.830357, 34.526787, 34.3125, 34.357143, 34.357143, 34.375, 34.25, 34.1875, 34.1875, 34.1875, 34.1875, 34.25, 34.3125, 34.375, 34.5, 34.625, 34.75, 34.910713, 35.0625, 35.0625, 35.0625, 34.8125, 34.625, 34.5625, 34.4375, 34.625, 34.75, 34.8125, 34.8125, 34.875, 34.875, 34.9375, 35.0625, 35.0625, 35, 34.9375, 34.9375, 34.8125, 34.75, 34.75, 34.75, 34.875, 35.125, 35.125, 35.125, 35.0625, 34.9375, 34.9375, 34.9375, 35, 34.9375, 34.964287, 34.848213, 34.5625, 34.455357, 34.455357, 34.75, 34.9375, 35.0625, 35, 35.0625, 35.0625, 35.0625, 35.0625, 35, 35, 35, 35, 35, 35, 35, 35, 35, 35, 35, 35, 34.9375, 34.9375, 34.9375, 34.9375, 35, 35.0625, 35.25, 35.25, 35.25, 35.1875, 35, 34.9375, 34.9375, 34.9375, 35, 35.125, 35.125, 35.125, 35.0625, 35.0625, 35.0625, 35.0625, 35.0625, 35, 35, 34.9375, 34.9375, 35, 34.910713, 34.767857, 34.633926, 34.5625, 34.6875, 34.75, 34.839287, 35, 35, 35, 34.9375, 34.8125, 34.75, 34.75, -10, -10, -10, -10, -10, -10, -10, -10, -10, -10, -10, -10, -10, -10, -10, -10, -10, -10, -10, -10, -10, -10, -10, -10, -10, 34, 34, 34, 34, 34.0625, 34.0625, 34.0625, 33.9375, 33.75, 33.75, 33.75, 33.8125, 33.8125, 33.8125, 33.6875, 33.75, 33.875, 33.8125, 33.9375, 33.9375, 33.9375, 34, 34, 34, 34, 34, 34.0625, 34.1875, 34.223213, 34.214287, 34.125, 33.9375, 33.875, 33.9375, 34.098213, 34.125, 34.3125, 34.25, 34.3125, 34.3125, 34.1875, 34.125, 34.1875, 34.285713, 34.142857, 34.142857, 34.0625, 34.125, 34.25, 34.25, 34.1875, 34.0625, 34.125, 34.25, 34.3125, 34.5, 34.5625, 34.625, 34.553574, 34.3125, 34.1875, 34, 34.0625, 34, 34, 34, 33.9375, 33.875, 33.875, 34, 34.098213, 34.1875, 34.3125, 34.3125, 34.3125, 34.25, 34.25, 34.3125, 34.4375, 34.5625, 34.625, 34.535713, 34.133926, 34, 34, 34.276787, 34.433037, 34.34375, 34.383926, 34.053574, 34.071426, 34, 34, 34, 34.0625, 34.1875, 34.25, 34.25, 34.25, 34.125, 34.0625, 34.0625, 34.125, 34.25, 34.375, 34.375, 34.4375, 34.294643, 34.214287, 34.25, 34.0625, 34.1875, 34.25, 34.5, 34.5625, 34.5625, 34.4375, 34.25, 34.25, 34.25, 34.383926, 34.6875, 34.8125, 35, 34.8125, 34.5625, 34.3125, 34.125, 34.0625, 34.1875, 34.28125, 34.28125, 34.34375, 34.40625, 34.375, 34.3125, 34.25, 34.0625, 34, 34, 34.125, 34.25, 34.232143, 34.041668, 33.946426, 33.86607, 33.991074, 33.970238, 33.946426, 34.125, 34.1875, 34.375, 34.5, 34.4375, 34.5625, 34.625, 34.6875, 34.875, 34.9375, 34.928574, 34.785713, 34.5, 34.125, 34.125, 34.125, 34.3125, 34.375, 34.375, 34.25, 34.125, 34.0625, 34, 34.0625, 34.1875, 34.25, 34.375, 34.5, 34.5625, 34.625, 34.625, 34.5625, 34.4375, 34.375, 34.25, 34.125, 34.25, 34.3125, 34.4375, 34.714287, 34.982143, 35.142857, 35.1875, 35.125, 35, 34.9375, 34.8125, 34.6875, 34.6875, 34.75, 34.875, 34.875, 34.8125, 34.9375, 34.875, 35, 35.0625, 34.9375, 35.0625, 35.125, 34.9375, 34.75, 34.5625, 34.4375, 34.625, 34.8125, 34.875, 34.8125, 34.75, 34.75, 34.8125, 34.75, 34.6875, 34.5625, 34.5, 34.5625, 34.625, 34.75, 34.919643, 35.0625, 35.125, 35.080357, 35.205357, 35.223213, 34.830357, 34.419643, 34.125, 34.107143, 34.17857, 34.375, 34.25, 34.142857, 34.0625, 34, 34, 34.0625, 34.125, 34.1875, 34.25, 34.375, 34.5, 34.660713, 34.75, 34.75, 34.75, 34.625, 34.625, 34.6875, 34.625, 34.75, 34.8125, 34.8125, 34.875, 34.9375, 34.9375, 35, 35.0625, 35.0625, 35, 34.9375, 34.9375, 34.8125, 34.75, 34.75, 34.75, 34.8125, 35, 35, 35, 35, 34.9375, 35, 35.0625, 35.1875, 35.1875, 35.125, 34.875, 34.625, 34.5625, 34.5625, 34.75, 34.9375, 35, 35, 35.0625, 35.0625, 35.0625, 35.0625, 35, 35, 35, 35, 35, 35, 35, 35, 35, 35, 35, 35, 34.9375, 34.9375, 34.9375, 34.9375, 35, 35.0625, 35.3125, 35.375, 35.375, 35.3125, 35.0625, 34.9375, 34.875, 34.875, 34.9375, 35.0625, 35.125, 35.125, 35, 34.9375, 34.9375
-10, -10, -10, -10, -10, -10, -10, -10, -10, -10, 34, 34, 34, 34, 34.0625, 34.0625, 34.0625, 34, 33.875, 33.875, 33.875, 33.9375, 33.9375, 33.9375, 33.875, 33.8125, 33.875, 33.8125, 33.875, 33.9375, 33.9375, 34, 34, 34, 34, 34, 34.0625, 34.1875, 34.223213, 34.214287, 34.1875, 34.0625, 34, 34.0625, 34.125, 34.125, 34.25, 34.125, 34.1875, 34.1875, 34.125, 34.0625, 34.0625, 34.098213, 33.955357, 34.017857, 34, 34.0625, 34.1875, 34.25, 34.1875, 34.125, 34.1875, 34.1875, 34.1875, 34.3125, 34.3125, 34.375, 34.375, 34.3125, 34.1875, 33.991074, 33.8125, 33.8125, 33.857143, 33.9375, 33.9375, 33.875, 33.875, 34, 34.098213, 34.25, 34.375, 34.4375, 34.4375, 34.3125, 34.25, 34.1875, 34.25, 34.375, 34.4375, 34.348213, 34.008926, 33.875, 33.9375, 34.214287, 34.308037, 34.245537, 34.42857, 34.160713, 34.196426, 34.0625, 34, 34, 34.133926, 34.395832, 34.40625, 34.357143, 34.28125, 34.125, 34.0625, 34.125, 34.125, 34.1875, 34.3125, 34.25, 34.3125, 34.169643, 33.964287, 33.9375, 33.75, 33.8125, 33.875, 34.125, 34.25, 34.4375, 34.5, 34.3125, 34.25, 34.1875, 34.321426, 34.6875, 34.8125, 35, 34.8125, 34.625, 34.4375, 34.25, 34.1875, 34.25, 34.325893, 34.135418, 34.102676, 34.15625, 34.1875, 34.1875, 34.1875, 34.0625, 34, 34, 34.125, 34.25, 34.294643, 34.166668, 34.071426, 34.080357, 34.276787, 34.148811, 33.946426, 34.0625, 34.0625, 34.25, 34.375, 34.375, 34.5625, 34.625, 34.776787, 34.9375, 34.758926, 34.892857, 34.910713, 34.6875, 34.4375, 34.375, 34.3125, 34.4375, 34.375, 34.375, 34.3125, 34.1875, 34.1875, 34.0625, 34.0625, 34.1875, 34.3125, 34.5625, 34.645832, 34.479168, 34.4375, 34.25, 34.25, 34.125, 34.125, 34.125, 34.133926, 34.520832, 34.544643, 34.625, 34.776787, 35.044643, 35.267857, 35.3125, 35.25, 35.0625, 35, 34.875, 34.75, 34.6875, 34.625, 34.75, 34.8125, 34.8125, 35, 34.9375, 35, 35.0625, 34.9375, 35, 35, 34.8125, 34.5625, 34.375, 34.25, 34.4375, 34.6875, 34.8125, 34.8125, 34.75, 34.75, 34.8125, 34.875, 34.785713, 34.517857, 34.383926, 34.375, 34.4375, 34.5, 34.625, 34.75, 34.8125, 34.830357, 34.955357, 35.035713, 34.767857, 34.544643, 34.375, 34.25, 34.383926, 34.5625, 34.5, 34.392857, 34.1875, 34.0625, 34, 34, 34, 34, 34, 34.125, 34.25, 34.410713, 34.5, 34.5, 34.5, 34.5, 34.625, 34.75, 34.75, 34.8125, 34.8125, 34.8125, 34.9375, 35, 35, 35.0625, 35.0625, 35.0625, 35, 34.9375, 34.9375, 34.875, 34.875, 34.875, 34.875, 34.875, 34.9375, 34.9375, 34.9375, 34.9375, 34.9375, 35, 35.0625, 35.1875, 35.1875, 35.1875, 35.0625, 34.875, 34.8125, 34.75, 34.75, 34.875, 34.9375, 34.9375, 35.0625, 35.0625, 35.0625, 35.0625, 35, 35, 35, 35, 35, 35, 35, 35, 35, 35, 35, 35, 35, 35, 35, 35, 35, 35.0625, 35.25, 35.375, 35.4375, 35.4375, 35.3125, 35.178574, 34.854168, 34.830357, 34.875, 35, 35.125, 35.0625, 34.875, 34.8125, 34.8125, 34.875, 35, 35, 35, 35, 35, 35, 34.9375, 34.875, 34.8125, 34.75, 34.8125, 34.875, 34.9375, 35, 35, 34.9375, 34.875, 34.75, 34.5625, 34.450001, -10, -10, -10, -10, -10, -10, -10, -10, -10, -10, -10, -10, -10, -10, -10, -10, -10, -10, -10, -10, -10, -10, -10, -10, -10, 34, 34, 34, 34, 34.0625, 34.0625, 34.0625, 34.0625, 34, 34, 34, 34.0625, 34.0625, 34.0625, 34.0625, 33.9375, 33.9375, 33.9375, 33.9375, 34, 34, 34, 34, 34, 34, 34, 34, 34.0625, 34.098213, 34.089287, 34.1875, 34.125, 34.0625, 34.0625, 34, 34, 34.0625, 34, 34.0625, 34.0625, 34, 33.875, 33.875, 33.848213, 33.767857, 33.892857, 34, 34.125, 34.25, 34.3125, 34.1875, 34.125, 34.1875, 34.1875, 34.1875, 34.25, 34.1875, 34.1875, 34.1875, 34.1875, 34.125, 33.991074, 33.741074, 33.662498, 33.892857, 33.973213, 34.03125, 33.90625, 33.875, 34, 34.098213, 34.3125, 34.5, 34.625, 34.75, 34.625, 34.5625, 34.375, 34.25, 34.25, 34.125, 34.0625, 33.9375, 33.875, 33.9375, 34.107143, 34.263393, 34.370537, 34.61607, 34.410713, 34.258926, 34.026787, 33.9375, 33.9375, 34.196426, 34.458332, 34.40625, 34.32143, 34.21875, 34, 34, 34.125, 34.0625, 34.125, 34.25, 34.125, 34.1875, 34.107143, 33.839287, 33.875, 33.8125, 33.875, 33.9375, 34.0625, 34.0625, 34.25, 34.4375, 34.375, 34.4375, 34.4375, 34.508926, 34.75, 34.75, 34.875, 34.75, 34.625, 34.5, 34.3125, 34.1875, 34.25, 34.325893, 34.055061, 33.852676, 33.90625, 33.875, 34, 34.0625, 34, 33.9375, 33.875, 33.955357, 34.208332, 34.366074, 34.4375, 34.4375, 34.517857, 34.589287, 34.398811, 34.071426, 34.0625, 34.0625, 34.1875, 34.25, 34.25, 34.375, 34.4375, 34.651787, 34.75, 34.571426, 34.705357, 34.75, 34.803574, 34.6875, 34.6875, 34.625, 34.5625, 34.4375, 34.3125, 34.1875, 34.125, 34.125, 34.0625, 34.0625, 34.1875, 34.375, 34.625, 34.708332, 34.479168, 34.3125, 34, 33.875, 33.8125, 33.875, 34, 34.196426, 34.645832, 34.669643, 34.75, 34.839287, 35.044643, 35.267857, 35.25, 35.0625, 34.854168, 35, 34.910713, 34.78125, 34.59375, 34.5, 34.625, 34.8125, 34.875, 35.0625, 35.0625, 35.0625, 35.125, 35, 35, 35, 34.875, 34.625, 34.375, 34.1875, 34.3125, 34.5625, 34.8125, 35, 35, 35, 35, 34.9375, 34.785713, 34.517857, 34.383926, 34.3125, 34.3125, 34.375, 34.4375, 34.625, 34.8125, 34.9375, 35.0625, 34.973213, 34.705357, 34.464287, 34.3125, 34.3125, 34.446426, 34.625, 34.625, 34.455357, 34.25, 34.125, 34, 34, 34, 34, 34, 34.0625, 34.1875, 34.285713, 34.3125, 34.3125, 34.25, 34.375, 34.5625, 34.75, 34.8125, 34.8125, 34.8125, 34.8125, 34.9375, 35, 35, 35, 35, 35, 35, 34.9375, 34.875, 34.875, 34.875, 35, 35.035713, 34.901787, 34.9375, 34.875, 34.9375, 35, 35, 35.0625, 35.125, 35.1875, 35.25, 35.25, 35.1875, 35.0625, 35, 34.9375, 34.875, 34.9375, 34.9375, 34.9375, 35, 35, 35, 35, 35, 35, 35, 35, 35, 35, 35, 35, 35, 35, 35, 35, 35, 35, 35, 35, 35, 35, 35.0625, 35.1875, 35.28125, 35.40625, 35.46875, 35.397324, 35.032738, 34.830357, 34.875, 34.9375, 35.125, 35.0625, 34.875, 34.8125, 34.8125
-10, -10, -10, -10, -10, -10, -10, -10, -10, -10, 34, 34, 34.0625, 34.0625, 34.125, 34.125, 34.0625, 34.0625, 34, 34, 34, 34.125, 34.1875, 34.1875, 34.1875, 34, 33.9375, 33.9375, 34, 34.0625, 34.0625, 34.0625, 34, 34, 34, 34, 34, 34, 34.0625, 34.1875, 34.25, 34.25, 34.125, 34.0625, 34, 34, 34.0625, 34, 34.0625, 34.0625, 34, 33.875, 33.8125, 33.8125, 33.8125, 33.9375, 34.0625, 34.125, 34.25, 34.3125, 34.1875, 34.125, 34.1875, 34.125, 34.1875, 34.25, 34.125, 34.125, 34.0625, 34.0625, 34.0625, 33.991074, 33.741074, 33.662498, 33.892857, 33.973213, 34.09375, 34.03125, 34, 34.0625, 34.098213, 34.3125, 34.5, 34.6875, 34.8125, 34.6875, 34.625, 34.375, 34.1875, 34.0625, 33.9375, 33.9375, 33.9375, 33.9375, 33.9375, 34, 34.15625, 34.370537, 34.67857, 34.535713, 34.258926, 34.026787, 33.973213, 33.9375, 34.321426, 34.520832, 34.46875, 34.38393, 34.21875, 34.0625, 34.0625, 34.25, 34.1875, 34.125, 34.151787, 34.0625, 34.098213, 34.0625, 33.9375, 33.875, 33.9375, 33.9375, 33.9375, 34, 33.9375, 34.125, 34.375, 34.4375, 34.625, 34.625, 34.526787, 34.633926, 34.5, 34.6875, 34.6875, 34.625, 34.625, 34.5, 34.3125, 34.375, 34.388393, 34.055061, 33.790176, 33.78125, 33.75, 33.875, 34, 34, 34, 34, 34.142857, 34.458332, 34.678574, 34.6875, 34.6875, 34.6875, 34.482143, 34.220238, 33.883926, 33.9375, 34, 34.125, 34.1875, 34.1875, 34.25, 34.3125, 34.464287, 34.5625, 34.446426, 34.642857, 34.75, 34.875, 34.9375, 34.9375, 34.9375, 34.75, 34.5625, 34.375, 34.1875, 34.125, 34.125, 34.0625, 34.0625, 34.125, 34.375, 34.625, 34.708332, 34.541668, 34.3125, 34, 33.875, 33.8125, 33.8125, 33.9375, 34.133926, 34.520832, 34.607143, 34.75, 34.839287, 35.044643, 35.169643, 35.09375, 34.90625, 34.822918, 35.03125, 35.035713, 34.96875, 34.71875, 34.625, 34.6875, 34.8125, 34.8125, 34.9375, 34.875, 34.875, 35, 34.9375, 35, 35, 34.9375, 34.6875, 34.4375, 34.1875, 34.25, 34.5, 34.8125, 35.0625, 35, 34.892857, 34.892857, 35, 34.910713, 34.767857, 34.571426, 34.375, 34.3125, 34.3125, 34.375, 34.625, 34.8125, 34.9375, 35, 34.9375, 34.75, 34.517857, 34.375, 34.3125, 34.508926, 34.6875, 34.6875, 34.517857, 34.25, 34.1875, 34.125, 34.1875, 34.1875, 34.125, 34.0625, 34, 34, 34, 34, 34, 34, 34.1875, 34.4375, 34.6875, 34.875, 34.9375, 34.9375, 34.9375, 35, 35, 35, 35, 35, 35, 34.9375, 34.8125, 34.75, 34.75, 34.8125, 34.9375, 34.910713, 34.776787, 34.8125, 34.8125, 34.9375, 35, 35, 35.0625, 35.125, 35.1875, 35.1875, 35.125, 35.0625, 35, 35, 35, 34.9375, 34.9375, 34.9375, 34.9375, 35, 35, 35, 35, 35, 35, 35, 35, 35, 35, 35, 35, 35, 35, 35, 35, 35, 35, 35, 35, 35, 35, 34.9375, 35, 35.09375, 35.21875, 35.40625, 35.334824, 34.907738, 34.642857, 34.625, 34.6875, 34.9375, 34.875, 34.75, 34.75, 34.75, 34.875, 35, 35, 35, 34.9375, 34.9375, 34.9375, 34.9375, 35, 35, 35, 35, 35, 35, 35, 35, 35, 35, 34.9375, 34.8125, 34.700001, -10, -10, -10, -10, -10, -10, -10, -10, -10, -10, -10, -10, -10, -10, -10, -10, -10, -10, -10, -10, -10, -10, -10, -10, -10, 34, 34, 34.125, 34.098213, 34.026787, 34.0625, 33.9375, 34, 34, 34, 34, 34.125, 34.1875, 34.1875, 34.1875, 34, 33.9375, 33.9375, 34, 34.0625, 34.0625, 34.0625, 34, 34, 34, 34, 34, 34, 34, 34.125, 34.1875, 34.1875, 34.1875, 34.125, 34.0625, 34.125, 34.1875, 34.1875, 34.3125, 34.25, 34.125, 33.9375, 33.875, 33.875, 33.8125, 33.901787, 34, 34.1875, 34.4375, 34.5, 34.375, 34.1875, 34.1875, 34.125, 34.1875, 34.25, 34.1875, 34.1875, 34.125, 34.0625, 34, 33.928574, 33.678574, 33.662498, 33.892857, 33.973213, 34.21875, 34.28125, 34.25, 34.25, 34.125, 34.1875, 34.375, 34.5625, 34.6875, 34.6875, 34.6875, 34.5, 34.375, 34.1875, 34, 34, 34, 34, 34, 34, 34, 34.089287, 34.357143, 34.357143, 34.1875, 34.089287, 34.035713, 34.0625, 34.446426, 34.520832, 34.40625, 34.25893, 34.03125, 33.9375, 34, 34.1875, 34.125, 34, 33.964287, 33.875, 33.973213, 34.0625, 34, 33.9375, 34, 33.9375, 33.9375, 34, 34, 34.125, 34.375, 34.5, 34.6875, 34.8125, 34.705357, 34.633926, 34.5, 34.6875, 34.75, 34.6875, 34.714287, 34.5625, 34.375, 34.4375, 34.482143, 34.273811, 34.071426, 34.0625, 33.9375, 33.9375, 34, 34, 34, 34.0625, 34.267857, 34.583332, 34.741074, 34.625, 34.4375, 34.375, 34.25, 34.241074, 34.0625, 34.0625, 34.0625, 34.125, 34.125, 34.125, 34.125, 34.125, 34.214287, 34.375, 34.321426, 34.580357, 34.75, 34.8125, 34.9375, 34.9375, 34.9375, 34.875, 34.6875, 34.5625, 34.375, 34.25, 34.1875, 34.0625, 34, 34, 34.1875, 34.4375, 34.583332, 34.416668, 34.25, 33.9375, 33.8125, 33.8125, 33.8125, 33.9375, 34.133926, 34.458332, 34.482143, 34.6875, 34.6875, 34.75, 34.875, 34.78125, 34.71875, 34.760418, 34.96875, 34.973213, 34.96875, 34.71875, 34.6875, 34.75, 34.8125, 34.8125, 34.875, 34.75, 34.75, 34.875, 34.875, 35, 35, 35, 34.75, 34.5, 34.3125, 34.3125, 34.5, 34.8125, 35, 34.875, 34.767857, 34.705357, 34.875, 34.910713, 34.892857, 34.821426, 34.5625, 34.5, 34.5, 34.5625, 34.8125, 34.9375, 35, 34.9375, 34.8125, 34.625, 34.4375, 34.3125, 34.3125, 34.4375, 34.4375, 34.4375, 34.3125, 34.125, 34.125, 34.125, 34.25, 34.3125, 34.25, 34.1875, 34.0625, 34, 34, 34, 34, 34, 34.125, 34.375, 34.625, 34.8125, 34.9375, 34.9375, 34.9375, 35, 35, 34.9375, 34.875, 34.8125, 34.8125, 34.8125, 34.8125, 34.8125, 34.8125, 34.8125, 34.875, 34.848213, 34.776787, 34.875, 34.875, 35, 35, 35, 35, 35, 35, 34.9375, 34.875, 34.892857, 35, 35, 35.0625, 34.9375, 34.9375, 34.9375, 34.9375, 35, 35, 35, 35, 35, 35, 35, 34.9375, 34.9375, 34.9375, 34.9375, 35, 34.9375, 34.9375, 34.9375, 34.9375, 35, 35, 35, 35, 35, 34.9375, 34.75, 34.75, 34.84375, 35.03125, 35.34375, 35.334824, 34.970238, 34.705357, 34.6875, 34.75, 34.9375, 34.9375, 34.9375, 34.9375, 34.9375
-10, -10, -10, -10, -10, -10, -10, -10, -10, -10, 34, 34, 34.1875, 34.160713, 34.089287, 34.125, 34, 34.125, 34.125, 34.125, 34.0625, 34.0625, 34.0625, 34.0625, 34.0625, 34, 34, 34, 34.125, 34.1875, 34.169643, 33.979168, 33.892857, 33.875, 33.9375, 34, 34, 34, 34, 34.125, 34.1875, 34.1875, 34.1875, 34.0625, 34, 34.0625, 34.125, 34.25, 34.4375, 34.375, 34.25, 34.0625, 34, 34, 33.9375, 33.964287, 33.9375, 34.1875, 34.4375, 34.4375, 34.375, 34.125, 34.0625, 34.125, 34.1875, 34.25, 34.25, 34.1875, 34.125, 34.0625, 34, 34, 33.928574, 33.849998, 34.035713, 34.035713, 34.28125, 34.40625, 34.4375, 34.4375, 34.3125, 34.3125, 34.4375, 34.5625, 34.6875, 34.6875, 34.75, 34.625, 34.4375, 34.25, 34, 34, 34, 34, 34.0625, 34.125, 34.1875, 34.25, 34.3125, 34.25, 34.0625, 34.026787, 34.098213, 34.1875, 34.5625, 34.5625, 34.428574, 34.151787, 34, 33.875, 34, 34.125, 34.0625, 33.9375, 33.901787, 33.9375, 34.035713, 34.125, 34.125, 34.0625, 34.1875, 34.1875, 34.1875, 34.1875, 34.1875, 34.25, 34.4375, 34.625, 34.8125, 35, 34.892857, 34.758926, 34.625, 34.678574, 34.612499, 34.607143, 34.526787, 34.5625, 34.375, 34.5, 34.625, 34.607143, 34.5, 34.428574, 34.0625, 34, 33.9375, 34, 34, 34.125, 34.267857, 34.520832, 34.616074, 34.3125, 34.125, 34.0625, 33.9375, 34.0625, 34, 33.9375, 33.9375, 33.9375, 34, 34, 34, 34.0625, 34.125, 34.3125, 34.5, 34.6875, 34.875, 34.8125, 34.8125, 34.75, 34.75, 34.75, 34.6875, 34.625, 34.4375, 34.3125, 34.1875, 34.0625, 34, 34, 34.125, 34.3125, 34.4375, 34.4375, 34.3125, 34.0625, 33.8125, 33.8125, 33.8125, 33.875, 34.0625, 34.1875, 34.25, 34.5, 34.625, 34.625, 34.625, 34.53125, 34.46875, 34.635418, 34.90625, 34.910713, 34.96875, 34.78125, 34.875, 34.9375, 34.9375, 35, 35, 34.875, 34.875, 34.9375, 34.9375, 35.0625, 35, 34.9375, 34.75, 34.5625, 34.5, 34.5, 34.625, 34.875, 34.9375, 34.75, 34.580357, 34.455357, 34.625, 34.75, 34.9375, 35, 34.75, 34.6875, 34.6875, 34.6875, 34.9375, 35, 35, 35, 34.8125, 34.5625, 34.375, 34.125, 34.125, 34.1875, 34.125, 34.0625, 34, 34, 34.098213, 34.1875, 34.3125, 34.375, 34.3125, 34.25, 34.125, 34.0625, 34.125, 34.125, 34.125, 34.0625, 34.0625, 34.3125, 34.5, 34.6875, 34.875, 34.9375, 35.035713, 35.0625, 35.0625, 34.9375, 34.875, 34.8125, 34.8125, 34.8125, 34.875, 34.9375, 34.919643, 34.8125, 34.875, 34.785713, 34.776787, 34.875, 34.875, 35, 35, 35, 35, 35, 35, 34.875, 34.6875, 34.611607, 34.6875, 34.75, 34.9375, 34.96875, 35, 35, 35, 35, 35, 35, 35, 35, 35, 35, 34.9375, 34.9375, 34.9375, 34.875, 34.875, 34.8125, 34.8125, 34.875, 34.9375, 35, 35, 35, 35, 35, 34.9375, 34.75, 34.625, 34.65625, 34.78125, 35.03125, 35.15625, 35.053574, 34.8125, 34.8125, 34.8125, 34.9375, 35.0625, 35.1875, 35.1875, 35.1875, 35.125, 35, 34.875, 34.8125, 34.75, 34.75, 34.875, 34.9375, 35, 35, 35, 35, 35, 35, 35, 35, 35, 35, 35, 34.875, 34.833336, -10, -10, -10, -10, -10, -10, -10, -10, -10, -10, -10, -10, -10, -10, -10, -10, -10, -10, -10, -10, -10, -10, -10, -10, -10, 34, 34, 34.25, 34.223213, 34.151787, 34.1875, 34.0625, 34.1875, 34.25, 34.3125, 34.25, 34.25, 34.1875, 34.125, 34.0625, 34.0625, 34.125, 34.125, 34.25, 34.3125, 34.294643, 34.166668, 34.080357, 34, 34, 34, 34, 34, 34, 34.0625, 34.0625, 34.0625, 34.0625, 34, 34, 34.0625, 34.1875, 34.375, 34.625, 34.5625, 34.4375, 34.3125, 34.25, 34.25, 34.125, 34.026787, 33.875, 34.0625, 34.25, 34.25, 34.25, 34.0625, 34, 34.125, 34.25, 34.375, 34.4375, 34.3125, 34.1875, 34.0625, 34, 34, 34, 34, 34, 34, 34.25, 34.5, 34.5625, 34.5625, 34.455357, 34.450001, 34.383926, 34.446426, 34.5, 34.5625, 34.625, 34.5625, 34.375, 34.1875, 34.0625, 34.125, 34.125, 34.125, 34.0625, 34.0625, 34.0625, 34.0625, 34.125, 34.0625, 34, 34, 34.098213, 34.1875, 34.4375, 34.5, 34.428574, 34.125, 34, 33.875, 34, 34.15625, 34.09375, 34.03125, 33.995537, 34.125, 34.223213, 34.25, 34.1875, 34, 34.125, 34.1875, 34.25, 34.375, 34.4375, 34.5, 34.625, 34.75, 34.875, 35, 34.892857, 34.758926, 34.625, 34.616074, 34.549999, 34.607143, 34.589287, 34.75, 34.5625, 34.5625, 34.5625, 34.5, 34.5, 34.428574, 34.125, 34.0625, 34.0625, 34.125, 34.1875, 34.3125, 34.375, 34.4375, 34.4375, 34.125, 33.9375, 33.875, 33.8125, 33.9375, 34, 33.910713, 33.875, 33.982143, 33.9375, 34.0625, 34, 34.125, 34.25, 34.5, 34.75, 34.875, 35, 34.8125, 34.75, 34.6875, 34.6875, 34.8125, 34.75, 34.75, 34.625, 34.4375, 34.3125, 34.125, 34, 34, 34.0625, 34.25, 34.375, 34.375, 34.3125, 34.125, 33.9375, 33.9375, 33.9375, 33.9375, 34, 34.0625, 34.125, 34.375, 34.5, 34.5, 34.5, 34.46875, 34.59375, 34.84375, 34.84375, 34.75, 34.8125, 34.75, 34.9375, 35.0625, 34.9375, 34.875, 34.875, 34.75, 34.8125, 34.9375, 34.9375, 35.0625, 34.9375, 34.875, 34.75, 34.625, 34.6875, 34.6875, 34.75, 34.875, 34.75, 34.5625, 34.392857, 34.330357, 34.625, 34.75, 34.9375, 35, 34.8125, 34.8125, 34.8125, 34.8125, 35, 34.9375, 34.9375, 34.9375, 34.8125, 34.625, 34.4375, 34.1875, 34.0625, 34.125, 34.0625, 33.9375, 33.9375, 34, 34.071426, 34.151787, 34.3125, 34.3125, 34.3125, 34.25, 34.125, 34.125, 34.25, 34.25, 34.25, 34.125, 33.9375, 34.125, 34.25, 34.4375, 34.75, 34.875, 35.035713, 35.0625, 35.0625, 34.9375, 34.875, 34.8125, 34.8125, 34.8125, 34.9375, 35.0625, 35.044643, 34.9375, 34.875, 34.75, 34.8125, 34.875, 34.9375, 35, 35, 35, 35, 35.0625, 35.0625, 34.875, 34.6875, 34.549107, 34.625, 34.75, 34.9375, 34.96875, 35, 35, 35, 35, 35, 35, 35, 35, 35, 35, 34.9375, 34.9375, 34.9375, 34.8125, 34.839287, 34.8125, 34.705357, 34.875, 34.8125, 34.875, 34.875, 34.875, 34.9375, 35, 34.9375, 34.8125, 34.6875, 34.6875, 34.75, 34.875, 34.9375, 34.875, 34.8125, 34.8125, 34.875, 34.9375, 35.0625, 35.1875, 35.1875, 35.1875
-10, -10, -10, -10, -10, -10, -10, -10, -10, -10, 34.125, 34.166668, 34.3125, 34.285713, 34.151787, 34.125, 34.0625, 34.1875, 34.25, 34.3125, 34.25, 34.25, 34.25, 34.3125, 34.3125, 34.276787, 34.3125, 34.1875, 34.25, 34.3125, 34.294643, 34.166668, 34.205357, 34.0625, 34.0625, 34.125, 34.125, 34.125, 34.125, 34.0625, 34.071426, 34.25, 34.1875, 34.142857, 34.0625, 34.0625, 34.25, 34.4375, 34.625, 34.5625, 34.375, 34.3125, 34.375, 34.375, 34.375, 34.276787, 34.0625, 34.1875, 34.25, 34.1875, 34.1875, 34.0625, 34.0625, 34.25, 34.3125, 34.4375, 34.5, 34.3125, 34.25, 34.1875, 34.125, 34.107143, 34, 34, 33.9375, 34.0625, 34.3125, 34.5625, 34.625, 34.625, 34.580357, 34.512501, 34.383926, 34.321426, 34.3125, 34.375, 34.4375, 34.4375, 34.25, 34.125, 34.125, 34.25, 34.25, 34.25, 34.0625, 33.9375, 33.875, 33.875, 33.9375, 33.9375, 34, 34, 34.0625, 34.1875, 34.3125, 34.375, 34.303574, 33.9375, 33.8125, 33.75, 33.9375, 34.129463, 34.09375, 34.09375, 34.09375, 34.25, 34.375, 34.375, 34.25, 34.125, 34.1875, 34.3125, 34.4375, 34.5625, 34.6875, 34.75, 34.8125, 34.875, 34.875, 34.9375, 35, 34.9375, 34.875, 34.741074, 34.549999, 34.544643, 34.401787, 34.5, 34.375, 34.375, 34.375, 34.375, 34.375, 34.303574, 34.0625, 34.0625, 34.0625, 34.125, 34.125, 34.1875, 34.1875, 34.1875, 34.1875, 33.9375, 33.8125, 33.8125, 33.8125, 33.9375, 34, 33.848213, 33.8125, 33.982143, 34, 34.1875, 34.1875, 34.3125, 34.4375, 34.6875, 34.875, 34.9375, 35.0625, 34.875, 34.8125, 34.75, 34.6875, 34.875, 34.875, 34.9375, 34.875, 34.6875, 34.5, 34.25, 34.0625, 34, 34, 34.125, 34.25, 34.25, 34.25, 34.125, 33.9375, 33.9375, 34, 34, 34.0625, 34.125, 34.125, 34.375, 34.4375, 34.375, 34.4375, 34.4375, 34.625, 34.875, 34.8125, 34.625, 34.625, 34.625, 34.8125, 35, 34.875, 34.901787, 34.973213, 34.875, 34.9375, 34.875, 34.8125, 34.875, 34.8125, 34.75, 34.6875, 34.625, 34.75, 34.8125, 34.875, 34.8125, 34.625, 34.5, 34.4375, 34.4375, 34.625, 34.75, 34.875, 34.9375, 34.75, 34.75, 34.6875, 34.75, 34.9375, 34.8125, 34.8125, 34.8125, 34.6875, 34.5625, 34.4375, 34.1875, 34.0625, 34.0625, 34, 33.875, 33.875, 34, 34.071426, 34.089287, 34.1875, 34.1875, 34.1875, 34.1875, 34.125, 34.125, 34.25, 34.25, 34.25, 34.125, 34.008926, 34.3125, 34.375, 34.5625, 34.75, 34.875, 35.035713, 35.0625, 35.0625, 34.9375, 34.9375, 34.9375, 34.9375, 35, 35.125, 35.1875, 35.169643, 35, 34.9375, 34.875, 34.9375, 35, 35, 35, 35, 35, 35, 35.0625, 35.0625, 34.9375, 34.8125, 34.736607, 34.8125, 34.875, 34.9375, 34.90625, 34.9375, 34.9375, 35, 35, 35, 35, 35, 35, 35, 35, 34.9375, 34.9375, 34.9375, 34.8125, 34.901787, 34.875, 34.767857, 34.9375, 34.75, 34.75, 34.6875, 34.6875, 34.8125, 34.9375, 34.9375, 34.875, 34.8125, 34.8125, 34.875, 34.9375, 35, 35, 35, 35, 34.9375, 34.9375, 35.0625, 35.1875, 35.25, 35.25, 35.125, 35, 34.875, 34.8125, 34.75, 34.75, 34.875, 34.9375, 35, 34.9375, 34.964287, 35.035713, 35, 35.0625, 35, 35, 35, 35, 35, 34.875, 34.833336, -10, -10, -10, -10, -10, -10, -10, -10, -10, -10, -10, -10, -10, -10, -10, -10, -10, -10, -10, -10, -10, -10, -10, -10, -10, 34.25, 34.333336, 34.375, 34.375, 34.3125, 34.25, 34.25, 34.3125, 34.3125, 34.3125, 34.25, 34.25, 34.25, 34.375, 34.4375, 34.464287, 34.5, 34.3125, 34.3125, 34.3125, 34.294643, 34.166668, 34.205357, 34.0625, 34.125, 34.25, 34.3125, 34.375, 34.3125, 34.125, 34.071426, 34.428574, 34.4375, 34.455357, 34.375, 34.25, 34.375, 34.4375, 34.5, 34.4375, 34.25, 34.25, 34.3125, 34.375, 34.4375, 34.375, 34.1875, 34.1875, 34.125, 34.0625, 34.0625, 34, 34.0625, 34.25, 34.3125, 34.4375, 34.5, 34.375, 34.375, 34.375, 34.375, 34.357143, 34.25, 34.1875, 34.0625, 34.1875, 34.375, 34.625, 34.6875, 34.625, 34.580357, 34.575001, 34.383926, 34.321426, 34.3125, 34.25, 34.375, 34.375, 34.1875, 34.125, 34.125, 34.3125, 34.3125, 34.3125, 34.0625, 33.8125, 33.75, 33.75, 33.875, 33.9375, 34.0625, 34.0625, 34.125, 34.1875, 34.1875, 34.25, 34.241074, 33.910713, 33.776787, 33.75, 33.875, 34.129463, 34.15625, 34.21875, 34.21875, 34.375, 34.5, 34.5, 34.4375, 34.375, 34.4375, 34.5625, 34.6875, 34.75, 34.8125, 34.875, 34.8125, 34.8125, 34.8125, 34.8125, 34.9375, 34.875, 34.8125, 34.616074, 34.424999, 34.482143, 34.3125, 34.3125, 34.1875, 34.125, 34.125, 34.1875, 34.1875, 34.116074, 33.9375, 34.0625, 34.098213, 34.1875, 34.1875, 34.125, 34.0625, 34, 34, 33.875, 33.875, 33.9375, 33.9375, 34, 34, 33.973213, 34, 34.232143, 34.3125, 34.375, 34.375, 34.5, 34.625, 34.875, 35, 35, 35.0625, 34.9375, 34.875, 34.8125, 34.75, 34.875, 34.875, 34.9375, 34.9375, 34.75, 34.5625, 34.3125, 34.0625, 34, 34, 34.125, 34.3125, 34.3125, 34.375, 34.3125, 34.125, 34.125, 34.125, 34.0625, 34.0625, 34.125, 34.1875, 34.4375, 34.5625, 34.5625, 34.625, 34.5625, 34.6875, 34.875, 34.8125, 34.75, 34.75, 34.75, 34.875, 34.9375, 34.839287, 34.973213, 35.004463, 35.03125, 34.96875, 34.8125, 34.75, 34.75, 34.75, 34.75, 34.75, 34.75, 34.875, 34.9375, 35, 34.875, 34.75, 34.6875, 34.625, 34.6875, 34.8125, 34.875, 34.9375, 34.9375, 34.8125, 34.8125, 34.75, 34.8125, 34.9375, 34.75, 34.6875, 34.6875, 34.625, 34.625, 34.5625, 34.3125, 34.125, 34.0625, 34, 33.9375, 33.9375, 34.0625, 34.196426, 34.151787, 34.1875, 34.125, 34.0625, 34.0625, 34.0625, 34.125, 34.25, 34.25, 34.25, 34.1875, 34.133926, 34.4375, 34.5, 34.625, 34.75, 34.875, 35.035713, 35.0625, 35.0625, 35, 35, 35.0625, 35.0625, 35.0625, 35.125, 35.0625, 34.982143, 34.875, 34.875, 34.875, 35, 35, 35, 35, 35, 35, 35, 35.0625, 35, 34.9375, 34.8125, 34.71875, 34.75, 34.8125, 34.875, 34.90625, 34.9375, 34.9375, 35, 35, 35, 35, 35, 35, 35, 35, 35, 35, 35, 34.875, 34.901787, 34.9375, 34.830357, 35, 34.8125, 34.75, 34.6875, 34.6875, 34.8125, 34.9375, 35, 34.9375, 34.8125, 34.75, 34.6875, 34.6875, 34.8125, 34.875, 34.9375, 35, 34.9375, 34.9375, 35, 35.0625, 35.125, 35.125
-10, -10, -10, -10, -10, -10, -10, -10, -10, -10, 34.375, 34.500004, 34.4375, 34.4375, 34.3125, 34.1875, 34.1875, 34.1875, 34.1875, 34.1875, 34.1875, 34.25, 34.25, 34.375, 34.5, 34.526787, 34.5625, 34.375, 34.3125, 34.25, 34.25, 34.3125, 34.3125, 34.25, 34.3125, 34.4375, 34.5, 34.5, 34.4375, 34.25, 34.258926, 34.616074, 34.5625, 34.580357, 34.5, 34.375, 34.5625, 34.5, 34.4375, 34.375, 34.125, 34.1875, 34.25, 34.3125, 34.375, 34.3125, 34.1875, 34.125, 34.0625, 34, 34, 34, 34.0625, 34.1875, 34.1875, 34.3125, 34.375, 34.3125, 34.4375, 34.5, 34.5, 34.482143, 34.3125, 34.1875, 34.0625, 34.1875, 34.375, 34.625, 34.625, 34.5625, 34.455357, 34.450001, 34.383926, 34.321426, 34.3125, 34.25, 34.3125, 34.3125, 34.1875, 34.125, 34.125, 34.3125, 34.3125, 34.3125, 33.9375, 33.5625, 33.4375, 33.4375, 33.6875, 33.875, 34.0625, 34.0625, 34.0625, 34.0625, 34, 34, 34.125, 33.973213, 33.839287, 33.875, 33.875, 34.129463, 34.15625, 34.21875, 34.28125, 34.4375, 34.625, 34.6875, 34.5625, 34.5, 34.5, 34.5625, 34.6875, 34.75, 34.6875, 34.714287, 34.660713, 34.5625, 34.5625, 34.4375, 34.5625, 34.5, 34.5625, 34.5625, 34.482143, 34.291668, 34.205357, 34, 33.875, 33.8125, 33.75, 33.8125, 33.875, 33.9375, 33.973213, 34.125, 34.223213, 34.1875, 34.1875, 34.0625, 33.9375, 33.8125, 33.8125, 33.8125, 33.875, 34, 33.9375, 33.875, 33.9375, 34.035713, 34.223213, 34.482143, 34.5, 34.4375, 34.375, 34.5, 34.625, 34.875, 35, 35, 35.0625, 35, 35, 35, 34.9375, 35, 34.9375, 34.9375, 34.875, 34.6875, 34.5, 34.25, 34.0625, 34, 34.0625, 34.1875, 34.375, 34.375, 34.375, 34.3125, 34.25, 34.3125, 34.3125, 34.25, 34.125, 34.0625, 34.125, 34.375, 34.5, 34.625, 34.75, 34.625, 34.75, 34.875, 34.75, 34.8125, 34.75, 34.6875, 34.75, 34.6875, 34.651787, 34.785713, 34.816963, 34.90625, 34.84375, 34.6875, 34.6875, 34.6875, 34.75, 34.8125, 34.8125, 34.8125, 34.875, 34.9375, 35, 34.875, 34.8125, 34.8125, 34.8125, 34.9375, 35, 35, 35, 34.9375, 34.875, 34.875, 34.8125, 34.875, 34.9375, 34.75, 34.6875, 34.6875, 34.6875, 34.75, 34.625, 34.375, 34.125, 34, 34, 34, 34, 34.0625, 34.160713, 34.089287, 34.125, 34.0625, 34, 34, 34, 34.0625, 34.125, 34.125, 34.125, 34.1875, 34.258926, 34.5625, 34.6875, 34.8125, 34.875, 34.9375, 35, 35, 34.9375, 34.875, 34.8125, 34.8125, 34.875, 34.9375, 35, 34.875, 34.8125, 34.8125, 34.8125, 34.9375, 35, 35, 35, 35, 35, 35, 35, 35.0625, 35, 35, 34.9375, 34.8125, 34.875, 34.875, 34.875, 34.9375, 34.9375, 34.9375, 35, 35, 35, 35, 35, 35, 35, 35, 35, 35, 35, 34.9375, 35.026787, 35.0625, 34.955357, 35.0625, 34.8125, 34.75, 34.6875, 34.6875, 34.8125, 34.9375, 35, 34.875, 34.8125, 34.75, 34.625, 34.625, 34.6875, 34.75, 34.875, 35, 34.9375, 34.9375, 34.9375, 34.9375, 35, 35, 35, 35, 35, 35, 34.875, 34.875, 34.875, 34.875, 34.9375, 34.8125, 34.839287, 34.848213, 34.8125, 34.9375, 34.875, 34.9375, 35, 35, 35, 35, 35, -10, -10, -10, -10, -10, -10, -10, -10, -10, -10, -10, -10, -10, -10, -10, -10, -10, -10, -10, -10, -10, -10, -10, -10, -10, 34.5, 34.666668, 34.5, 34.5625, 34.375, 34.1875, 34.1875, 34.125, 34.0625, 34, 34, 34, 34.0625, 34.25, 34.4375, 34.464287, 34.4375, 34.25, 34.1875, 34.125, 34.1875, 34.25, 34.3125, 34.375, 34.5, 34.6875, 34.6875, 34.625, 34.5, 34.25, 34.258926, 34.616074, 34.5625, 34.642857, 34.5625, 34.5, 34.625, 34.4375, 34.3125, 34.1875, 34, 34.0625, 34.125, 34.1875, 34.25, 34.25, 34.1875, 34.125, 34.0625, 34, 34, 34, 34.0625, 34.125, 34.0625, 34.125, 34.1875, 34.1875, 34.4375, 34.625, 34.625, 34.607143, 34.375, 34.25, 34.125, 34.25, 34.375, 34.571426, 34.700001, 34.508926, 34.383926, 34.25, 34.3125, 34.25, 34.25, 34.125, 34.1875, 34.1875, 34.125, 34.125, 34.0625, 34.1875, 34.1875, 34.1875, 33.875, 33.4375, 33.214287, 33.25, 33.544643, 33.8125, 34.0625, 34.125, 34.125, 34.125, 34.0625, 34, 34.125, 34.035713, 33.901787, 33.9375, 33.9375, 34.098213, 34.125, 34.125, 34.125, 34.3125, 34.5625, 34.75, 34.6875, 34.625, 34.5, 34.4375, 34.5, 34.5, 34.5, 34.589287, 34.598213, 34.5, 34.4375, 34.25, 34.3125, 34.3125, 34.4375, 34.4375, 34.294643, 33.979168, 33.767857, 33.5625, 33.5625, 33.6875, 33.75, 33.875, 33.9375, 33.9375, 33.973213, 34.0625, 34.098213, 34.0625, 34.0625, 34, 33.9375, 33.8125, 33.8125, 33.8125, 33.875, 34, 33.875, 33.8125, 33.8125, 33.9375, 34.223213, 34.375, 34.5, 34.375, 34.4375, 34.625, 34.857143, 35.0625, 35.125, 35.0625, 35.0625, 35, 35, 35, 34.9375, 35, 35, 35, 34.9375, 34.75, 34.5, 34.25, 34.0625, 34, 34.0625, 34.125, 34.25, 34.25, 34.25, 34.3125, 34.375, 34.4375, 34.5, 34.4375, 34.3125, 34.3125, 34.375, 34.5625, 34.6875, 34.8125, 34.8125, 34.625, 34.6875, 34.6875, 34.6875, 34.8125, 34.75, 34.6875, 34.625, 34.5, 34.526787, 34.785713, 34.879463, 35.03125, 34.90625, 34.6875, 34.6875, 34.6875, 34.8125, 34.875, 34.875, 34.875, 34.875, 34.9375, 35, 34.9375, 34.9375, 34.9375, 35, 35.0625, 35.0625, 35.0625, 35, 34.9375, 34.875, 34.875, 34.8125, 34.9375, 35, 34.8125, 34.75, 34.75, 34.642857, 34.75, 34.5625, 34.375, 34.125, 34, 34, 34, 34, 34, 34.125, 34.1875, 34.1875, 34.1875, 34.0625, 34, 34, 34, 34, 34, 34, 34.125, 34.321426, 34.625, 34.8125, 34.9375, 34.9375, 35, 35, 35, 34.875, 34.75, 34.625, 34.625, 34.75, 34.875, 35, 34.8125, 34.6875, 34.6875, 34.6875, 34.875, 35, 35, 35, 35, 35, 35, 35, 35, 34.9375, 34.9375, 34.8125, 34.776787, 34.875, 34.767857, 34.875, 34.875, 34.9375, 34.9375, 35, 35, 35, 35, 35, 35, 35, 35, 35, 34.9375, 34.9375, 34.9375, 35, 35.0625, 35.0625, 35.0625, 34.9375, 34.875, 34.8125, 34.8125, 34.875, 34.9375, 34.9375, 34.75, 34.705357, 34.75, 34.625, 34.6875, 34.6875, 34.75, 34.875, 35, 34.9375, 34.9375, 34.9375, 34.9375, 35, 35
-10, -10, -10, -10, -10, -10, -10, -10, -10, -10, 34.375, 34.500004, 34.375, 34.4375, 34.3125, 34.1875, 34.25, 34.1875, 34.125, 34.0625, 34, 34, 34, 34.0625, 34.25, 34.3125, 34.3125, 34.25, 34.125, 34.0625, 34.1875, 34.25, 34.25, 34.375, 34.5, 34.625, 34.625, 34.5625, 34.375, 34.25, 34.25, 34.428574, 34.4375, 34.5, 34.5, 34.5625, 34.625, 34.4375, 34.25, 34.0625, 33.9375, 33.9375, 34.0625, 34.1875, 34.1875, 34.1875, 34.125, 34.0625, 34.0625, 34.0625, 34, 33.9375, 33.9375, 33.9375, 33.875, 33.875, 33.9375, 34, 34.375, 34.625, 34.625, 34.625, 34.4375, 34.25, 34.1875, 34.1875, 34.25, 34.383926, 34.450001, 34.196426, 34.071426, 34, 34.125, 34.1875, 34.1875, 34.0625, 34.125, 34.125, 34.125, 34.125, 34, 34.0625, 34.0625, 34.125, 33.9375, 33.625, 33.401787, 33.3125, 33.482143, 33.625, 33.875, 33.9375, 34, 34.0625, 33.9375, 33.9375, 34.0625, 34.035713, 34.026787, 34.0625, 34, 34.125, 34.1875, 34.1875, 34.1875, 34.25, 34.375, 34.625, 34.6875, 34.625, 34.5, 34.3125, 34.25, 34.25, 34.3125, 34.464287, 34.535713, 34.4375, 34.3125, 34.0625, 34.0625, 34.0625, 34.1875, 34.25, 34.107143, 33.854168, 33.705357, 33.5625, 33.625, 33.75, 33.8125, 33.875, 33.9375, 33.9375, 33.973213, 34.0625, 34.098213, 34.0625, 34.0625, 34, 33.9375, 33.8125, 33.8125, 33.8125, 33.875, 34, 33.875, 33.8125, 33.8125, 33.9375, 34.160713, 34.25, 34.375, 34.3125, 34.4375, 34.6875, 34.982143, 35.125, 35.125, 35.026787, 35, 34.9375, 34.830357, 34.758926, 34.6875, 34.8125, 34.875, 34.9375, 34.9375, 34.75, 34.5, 34.25, 34.0625, 34.0625, 34.1875, 34.3125, 34.375, 34.3125, 34.25, 34.25, 34.375, 34.5, 34.5625, 34.5625, 34.5, 34.5, 34.625, 34.75, 34.875, 35.0625, 34.9375, 34.599998, 34.821426, 34.758926, 34.8125, 34.9375, 34.8125, 34.6875, 34.6875, 34.5625, 34.651787, 34.883926, 34.84375, 35.03125, 34.90625, 34.8125, 34.875, 34.875, 34.9375, 35, 35, 35, 35, 34.9375, 34.9375, 34.9375, 34.9375, 35, 35.0625, 35.0625, 35.0625, 35.0625, 35, 35, 35, 35, 35.0625, 35.1875, 35.25, 35.080357, 34.825001, 35.017857, 34.910713, 35.053574, 34.6875, 34.5, 34.1875, 34, 33.9375, 33.9375, 33.9375, 34.0625, 34.125, 34.1875, 34.1875, 34.125, 34.0625, 34, 33.9375, 33.9375, 33.9375, 33.9375, 34, 34.125, 34.25, 34.375, 34.5625, 34.6875, 34.8125, 34.9375, 35, 35.0625, 35, 34.90625, 34.71875, 34.59375, 34.65625, 34.75, 34.9375, 34.75, 34.5625, 34.5625, 34.625, 34.910713, 35.0625, 35.0625, 35, 35, 35, 35, 35, 34.9375, 34.875, 34.875, 34.75, 34.839287, 34.910713, 34.660713, 34.758926, 34.75, 34.875, 34.9375, 34.9375, 34.9375, 34.9375, 34.875, 34.9375, 34.9375, 34.9375, 35, 35, 34.875, 34.875, 34.875, 34.875, 35, 35, 35, 35, 34.9375, 34.9375, 34.9375, 34.875, 34.964287, 34.9375, 34.666668, 34.88393, 34.928574, 34.803574, 34.737499, 34.770832, 34.666668, 34.958332, 34.892857, 35, 34.9375, 35, 35, 35, 35, 35.125, 35.160713, 35.089287, 35.1875, 35, 35, 35, 34.9375, 34.875, 34.75, 34.75, 34.6875, 34.75, 34.875, 34.875, 35, 35.035713, 34.892857, 34.892857, 34.875, 34.916668, -10, -10, -10, -10, -10, -10, -10, -10, -10, -10, -10, -10, -10, -10, -10, -10, -10, -10, -10, -10, -10, -10, -10, -10, -10, 34.25, 34.333336, 34.25, 34.3125, 34.1875, 34.125, 34.25, 34.169643, 34.0625, 34.0625, 33.9375, 34, 34, 34, 34.1875, 34.25, 34.3125, 34.3125, 34.1875, 34.125, 34.25, 34.3125, 34.3125, 34.4375, 34.4375, 34.5, 34.5, 34.375, 34.25, 34.25, 34.25, 34.25, 34.1875, 34.1875, 34.125, 34.25, 34.3125, 34.1875, 34.125, 34, 33.9375, 33.9375, 34.125, 34.25, 34.25, 34.25, 34.125, 34.125, 34.125, 34.125, 34, 33.875, 33.875, 33.875, 33.8125, 33.75, 33.75, 33.75, 34.1875, 34.4375, 34.4375, 34.4375, 34.1875, 34.0625, 34.0625, 34.0625, 34.125, 34.196426, 34.262501, 34.071426, 34.008926, 33.9375, 34.0625, 34.125, 34.125, 34.0625, 34, 34, 34, 34.0625, 34.125, 34.125, 34.125, 34.1875, 34, 33.8125, 33.589287, 33.375, 33.419643, 33.4375, 33.5625, 33.5625, 33.6875, 33.875, 33.910713, 34, 34, 33.9375, 34, 34, 34.0625, 34.125, 34.21875, 34.21875, 34.21875, 34.28125, 34.375, 34.625, 34.6875, 34.625, 34.5, 34.25, 34.125, 34.0625, 34.133926, 34.547619, 34.681545, 34.479168, 34.258926, 33.9375, 33.875, 33.875, 33.9375, 33.9375, 33.8125, 33.75, 33.6875, 33.6875, 33.75, 33.875, 33.9375, 33.9375, 34, 33.9375, 33.910713, 33.9375, 33.9375, 33.875, 33.9375, 34, 33.973213, 33.9375, 33.9375, 33.875, 33.9375, 34, 33.875, 33.8125, 33.8125, 33.875, 34.035713, 34.125, 34.25, 34.3125, 34.5, 34.75, 35.044643, 35.125, 35.0625, 34.964287, 34.875, 34.75, 34.705357, 34.633926, 34.5625, 34.6875, 34.75, 34.8125, 34.875, 34.8125, 34.5625, 34.3125, 34.125, 34.125, 34.3125, 34.5, 34.5, 34.375, 34.1875, 34.0625, 34.1875, 34.3125, 34.5, 34.625, 34.6875, 34.75, 34.8125, 34.875, 34.9375, 35.0625, 34.9375, 34.662498, 34.883926, 34.883926, 35, 35.125, 35, 34.8125, 34.75, 34.625, 34.6875, 34.8125, 34.8125, 34.9375, 34.9375, 34.9375, 35, 35, 35, 35, 35, 35, 35, 34.9375, 34.9375, 34.9375, 34.9375, 35, 35.125, 35.1875, 35.1875, 35.1875, 35.0625, 35, 35, 35, 35.125, 35.3125, 35.4375, 35.392857, 35.200001, 35.392857, 35.285713, 35.366074, 34.9375, 34.75, 34.375, 34.125, 34, 33.9375, 33.9375, 34.0625, 34.0625, 34.125, 34.125, 34.0625, 34.0625, 34, 34, 34.125, 34.1875, 34.080357, 34.071426, 34.0625, 34.125, 34.1875, 34.3125, 34.4375, 34.5625, 34.75, 34.875, 35, 35, 34.90625, 34.78125, 34.65625, 34.71875, 34.75, 34.8125, 34.625, 34.4375, 34.5, 34.625, 34.910713, 35.0625, 35.0625, 35, 35, 35, 35, 35, 34.9375, 35, 34.973213, 34.839287, 34.964287, 34.910713, 34.723213, 34.758926, 34.75, 34.875, 34.9375, 34.875, 34.8125, 34.75, 34.625, 34.75, 34.8125, 34.8125, 34.9375, 34.9375, 34.8125, 34.875, 34.875, 34.875, 35, 35, 35, 34.9375, 34.875, 34.875, 34.875, 34.8125, 34.901787, 34.875, 34.604168, 34.973217, 35.223213, 35.232143, 35.237499, 35.145832, 34.916668, 35.083332, 34.892857, 35, 34.9375, 35, 35, 35, 35
