-10, -10, -10, -10, -10, -10, -10, -10, -10, -10, -10, -10, -10, -10, -10, -10, -10, -10, -10, -10, -10, -10, 54.875, 54.583336, 54.392857, 54.1875, 54, 53.875, 53.616074, 53.166668, 52.696426, 52.375, 52.1875, 51.9375, 51.6875, 51.4375, 51.0625, 50.625, 50.375, 50.125, 49.9375, 49.75, 49.5, 49.25, 48.9375, 48.75, 48.5, 48.1875, 47.8125, 47.4375, 47.0625, 46.625, 46.375, 46.125, 45.8125, 45.5625, 45.3125, 44.9375, 44.6875, 44.428574, 43.979168, 43.633926, 43.4375, 43.125, 42.875, 42.625, 42.3125, 42.1875, 41.75, 41.5, 41.25, 40.875, 40.625, 40.375, 40.125, 39.75, 39.5, 39.25, 38.75, 38.5, 38.1875, 37.75, 37.5625, 37.3125, 36.9375, 36.714287, 36.4375, 36.1875, 35.9375, 35.5625, 35.3125, 35, 34.6875, 34.4375, 34.1875, 33.9375, 33.6875, 33.4375, 33.0625, 32.625, 32.375, 32.0625, 31.6875, 31.4375, 31.1875, 30.9375, 30.8125, 30.482143, 29.645832, 29.160715, 28.9375, 28.8125, 28.741072, 28.345238, 27.800594, 27.401785, 27.1875, 27.0625, 27, 26.75, 26.5, 26.25, 25.9375, 25.678572, 25.064285, 24.371429, 23.886906, 23.5, 23.446428, 23.375, 23.25, 23.125, 23, 22.6875, 22.4375, 22.1875, 21.75, 21.5, 21.25, 21.0625, 21.125, 21.25, 21.4375, 21.5, 21.5625, 21.6875, 21.75, 21.875, 22, 22, 22, 22, 22, 22.0625, 22.0625, 22.0625, 22.1875, 22.3125, 22.5625, 22.75, 22.875, 22.9375, 22.9375, 23, 23.0625, 23.0625, 23.0625, 23.0625, 23, 23.25, 23.5, 23.5, 23.5, 23.375, 23.3125, 23.5, 23.625, 23.6875, 23.625, 23.59375, 23.59375, 23.53125, 23.65625, 23.75, 23.8125, 23.9375, 23.9375, 23.9375, 24, 24.1875, 24.4375, 24.6875, 24.9375, 25, 25, 25, 25, 25, 25, 25, 25, 25, 25, 25.125, 25.375, 25.625, 25.875, 25.9375, 25.9375, 25.9375, 25.875, 25.875, 25.875, 25.875, 25.9375, 26, 26, 26, 26.1875, 26.375, 26.625, 26.75, 26.625, 26.625, 26.625, 26.75, 27, 27.0625, 27.125, 27.125, 27.0625, 27.0625, 27, 27.1875, 27.4375, 27.6875, 28, 27.9375, 27.9375, 27.9375, 27.875, 28, 28, 28, 28.0625, 28.03125, 28.09375, 28.21875, 28.254463, 28.333334, 11.5, 11.5, 11.5, 11.375, 11.3125, 11.1875, 11.0625, 11.125, 11.1875, 11.375, 11.5625, 11.5625, 11.625, 11.5625, 11.5, 11.5625, 11.5, 11.4375, 11.5, 11.4375, 11.375, 11.375, 11.25, 11.1875, 11.25, 11.3125, 11.375, 11.5625, 11.5625, 11.5625, 11.5, 11.4375, 11.4375, 11.4375, 11.5, -10, -10, -10, -10, -10, -10, -10, -10, -10, -10, -10, 25.5, 25.666666, 25.75, 25.75, 25.6875, 25.6875, 25.6875, 25.625, 25.5625, 25.625, 25.6875, 25.75, 25.875, 25.875, 25.8125, 25.875, 26, 26, 26.0625, 26.125, 26.25, 26.3125, 26.232143, 25.809525, 25.375, 25.0625, 24.883928, 25.289118, 25.715986, 26, 26.333334, 26.598213, 26.875, 27.0625, 27.0625, 27.125, 27.145834, 27.166666, 27.25, -10, -10, -10, -10, -10, -10, -10, -10, -10, -10, -10, -10, -10, -10, -10, -10, -10, -10, -10, -10, -10, -10, -10, -10, -10, -10, -10, -10, -10, -10, -10, -10, -10, -10, -10, -10, -10, -10, -10, -10, -10, -10, -10, -10, -10, -10, -10, -10, -10, -10, -10, -10, -10, -10, -10, -10, -10, -10, -10, -10, -10, -10, -10, 54.875, 54.583336, 54.392857, 54.1875, 54, 53.875, 53.625, 53.375, 52.9375, 52.5625, 52.3125, 51.9375, 51.625, 51.375, 51, 50.625, 50.375, 50.125, 50, 49.8125, 49.5625, 49.3125, 48.9375, 48.839287, 48.6875, 48.25, 47.866074, 47.375, 47, 46.5625, 46.3125, 46.125, 45.8125, 45.5625, 45.3125, 44.9375, 44.625, 44.375, 44.125, 43.75, 43.5625, 43.1875, 42.875, 42.625, 42.3125, 42.1875, 41.75, 41.5, 41.25, 40.875, 40.625, 40.375, 40.125, 39.75, 39.5, 39.25, 38.75, 38.5, 38.1875, 37.75, 37.5, 37.25, 36.875, 36.625, 36.375, 36.053574, 35.604168, 35.258926, 35, 34.75, 34.5, 34.3125, 34.125, 33.875, 33.625, 33.375, 33, 32.625, 32.375, 32.0625, 31.6875, 31.4375, 31.1875, 31, 30.875, 30.607143, 29.895832, 29.455357, 29.1875, 29.0625, 28.928572, 28.470238, 27.863094, 27.357141, 27.0625, 26.9375, 26.9375, 26.6875, 26.5, 26.25, 25.9375, 25.678572, 25.1625, 24.637501, 24.333334, 23.9375, 23.758928, 23.5625, 23.375, 23.1875, 23, 22.6875, 22.4375, 22.1875, 21.75, 21.5, 21.25, 21.0625, 21.125, 21.25, 21.4375, 21.5, 21.625, 21.75, 21.8125, 21.9375, 22, 22, 22, 22, 22, 22, 22, 22.0625, 22.1875, 22.375, 22.5625, 22.75, 22.875, 22.9375, 23, 23, 23.0625, 23.0625, 23.0625, 23.0625, 23, 23.25, 23.4375, 23.4375, 23.4375, 23.25, 23.1875, 23.375, 23.4375, 23.5625, 23.5625, 23.53125, 23.59375, 23.53125, 23.65625, 23.75, 23.75, 23.875, 23.875, 23.875, 24, 24.1875, 24.4375, 24.6875, 24.9375, 25, 25, 25, 25, 25, 25, 25, 25.0625, 25.0625, 25.0625, 25.125, 25.3125, 25.5625, 25.8125, 25.9375, 25.9375, 25.9375, 25.875, 25.875, 25.875, 25.875, 25.9375, 26, 26, 26, 26.125, 26.25, 26.4375, 26.5625, 26.5625, 26.625, 26.6875, 26.8125, 26.9375, 27, 27, 27, 27, 27, 27, 27.125, 27.3125, 27.5, 27.75, 27.6875, 27.75, 27.875, 27.875, 28.0625, 28.0625, 28, 28.0625, 28.03125, 28.09375, 28.15625, 28.129463, 28.145834, 11.333333, 11.25, 11.25, 11.1875, 11.125, 11.0625, 11, 11.0625, 11.125, 11.25, 11.375, 11.3125, 11.375, 11.3125, 11.25, 11.3125, 11.25, 11.1875, 11.25, 11.1875, 11.125, 11.125, 11, 11, 11.0625, 11.125, 11.25, 11.375, 11.375, 11.375, 11.25, 11.1875, 11.1875, 11.1875, 11.25, -10, -10, -10, -10, -10, -10, -10, -10, -10, -10, 25, 25.333334, 25.5, 25.5, 25.5, 25.5, 25.473213, 25.401787, 25.375, 25.25, 25.4375, 25.5, 25.5625, 25.651787, 25.625, 25.625, 25.625, 25.75, 25.75, 25.75, 25.875, 26, 26.125, 26.169643, 25.916666, 25.625, 25.4375, 25.383928, 25.690477, 26.095238, 26.321428, 26.53125, 26.65625, 26.84375, 27.03125
-10, -10, -10, -10, -10, -10, -10, -10, -10, -10, -10, -10, -10, -10, -10, -10, -10, -10, -10, -10, -10, -10, 54.75, 54.583336, 54.4375, 54.25, 54.0625, 53.9375, 53.75, 53.491074, 52.916668, 52.508926, 52.25, 51.875, 51.625, 51.4375, 51.107143, 50.666668, 50.383926, 50.125, 49.9375, 49.75, 49.5, 49.1875, 48.875, 48.776787, 48.625, 48.25, 47.866074, 47.375, 47.0625, 46.625, 46.375, 46.1875, 45.75, 45.5, 45.25, 44.875, 44.625, 44.375, 44.125, 43.75, 43.5, 43.125, 42.8125, 42.5625, 42.3125, 42.125, 41.6875, 41.4375, 41.1875, 40.875, 40.625, 40.375, 40.125, 39.75, 39.5, 39.25, 38.75, 38.5, 38.25, 37.875, 37.625, 37.375, 36.96875, 36.65625, 36.40625, 36.084824, 35.604168, 35.258926, 35, 34.75, 34.5, 34.3125, 34.125, 33.8125, 33.5625, 33.3125, 32.9375, 32.625, 32.375, 32.125, 31.75, 31.5, 31.25, 30.9375, 30.75, 30.491072, 29.979166, 29.571428, 29.3125, 29.125, 28.928572, 28.470238, 27.863094, 27.357141, 27.0625, 26.9375, 26.9375, 26.6875, 26.5, 26.25, 25.9375, 25.6875, 25.4375, 25, 24.5625, 24.3125, 24, 23.75, 23.5, 23.25, 22.9375, 22.625, 22.375, 22.125, 21.75, 21.5, 21.25, 21, 21.0625, 21.25, 21.5, 21.6875, 21.875, 21.9375, 21.9375, 22, 22, 22, 22, 22, 22, 22, 22.0625, 22.1875, 22.25, 22.375, 22.4375, 22.5625, 22.75, 22.875, 23, 23, 23.0625, 23.0625, 23.0625, 23.125, 23.125, 23.375, 23.5625, 23.5, 23.4375, 23.1875, 23.0625, 23.25, 23.3125, 23.5, 23.625, 23.625, 23.6875, 23.625, 23.6875, 23.75, 23.75, 23.875, 23.875, 23.875, 24, 24.25, 24.5, 24.75, 25, 25, 25, 25, 25, 25, 25, 25, 25.125, 25.1875, 25.25, 25.375, 25.5, 25.6875, 25.8125, 25.8125, 25.75, 25.75, 25.75, 25.8125, 25.875, 25.875, 25.9375, 26, 26, 26, 26.125, 26.25, 26.375, 26.5, 26.5625, 26.625, 26.75, 26.875, 26.9375, 27, 27, 27, 27, 27, 27, 27.0625, 27.25, 27.4375, 27.6875, 27.75, 27.8125, 27.9375, 27.9375, 28.0625, 28.0625, 28, 28.0625, 28.09375, 28.21875, 28.28125, 28.28125, 28.3125, 28.5, 11, 11, 11, 11, 11, 11, 11, 11, 11.0625, 11.125, 11.125, 11.1875, 11.125, 11.0625, 11.0625, 11, 11, 11.0625, 11.0625, 11.0625, 11.0625, 11, 11, 11.0625, 11.0625, 11.125, 11.25, 11.1875, 11.1875, 11.125, 11, 11, 11, 11, -10, -10, -10, -10, -10, -10, -10, -10, -10, 25, 25, 25.25, 25.1875, 25.125, 25.0625, 25, 25.035713, 25.026787, 25.0625, 25.0625, 25.3125, 25.375, 25.4375, 25.357143, 25.3125, 25.375, 25.375, 25.401787, 25.4375, 25.375, 25.625, 25.8125, 25.9375, 26.0625, 26, 25.875, 25.8125, 25.821428, 26.083334, 26.178572, 26.28125, 26.40625, 26.59375, 26.78125, 27.0625, 27.25, 27.4375, 27.491072, 27.229166, 27.142857, 27.055557, -10, -10, -10, -10, -10, -10, -10, -10, -10, -10, -10, -10, -10, -10, -10, -10, -10, -10, -10, -10, -10, -10, -10, -10, -10, -10, -10, -10, -10, -10, -10, -10, -10, -10, -10, -10, -10, -10, -10, -10, -10, -10, -10, -10, -10, -10, -10, -10, -10, -10, -10, -10, -10, -10, -10, -10, -10, -10, -10, -10, -10, -10, 55, 54.833336, 54.625, 54.375, 54.125, 53.875, 53.75, 53.491074, 52.916668, 52.526787, 52.25, 51.875, 51.625, 51.4375, 51.044643, 50.666668, 50.383926, 50.0625, 49.901787, 49.625, 49.375, 49.0625, 48.6875, 48.526787, 48.375, 48.0625, 47.741074, 47.375, 47.125, 46.6875, 46.4375, 46.1875, 45.6875, 45.4375, 45.1875, 44.875, 44.625, 44.375, 44.125, 43.75, 43.5, 43.1875, 42.875, 42.625, 42.375, 42.0625, 41.625, 41.375, 41.125, 40.875, 40.625, 40.375, 40.0625, 39.6875, 39.4375, 39.1875, 38.8125, 38.5625, 38.3125, 38, 37.6875, 37.4375, 36.96875, 36.53125, 36.28125, 35.959824, 35.479168, 35.196426, 34.9375, 34.6875, 34.5625, 34.375, 34.1875, 33.8125, 33.5, 33.25, 32.9375, 32.6875, 32.4375, 32.1875, 31.75, 31.5, 31.25, 30.875, 30.625, 30.375, 30.0625, 29.6875, 29.4375, 29.1875, 29, 28.741072, 28.104166, 27.5, 27.1875, 27, 26.9375, 26.642857, 26.4375, 26.1875, 25.875, 25.625, 25.375, 25, 24.625, 24.375, 24.0625, 23.75, 23.5, 23.25, 22.9375, 22.625, 22.375, 22.125, 21.75, 21.5, 21.25, 21.0625, 21.1875, 21.4375, 21.6875, 21.8125, 21.9375, 21.9375, 21.9375, 22, 22, 22, 22, 22, 22, 22, 22.0625, 22.25, 22.3125, 22.375, 22.375, 22.4375, 22.625, 22.8125, 23, 23, 23, 23, 23.0625, 23.125, 23.25, 23.5, 23.625, 23.5625, 23.5, 23.3125, 23.1875, 23.375, 23.4375, 23.625, 23.8125, 23.875, 23.9375, 23.875, 23.875, 23.875, 23.8125, 23.875, 23.875, 23.875, 24, 24.1875, 24.375, 24.625, 24.875, 24.9375, 25, 25, 25, 25, 25, 25, 25.125, 25.1875, 25.25, 25.3125, 25.375, 25.5, 25.5625, 25.5625, 25.5, 25.5, 25.625, 25.8125, 26, 26.0625, 26.0625, 26.0625, 26, 26, 26.125, 26.25, 26.375, 26.5, 26.625, 26.75, 26.875, 27, 27, 27, 27, 27, 27, 27, 27, 27.0625, 27.25, 27.4375, 27.616072, 27.416666, 27.479166, 27.708334, 27.803572, 28, 28, 28, 28.0625, 28.09375, 28.21875, 28.34375, 28.40625, 28.5, 28.666666, 11, 11, 11, 11, 11, 11, 11, 11, 10.9375, 10.90625, 10.90625, 10.90625, 10.96875, 11, 11, 11, 11, 11.0625, 11.0625, 11.0625, 11.0625, 11, 11, 11, 11, 11.0625, 11.125, 11.125, 11.125, 11.0625, 11, 11, 11, 11, 11, -10, -10, -10, -10, -10, -10, -10, 25, 25, 25, 25, 24.875, 24.75, 24.625, 24.5625, 24.598213, 24.651787, 24.8125, 24.875, 25.1875, 25.25, 25.125, 24.982143, 24.9375, 24.9375, 25.0625, 25.089287, 25.125, 25.0625, 25.25, 25.392857, 25.708334, 25.928572, 26, 26, 26, 26, 26, 26, 26.09375, 26.28125, 26.53125, 26.78125, 27.0625
-10, -10, -10, -10, -10, -10, -10, -10, -10, -10, -10, -10, -10, -10, -10, -10, -10, -10, -10, -10, -10, -10, 55, 54.833336, 54.625, 54.375, 54.125, 53.875, 53.75, 53.491074, 52.979168, 52.589287, 52.3125, 52, 51.6875, 51.5, 51.044643, 50.604168, 50.321426, 49.9375, 49.776787, 49.5, 49.25, 49, 48.625, 48.401787, 48.25, 47.9375, 47.741074, 47.4375, 47.125, 46.642857, 46.375, 46.0625, 45.625, 45.375, 45.125, 44.9375, 44.6875, 44.4375, 44.1875, 43.75, 43.5, 43.25, 42.9375, 42.6875, 42.4375, 42.0625, 41.6875, 41.4375, 41.1875, 40.9375, 40.625, 40.375, 40, 39.625, 39.375, 39.125, 38.875, 38.625, 38.375, 38.0625, 37.6875, 37.4375, 37.03125, 36.59375, 36.34375, 35.959824, 35.416668, 35.133926, 34.8125, 34.6875, 34.544643, 34.205357, 34.008926, 33.625, 33.375, 33.1875, 33, 32.75, 32.5, 32.25, 31.8125, 31.5625, 31.3125, 30.875, 30.5625, 30.3125, 30.0625, 29.75, 29.5, 29.25, 28.9375, 28.6875, 28.25, 27.678572, 27.4375, 27.1875, 27.0625, 26.705357, 26.4375, 26.1875, 25.875, 25.625, 25.375, 25.0625, 24.6875, 24.4375, 24.0625, 23.625, 23.375, 23.125, 22.875, 22.625, 22.375, 22.125, 21.75, 21.5, 21.25, 21.125, 21.25, 21.5, 21.75, 21.8125, 21.9375, 21.9375, 21.9375, 22, 22, 22, 22, 22, 22, 22.0625, 22.125, 22.3125, 22.375, 22.3125, 22.25, 22.3125, 22.5, 22.6875, 22.875, 22.75, 22.714287, 22.857143, 23.0625, 23.1875, 23.3125, 23.5625, 23.625, 23.625, 23.625, 23.5, 23.4375, 23.5625, 23.5625, 23.625, 23.6875, 23.6875, 23.8125, 23.875, 23.9375, 24, 23.9375, 23.9375, 23.9375, 23.9375, 24, 24.125, 24.25, 24.5, 24.75, 24.875, 25, 25, 25, 25, 25, 25, 25.125, 25.1875, 25.25, 25.3125, 25.3125, 25.375, 25.4375, 25.4375, 25.375, 25.375, 25.5, 25.6875, 26, 26.125, 26.125, 26.1875, 26.0625, 26.0625, 26.1875, 26.25, 26.3125, 26.4375, 26.5625, 26.6875, 26.875, 27, 27, 27, 27, 27, 27, 27, 27, 27.0625, 27.25, 27.4375, 27.535715, 27.229166, 27.291666, 27.520834, 27.741072, 27.9375, 28, 28, 28, 28, 28.125, 28.3125, 28.5, 28.625, 28.666666, 11, 11, 11, 11, 11, 11, 11, 11, 10.875, 10.84375, 10.84375, 10.84375, 10.96875, 11, 11, 11, 11, 11, 11, 11, 11, 11, 11, 11, 11, 11.0625, 11.0625, 11.0625, 11.0625, 11, 11, 11, 11, 11, -10, -10, -10, -10, -10, -10, -10, 25, 25, 24.9375, 24.8125, 24.75, 24.660713, 24.5, 24.5, 24.4375, 24.473213, 24.589287, 24.6875, 24.75, 25.0625, 25, 24.8125, 24.607143, 24.5625, 24.5625, 24.75, 24.776787, 24.8125, 24.75, 24.875, 25.017857, 25.395834, 25.785715, 25.9375, 26, 26, 26, 26, 26, 26.15625, 26.28125, 26.46875, 26.71875, 26.875, 27.0625, 27.1875, 27.116072, 26.791666, 26.785713, 26.979168, 27.11508, 27.583332, -10, -10, -10, -10, -10, -10, -10, -10, -10, -10, -10, -10, -10, -10, -10, -10, -10, -10, -10, -10, -10, -10, -10, -10, -10, -10, -10, -10, -10, -10, -10, -10, -10, -10, -10, -10, -10, -10, -10, -10, -10, -10, -10, -10, -10, -10, -10, -10, -10, -10, -10, -10, -10, -10, -10, -10, -10, -10, -10, -10, 55, 54.833336, 54.625, 54.375, 54.125, 53.8125, 53.6875, 53.428574, 52.854168, 52.526787, 52.25, 52, 51.75, 51.5625, 51.107143, 50.666668, 50.36607, 49.830357, 49.598213, 49.3125, 49.125, 48.9375, 48.625, 48.3125, 48.0625, 47.9375, 47.75, 47.5625, 47.1875, 46.642857, 46.375, 46, 45.625, 45.375, 45.125, 44.9375, 44.6875, 44.4375, 44.1875, 43.75, 43.5, 43.25, 42.9375, 42.6875, 42.4375, 42.0625, 41.6875, 41.4375, 41.125, 40.8125, 40.5, 40.25, 39.875, 39.5625, 39.3125, 39.0625, 38.875, 38.625, 38.375, 38.0625, 37.6875, 37.4375, 37.09375, 36.71875, 36.46875, 36.09375, 35.714287, 35.4375, 35.125, 34.9375, 34.669643, 34.205357, 33.946426, 33.5625, 33.3125, 33.1875, 33, 32.75, 32.5, 32.25, 31.8125, 31.5625, 31.3125, 30.875, 30.5625, 30.3125, 30.0625, 29.75, 29.5, 29.25, 28.875, 28.625, 28.25, 27.785713, 27.625, 27.375, 27.1875, 26.767857, 26.4375, 26.1875, 25.875, 25.625, 25.375, 25.125, 24.8125, 24.5625, 24.125, 23.580357, 23.3125, 23.0625, 22.8125, 22.5625, 22.3125, 22.0625, 21.75, 21.5, 21.3125, 21.25, 21.4375, 21.6875, 21.875, 21.9375, 22, 22, 22, 22, 22, 22, 22, 22, 22, 22.0625, 22.125, 22.25, 22.3125, 22.25, 22.1875, 22.3125, 22.5, 22.6875, 22.875, 22.75, 22.714287, 22.857143, 23.0625, 23.1875, 23.3125, 23.5625, 23.6875, 23.75, 23.8125, 23.75, 23.6875, 23.78125, 23.84375, 23.84375, 23.90625, 23.857143, 23.776787, 23.875, 23.875, 24, 24, 24, 24, 24, 24.0625, 24.1875, 24.3125, 24.5625, 24.75, 24.875, 25, 25, 25, 25, 25, 25, 25.0625, 25.125, 25.1875, 25.3125, 25.375, 25.375, 25.4375, 25.3125, 25.25, 25.3125, 25.4375, 25.75, 26.125, 26.25, 26.25, 26.25, 26.0625, 26.0625, 26.1875, 26.25, 26.375, 26.5, 26.625, 26.75, 26.875, 27, 27, 27, 27, 27, 27, 27, 27, 27.0625, 27.3125, 27.5625, 27.660715, 27.416666, 27.416666, 27.583334, 27.803572, 27.9375, 28, 28, 28, 28, 28.0625, 28.3125, 28.5, 28.625, 28.75, 11, 11, 11, 11, 11, 11, 11, 11, 10.8125, 10.78125, 10.78125, 10.78125, 10.96875, 11, 11, 11, 11, 11, 11, 11, 11, 11, 11, 11, 11, 11, 11, 11, 11, 11, 11, 11, 11, -10, -10, -10, -10, -10, -10, -10, -10, 24.75, 24.875, 24.875, 24.75, 24.625, 24.473213, 24.3125, 24.375, 24.25, 24.3125, 24.4375, 24.4375, 24.5625, 24.75, 24.6875, 24.5, 24.330357, 24.375, 24.482143, 24.75, 24.839287, 24.875, 24.8125, 24.8125, 24.892857, 25.270834, 25.660715, 25.875, 26, 26, 25.9375, 25.9375, 25.9375, 26.09375, 26.25, 26.375, 26.625, 26.65625
-10, -10, -10, -10, -10, -10, -10, -10, -10, -10, -10, -10, -10, -10, -10, -10, -10, -10, -10, -10, -10, -10, 54.875, 54.666668, 54.5, 54.25, 54.0625, 53.8125, 53.625, 53.375, 52.9375, 52.580357, 52.3125, 52.0625, 51.75, 51.5625, 51.107143, 50.714287, 50.482143, 49.892857, 49.723213, 49.375, 49.125, 48.892857, 48.5625, 48.25, 48.0625, 47.9375, 47.75, 47.5625, 47.1875, 46.642857, 46.375, 46, 45.625, 45.375, 45.125, 44.9375, 44.75, 44.5, 44.25, 43.8125, 43.5, 43.25, 42.9375, 42.6875, 42.4375, 42.125, 41.75, 41.5, 41.1875, 40.75, 40.4375, 40.1875, 39.8125, 39.5625, 39.3125, 39.0625, 38.875, 38.625, 38.375, 38.0625, 37.75, 37.5, 37.1875, 36.8125, 36.5, 36.0625, 35.714287, 35.5, 35.1875, 35, 34.625, 34.142857, 33.883926, 33.625, 33.375, 33.25, 33.0625, 32.75, 32.5, 32.25, 31.8125, 31.5625, 31.3125, 30.9375, 30.625, 30.375, 30.125, 29.75, 29.5, 29.25, 28.875, 28.625, 28.3125, 27.892857, 27.6875, 27.4375, 27.1875, 26.767857, 26.4375, 26.1875, 25.8125, 25.5625, 25.3125, 25.0625, 24.875, 24.6875, 24.241072, 23.559525, 23.258928, 23, 22.8125, 22.5625, 22.3125, 22.0625, 21.8125, 21.625, 21.4375, 21.4375, 21.625, 21.8125, 22, 21.9375, 21.9375, 21.9375, 21.875, 21.9375, 21.9375, 21.9375, 22, 22, 22, 22.0625, 22.0625, 22.125, 22.125, 22.089287, 22.160713, 22.3125, 22.5625, 22.6875, 22.875, 22.75, 22.714287, 22.857143, 23.0625, 23.125, 23.1875, 23.4375, 23.5625, 23.75, 23.875, 23.875, 23.875, 23.96875, 24.09375, 24.03125, 24.03125, 23.857143, 23.651787, 23.71875, 23.71875, 23.90625, 24.03125, 24.125, 24.125, 24.125, 24.125, 24.1875, 24.3125, 24.5625, 24.75, 24.875, 25, 25, 25, 25, 25, 25, 25, 25, 25.0625, 25.1875, 25.3125, 25.375, 25.5, 25.508928, 25.6875, 25.6875, 25.705357, 25.875, 26.1875, 26.3125, 26.3125, 26.3125, 26.0625, 26.0625, 26.125, 26.1875, 26.375, 26.5625, 26.75, 26.875, 26.9375, 27, 27, 27, 27, 27, 27, 27, 27, 27.0625, 27.25, 27.4375, 27.535715, 27.291666, 27.354166, 27.583334, 27.803572, 27.9375, 28, 28, 28, 28, 28, 28.1875, 28.3125, 28.375, 28.5, 11, 11, 11, 11, 11, 11, 11, 11, 10.8125, 10.78125, 10.78125, 10.78125, 10.96875, 11, 11, 11, 10.9375, 10.9375, 10.9375, 10.9375, 11, 11, 11, 11, 11, 10.9375, 10.9375, 10.9375, 10.9375, 11, 11, 11, 11, -10, -10, -10, -10, -10, -10, 24, 24, 24.5625, 24.6875, 24.8125, 24.785713, 24.6875, 24.535713, 24.25, 24.205357, 24.125, 24.125, 24.25, 24.28125, 24.40625, 24.59375, 24.517857, 24.166666, 24.008928, 24, 24.107143, 24.4375, 24.732143, 24.8125, 24.875, 24.75, 24.767857, 25.083334, 25.473215, 25.75, 25.9375, 26, 25.9375, 25.9375, 25.9375, 26.0625, 26.25, 26.3125, 26.5, 26.4375, 26.375, 26.375, 26.25, 26.375, 26.580357, 26.958334, 27.294643, 27.479166, 27.555555, 27.791668, -10, -10, -10, -10, -10, -10, -10, -10, -10, -10, -10, -10, -10, -10, -10, -10, -10, -10, -10, -10, -10, -10, -10, -10, -10, -10, -10, -10, -10, -10, -10, -10, -10, -10, -10, -10, -10, -10, -10, -10, -10, -10, -10, -10, -10, -10, -10, -10, -10, -10, -10, -10, -10, -10, -10, -10, -10, -10, 54.958332, 54.516666, 54.383926, 54.125, 54, 53.8125, 53.5625, 53.3125, 52.9375, 52.625, 52.375, 52.0625, 51.6875, 51.5625, 51.142857, 50.741074, 50.544643, 49.955357, 49.758926, 49.375, 49.0625, 48.767857, 48.5, 48.25, 48.125, 47.9375, 47.75, 47.5, 47.125, 46.642857, 46.375, 46, 45.6875, 45.4375, 45.1875, 45.0625, 44.875, 44.625, 44.375, 43.875, 43.5, 43.25, 43, 42.75, 42.5, 42.25, 41.8125, 41.5625, 41.25, 40.8125, 40.5, 40.25, 39.9375, 39.625, 39.375, 39.125, 38.8125, 38.5625, 38.3125, 38, 37.75, 37.5, 37.25, 36.875, 36.5625, 36.125, 35.776787, 35.625, 35.303574, 34.916668, 34.446426, 33.955357, 33.696426, 33.5, 33.3125, 33.1875, 33, 32.6875, 32.4375, 32.1875, 31.8125, 31.5625, 31.3125, 31, 30.6875, 30.4375, 30.1875, 29.75, 29.5, 29.25, 28.875, 28.625, 28.375, 28, 27.6875, 27.4375, 27.1875, 26.8125, 26.5, 26.25, 25.8125, 25.5625, 25.3125, 25.0625, 24.9375, 24.8125, 24.419643, 23.601191, 23.267857, 23, 22.875, 22.625, 22.375, 22.125, 21.875, 21.75, 21.5625, 21.5, 21.625, 21.75, 21.9375, 21.875, 21.875, 21.875, 21.75, 21.875, 21.875, 21.875, 22, 22, 22, 22.0625, 22.0625, 22.0625, 21.9375, 21.928572, 22.071428, 22.1875, 22.5, 22.5625, 22.75, 22.6875, 22.714287, 22.857143, 23, 23.0625, 23.0625, 23.3125, 23.5, 23.75, 23.9375, 23.9375, 23.9375, 23.96875, 24.09375, 24.03125, 24.03125, 23.857143, 23.651787, 23.71875, 23.71875, 23.96875, 24.15625, 24.3125, 24.3125, 24.25, 24.25, 24.3125, 24.5, 24.75, 24.875, 24.9375, 25, 25, 25, 25, 25, 25, 25, 25.0625, 25.1875, 25.375, 25.5625, 25.625, 25.6875, 25.696428, 25.875, 25.875, 25.892857, 26, 26.1875, 26.25, 26.25, 26.25, 26.0625, 26.0625, 26.125, 26.1875, 26.375, 26.625, 26.8125, 26.9375, 27, 27, 27, 27, 27, 27, 27, 27, 27, 27, 27.125, 27.25, 27.357143, 27.375, 27.5, 27.625, 27.8125, 27.9375, 28, 28, 28, 28, 28, 28.1875, 28.25, 28.25, 28.333334, 11, 11, 11, 11, 11, 11, 11, 11, 10.875, 10.8125, 10.8125, 10.8125, 10.9375, 11, 11, 11, 10.9375, 10.9375, 10.9375, 10.9375, 11, 11, 11, 11, 10.9375, 10.8125, 10.8125, 10.8125, 10.875, 11, 11, 11, -10, -10, -10, -10, -10, -10, -10, 24, 24, 24.241072, 24.104166, 24.397959, 24.367346, 24.270834, 24.181549, 23.875, 23.892857, 23.8125, 23.9375, 24.0625, 24.09375, 24.21875, 24.34375, 24.267857, 23.979166, 23.790178, 23.71875, 23.888393, 24.15625, 24.544643, 24.6875, 24.8125, 24.8125, 24.8125, 25, 25.357143, 25.625, 25.875, 26, 25.9375, 25.9375, 25.875, 25.9375, 26.0625, 26.0625, 26.25, 26.1875
-10, -10, -10, -10, -10, -10, -10, -10, -10, -10, -10, -10, -10, -10, -10, -10, -10, -10, -10, -10, -10, -10, 54.833332, 54.433331, 54.383926, 54.125, 54.0625, 53.875, 53.5625, 53.3125, 52.9375, 52.625, 52.375, 52.0625, 51.6875, 51.5625, 51.205357, 50.866074, 50.669643, 50.142857, 49.946426, 49.5, 49.1875, 48.767857, 48.5, 48.25, 48.125, 47.9375, 47.625, 47.375, 47.0625, 46.6875, 46.375, 45.955357, 45.6875, 45.4375, 45.25, 45.125, 44.9375, 44.6875, 44.375, 43.830357, 43.4375, 43.1875, 42.9375, 42.6875, 42.4375, 42.1875, 41.75, 41.5, 41.1875, 40.8125, 40.5625, 40.3125, 40, 39.625, 39.375, 39.125, 38.8125, 38.5625, 38.3125, 38, 37.75, 37.5, 37.25, 36.875, 36.625, 36.196426, 35.610119, 35.419643, 35.116074, 34.729168, 34.339287, 34.0625, 33.8125, 33.625, 33.375, 33.1875, 32.9375, 32.625, 32.375, 32.0625, 31.6875, 31.4375, 31.1875, 30.9375, 30.6875, 30.4375, 30.1875, 29.75, 29.5, 29.25, 28.875, 28.625, 28.375, 27.9375, 27.5625, 27.3125, 27, 26.6875, 26.4375, 26.1875, 25.75, 25.5, 25.25, 25, 24.9375, 24.8125, 24.482143, 23.663691, 23.330357, 23.0625, 22.875, 22.625, 22.375, 22.125, 21.9375, 21.875, 21.75, 21.625, 21.625, 21.6875, 21.8125, 21.8125, 21.8125, 21.75, 21.625, 21.75, 21.8125, 21.875, 22, 22, 22, 22, 22, 22, 21.8125, 21.866072, 22.008928, 22.0625, 22.375, 22.4375, 22.6875, 22.8125, 22.9375, 23, 23, 23, 23, 23.1875, 23.4375, 23.6875, 23.875, 23.9375, 23.9375, 23.96875, 24.09375, 24.09375, 24.15625, 24.044643, 23.839287, 23.78125, 23.71875, 23.96875, 24.263393, 24.5, 24.5, 24.375, 24.375, 24.4375, 24.6875, 24.9375, 25, 25, 25, 25, 25, 25, 25, 25, 25, 25.0625, 25.1875, 25.4375, 25.6875, 25.8125, 25.8125, 25.821428, 26, 26, 26.080357, 26.125, 26.1875, 26.1875, 26.1875, 26.125, 26.0625, 26.125, 26.1875, 26.3125, 26.5, 26.6875, 26.875, 27, 27, 27, 27.0625, 27.0625, 27.0625, 27.0625, 27, 27.0625, 27.0625, 27.0625, 27.125, 27.125, 27.25, 27.375, 27.5, 27.6875, 27.8125, 27.9375, 28, 28, 28, 28, 28.03125, 28.1875, 28.25, 28.25, 28.291668, 10.875, 10.916667, 10.9375, 11, 11, 11, 10.9375, 10.9375, 10.875, 10.8125, 10.8125, 10.75, 10.75, 10.75, 10.75, 10.75, 10.6875, 10.75, 10.8125, 10.875, 10.9375, 10.875, 10.875, 10.875, 10.8125, 10.6875, 10.6875, 10.6875, 10.8125, 11, 11, -10, -10, -10, -10, -10, -10, -10, 23.666668, 23.875, 23.9375, 23.991072, 23.791666, 23.511904, 23.577383, 24.083334, 24.020834, 23.8125, 23.642857, 23.5625, 23.625, 23.625, 23.71875, 23.84375, 23.90625, 23.955357, 23.729166, 23.665178, 23.65625, 23.825893, 24.03125, 24.357143, 24.5625, 24.6875, 24.8125, 24.875, 25, 25.25, 25.5, 25.75, 25.9375, 25.9375, 25.9375, 25.9375, 25.910713, 25.964287, 26, 26.0625, 26.125, 26.133928, 26.467262, 26.669643, 26.8125, 26.9375, 26.9375, 27.125, 27.25, 27.4375, 27.645834, 27.765875, 27, -10, -10, -10, -10, -10, -10, -10, -10, -10, -10, -10, -10, -10, -10, -10, -10, -10, -10, -10, -10, -10, -10, -10, -10, -10, -10, -10, -10, -10, -10, -10, -10, -10, -10, -10, -10, -10, -10, -10, -10, -10, -10, -10, -10, -10, -10, -10, -10, -10, -10, -10, -10, -10, -10, -10, -10, 54.833332, 54.516666, 54.446426, 54.1875, 54.125, 53.875, 53.5625, 53.3125, 52.9375, 52.625, 52.375, 52.0625, 51.75, 51.625, 51.330357, 50.928574, 50.6875, 50.3125, 50.125, 49.6875, 49.3125, 48.767857, 48.4375, 48.125, 48, 47.8125, 47.5, 47.25, 47, 46.75, 46.5, 46.13393, 45.666668, 45.383926, 45.1875, 45.0625, 44.9375, 44.6875, 44.3125, 43.785713, 43.375, 43.125, 42.9375, 42.6875, 42.4375, 42.1875, 41.75, 41.5, 41.25, 40.875, 40.625, 40.375, 40.0625, 39.6875, 39.4375, 39.1875, 38.875, 38.625, 38.375, 38, 37.6875, 37.4375, 37.1875, 36.875, 36.6875, 36.3125, 35.479164, 35.294643, 34.991074, 34.604168, 34.339287, 34.125, 33.8125, 33.625, 33.375, 33.1875, 33.0625, 32.794643, 32.416668, 32, 31.625, 31.375, 31.125, 30.9375, 30.6875, 30.4375, 30.1875, 29.75, 29.5, 29.25, 28.9375, 28.6875, 28.4375, 27.9375, 27.5, 27.25, 26.9375, 26.75, 26.5625, 26.3125, 25.875, 25.517857, 25.25, 25, 24.875, 24.75, 24.482143, 23.770832, 23.455357, 23.1875, 22.9375, 22.625, 22.375, 22.125, 22, 21.9375, 21.75, 21.5625, 21.4375, 21.4375, 21.625, 21.625, 21.625, 21.625, 21.5, 21.6875, 21.8125, 21.875, 22, 22, 22, 22, 22, 22.0625, 21.875, 21.928572, 22.071428, 22, 22.25, 22.25, 22.5, 22.625, 22.8125, 22.9375, 22.9375, 23, 23, 23.125, 23.3125, 23.5625, 23.6875, 23.75, 23.8125, 23.8125, 23.9375, 24, 24, 23.9375, 23.875, 23.71875, 23.65625, 23.861607, 24.346727, 24.607143, 24.625, 24.4375, 24.3125, 24.375, 24.625, 24.875, 25, 25, 25, 25, 25, 25, 25, 25, 25.0625, 25.1875, 25.375, 25.625, 25.8125, 25.9375, 25.875, 25.946428, 26.125, 26, 26.080357, 26.0625, 26.098213, 26.125, 26.125, 26.0625, 26.125, 26.1875, 26.25, 26.375, 26.5, 26.6875, 26.8125, 26.875, 26.875, 26.875, 27, 27.0625, 27.0625, 27.0625, 27, 27.0625, 27.125, 27.125, 27.125, 27.0625, 27.0625, 27.125, 27.25, 27.5, 27.6875, 27.875, 28, 28, 28, 28.0625, 28.15625, 28.3125, 28.4375, 28.4375, 28.458334, 10.625, 10.666667, 10.6875, 10.75, 10.75, 10.75, 10.6875, 10.6875, 10.6875, 10.625, 10.625, 10.5625, 10.5, 10.5, 10.5, 10.5, 10.4375, 10.5, 10.5625, 10.625, 10.6875, 10.625, 10.625, 10.6875, 10.625, 10.5, 10.5, 10.4375, 10.75, 11, -10, -10, -10, -10, -10, -10, -10, 23.166668, 23.611113, 23.75, 23.8125, 23.803572, 23.541666, 23.508928, 23.669643, 23.773809, 23.895834, 23.625, 23.330357, 23.125, 23.125, 23.1875, 23.34375, 23.53125, 23.65625, 23.767857, 23.666666, 23.665178, 23.65625, 23.71875, 23.84375, 24.107143, 24.3125, 24.4375, 24.5625, 24.625, 24.75, 25, 25.3125, 25.625, 25.875, 26, 26, 26.0625, 26.066963, 26.058037, 26.09375, 26.03125, 26.0625
-10, -10, -10, -10, -10, -10, -10, -10, -10, -10, -10, -10, -10, -10, -10, -10, -10, -10, -10, -10, -10, -10, 54.958332, 54.600002, 54.508926, 54.3125, 54.160713, 53.767857, 53.446426, 53.1875, 52.875, 52.625, 52.375, 52.0625, 51.75, 51.5625, 51.285713, 50.901787, 50.625, 50.3125, 50.0625, 49.6875, 49.321426, 48.666668, 48.375, 48, 47.875, 47.6875, 47.375, 47.125, 46.830357, 46.625, 46.375, 46.00893, 45.604168, 45.321426, 45.0625, 44.9375, 44.75, 44.5, 44.125, 43.660713, 43.3125, 43.0625, 42.9375, 42.6875, 42.4375, 42.125, 41.6875, 41.4375, 41.1875, 40.9375, 40.6875, 40.4375, 40.125, 39.6875, 39.4375, 39.1875, 38.875, 38.625, 38.375, 37.9375, 37.5625, 37.3125, 37.0625, 36.875, 36.75, 36.4375, 35.541664, 35.107143, 34.866074, 34.416668, 34.321426, 34.125, 33.8125, 33.625, 33.375, 33.1875, 33.0625, 32.794643, 32.354168, 31.830357, 31.5, 31.25, 31.0625, 30.9375, 30.6875, 30.4375, 30.1875, 29.75, 29.5, 29.25, 28.875, 28.625, 28.375, 27.9375, 27.5625, 27.3125, 27, 26.8125, 26.625, 26.375, 26, 25.580357, 25.3125, 25.0625, 24.8125, 24.625, 24.366072, 23.854166, 23.571428, 23.3125, 23, 22.625, 22.4375, 22.160713, 21.892857, 21.758928, 21.5625, 21.375, 21.25, 21.25, 21.375, 21.4375, 21.4375, 21.5, 21.5, 21.6875, 21.875, 21.9375, 22, 22, 22, 22, 22, 22.125, 22, 22.089287, 22.223213, 22.0625, 22.1875, 22.125, 22.25, 22.4375, 22.6875, 22.875, 23, 23.0625, 23.0625, 23.125, 23.1875, 23.375, 23.5625, 23.6875, 23.8125, 23.875, 23.9375, 24, 24, 24, 24, 23.875, 23.8125, 23.955357, 24.377977, 24.544643, 24.5625, 24.375, 24.25, 24.375, 24.625, 24.875, 25, 25, 25, 25, 25, 25, 25, 25, 25.125, 25.3125, 25.5, 25.75, 25.875, 25.9375, 25.875, 25.875, 25.875, 25.8125, 26, 26.125, 26.223213, 26.3125, 26.25, 26.125, 26.1875, 26.1875, 26.25, 26.375, 26.5, 26.6875, 26.8125, 26.875, 26.875, 26.875, 27, 27.0625, 27.0625, 27.0625, 27, 27.0625, 27.1875, 27.25, 27.25, 27.1875, 27.0625, 27, 27.125, 27.375, 27.625, 27.875, 28, 28, 28, 28.125, 28.28125, 28.5, 28.6875, 28.6875, 28.708334, 10.375, 10.416667, 10.4375, 10.5, 10.5, 10.5, 10.4375, 10.4375, 10.4375, 10.375, 10.375, 10.3125, 10.25, 10.25, 10.25, 10.25, 10.25, 10.3125, 10.375, 10.4375, 10.4375, 10.375, 10.375, 10.4375, 10.375, 10.3125, 10.375, 10.333333, -10, -10, -10, -10, -10, -10, -10, -10, 23.25, 23.111113, 23.520834, 23.625, 23.6875, 23.678572, 23.354166, 23.196428, 23.205357, 23.229168, 23.217262, 23.169643, 23.125, 23, 22.9375, 22.875, 22.9375, 23.0625, 23.1875, 23.4375, 23.625, 23.78125, 23.90625, 23.90625, 23.90625, 24, 24.125, 24.1875, 24.3125, 24.375, 24.5625, 24.8125, 25.1875, 25.5625, 25.8125, 26, 26, 26.125, 26.191963, 26.120537, 26.15625, 26.03125, 26.0625, 26.196428, 26.663691, 27.107143, 27.125, 27.25, 27.0625, 27.044643, 27.0625, 27.294643, 27.3125, 27.366072, 27.0625, 26.79365, 26.333332, -10, -10, -10, -10, -10, -10, -10, -10, -10, -10, -10, -10, -10, -10, -10, -10, -10, -10, -10, -10, -10, -10, -10, -10, -10, -10, -10, -10, -10, -10, -10, -10, -10, -10, -10, -10, -10, -10, -10, -10, -10, -10, -10, -10, -10, -10, -10, -10, -10, -10, -10, -10, -10, -10, 54.75, 54.583332, 54.5, 54.3125, 54.160713, 53.767857, 53.446426, 53.1875, 52.8125, 52.5625, 52.3125, 52, 51.75, 51.5, 51.25, 50.875, 50.5625, 50.3125, 50, 49.6875, 49.383926, 48.729168, 48.4375, 48, 47.75, 47.625, 47.3125, 47.0625, 46.723213, 46.5, 46.1875, 45.88393, 45.479168, 45.196426, 45, 44.875, 44.6875, 44.4375, 44, 43.535713, 43.25, 43, 42.9375, 42.6875, 42.4375, 42.125, 41.6875, 41.4375, 41.1875, 40.9375, 40.6875, 40.4375, 40.125, 39.6875, 39.4375, 39.1875, 38.875, 38.625, 38.375, 37.875, 37.5, 37.25, 37, 36.875, 36.75, 36.4375, 35.541664, 35.044643, 34.8125, 34.5, 34.375, 34.1875, 33.8125, 33.625, 33.375, 33.1875, 33.125, 32.919643, 32.470238, 31.747023, 31.383928, 31.125, 31, 30.875, 30.625, 30.375, 30.125, 29.75, 29.5, 29.25, 28.8125, 28.5625, 28.3125, 27.9375, 27.625, 27.375, 27.0625, 26.875, 26.75, 26.5, 26.1875, 25.705357, 25.375, 25.125, 24.75, 24.5, 24.25, 23.875, 23.625, 23.375, 22.9375, 22.5625, 22.375, 22.035713, 21.767857, 21.571428, 21.3125, 21.1875, 21.0625, 21.0625, 21.1875, 21.25, 21.25, 21.3125, 21.4375, 21.625, 21.875, 22, 22, 22, 22, 22, 22, 22.125, 22.0625, 22.1875, 22.3125, 22.25, 22.3125, 22.1875, 22.1875, 22.3125, 22.5625, 22.8125, 23, 23.0625, 23.0625, 23.0625, 23.0625, 23.1875, 23.375, 23.5625, 23.75, 23.8125, 23.8125, 23.875, 23.875, 23.9375, 24, 23.875, 23.8125, 23.892857, 24.252977, 24.357143, 24.375, 24.25, 24.1875, 24.375, 24.625, 24.8125, 24.9375, 24.9375, 24.9375, 25, 25, 25, 25, 25, 25.1875, 25.375, 25.5625, 25.8125, 25.875, 25.9375, 25.9375, 25.9375, 25.9375, 25.875, 26.0625, 26.25, 26.410713, 26.5625, 26.4375, 26.25, 26.25, 26.1875, 26.25, 26.375, 26.5, 26.6875, 26.8125, 26.875, 26.875, 26.875, 27, 27.0625, 27.0625, 27.0625, 27, 27.0625, 27.25, 27.375, 27.375, 27.375, 27.25, 27.1875, 27.3125, 27.5, 27.6875, 27.8125, 27.9375, 27.9375, 27.9375, 28.125, 28.28125, 28.5, 28.75, 28.8125, 28.875, 10.125, 10.166667, 10.1875, 10.25, 10.25, 10.25, 10.1875, 10.1875, 10.1875, 10.1875, 10.1875, 10.125, 10.0625, 10, 10, 10, 10, 10.0625, 10.125, 10.1875, 10.1875, 10.125, 10.125, 10.1875, 10.1875, 10.1875, 10.25, 10.277778, -10, -10, -10, -10, -10, -10, -10, 23, 23.166666, 23.083334, 23.208334, 23.25, 23.3125, 23.375, 23.375, 23.3125, 23.258928, 22.958334, 22.883928, 22.919643, 22.9375, 23, 22.910713, 22.8125, 22.8125, 22.8125, 22.9375, 23.1875, 23.375, 23.5625, 23.8125, 23.875, 23.9375, 24, 24.0625, 24, 24.0625, 24.125, 24.25, 24.571428, 25.145834, 25.553572, 25.8125, 26, 26, 26.25, 26.379463, 26.370537, 26.40625, 26.15625, 26.1875
-10, -10, -10, -10, -10, -10, -10, -10, -10, -10, -10, -10, -10, -10, -10, -10, -10, -10, -10, -10, -10, -10, 54.75, 54.583332, 54.4375, 54.25, 54.098213, 53.705357, 53.446426, 53.1875, 52.8125, 52.5625, 52.3125, 51.9375, 51.6875, 51.4375, 51.1875, 50.8125, 50.5, 50.25, 49.875, 49.625, 49.321426, 48.729168, 48.4375, 47.9375, 47.580357, 47.5, 47.25, 47.0625, 46.785713, 46.5, 46.25, 45.991074, 45.479168, 45.196426, 44.9375, 44.8125, 44.625, 44.375, 43.9375, 43.580357, 43.3125, 43, 42.892857, 42.625, 42.375, 42.125, 41.75, 41.5, 41.25, 40.9375, 40.625, 40.375, 40.125, 39.75, 39.5, 39.25, 38.8125, 38.5625, 38.3125, 37.8125, 37.5, 37.25, 37, 36.875, 36.6875, 36.428574, 35.833332, 35.4375, 35.25, 34.875, 34.625, 34.3125, 33.875, 33.625, 33.375, 33.1875, 33.125, 32.919643, 32.407738, 31.684523, 31.321428, 31.0625, 31, 30.875, 30.625, 30.375, 30.125, 29.75, 29.5, 29.25, 28.8125, 28.5625, 28.3125, 28, 27.6875, 27.4375, 27.1875, 26.9375, 26.8125, 26.5625, 26.25, 25.830357, 25.5, 25.25, 24.8125, 24.5, 24.25, 23.875, 23.625, 23.375, 22.9375, 22.5625, 22.375, 21.973213, 21.642857, 21.383928, 21.0625, 21, 20.9375, 20.9375, 21.125, 21.125, 21.125, 21.25, 21.383928, 21.75, 21.9375, 22.0625, 22, 22, 22, 22, 22, 22.125, 22.125, 22.25, 22.375, 22.375, 22.4375, 22.375, 22.375, 22.4375, 22.625, 22.8125, 23, 23.0625, 23.0625, 23.0625, 23, 23.125, 23.3125, 23.5, 23.75, 23.75, 23.75, 23.8125, 23.8125, 23.9375, 24, 23.9375, 23.875, 23.892857, 24.145834, 24.169643, 24.1875, 24.125, 24.0625, 24.25, 24.4375, 24.625, 24.8125, 24.875, 24.9375, 25, 25, 25, 25, 25, 25.1875, 25.4375, 25.6875, 25.9375, 26, 26, 26, 26, 26, 26, 26.1875, 26.4375, 26.660713, 26.75, 26.5625, 26.3125, 26.1875, 26.0625, 26.1875, 26.375, 26.5625, 26.8125, 26.875, 26.875, 26.875, 26.875, 26.9375, 27, 27, 27, 27, 27, 27.1875, 27.3125, 27.3125, 27.4375, 27.375, 27.375, 27.5625, 27.6875, 27.8125, 27.875, 27.9375, 27.875, 27.875, 28.0625, 28.25, 28.5, 28.6875, 28.8125, 28.833334, 10, 10, 10, 10, 10, 10, 10, 10, 10, 10, 10, 10, 10, 10, 10, 10, 10, 10, 10, 10, 10, 10, 10, 10.0625, 10.0625, 10.125, 10.208333, -10, -10, -10, -10, -10, -10, -10, 23, 23, 23.0625, 22.958334, 23, 23, 23.0625, 23.125, 23.1875, 23.1875, 23.133928, 22.895834, 22.758928, 22.794643, 22.848213, 22.767857, 22.669641, 22.5625, 22.5, 22.5, 22.6875, 22.875, 23, 23.375, 23.633928, 23.8125, 23.9375, 24, 24.0625, 23.973213, 23.901787, 23.9375, 24, 24.383928, 25.020834, 25.535715, 25.8125, 26, 26, 26.1875, 26.34375, 26.46875, 26.53125, 26.40625, 26.4375, 26.5, 26.5625, 26.6875, 26.75, 26.910713, 27, 26.964287, 26.8125, 26.982143, 27, 27.25, 27.1875, 27.053572, 26.666666, 26.300001, 26.666668, -10, -10, -10, -10, -10, -10, -10, -10, -10, -10, -10, -10, -10, -10, -10, -10, -10, -10, -10, -10, -10, -10, -10, -10, -10, -10, -10, -10, -10, -10, -10, -10, -10, -10, -10, -10, -10, -10, -10, -10, -10, -10, -10, -10, -10, -10, -10, -10, -10, -10, -10, -10, 54.75, 54.5, 54.375, 54.1875, 53.973213, 53.642857, 53.383926, 53.125, 52.875, 52.625, 52.3125, 51.830357, 51.5, 51.25, 51, 50.6875, 50.4375, 50.1875, 49.875, 49.625, 49.321426, 48.791668, 48.5625, 48.125, 47.767857, 47.6875, 47.375, 47.1875, 46.910713, 46.5, 46.1875, 45.8125, 45.4375, 45.1875, 44.9375, 44.875, 44.625, 44.375, 44, 43.625, 43.375, 43.0625, 42.830357, 42.5625, 42.3125, 42.0625, 41.8125, 41.5625, 41.3125, 41, 40.625, 40.375, 40.125, 39.75, 39.5, 39.25, 38.75, 38.5, 38.25, 37.8125, 37.5625, 37.3125, 37.0625, 36.8125, 36.5625, 36.3125, 35.9375, 35.5625, 35.375, 34.9375, 34.625, 34.3125, 33.875, 33.625, 33.375, 33.125, 32.9375, 32.6875, 32.241074, 31.559523, 31.258928, 31, 31, 30.8125, 30.5625, 30.3125, 30.0625, 29.75, 29.5, 29.25, 28.75, 28.5, 28.25, 27.9375, 27.6875, 27.4375, 27.1875, 26.9375, 26.75, 26.5, 26.25, 25.9375, 25.6875, 25.392857, 24.625, 24.303572, 24.0625, 23.75, 23.5625, 23.3125, 22.9375, 22.625, 22.4375, 21.973213, 21.517857, 21.258928, 20.9375, 20.9375, 20.9375, 20.9375, 21.0625, 21.125, 21.1875, 21.3125, 21.508928, 21.8125, 21.9375, 22.0625, 22, 22, 22, 22, 22, 22.0625, 22.0625, 22.25, 22.4375, 22.5625, 22.625, 22.5, 22.4375, 22.5, 22.6875, 22.875, 23.0625, 23.0625, 23.0625, 23.125, 23.125, 23.1875, 23.4375, 23.625, 23.8125, 23.875, 23.8125, 23.8125, 23.8125, 23.9375, 24, 24, 24, 24, 24.0625, 24.0625, 24.0625, 24.125, 24.125, 24.25, 24.4375, 24.5625, 24.75, 24.875, 25, 25.0625, 25.0625, 25.0625, 25, 25, 25.125, 25.375, 25.625, 25.875, 26, 26, 26, 26, 26.0625, 26.1875, 26.4375, 26.6875, 26.875, 26.875, 26.625, 26.375, 26.125, 26, 26.125, 26.3125, 26.5, 26.75, 26.875, 26.9375, 27, 27, 27, 27, 27, 27, 27, 27, 27.1875, 27.3125, 27.3125, 27.5, 27.5, 27.5625, 27.8125, 27.875, 27.9375, 27.9375, 27.9375, 27.875, 27.875, 28, 28.125, 28.3125, 28.4375, 28.5625, 28.583334, 10, 10, 10, 10, 10, 10, 10, 10, 10, 10, 10, 10, 10, 10, 10, 10, 10, 10, 10, 10, 10, 10, 10, 10, 10.0625, 10.145833, 10.194444, -10, -10, -10, -10, -10, -10, -10, 22.666666, 22.75, 22.6875, 22.625, 22.6875, 22.75, 22.875, 23, 23.0625, 23.0625, 22.883928, 22.583334, 22.508928, 22.544643, 22.660713, 22.642857, 22.544641, 22.375, 22.25, 22.1875, 22.3125, 22.5, 22.6875, 23.125, 23.419641, 23.5625, 23.6875, 23.821428, 23.875, 23.848213, 23.776787, 23.78125, 23.8125, 24.258928, 25.0625, 25.589287, 25.875, 26, 26, 26.125, 26.25, 26.375, 26.4375, 26.375, 26.5
-10, -10, -10, -10, -10, -10, -10, -10, -10, -10, -10, -10, -10, -10, -10, -10, -10, -10, -10, -10, -10, -10, 54.75, 54.5, 54.375, 54.125, 53.9375, 53.6875, 53.4375, 53.1875, 52.9375, 52.6875, 52.375, 51.830357, 51.4375, 51.1875, 50.9375, 50.6875, 50.4375, 50.1875, 49.875, 49.625, 49.375, 49.0625, 48.75, 48.375, 47.955357, 47.75, 47.4375, 47.25, 46.955357, 46.5625, 46.25, 45.875, 45.5, 45.3125, 45.125, 45.0625, 44.8125, 44.5, 44.0625, 43.625, 43.375, 43.0625, 42.767857, 42.5, 42.25, 42.0625, 41.875, 41.625, 41.375, 40.9375, 40.5625, 40.3125, 40.0625, 39.75, 39.5, 39.25, 38.75, 38.5, 38.25, 37.8125, 37.5625, 37.3125, 37.0625, 36.75, 36.5, 36.25, 35.875, 35.6875, 35.4375, 35.0625, 34.6875, 34.375, 33.875, 33.5, 33.25, 32.9375, 32.75, 32.5625, 32.241074, 31.702381, 31.339285, 31.071428, 31, 30.75, 30.5, 30.25, 30, 29.75, 29.5, 29.25, 28.75, 28.5, 28.25, 27.9375, 27.6875, 27.4375, 27.1875, 26.875, 26.6875, 26.4375, 26.1875, 26, 25.8125, 25.517857, 24.75, 24.321428, 24.0625, 23.6875, 23.5, 23.25, 22.9375, 22.6875, 22.4375, 21.9375, 21.5, 21.25, 20.9375, 20.9375, 20.875, 20.875, 21, 21.125, 21.3125, 21.4375, 21.633928, 21.875, 21.9375, 22.0625, 22, 22, 22, 22, 22, 22, 22.0625, 22.25, 22.4375, 22.625, 22.6875, 22.5625, 22.5625, 22.625, 22.75, 22.9375, 23, 23, 23.0625, 23.1875, 23.3125, 23.4375, 23.625, 23.75, 23.875, 23.875, 23.8125, 23.8125, 23.8125, 23.9375, 24, 24, 24, 24, 24, 24.0625, 24.125, 24.25, 24.375, 24.4375, 24.5625, 24.625, 24.75, 24.875, 25.0625, 25.125, 25.125, 25.125, 25, 25, 25.0625, 25.25, 25.5, 25.75, 25.9375, 26, 25.9375, 25.9375, 26, 26.125, 26.4375, 26.6875, 26.8125, 26.75, 26.5, 26.25, 26.0625, 26, 26.125, 26.25, 26.375, 26.5625, 26.625, 26.75, 26.875, 26.9375, 27, 27, 27, 27, 27, 27.0625, 27.25, 27.375, 27.375, 27.5, 27.5625, 27.6875, 27.9375, 28, 28, 27.875, 27.8125, 27.75, 27.75, 27.875, 28, 28.1875, 28.3125, 28.5, 28.583334, 10, 10, 10, 10, 10, 10, 10, 10, 10, 10, 10, 10, 10, 10, 10, 10, 10, 10, 10, 10, 10, 10, 10, 10, 10.083333, 10.194444, -10, -10, -10, -10, -10, 22, 22, 22, 22.5, 22.5, 22.4375, 22.375, 22.375, 22.3125, 22.4375, 22.5625, 22.625, 22.75, 22.625, 22.5625, 22.5, 22.4375, 22.473213, 22.392857, 22.357141, 22.1875, 22.0625, 22, 22.0625, 22.25, 22.4375, 22.875, 23.169641, 23.3125, 23.5, 23.696428, 23.8125, 23.848213, 23.776787, 23.78125, 23.8125, 24.196428, 24.955357, 25.571428, 25.866072, 26, 26, 26.0625, 26.125, 26.1875, 26.25, 26.25, 26.4375, 26.535713, 26.321428, 26.133928, 26.125, 26.285713, 26.535713, 26.669643, 26.575893, 26.361607, 26.352678, 26.46875, 26.571428, 26.895834, 26.857143, 26.8125, 26.770834, 26.75, -10, -10, -10, -10, -10, -10, -10, -10, -10, -10, -10, -10, -10, -10, -10, -10, -10, -10, -10, -10, -10, -10, -10, -10, -10, -10, -10, -10, -10, -10, -10, -10, -10, -10, -10, -10, -10, -10, -10, -10, -10, -10, -10, -10, -10, -10, -10, -10, -10, -10, -10, 54.875, 54.583332, 54.4375, 54.1875, 53.9375, 53.6875, 53.4375, 53.1875, 52.9375, 52.6875, 52.375, 51.830357, 51.4375, 51.1875, 50.875, 50.625, 50.375, 50.125, 49.875, 49.625, 49.375, 49.125, 48.875, 48.5625, 48.205357, 47.9375, 47.625, 47.4375, 47.1875, 46.75, 46.4375, 46.0625, 45.6875, 45.5, 45.25, 45.0625, 44.75, 44.4375, 44, 43.625, 43.375, 43.0625, 42.705357, 42.4375, 42.1875, 42, 41.875, 41.625, 41.3125, 40.8125, 40.4375, 40.1875, 40, 39.75, 39.5, 39.25, 38.8125, 38.5625, 38.3125, 37.9375, 37.625, 37.375, 37.0625, 36.6875, 36.4375, 36.1875, 35.8125, 35.625, 35.375, 35.0625, 34.75, 34.4375, 33.9375, 33.5, 33.25, 32.875, 32.625, 32.4375, 32.125, 31.785713, 31.339285, 30.964285, 30.8125, 30.5625, 30.375, 30.1875, 29.9375, 29.6875, 29.4375, 29.1875, 28.75, 28.5, 28.25, 27.9375, 27.6875, 27.4375, 27.1875, 26.875, 26.625, 26.375, 26.125, 26, 25.875, 25.580357, 24.8125, 24.321428, 24.0625, 23.6875, 23.5, 23.25, 23, 22.75, 22.5, 22.0625, 21.5625, 21.3125, 21.0625, 21, 21, 21.0625, 21.125, 21.3125, 21.5, 21.625, 21.821428, 22, 22, 22.0625, 22, 22, 22, 22, 22, 22, 22.125, 22.3125, 22.5, 22.6875, 22.75, 22.625, 22.6875, 22.75, 22.8125, 23, 23.0625, 23.0625, 23.1875, 23.375, 23.5, 23.6875, 23.8125, 23.875, 23.9375, 23.9375, 23.9375, 23.9375, 23.9375, 24, 24, 24, 24, 24, 24, 24.125, 24.25, 24.4375, 24.5625, 24.5625, 24.625, 24.6875, 24.75, 24.875, 25.125, 25.160713, 25.1875, 25.1875, 25, 25, 25, 25.125, 25.375, 25.625, 25.875, 26, 25.9375, 25.9375, 26, 26.125, 26.375, 26.5625, 26.625, 26.5, 26.3125, 26.125, 26, 26, 26.0625, 26.125, 26.25, 26.4375, 26.5625, 26.75, 26.875, 26.9375, 27, 27, 27, 27, 27, 27.0625, 27.25, 27.375, 27.375, 27.4375, 27.5, 27.625, 27.875, 28, 28, 27.9375, 27.8125, 27.75, 27.75, 27.875, 28.125, 28.3125, 28.4375, 28.5625, 28.583334, 10, 10, 10, 9.9375, 9.9375, 9.9375, 9.9375, 10, 10, 10, 10, 10, 10, 10, 10, 10, 10, 10, 10, 10, 10, 10, 10, 10, -10, -10, -10, -10, -10, -10, -10, 22, 22, 22, 22.25, 22.25, 22.1875, 22.125, 22.1875, 22.125, 22.1875, 22.25, 22.25, 22.4375, 22.40625, 22.40625, 22.40625, 22.34375, 22.348213, 22.205357, 22.071428, 21.8125, 21.6875, 21.6875, 21.75, 21.9375, 22.125, 22.625, 23.035713, 23.1875, 23.276787, 23.508928, 23.669643, 23.848213, 23.839287, 23.84375, 23.9375, 24.25, 24.809525, 25.455357, 25.741072, 25.875, 25.875, 25.875, 25.875, 25.9375, 26.0625, 26.125, 26.25
-10, -10, -10, -10, -10, -10, -10, -10, -10, -10, -10, -10, -10, -10, -10, -10, -10, -10, -10, -10, -10, -10, 55, 54.75, 54.5625, 54.3125, 53.9375, 53.625, 53.375, 53.125, 52.875, 52.625, 52.3125, 51.767857, 51.4375, 51.1875, 50.875, 50.625, 50.375, 50.125, 49.9375, 49.75, 49.5, 49.25, 48.9375, 48.625, 48.375, 48.0625, 47.8125, 47.5625, 47.25, 46.8125, 46.4375, 46.125, 45.75, 45.5625, 45.3125, 45.0625, 44.75, 44.4375, 44.0625, 43.625, 43.375, 43.125, 42.8125, 42.5625, 42.25, 41.892857, 41.6875, 41.4375, 41.1875, 40.8125, 40.5, 40.25, 40.0625, 39.75, 39.5, 39.25, 38.875, 38.625, 38.375, 38.0625, 37.6875, 37.4375, 37.125, 36.6875, 36.4375, 36.1875, 35.8125, 35.5625, 35.3125, 35, 34.6875, 34.4375, 34, 33.5625, 33.3125, 32.9375, 32.6875, 32.5625, 32.303574, 31.827379, 31.276785, 30.776785, 30.526787, 30.3125, 30.1875, 30.125, 29.875, 29.625, 29.375, 29.125, 28.75, 28.5, 28.25, 27.9375, 27.6875, 27.4375, 27.1875, 26.875, 26.625, 26.375, 26.125, 26, 25.875, 25.517857, 24.633928, 24.160713, 23.9375, 23.6875, 23.5625, 23.3125, 23.0625, 22.75, 22.5, 22.125, 21.625, 21.375, 21.125, 21, 21, 21.125, 21.1875, 21.375, 21.625, 21.75, 21.9375, 22, 22, 22, 22, 22, 22, 22, 22, 22, 22.1875, 22.4375, 22.6875, 22.875, 22.875, 22.6875, 22.6875, 22.75, 22.8125, 23, 23.125, 23.125, 23.3125, 23.5625, 23.6875, 23.8125, 23.875, 23.875, 23.875, 24, 24, 24, 24, 24, 24, 24, 24, 24.0625, 24.125, 24.25, 24.375, 24.5, 24.5625, 24.625, 24.75, 24.8125, 24.8125, 24.875, 25.125, 25.196426, 25.25, 25.25, 25, 25, 25, 25.0625, 25.25, 25.5, 25.6875, 25.8125, 25.75, 25.75, 25.875, 26, 26.25, 26.375, 26.3125, 26.25, 26.125, 26, 26, 26, 26.0625, 26.125, 26.25, 26.4375, 26.5625, 26.75, 26.875, 26.9375, 27, 27, 27, 27, 27, 27.0625, 27.25, 27.375, 27.375, 27.375, 27.375, 27.5, 27.75, 27.9375, 28, 27.9375, 27.8125, 27.8125, 27.8125, 27.9375, 28.1875, 28.375, 28.5625, 28.6875, 28.75, 10, 10, 10, 9.875, 9.875, 9.875, 9.875, 10, 10, 9.9375, 9.9375, 9.9375, 9.9375, 10, 10, 10, 10, 10, 10, 10, 10, 10, 10, 10, -10, -10, -10, -10, -10, -10, 22, 22, 22, 21.928572, 21.666666, 21.642857, 21.6875, 21.857143, 22, 22, 21.9375, 21.875, 21.875, 22.0625, 22.09375, 22.09375, 22.03125, 21.90625, 21.9375, 22.0625, 22.0625, 21.875, 21.8125, 21.75, 21.75, 21.9375, 22.1875, 22.53125, 22.995535, 23.15625, 23.169643, 23.358929, 23.678572, 23.955357, 24.0625, 23.96875, 24.125, 24.3125, 24.809525, 25.348213, 25.553572, 25.625, 25.625, 25.625, 25.625, 25.625, 25.75, 25.723213, 25.642857, 25.67857, 25.535713, 25.800594, 25.833334, 25.830357, 25.88393, 26.169643, 26.254465, 25.986607, 25.879463, 25.78125, 25.883928, 26.270834, 26.357143, 26.4375, 26.5, 26.4375, 26.305555, 26.041668, -10, -10, -10, -10, -10, -10, -10, -10, -10, -10, -10, -10, -10, -10, -10, -10, -10, -10, -10, -10, -10, -10, -10, -10, -10, -10, -10, -10, -10, -10, -10, -10, -10, -10, -10, -10, -10, -10, -10, -10, -10, -10, -10, -10, -10, -10, -10, -10, -10, 55, 54.833336, 54.625, 54.375, 54.0625, 53.6875, 53.4375, 53.1875, 52.8125, 52.5625, 52.3125, 51.875, 51.5625, 51.3125, 51, 50.6875, 50.4375, 50.1875, 49.9375, 49.75, 49.5, 49.25, 48.875, 48.5625, 48.3125, 48, 47.8125, 47.5625, 47.25, 46.8125, 46.4375, 46.1875, 45.8125, 45.625, 45.375, 45.0625, 44.8125, 44.5, 44.125, 43.75, 43.4375, 43.1875, 42.875, 42.5625, 42.25, 41.82143, 41.4375, 41.25, 41, 40.75, 40.5, 40.25, 40, 39.6875, 39.4375, 39.1875, 38.875, 38.625, 38.375, 38.0625, 37.6875, 37.4375, 37.125, 36.6875, 36.4375, 36.125, 35.8125, 35.5625, 35.3125, 35.125, 34.75, 34.5, 34.125, 33.6875, 33.4375, 33, 32.714287, 32.625, 32.491074, 32.130955, 31.380953, 30.776785, 30.401787, 30.1875, 30.0625, 30, 29.75, 29.5, 29.25, 29.0625, 28.8125, 28.5625, 28.3125, 28, 27.6875, 27.4375, 27.1875, 26.8125, 26.5625, 26.3125, 26.0625, 26, 25.875, 25.553572, 24.800594, 24.303574, 24.0625, 23.75, 23.5625, 23.3125, 23, 22.6875, 22.4375, 22.125, 21.6875, 21.4375, 21.1875, 21, 21, 21.1875, 21.3125, 21.4375, 21.6875, 21.75, 21.875, 22, 22, 22, 22, 22, 22, 22.0625, 22.125, 22.1875, 22.4375, 22.625, 22.8125, 22.9375, 22.875, 22.75, 22.75, 22.8125, 22.875, 23, 23.125, 23.125, 23.375, 23.625, 23.6875, 23.8125, 23.8125, 23.8125, 23.875, 24, 24, 24, 24, 24, 24, 24, 24.0625, 24.1875, 24.3125, 24.4375, 24.5, 24.5, 24.5, 24.5625, 24.6875, 24.8125, 24.8125, 24.875, 25.125, 25.258926, 25.3125, 25.3125, 25.0625, 25, 25, 25, 25.1875, 25.4375, 25.625, 25.8125, 25.75, 25.75, 25.8125, 25.875, 26, 26.0625, 26, 26, 26, 25.9375, 26, 26.0625, 26.1875, 26.3125, 26.5, 26.625, 26.6875, 26.8125, 26.875, 26.9375, 27, 27, 27, 27, 27, 27.0625, 27.1875, 27.3125, 27.3125, 27.25, 27.25, 27.3125, 27.5625, 27.8125, 27.9375, 27.9375, 27.8125, 27.8125, 27.8125, 28, 28.3125, 28.5625, 28.8125, 28.9375, 29, 10, 10, 10, 9.875, 9.875, 9.875, 9.875, 10, 10, 9.875, 9.8125, 9.8125, 9.8125, 9.9375, 9.9375, 9.9375, 9.9375, 9.9375, 10, 10, 10, 10, 10, -10, -10, -10, -10, -10, -10, 21.833332, 21.916666, 22, 21.928572, 21.595238, 21.238094, 21.205357, 21.3125, 21.544643, 21.6875, 21.625, 21.5, 21.375, 21.4375, 21.6875, 21.84375, 21.84375, 21.78125, 21.65625, 21.625, 21.8125, 21.875, 21.8125, 21.875, 21.875, 21.875, 21.9375, 22, 22.236607, 22.876488, 23.227678, 23.357143, 23.6, 23.991072, 24.267857, 24.5, 24.410713, 24.464287, 24.5625, 24.705357, 25.169643, 25.303572, 25.375, 25.375, 25.375, 25.4375, 25.4375, 25.625, 25.580357, 25.223213
-10, -10, -10, -10, -10, -10, -10, -10, -10, -10, -10, -10, -10, -10, -10, -10, -10, -10, -10, -10, -10, -10, 55, 54.833336, 54.625, 54.375, 54.0625, 53.6875, 53.4375, 53.1875, 52.75, 52.5, 52.25, 51.875, 51.625, 51.375, 51, 50.625, 50.375, 50.125, 49.9375, 49.75, 49.5, 49.25, 48.875, 48.5625, 48.3125, 48.0625, 47.875, 47.625, 47.375, 46.875, 46.5, 46.25, 45.8125, 45.5625, 45.3125, 45, 44.75, 44.5, 44.1875, 43.8125, 43.5, 43.25, 42.875, 42.5625, 42.1875, 41.75893, 41.375, 41.1875, 41, 40.75, 40.5, 40.25, 40, 39.6875, 39.4375, 39.1875, 38.875, 38.625, 38.375, 38.125, 37.75, 37.5, 37.1875, 36.6875, 36.4375, 36.0625, 35.75, 35.5, 35.25, 35.125, 34.75, 34.5, 34.1875, 33.75, 33.5, 33.0625, 32.589287, 32.5625, 32.366074, 32.032738, 31.363094, 30.705357, 30.276787, 30.0625, 29.9375, 29.875, 29.625, 29.375, 29.125, 28.9375, 28.75, 28.5, 28.25, 28, 27.6875, 27.4375, 27.1875, 26.875, 26.625, 26.375, 26.125, 26, 25.8125, 25.428572, 24.630953, 24.223213, 24.0625, 23.848213, 23.651787, 23.4375, 23.0625, 22.75, 22.4375, 22.1875, 21.75, 21.5, 21.25, 21.0625, 21.125, 21.375, 21.5625, 21.5625, 21.75, 21.75, 21.8125, 22, 22, 22, 22, 22, 22, 22.0625, 22.1875, 22.3125, 22.5625, 22.75, 22.875, 23, 22.9375, 22.875, 22.875, 22.875, 22.9375, 23, 23.125, 23.125, 23.375, 23.625, 23.625, 23.6875, 23.6875, 23.6875, 23.8125, 24, 24, 24, 24, 24, 24, 24, 24.0625, 24.25, 24.375, 24.4375, 24.4375, 24.375, 24.3125, 24.375, 24.5625, 24.6875, 24.75, 24.875, 25.125, 25.321426, 25.375, 25.375, 25.125, 25, 25.0625, 25.125, 25.3125, 25.5625, 25.6875, 25.8125, 25.8125, 25.8125, 25.875, 25.9375, 25.9375, 25.9375, 25.875, 25.875, 25.9375, 25.9375, 26, 26.125, 26.3125, 26.5, 26.75, 26.875, 26.9375, 27, 27, 27, 27, 27, 27, 27, 27, 27, 27.0625, 27.125, 27.125, 27.125, 27.125, 27.1875, 27.375, 27.625, 27.8125, 27.9375, 27.9375, 27.9375, 27.9375, 28.125, 28.4375, 28.6875, 28.9375, 29, 29, 9.875, 9.833333, 9.8125, 9.625, 9.6875, 9.6875, 9.6875, 9.8125, 9.75, 9.625, 9.5625, 9.5625, 9.5625, 9.6875, 9.6875, 9.75, 9.8125, 9.875, 9.9375, 9.875, 9.833333, 10, -10, -10, -10, -10, -10, -10, 21.25, 21.555555, 21.6875, 21.6875, 21.642857, 21.380953, 20.988094, 21.017857, 21.0625, 21.294643, 21.4375, 21.4375, 21.3125, 21.1875, 21.3125, 21.5, 21.71875, 21.84375, 21.78125, 21.65625, 21.517857, 21.5625, 21.589287, 21.660713, 21.6875, 21.8125, 21.75, 21.75, 21.875, 22.049107, 22.668154, 23.227678, 23.294643, 23.5375, 23.866072, 24.205357, 24.571428, 24.504463, 24.495537, 24.59375, 24.6875, 25, 25.125, 25.125, 25.125, 25.125, 25.25, 25.375, 25.5625, 25.517857, 25.098213, 25.035713, 25.017857, 25.416666, 25.520834, 25.267857, 25.160713, 25.294643, 25.428572, 25.5625, 25.714287, 25.75, 25.6875, 25.6875, 25.6875, 25.6875, 25.892857, 26.0625, 25.883928, 25.913691, 25.555555, 25.458332, -10, -10, -10, -10, -10, -10, -10, -10, -10, -10, -10, -10, -10, -10, -10, -10, -10, -10, -10, -10, -10, -10, -10, -10, -10, -10, -10, -10, -10, -10, -10, -10, -10, -10, -10, -10, -10, -10, -10, -10, -10, -10, -10, -10, -10, -10, -10, 55, 54.833336, 54.625, 54.375, 54.0625, 53.75, 53.5, 53.25, 52.8125, 52.5, 52.25, 51.9375, 51.6875, 51.4375, 51.0625, 50.625, 50.375, 50.0625, 49.875, 49.75, 49.5, 49.3125, 48.875, 48.5, 48.25, 47.9375, 47.75, 47.5, 47.25, 46.8125, 46.5, 46.25, 45.75, 45.5, 45.25, 45, 44.8125, 44.5625, 44.3125, 43.875, 43.5625, 43.3125, 42.875, 42.5625, 42.1875, 41.69643, 41.3125, 41.125, 41, 40.8125, 40.5625, 40.3125, 39.9375, 39.625, 39.375, 39.125, 38.875, 38.625, 38.375, 38.0625, 37.6875, 37.4375, 37.1875, 36.75, 36.5, 36.125, 35.75, 35.5, 35.25, 35.125, 34.75, 34.5, 34.25, 33.8125, 33.5625, 33.1875, 32.714287, 32.616074, 32.220238, 31.854166, 31.291666, 30.78125, 30.370537, 30.15625, 29.96875, 29.8125, 29.5625, 29.3125, 29, 28.8125, 28.6875, 28.4375, 28.25, 28.0625, 27.75, 27.5, 27.25, 26.875, 26.5625, 26.3125, 26, 25.875, 25.6875, 25.241072, 24.505953, 24.160713, 24, 23.879463, 23.683037, 23.46875, 23.09375, 22.75, 22.4375, 22.1875, 21.75, 21.5, 21.3125, 21.1875, 21.1875, 21.375, 21.5625, 21.5, 21.75, 21.75, 21.75, 21.9375, 21.9375, 22, 22, 22, 22, 22.0625, 22.1875, 22.375, 22.625, 22.8125, 22.9375, 23, 22.9375, 22.9375, 22.9375, 22.9375, 23, 23, 23.0625, 23.0625, 23.25, 23.5, 23.5, 23.5, 23.5, 23.5, 23.6875, 23.9375, 24, 24, 24, 24, 24, 24, 24.0625, 24.25, 24.375, 24.375, 24.3125, 24.25, 24.125, 24.1875, 24.375, 24.5, 24.6875, 24.875, 25.125, 25.285713, 25.3125, 25.3125, 25.125, 25, 25.125, 25.25, 25.4375, 25.6875, 25.75, 25.8125, 25.8125, 25.8125, 25.875, 25.9375, 25.9375, 25.9375, 25.875, 25.875, 25.9375, 25.9375, 26, 26.1875, 26.4375, 26.6875, 26.9375, 27, 27.0625, 27.0625, 27.0625, 27.0625, 27.0625, 27.0625, 27.0625, 27.0625, 27, 27, 27.0625, 27.0625, 27.0625, 27.125, 27.125, 27.1875, 27.3125, 27.5, 27.6875, 27.875, 28.0625, 28.125, 28.125, 28.25, 28.375, 28.5625, 28.8125, 28.9375, 29, 9.625, 9.583333, 9.5625, 9.4375, 9.5, 9.5, 9.5, 9.5625, 9.5, 9.375, 9.3125, 9.3125, 9.3125, 9.4375, 9.4375, 9.5, 9.5625, 9.625, 9.6875, 9.625, 9.7777777, -10, -10, -10, -10, -10, -10, 21, 21.166666, 21.416666, 21.4375, 21.4375, 21.392857, 21.130953, 20.738094, 20.767857, 20.8125, 21.044643, 21.25, 21.3125, 21.25, 21.1875, 21.25, 21.4375, 21.6875, 21.875, 21.875, 21.6875, 21.455357, 21.3125, 21.214287, 21.348213, 21.375, 21.59375, 21.625, 21.6875, 21.875, 22.017857, 22.489582, 23.040178, 23.205357, 23.4125, 23.821428, 24.142857, 24.508928, 24.504463, 24.433037, 24.46875, 24.5, 24.75, 24.875, 24.9375, 25, 25, 25.125, 25.125, 25.25, 25.205357, 24.848213
-10, -10, -10, -10, -10, -10, -10, -10, -10, -10, -10, -10, -10, -10, -10, -10, -10, -10, -10, -10, -10, -10, 55, 54.750004, 54.5625, 54.3125, 54.0625, 53.875, 53.625, 53.375, 52.875, 52.5, 52.25, 51.9375, 51.6875, 51.4375, 51.0625, 50.625, 50.375, 50.0625, 49.875, 49.75, 49.5, 49.3125, 48.875, 48.5, 48.25, 47.9375, 47.6875, 47.4375, 47.1875, 46.75, 46.5, 46.25, 45.8125, 45.5625, 45.3125, 45.0625, 44.875, 44.625, 44.375, 43.9375, 43.5625, 43.3125, 42.8125, 42.5, 42.1875, 41.741074, 41.375, 41.1875, 41, 40.75, 40.5, 40.25, 39.875, 39.6875, 39.4375, 39.1875, 38.9375, 38.625, 38.375, 38, 37.625, 37.375, 37.125, 36.75, 36.5, 36.125, 35.6875, 35.4375, 35.1875, 35.0625, 34.75, 34.5, 34.25, 33.8125, 33.5625, 33.1875, 32.714287, 32.616074, 32.220238, 31.854166, 31.363094, 30.96875, 30.59375, 30.34375, 30.09375, 29.8125, 29.5625, 29.3125, 29, 28.8125, 28.75, 28.5625, 28.375, 28.1875, 27.8125, 27.5, 27.25, 26.875, 26.5625, 26.3125, 25.9375, 25.75, 25.5625, 25.178572, 24.622025, 24.321428, 24.125, 23.879463, 23.620537, 23.40625, 22.96875, 22.6875, 22.375, 22.125, 21.75, 21.5, 21.375, 21.3125, 21.3125, 21.5, 21.625, 21.5625, 21.8125, 21.8125, 21.875, 22, 22, 22.0625, 22, 22, 22, 22.0625, 22.1875, 22.375, 22.625, 22.8125, 22.9375, 23, 22.9375, 22.9375, 22.9375, 22.9375, 23, 23, 23, 23.0625, 23.25, 23.5, 23.5, 23.4375, 23.40625, 23.40625, 23.65625, 23.90625, 24, 24, 24, 24, 24, 24, 24.0625, 24.1875, 24.25, 24.25, 24.1875, 24.25, 24.25, 24.25, 24.375, 24.4375, 24.625, 24.875, 25.125, 25.25, 25.25, 25.25, 25.125, 25, 25.125, 25.3125, 25.5625, 25.8125, 25.9375, 26, 26, 26, 26, 26, 25.9375, 25.9375, 25.9375, 25.9375, 26, 26, 26, 26.25, 26.5, 26.75, 27, 27, 27.0625, 27.0625, 27.0625, 27.0625, 27.0625, 27.0625, 27.0625, 27.0625, 27, 27, 27.125, 27.125, 27.125, 27.1875, 27.125, 27.125, 27.1875, 27.375, 27.5625, 27.8125, 28.125, 28.25, 28.25, 28.375, 28.375, 28.4375, 28.625, 28.6875, 28.75, 9.375, 9.333333, 9.3125, 9.25, 9.3125, 9.3125, 9.3125, 9.3125, 9.25, 9.1875, 9.125, 9.125, 9.125, 9.1875, 9.1875, 9.25, 9.3125, 9.375, 9.4375, 9.375, -10, -10, -10, -10, -10, -10, -10, 21, 21.125, 21.166666, 21.1875, 21.1875, 21.142857, 20.952381, 20.758928, 20.8125, 20.8125, 20.875, 21.0625, 21.0625, 21.0625, 21.0625, 21.125, 21.3125, 21.5625, 21.75, 21.8125, 21.625, 21.330357, 21.0625, 20.901787, 21.035713, 21.0625, 21.40625, 21.5625, 21.866072, 22.098213, 22.111607, 22.458332, 22.919643, 23.0625, 23.375, 23.4375, 23.714287, 24.178572, 24.379463, 24.433037, 24.53125, 24.5625, 24.75, 24.8125, 24.8125, 24.8125, 24.6875, 24.839287, 24.982143, 25.116072, 25.169643, 24.955357, 25.017857, 25, 25.0625, 25, 24.75, 24.5625, 24.4375, 24.5, 24.821428, 25.440477, 25.544643, 25.5, 25.3125, 25.1875, 25.321428, 25.757441, 25.927084, 25.581844, 25.495535, 25.1875, 25.104166, 24.861113, 24.5, -10, -10, -10, -10, -10, -10, -10, -10, -10, -10, -10, -10, -10, -10, -10, -10, -10, -10, -10, -10, -10, -10, -10, -10, -10, -10, -10, -10, -10, -10, -10, -10, -10, -10, -10, -10, -10, -10, -10, -10, -10, -10, -10, -10, -10, 54.75, 54.500004, 54.375, 54.1875, 54, 53.875, 53.625, 53.375, 52.875, 52.5, 52.25, 51.875, 51.625, 51.375, 51, 50.625, 50.375, 50.0625, 49.875, 49.8125, 49.5625, 49.375, 48.9375, 48.5, 48.25, 47.875, 47.625, 47.375, 47.125, 46.75, 46.5, 46.25, 45.875, 45.625, 45.375, 45.125, 44.8125, 44.5625, 44.3125, 43.8125, 43.5, 43.25, 42.75, 42.5, 42.1875, 41.75, 41.5, 41.25, 41.0625, 40.75, 40.5, 40.25, 39.9375, 39.75, 39.5, 39.25, 38.9375, 38.625, 38.375, 37.9375, 37.5625, 37.3125, 37.0625, 36.75, 36.5, 36.1875, 35.6875, 35.4375, 35.1875, 35, 34.75, 34.5, 34.25, 33.75, 33.5, 33.1875, 32.75, 32.616074, 32.157738, 31.675594, 31.383928, 31.09375, 30.78125, 30.53125, 30.21875, 29.9375, 29.625, 29.375, 29.0625, 28.8125, 28.6875, 28.5, 28.3125, 28.1875, 27.875, 27.5625, 27.3125, 26.875, 26.5625, 26.3125, 25.9375, 25.6875, 25.4375, 25, 24.580357, 24.3125, 24.125, 23.879463, 23.620537, 23.40625, 22.96875, 22.6875, 22.375, 22.0625, 21.6875, 21.4375, 21.3125, 21.375, 21.4375, 21.625, 21.75, 21.6875, 21.875, 21.9375, 22.0625, 22.125, 22.125, 22.125, 22, 22, 22, 22, 22.0625, 22.1875, 22.4375, 22.6875, 22.875, 23, 23, 23, 23, 23, 23, 23, 23, 23.0625, 23.1875, 23.375, 23.375, 23.3125, 23.34375, 23.40625, 23.65625, 23.90625, 24, 24, 24, 24, 24, 24, 24, 24.0625, 24.0625, 24.0625, 24.125, 24.3125, 24.375, 24.4375, 24.5, 24.5, 24.6875, 24.875, 25.0625, 25.125, 25.125, 25.125, 25.0625, 25, 25.125, 25.375, 25.625, 25.875, 26, 26, 26, 26, 26, 25.9375, 25.9375, 25.9375, 25.9375, 26, 26, 26, 26.0625, 26.3125, 26.5625, 26.8125, 27, 27, 27, 27, 27, 27, 27.0625, 27.0625, 27.0625, 27.0625, 27.0625, 27.125, 27.3125, 27.375, 27.4375, 27.473213, 27.267857, 27.267857, 27.25, 27.4375, 27.625, 27.8125, 28.125, 28.3125, 28.3125, 28.375, 28.3125, 28.25, 28.375, 28.4375, 28.5, 9.125, 9.083333, 9.0625, 9, 9.0625, 9.0625, 9.0625, 9.0625, 9, 9, 9, 9, 9, 9, 9, 9.0625, 9.125, 9.1875, 9.1875, 9.166667, -10, -10, -10, -10, -10, -10, 20.833332, 20.9375, 21, 21, 21, 20.9375, 20.892857, 20.785713, 20.6875, 20.6875, 20.75, 20.8125, 21, 21.0625, 21.0625, 21.0625, 21.0625, 21.1875, 21.375, 21.5625, 21.625, 21.5, 21.267857, 21, 20.839287, 20.910713, 20.875, 21.15625, 21.375, 21.866072, 22.223213, 22.111607, 22.208332, 22.598213, 22.6875, 23, 22.9375, 23.214287, 23.553572, 23.84375, 24.302084, 24.388393, 24.5, 24.5625, 24.5625, 24.5625, 24.5625, 24.4375, 24.526787, 24.669643, 24.741072, 24.8125, 24.8125
-10, -10, -10, -10, -10, -10, -10, -10, -10, -10, -10, -10, -10, -10, -10, -10, -10, -10, -10, -10, -10, -10, 54.833332, 54.433334, 54.321426, 54.125, 53.9375, 53.8125, 53.5625, 53.3125, 52.875, 52.5, 52.25, 51.8125, 51.625, 51.375, 51.0625, 50.8125, 50.5, 50.1875, 49.9375, 49.8125, 49.5625, 49.3125, 48.875, 48.4375, 48.1875, 47.875, 47.625, 47.375, 47.125, 46.75, 46.5, 46.25, 45.875, 45.625, 45.375, 45.125, 44.803574, 44.4375, 44.25, 43.75, 43.5, 43.25, 42.75, 42.5, 42.25, 41.75, 41.5, 41.25, 41, 40.8125, 40.5625, 40.3125, 39.9375, 39.612499, 39.482143, 39.1875, 39.0625, 38.6875, 38.4375, 37.9375, 37.5, 37.25, 36.9375, 36.6875, 36.4375, 36.1875, 35.75, 35.5, 35.25, 35, 34.75, 34.5, 34.25, 33.75, 33.5, 33.25, 33, 32.803574, 32.345238, 31.800594, 31.446428, 31.1875, 30.875, 30.5625, 30.3125, 30.0625, 29.75, 29.455357, 29.125, 28.875, 28.75, 28.5625, 28.375, 28.125, 27.8125, 27.5, 27.25, 26.8125, 26.5, 26.25, 25.875, 25.625, 25.375, 25, 24.625, 24.375, 24.125, 23.78125, 23.53125, 23.28125, 22.84375, 22.5625, 22.3125, 21.9375, 21.625, 21.375, 21.25, 21.375, 21.5, 21.6875, 21.8125, 21.8125, 21.9375, 22, 22.125, 22.125, 22.125, 22.125, 22, 22, 22, 22.0625, 22.125, 22.25, 22.5, 22.6875, 22.875, 23, 23, 23, 23, 23, 23, 23, 23, 23.0625, 23.125, 23.3125, 23.3125, 23.3125, 23.40625, 23.46875, 23.71875, 23.90625, 24, 24, 24, 24, 24, 24, 24, 24, 24, 24, 24.125, 24.375, 24.4375, 24.5625, 24.5625, 24.5, 24.625, 24.75, 24.875, 24.9375, 25, 25, 25, 25, 25.0625, 25.25, 25.5, 25.75, 25.9375, 26, 26, 26, 26, 25.9375, 25.9375, 25.9375, 25.9375, 26, 26, 26, 26.125, 26.375, 26.625, 26.875, 27, 27, 27, 27, 27, 27, 27.0625, 27.0625, 27.125, 27.125, 27.125, 27.25, 27.4375, 27.5625, 27.6875, 27.723213, 27.517857, 27.517857, 27.5, 27.625, 27.75, 27.875, 28.125, 28.3125, 28.375, 28.375, 28.25, 28.125, 28.125, 28.1875, 28.25, 9, 9, 9, 9, 9, 9, 9, 9, 9, 9, 9, 9, 9, 9, 9, 9, 9, 9.0625, 9.083333, -10, -10, -10, -10, -10, -10, 20.25, 20.555555, 20.75, 20.875, 20.875, 20.875, 20.8125, 20.678572, 20.5, 20.4375, 20.375, 20.5, 20.625, 20.875, 21, 21.0625, 21.0625, 20.9375, 21, 21.125, 21.1875, 21.3125, 21.25, 21.125, 21, 20.875, 20.875, 20.875, 21.03125, 21.375, 21.928572, 22.258926, 22.174107, 22.229166, 22.348213, 22.4375, 22.75, 22.8125, 23.0625, 23.294643, 23.5625, 24.020834, 24.169643, 24.3125, 24.375, 24.3125, 24.3125, 24.3125, 24.1875, 24.214287, 24.294643, 24.366072, 24.4375, 24.4375, 24.625, 24.6875, 24.8125, 24.875, 24.6875, 24.6875, 24.625, 24.625, 24.883928, 25.315477, 25.357143, 25.3125, 25.125, 24.9375, 25.071428, 25.489584, 25.614584, 25.447916, 25.227678, 25, 24.8125, 24.848215, 25.057142, 25.607143, 25.958332, -10, -10, -10, -10, -10, -10, -10, -10, -10, -10, -10, -10, -10, -10, -10, -10, -10, -10, -10, -10, -10, -10, -10, -10, -10, -10, -10, -10, -10, -10, -10, -10, -10, -10, -10, -10, -10, -10, -10, -10, -10, -10, -10, 54.833332, 54.433334, 54.321426, 54.1875, 53.9375, 53.604168, 53.375, 53.125, 52.8125, 52.5, 52.25, 51.8125, 51.6875, 51.4375, 51.125, 50.830357, 50.5, 50.25, 50.0625, 49.875, 49.625, 49.3125, 48.8125, 48.4375, 48.1875, 47.9375, 47.75, 47.5, 47.25, 46.8125, 46.5, 46.25, 45.875, 45.625, 45.375, 45.125, 44.803574, 44.4375, 44.1875, 43.6875, 43.4375, 43.1875, 42.75, 42.5, 42.25, 41.75, 41.5, 41.25, 41, 40.875, 40.625, 40.375, 40, 39.612499, 39.482143, 39.1875, 39.0625, 38.6875, 38.4375, 37.9375, 37.5, 37.25, 36.875, 36.625, 36.375, 36.125, 35.75, 35.5, 35.25, 35, 34.75, 34.5, 34.1875, 33.6875, 33.4375, 33.1875, 32.9375, 32.75, 32.491074, 31.916666, 31.571428, 31.28125, 30.96875, 30.65625, 30.40625, 30.125, 29.75, 29.455357, 29.1875, 28.9375, 28.75, 28.5625, 28.3125, 28, 27.6875, 27.375, 27.0625, 26.75, 26.5, 26.25, 26, 25.6875, 25.4375, 25.125, 24.6875, 24.4375, 24.1875, 23.75, 23.5, 23.25, 22.8125, 22.5625, 22.3125, 21.875, 21.5625, 21.3125, 21.125, 21.3125, 21.5, 21.75, 21.9375, 21.9375, 22, 22.0625, 22.1875, 22.1875, 22.1875, 22.125, 22, 22, 22, 22.125, 22.25, 22.3125, 22.5625, 22.6875, 22.8125, 23, 23, 23, 23.0625, 23.125, 23.125, 23.1875, 23.1875, 23.1875, 23.25, 23.3125, 23.25, 23.25, 23.40625, 23.53125, 23.78125, 23.96875, 24, 24, 24, 24, 24, 24, 24, 24, 24, 24, 24.125, 24.3125, 24.375, 24.5, 24.5625, 24.5625, 24.6875, 24.8125, 24.875, 24.9375, 25, 25, 25, 25, 25, 25.125, 25.3125, 25.5625, 25.8125, 25.9375, 26, 26, 26, 25.9375, 25.9375, 25.9375, 25.9375, 26.0625, 26.0625, 26.0625, 26.1875, 26.375, 26.625, 26.875, 27, 27, 26.9375, 26.9375, 26.9375, 26.9375, 27, 27, 27.0625, 27.0625, 27.125, 27.3125, 27.5, 27.6875, 27.8125, 27.723213, 27.517857, 27.517857, 27.5625, 27.75, 27.875, 27.9375, 28.0625, 28.1875, 28.25, 28.25, 28.1875, 28.0625, 28, 28, 28, 9, 9, 9, 9, 9, 9, 9, 9, 9, 9, 9, 9, 9, 9, 9, 9, 9, 9.0625, 9.1111107, -10, -10, -10, -10, -10, -10, 20.166666, 20.416666, 20.5, 20.625, 20.625, 20.625, 20.5625, 20.428572, 20.25, 20.1875, 20.125, 20.1875, 20.3125, 20.5, 20.6875, 20.875, 20.875, 20.8125, 20.75, 20.8125, 20.875, 21, 21.0625, 21, 21, 21, 21.0625, 21.0625, 21.1875, 21.5, 21.991072, 22.321426, 22.267857, 22.291666, 22.348213, 22.375, 22.5625, 22.5625, 22.8125, 23.107143, 23.375, 23.895834, 24.107143, 24.25, 24.3125, 24.1875, 24.125, 24.0625, 23.9375, 23.964287, 24.107143, 24.116072, 24.214287, 24.357143
-10, -10, -10, -10, -10, -10, -10, -10, -10, -10, -10, -10, -10, -10, -10, -10, -10, -10, -10, -10, -10, -10, 54.833332, 54.516666, 54.383926, 54.25, 53.9375, 53.541668, 53.375, 53.125, 52.875, 52.517857, 52.25, 51.875, 51.75, 51.5, 51.1875, 50.830357, 50.5, 50.25, 50.0625, 49.8125, 49.5625, 49.25, 48.8125, 48.5, 48.25, 48, 47.8125, 47.5625, 47.3125, 46.875, 46.5, 46.25, 45.875, 45.625, 45.375, 45.125, 44.741074, 44.375, 44.125, 43.625, 43.4375, 43.1875, 42.8125, 42.5625, 42.3125, 41.875, 41.5625, 41.3125, 41.0625, 40.875, 40.625, 40.375, 39.9375, 39.549999, 39.419643, 39.1875, 39.107143, 38.642857, 38.383926, 37.875, 37.5, 37.25, 36.8125, 36.5625, 36.3125, 36.0625, 35.75, 35.5, 35.25, 35, 34.75, 34.5, 34.1875, 33.75, 33.5, 33.25, 33, 32.6875, 32.4375, 32, 31.625, 31.34375, 31.03125, 30.71875, 30.46875, 30.25, 29.875, 29.580357, 29.267857, 29, 28.6875, 28.4375, 28.1875, 27.8125, 27.5625, 27.3125, 26.9375, 26.6875, 26.4375, 26.1875, 26.0625, 25.75, 25.5, 25.1875, 24.6875, 24.4375, 24.1875, 23.75, 23.5, 23.25, 22.875, 22.625, 22.375, 21.875, 21.5, 21.25, 21, 21.25, 21.4375, 21.6875, 21.9375, 21.9375, 22, 22.0625, 22.125, 22.125, 22.125, 22.0625, 22, 22, 22, 22.1875, 22.375, 22.5, 22.75, 22.8125, 22.875, 23, 23, 23, 23.125, 23.25, 23.25, 23.3125, 23.25, 23.125, 23.125, 23.125, 23.0625, 23.125, 23.3125, 23.5, 23.75, 24, 24.0625, 24.0625, 24.0625, 24, 24, 24, 24, 24, 24, 24, 24.125, 24.25, 24.25, 24.375, 24.4375, 24.5, 24.6875, 24.8125, 24.875, 24.9375, 25, 25, 25.0625, 25.0625, 25.0625, 25.125, 25.25, 25.4375, 25.625, 25.8125, 25.875, 25.9375, 26, 25.9375, 25.9375, 25.9375, 25.9375, 26.0625, 26.125, 26.1875, 26.375, 26.5625, 26.75, 26.9375, 27, 27, 26.9375, 26.9375, 26.9375, 26.9375, 27, 27, 27.0625, 27.0625, 27.125, 27.3125, 27.4375, 27.6875, 27.875, 27.848213, 27.705357, 27.705357, 27.75, 27.875, 28, 28, 28, 28.0625, 28.125, 28.125, 28.125, 28.0625, 28, 28, 28, 9, 9, 9, 9, 9, 9, 9, 9, 9, 9, 9, 9, 9, 9, 9, 9, 9.0625, 9.145833, -10, -10, -10, -10, -10, -10, 20, 20.125, 20.104166, 20.1875, 20.3125, 20.3125, 20.375, 20.3125, 20.178572, 20, 20, 19.9375, 20, 20.0625, 20.125, 20.25, 20.4375, 20.5, 20.5, 20.5625, 20.625, 20.75, 20.9375, 21, 21, 21, 21, 21.0625, 21.0625, 21.0625, 21.1875, 21.4375, 21.723213, 21.946428, 22.148809, 22.25, 22.3125, 22.4375, 22.5625, 22.848213, 23.125, 23.25, 23.645834, 23.732143, 23.75, 23.8125, 23.75, 23.75, 23.75, 23.75, 23.8125, 23.8125, 23.75, 23.839287, 23.919643, 24.107143, 24.25, 24.1875, 24.071428, 24, 24.107143, 24.321428, 24.5625, 24.5625, 24.589287, 24.794643, 24.9375, 25, 25, 25, 25.0625, 25.1875, 25.1875, 25.125, 25.125, 25, 25.098215, 25.432142, 25.397322, 25.572916, 25.1875, 25.083332, -10, -10, -10, -10, -10, -10, -10, -10, -10, -10, -10, -10, -10, -10, -10, -10, -10, -10, -10, -10, -10, -10, -10, -10, -10, -10, -10, -10, -10, -10, -10, -10, -10, -10, -10, -10, -10, -10, -10, -10, -10, 55.083332, 54.766666, 54.571426, 54.375, 53.9375, 53.479168, 53.375, 53.098213, 52.830357, 52.464283, 52.1875, 51.9375, 51.8125, 51.5625, 51.25, 50.892857, 50.5625, 50.3125, 50.125, 49.75, 49.5, 49.125, 48.6875, 48.4375, 48.1875, 48.0625, 47.875, 47.625, 47.3125, 46.8125, 46.4375, 46.1875, 45.875, 45.625, 45.375, 45.0625, 44.678574, 44.3125, 44.0625, 43.625, 43.4375, 43.1875, 42.875, 42.625, 42.375, 42, 41.625, 41.375, 41.125, 40.875, 40.625, 40.375, 39.9375, 39.549999, 39.419643, 39.125, 38.982143, 38.482143, 38.258926, 37.8125, 37.5, 37.25, 36.75, 36.5, 36.25, 36, 35.75, 35.5, 35.25, 35, 34.75, 34.5, 34.1875, 33.8125, 33.5625, 33.3125, 33, 32.625, 32.375, 32, 31.625, 31.34375, 31.03125, 30.71875, 30.59375, 30.4375, 30.125, 29.767857, 29.348213, 29.0625, 28.6875, 28.4375, 28.1875, 27.75, 27.5, 27.25, 26.875, 26.6875, 26.4375, 26.1875, 26.0625, 25.75, 25.5, 25.25, 24.8125, 24.5625, 24.3125, 23.8125, 23.5, 23.25, 22.875, 22.625, 22.375, 21.875, 21.5, 21.25, 21, 21.25, 21.4375, 21.625, 21.75, 21.6875, 21.857143, 21.928572, 22, 22, 22, 22, 22, 22, 22, 22.1875, 22.4375, 22.625, 22.875, 22.9375, 22.9375, 23, 23, 23, 23.125, 23.25, 23.25, 23.3125, 23.25, 23.125, 23.125, 23.125, 23.0625, 23.125, 23.3125, 23.5, 23.75, 24, 24.0625, 24.0625, 24.0625, 24, 24, 24, 24, 24.0625, 24.125, 24.1875, 24.3125, 24.3125, 24.25, 24.25, 24.25, 24.375, 24.5625, 24.75, 24.875, 24.9375, 25, 25, 25.125, 25.125, 25.125, 25.125, 25.125, 25.25, 25.375, 25.5625, 25.6875, 25.8125, 25.9375, 26, 26, 26, 26, 26.0625, 26.1875, 26.3125, 26.5, 26.6875, 26.8125, 26.9375, 27, 27, 27, 27, 27, 27, 27, 27, 27.0625, 27.0625, 27.0625, 27.1875, 27.3125, 27.5625, 27.75, 27.8125, 27.8125, 27.8125, 27.875, 27.9375, 28, 28, 28, 28, 28.0625, 28.0625, 28.0625, 28.0625, 28, 28, 28, 9, 9, 9, 9, 9, 9, 9, 9, 9, 9, 9, 9, 9, 9, 9, 9, 9.0625, 9.1944437, -10, -10, -10, -10, -10, 20, 20, 20, 19.9375, 19.9375, 19.9375, 19.9375, 19.9375, 19.9375, 19.9375, 19.875, 19.875, 19.8125, 19.6875, 19.6875, 19.6875, 19.75, 20, 20.125, 20.1875, 20.3125, 20.375, 20.5, 20.6875, 20.75, 20.8125, 20.875, 20.9375, 21.0625, 21.0625, 21.125, 21.25, 21.4375, 21.723213, 22.053572, 22.294643, 22.4375, 22.5, 22.392857, 22.580357, 22.848213, 23.294643, 23.4375, 23.5625, 23.5625, 23.5, 23.5625, 23.5625, 23.535713, 23.392857, 23.392857, 23.4375, 23.5, 23.5, 23.651787, 23.794643
-10, -10, -10, -10, -10, -10, -10, -10, -10, -10, -10, -10, -10, -10, -10, -10, -10, -10, -10, -10, -10, -10, 55, 54.916668, 54.6875, 54.5, 54, 53.479168, 53.375, 53.035713, 52.767857, 52.401783, 52.125, 51.9375, 51.75, 51.5, 51.1875, 50.830357, 50.5625, 50.3125, 50.125, 49.75, 49.5, 49.125, 48.6875, 48.4375, 48.1875, 48.0625, 47.875, 47.625, 47.3125, 46.8125, 46.4375, 46.1875, 45.9375, 45.6875, 45.4375, 45.0625, 44.625, 44.375, 44.0625, 43.6875, 43.4375, 43.1875, 42.9375, 42.6875, 42.4375, 42.125, 41.6875, 41.4375, 41.1875, 40.8125, 40.5625, 40.3125, 39.875, 39.625, 39.3125, 39, 38.732143, 38.294643, 38.133926, 37.8125, 37.5625, 37.375, 36.9375, 36.625, 36.330357, 36.0625, 35.8125, 35.5625, 35.3125, 35.0625, 34.75, 34.5, 34.1875, 33.8125, 33.5625, 33.3125, 32.9375, 32.5625, 32.3125, 31.9375, 31.625, 31.375, 31.125, 30.875, 30.75, 30.5625, 30.25, 29.875, 29.410713, 29.125, 28.6875, 28.4375, 28.1875, 27.75, 27.5, 27.25, 26.875, 26.6875, 26.4375, 26.1875, 26.0625, 25.75, 25.5, 25.25, 24.875, 24.625, 24.375, 23.875, 23.5, 23.25, 22.875, 22.6875, 22.5, 22.044643, 21.541666, 21.258928, 21, 21.25, 21.4375, 21.5625, 21.625, 21.5625, 21.732143, 21.866072, 22, 22, 22, 22, 22, 22, 22, 22.125, 22.3125, 22.5, 22.75, 22.875, 22.9375, 23, 23, 23, 23.125, 23.25, 23.25, 23.3125, 23.25, 23.125, 23.125, 23.0625, 23, 23, 23.125, 23.375, 23.625, 23.9375, 24.0625, 24.0625, 24.0625, 24, 24, 24, 24, 24.125, 24.1875, 24.25, 24.3125, 24.1875, 24.125, 24.0625, 24.0625, 24.3125, 24.5625, 24.8125, 25, 25, 25, 25, 25.125, 25.1875, 25.25, 25.25, 25.1875, 25.1875, 25.25, 25.4375, 25.625, 25.8125, 25.9375, 26, 26, 26, 26.0625, 26.1875, 26.375, 26.5625, 26.6875, 26.8125, 26.875, 26.9375, 27, 27, 27, 27, 27, 27, 27, 27, 27, 27, 27, 27.0625, 27.1875, 27.4375, 27.625, 27.75, 27.8125, 27.8125, 27.8125, 27.875, 27.9375, 27.9375, 28, 28, 28, 28, 28, 28, 28, 28, 28, 9, 9, 9, 9, 9, 9, 9, 9, 9, 9, 8.9375, 8.875, 8.875, 8.875, 8.9375, 9, 9.0625, -10, -10, -10, -10, -10, -10, 19.666666, 19.75, 19.75, 19.6875, 19.625, 19.5625, 19.5625, 19.5625, 19.625, 19.6875, 19.625, 19.625, 19.5625, 19.4375, 19.375, 19.3125, 19.3125, 19.5625, 19.75, 19.9375, 20.125, 20.1875, 20.3125, 20.5, 20.5625, 20.625, 20.75, 20.8125, 21, 21.125, 21.25, 21.375, 21.5, 21.625, 21.928572, 22.232143, 22.473213, 22.5, 22.294643, 22.392857, 22.770834, 23.232143, 23.4375, 23.5, 23.4375, 23.3125, 23.3125, 23.25, 23.160713, 22.955357, 22.955357, 23.0625, 23.25, 23.3125, 23.526787, 23.732143, 23.857143, 24.0625, 23.875, 23.8125, 23.8125, 23.8125, 23.9375, 24, 23.9375, 23.964287, 24.107143, 24.3125, 24.4375, 24.5, 24.5625, 24.5625, 24.6875, 24.8125, 24.785713, 24.3125, 24.229166, 24.395834, 24.660713, 24.78125, 24.90625, 24.90625, 24.854166, 24.625, -10, -10, -10, -10, -10, -10, -10, -10, -10, -10, -10, -10, -10, -10, -10, -10, -10, -10, -10, -10, -10, -10, -10, -10, -10, -10, -10, -10, -10, -10, -10, -10, -10, -10, -10, -10, -10, -10, -10, -10, 55, 54.916668, 54.6875, 54.375, 53.666668, 53.330357, 53.25, 53.035713, 52.830357, 52.526783, 52.3125, 52.116074, 51.666668, 51.383926, 51.125, 50.875, 50.625, 50.375, 50.125, 49.75, 49.5, 49.125, 48.6875, 48.4375, 48.1875, 48.0625, 47.8125, 47.5625, 47.25, 46.75, 46.4375, 46.1875, 45.9375, 45.6875, 45.4375, 45.0625, 44.6875, 44.4375, 44.1875, 43.8125, 43.5, 43.25, 43, 42.75, 42.5, 42.25, 41.8125, 41.625, 41.366074, 40.729168, 40.446426, 40.1875, 39.875, 39.6875, 39.3125, 38.892857, 38.544643, 38.107143, 38.008926, 37.8125, 37.625, 37.5, 37.107143, 36.642857, 36.339287, 36, 35.75, 35.5, 35.25, 35, 34.6875, 34.4375, 34.1875, 33.9375, 33.6875, 33.4375, 33.0625, 32.6875, 32.4375, 32.125, 31.75, 31.4375, 31.1875, 30.9375, 30.8125, 30.6875, 30.375, 29.9375, 29.473213, 29.1875, 28.75, 28.5, 28.1875, 27.6875, 27.4375, 27.125, 26.8125, 26.5625, 26.375, 26.160713, 25.892857, 25.633928, 25.375, 25.1875, 24.875, 24.625, 24.375, 23.9375, 23.5625, 23.3125, 22.9375, 22.75, 22.625, 22.223215, 21.583332, 21.267857, 21, 21.25, 21.4375, 21.5625, 21.5625, 21.5, 21.669643, 21.803572, 22, 22, 22, 22.0625, 22.0625, 22.0625, 22.0625, 22.0625, 22.1875, 22.4375, 22.6875, 22.875, 23, 23, 23, 23, 23.0625, 23.125, 23.125, 23.125, 23.0625, 23, 23, 23, 23, 23.0625, 23.1875, 23.4375, 23.6875, 23.9375, 24.0625, 24.0625, 24.0625, 24, 24, 24, 24, 24.125, 24.1875, 24.25, 24.25, 24.125, 24.125, 24.098213, 24.125, 24.375, 24.5625, 24.8125, 25, 25, 25, 25, 25.1875, 25.3125, 25.4375, 25.5, 25.4375, 25.3125, 25.3125, 25.375, 25.5, 25.75, 25.875, 26, 26, 26, 26.0625, 26.125, 26.3125, 26.5625, 26.6875, 26.875, 26.9375, 26.9375, 27, 27, 27, 27, 27, 27, 27, 27, 27, 27.0625, 27.125, 27.125, 27.1875, 27.3125, 27.5, 27.75, 27.875, 27.9375, 27.8125, 27.8125, 27.875, 27.875, 28, 28, 28, 28, 28, 28, 28, 28, 28, 9, 9, 9, 9, 8.9375, 8.9375, 8.9375, 8.9375, 9, 9, 8.875, 8.75, 8.75, 8.6875, 8.8125, 8.916667, 9.083333, -10, -10, -10, -10, -10, -10, 19.5, 19.5, 19.5, 19.4375, 19.375, 19.3125, 19.3125, 19.3125, 19.375, 19.4375, 19.375, 19.3125, 19.25, 19.1875, 19.125, 19.125, 19.0625, 19.1875, 19.375, 19.625, 19.9375, 20.0625, 20.1875, 20.3125, 20.3125, 20.375, 20.5625, 20.6875, 20.8125, 21, 21.0625, 21.1875, 21.375, 21.46875, 21.772322, 22.075893, 22.379463, 22.4375, 22.294643, 22.330357, 22.708334, 23.044643, 23.1875, 23.1875, 23.0625, 23, 23, 23, 22.910713, 22.642857, 22.580357, 22.6875, 22.9375, 23.232143, 23.5, 23.625
-10, -10, -10, -10, -10, -10, -10, -10, -10, -10, -10, -10, -10, -10, -10, -10, -10, -10, -10, -10, -10, -10, 55, 54.833336, 54.625, 54.25, 53.416668, 53.205357, 53.098213, 52.973213, 52.830357, 52.633926, 52.5, 52.303574, 51.791668, 51.473213, 51.1875, 50.9375, 50.642857, 50.375, 50.125, 49.75, 49.5, 49.125, 48.625, 48.375, 48.125, 48, 47.8125, 47.5625, 47.25, 46.75, 46.4375, 46.1875, 45.875, 45.625, 45.375, 45, 44.6875, 44.4375, 44.1875, 43.8125, 43.5, 43.25, 43, 42.75, 42.5, 42.25, 41.875, 41.75, 41.482143, 40.708336, 40.392857, 40.125, 39.875, 39.625, 39.25, 38.705357, 38.3125, 38.026787, 37.9375, 37.875, 37.6875, 37.625, 37.276787, 36.660713, 36.348213, 35.9375, 35.6875, 35.4375, 35.1875, 35, 34.6875, 34.4375, 34.1875, 33.9375, 33.6875, 33.4375, 33.0625, 32.6875, 32.4375, 32.1875, 31.8125, 31.5, 31.25, 30.9375, 30.8125, 30.625, 30.25, 29.8125, 29.392857, 29.0625, 28.75, 28.5625, 28.232143, 27.666666, 27.383928, 27, 26.75, 26.5625, 26.4375, 26.267857, 25.809523, 25.517857, 25.25, 25.125, 24.875, 24.625, 24.375, 24, 23.625, 23.375, 23, 22.8125, 22.6875, 22.285715, 21.601189, 21.267857, 21, 21.25, 21.5, 21.5625, 21.5, 21.375, 21.419643, 21.616072, 21.875, 21.9375, 22, 22.0625, 22.0625, 22, 22, 21.9375, 22, 22.3125, 22.5625, 22.8125, 23, 23, 23, 22.9375, 22.9375, 22.9375, 22.9375, 23, 23, 23, 23, 23, 23, 23.125, 23.25, 23.5, 23.75, 23.875, 24, 24, 24, 24, 24, 24, 24, 24.125, 24.1875, 24.25, 24.3125, 24.25, 24.3125, 24.348213, 24.375, 24.5625, 24.6875, 24.875, 25, 25, 25, 25, 25.125, 25.3125, 25.4375, 25.5625, 25.5625, 25.375, 25.375, 25.3125, 25.4375, 25.6875, 25.8125, 26, 26, 26, 26.0625, 26.125, 26.25, 26.4375, 26.5, 26.6875, 26.8125, 26.875, 27, 27, 27, 27, 27, 27, 27, 27, 27, 27.125, 27.25, 27.3125, 27.375, 27.3125, 27.375, 27.669643, 27.866072, 27.9375, 27.75, 27.75, 27.75, 27.8125, 28, 28, 28, 28, 28, 28, 28, 28, 28, 8.75, 8.75, 8.75, 8.75, 8.6875, 8.6875, 8.6875, 8.6875, 8.75, 8.75, 8.625, 8.5, 8.5, 8.4375, 8.625, 8.75, -10, -10, -10, -10, -10, -10, 19, 19.25, 19.25, 19.25, 19.25, 19.1875, 19.125, 19.0625, 19, 19.0625, 19.125, 19.125, 19.0625, 19.0625, 19.0625, 19.0625, 19.125, 19.0625, 19.125, 19.3125, 19.5625, 19.8125, 19.9375, 20, 20.0625, 20.0625, 20.125, 20.375, 20.5625, 20.6875, 20.9375, 21.0625, 21.25, 21.5, 21.59375, 21.71875, 21.90625, 22.191963, 22.25, 22.107143, 22.142857, 22.520834, 22.732143, 22.875, 22.8125, 22.625, 22.625, 22.625, 22.75, 22.785713, 22.517857, 22.517857, 22.5625, 22.875, 23.232143, 23.4375, 23.625, 23.625, 23.6875, 23.6875, 23.6875, 23.6875, 23.875, 23.973213, 24, 24.0625, 24, 23.9375, 23.9375, 23.875, 23.8125, 23.875, 23.9375, 24, 24.0625, 23.952379, 23.678572, 23.910713, 24.105656, 24.209822, 24.25, 24.3125, 24.3125, 24.3125, 24.3125, 24, 24, -10, -10, -10, -10, -10, -10, -10, -10, -10, -10, -10, -10, -10, -10, -10, -10, -10, -10, -10, -10, -10, -10, -10, -10, -10, -10, -10, -10, -10, -10, -10, -10, -10, -10, -10, -10, -10, -10, 54.875, 54.666668, 54.5625, 54.125, 53.125, 52.9375, 52.785713, 52.8125, 52.8125, 52.6875, 52.5625, 52.303574, 51.791668, 51.473213, 51.1875, 50.875, 50.580357, 50.3125, 50, 49.6875, 49.4375, 49.125, 48.6875, 48.4375, 48.1875, 48, 47.8125, 47.5625, 47.3125, 46.8125, 46.5, 46.25, 45.875, 45.625, 45.375, 45, 44.6875, 44.4375, 44.1875, 43.875, 43.5625, 43.3125, 43.0625, 42.75, 42.5, 42.25, 41.875, 41.75, 41.482143, 40.708336, 40.392857, 40.125, 39.875, 39.625, 39.25, 38.705357, 38.375, 38.125, 38, 38, 37.75, 37.6875, 37.339287, 36.660713, 36.348213, 35.9375, 35.6875, 35.5, 35.25, 35.0625, 34.75, 34.4375, 34.1875, 33.875, 33.625, 33.375, 33.0625, 32.75, 32.5, 32.25, 31.8125, 31.5, 31.25, 30.875, 30.6875, 30.4375, 30.0625, 29.6875, 29.375, 29.0625, 28.8125, 28.6875, 28.348215, 27.645832, 27.330357, 26.9375, 26.75, 26.625, 26.5, 26.330357, 25.809523, 25.455357, 25.1875, 25, 24.75, 24.5, 24.25, 24, 23.6875, 23.4375, 23.0625, 22.75, 22.517857, 22.160715, 21.476189, 21.205357, 21.0625, 21.3125, 21.5, 21.5625, 21.5, 21.375, 21.375, 21.5625, 21.8125, 21.9375, 22, 22.0625, 22.0625, 22, 22, 21.9375, 21.9375, 22.25, 22.5, 22.75, 23, 23, 22.9375, 22.8125, 22.8125, 22.8125, 22.875, 23, 23, 23, 23, 23, 23.0625, 23.25, 23.375, 23.625, 23.8125, 23.875, 24, 24, 24, 24, 24, 24.0625, 24.0625, 24.125, 24.125, 24.0625, 24.125, 24.1875, 24.375, 24.535713, 24.625, 24.75, 24.8125, 24.9375, 25, 25, 25, 25, 25.0625, 25.25, 25.375, 25.5, 25.5625, 25.375, 25.375, 25.375, 25.5, 25.6875, 25.8125, 25.9375, 25.9375, 26, 26.0625, 26.125, 26.25, 26.375, 26.375, 26.5625, 26.6875, 26.8125, 27, 27, 27, 27, 27, 27, 27, 27, 27, 27.0625, 27.214287, 27.348213, 27.3125, 27.3125, 27.3125, 27.607143, 27.866072, 27.9375, 27.75, 27.75, 27.75, 27.8125, 28, 28, 28, 28, 28, 28, 28, 28, 28, 8.5, 8.5, 8.5, 8.5, 8.4375, 8.4375, 8.4375, 8.4375, 8.5, 8.5, 8.375, 8.25, 8.25, 8.25, 8.458333, 8.666667, -10, -10, -10, -10, -10, 19, 19, 18.9375, 18.875, 18.875, 18.875, 18.875, 18.875, 18.75, 18.6875, 18.75, 18.8125, 18.9375, 18.9375, 19.0625, 19.1875, 19.1875, 19.25, 19.125, 19.0625, 19.25, 19.5, 19.75, 19.9375, 20, 20.0625, 20.0625, 20.133928, 20.5, 20.625, 20.75, 21, 21.125, 21.3125, 21.5625, 21.59375, 21.71875, 21.84375, 22.004463, 22.0625, 22.089287, 22.125, 22.458334, 22.5, 22.5625, 22.5, 22.375, 22.375, 22.375, 22.5, 22.625, 22.5625, 22.5625, 22.5, 22.6875, 23.089287, 23.303572, 23.5
-10, -10, -10, -10, -10, -10, -10, -10, -10, -10, -10, -10, -10, -10, -10, -10, -10, -10, -10, -10, -10, -10, 54.625, 54.416668, 54.4375, 54, 52.833332, 52.74107, 52.598213, 52.75, 52.8125, 52.6875, 52.5625, 52.303574, 51.791668, 51.473213, 51.125, 50.75, 50.455357, 50.1875, 49.875, 49.625, 49.375, 49.125, 48.75, 48.5, 48.25, 48, 47.8125, 47.5625, 47.3125, 46.875, 46.5625, 46.3125, 45.875, 45.5625, 45.3125, 44.9375, 44.6875, 44.4375, 44.1875, 43.875, 43.5625, 43.3125, 43.0625, 42.75, 42.5, 42.25, 41.875, 41.75, 41.482143, 40.708336, 40.392857, 40.125, 39.9375, 39.6875, 39.375, 38.830357, 38.4375, 38.1875, 38, 38, 37.75, 37.625, 37.276787, 36.598213, 36.330357, 35.9375, 35.625, 35.4375, 35.125, 34.875, 34.625, 34.3125, 34.125, 33.875, 33.625, 33.375, 33.0625, 32.75, 32.5, 32.25, 31.8125, 31.5, 31.25, 30.8125, 30.5625, 30.3125, 29.9375, 29.6875, 29.4375, 29.125, 28.9375, 28.75, 28.410715, 27.708332, 27.330357, 26.9375, 26.75, 26.75, 26.660713, 26.410713, 25.880951, 25.455357, 25.25, 25.044643, 24.642857, 24.383928, 24.125, 23.9375, 23.6875, 23.4375, 23.125, 22.75, 22.455357, 22.053572, 21.434523, 21.196428, 21.0625, 21.3125, 21.4375, 21.5, 21.4375, 21.3125, 21.375, 21.5625, 21.8125, 21.9375, 22, 22.0625, 22.0625, 22, 22, 21.9375, 21.9375, 22.1875, 22.4375, 22.6875, 22.9375, 22.9375, 22.8125, 22.6875, 22.6875, 22.75, 22.875, 23, 23, 23.0625, 23.0625, 23.125, 23.25, 23.4375, 23.625, 23.875, 24, 24, 24.0625, 24, 24, 24, 24, 24.0625, 24.0625, 24.0625, 24.125, 24.125, 24.25, 24.4375, 24.625, 24.785713, 24.875, 24.9375, 24.9375, 25, 25, 25, 25, 25.0625, 25.125, 25.25, 25.3125, 25.4375, 25.473213, 25.276787, 25.3125, 25.1875, 25.375, 25.5, 25.6875, 25.875, 25.875, 26, 26, 26, 26.0625, 26.125, 26.1875, 26.4375, 26.625, 26.8125, 27, 27, 27, 27, 27, 27, 27, 27, 27, 27.0625, 27.214287, 27.348213, 27.3125, 27.25, 27.25, 27.482143, 27.741072, 27.875, 27.75, 27.8125, 27.8125, 27.875, 28, 28, 28, 28, 28, 28, 28, 28, 8, 8.25, 8.25, 8.25, 8.25, 8.1875, 8.1875, 8.1875, 8.1875, 8.25, 8.25, 8.1875, 8.125, 8.125, 8.1875, 8.354166, -10, -10, -10, -10, -10, -10, 18.777779, 18.8125, 18.75, 18.625, 18.625, 18.625, 18.625, 18.625, 18.5, 18.4375, 18.5, 18.625, 18.8125, 18.875, 19.0625, 19.1875, 19.1875, 19.25, 19.125, 19.0625, 19.1875, 19.375, 19.625, 19.8125, 19.9375, 20, 20.0625, 20.196428, 20.5625, 20.75, 20.8125, 21, 21.125, 21.3125, 21.625, 21.78125, 21.90625, 21.96875, 22.03125, 22.0625, 22.125, 22.125, 22.25, 22.25, 22.3125, 22.3125, 22.1875, 22.1875, 22.0625, 22.276787, 22.607143, 22.583334, 22.549999, 22.458334, 22.330357, 22.839287, 23.035713, 23.25, 23.1875, 23.0625, 23.0625, 23, 23.0625, 23.541666, 23.67857, 23.6875, 23.6875, 23.5625, 23.5, 23.625, 23.6875, 23.75, 23.875, 23.875, 23.75, 23.625, 23.541666, 23.803572, 24.306549, 24.522322, 24.424107, 24.3125, 24.0625, 23.9375, 23.9375, 23.9375, 24, 23.9375, 23.952383, 24, -10, -10, -10, -10, -10, -10, -10, -10, -10, -10, -10, -10, -10, -10, -10, -10, -10, -10, -10, -10, -10, -10, -10, -10, -10, -10, -10, -10, -10, -10, -10, -10, -10, -10, -10, -10, 54.375, 54.25, 54.3125, 53.9375, 53.104164, 52.973213, 52.785713, 52.8125, 52.6875, 52.5, 52.3125, 52.0625, 51.75, 51.464287, 51.0625, 50.6875, 50.392857, 50.125, 49.8125, 49.5625, 49.3125, 49, 48.6875, 48.4375, 48.1875, 48, 47.8125, 47.5625, 47.3125, 46.9375, 46.625, 46.375, 45.9375, 45.5625, 45.3125, 44.9375, 44.625, 44.375, 44.125, 43.8125, 43.5625, 43.3125, 43.0625, 42.75, 42.5, 42.25, 41.8125, 41.625, 41.366074, 40.729168, 40.446426, 40.1875, 39.9375, 39.6875, 39.4375, 38.9375, 38.5, 38.25, 38, 38, 37.75, 37.5625, 37.169643, 36.580357, 36.321426, 35.9375, 35.625, 35.4375, 35.053574, 34.6875, 34.5, 34.1875, 34.125, 33.875, 33.625, 33.375, 33, 32.625, 32.375, 32.125, 31.75, 31.5, 31.25, 30.8125, 30.5625, 30.3125, 30, 29.75, 29.5, 29.1875, 29, 28.8125, 28.535715, 27.895832, 27.455357, 27.125, 26.875, 26.875, 26.785713, 26.5, 26.050594, 25.526785, 25.3125, 24.982143, 24.580357, 24.321428, 24.0625, 23.9375, 23.6875, 23.4375, 23.125, 22.6875, 22.267857, 21.767857, 21.330357, 21.125, 21.0625, 21.25, 21.3125, 21.3125, 21.3125, 21.25, 21.375, 21.625, 21.8125, 21.9375, 22, 22, 22, 21.9375, 21.9375, 21.9375, 22, 22.25, 22.5, 22.6875, 22.875, 22.875, 22.75, 22.6875, 22.6875, 22.75, 22.875, 23, 23, 23.125, 23.1875, 23.3125, 23.5, 23.625, 23.75, 23.9375, 24, 24, 24, 23.9375, 23.9375, 23.9375, 24, 24.0625, 24.0625, 24.0625, 24.125, 24.125, 24.375, 24.625, 24.8125, 25, 25, 25, 25, 25, 25, 25, 25, 25.0625, 25.0625, 25.125, 25.1875, 25.3125, 25.348213, 25.214287, 25.1875, 25.0625, 25.25, 25.3125, 25.5625, 25.75, 25.8125, 26, 26, 26, 26.0625, 26.0625, 26.1875, 26.4375, 26.625, 26.875, 27, 27, 27, 27, 27, 27, 26.9375, 26.9375, 26.9375, 26.9375, 27.026787, 27.160713, 27.125, 27.125, 27.1875, 27.419643, 27.678572, 27.8125, 27.8125, 27.875, 27.875, 27.9375, 28, 28, 28, 28, 28, 28.0625, 28.0625, 28.083334, 28, 8, 8, 8, 8, 8, 8, 8, 8, 8, 8, 8, 8, 8, 8.125, 8.3055553, -10, -10, -10, -10, -10, 18.25, 18.583334, 18.5625, 18.5625, 18.4375, 18.4375, 18.4375, 18.375, 18.4375, 18.3125, 18.25, 18.3125, 18.375, 18.5625, 18.75, 19, 19.1875, 19.25, 19.321428, 19.325001, 19.205357, 19.4375, 19.4375, 19.625, 19.767857, 20.020834, 20.178572, 20.3125, 20.446428, 20.75, 20.875, 20.9375, 21, 21.151787, 21.419643, 21.741072, 21.875, 21.875, 21.8125, 21.6875, 21.705357, 21.958334, 22.053572, 22.1875, 22.1875, 22.25, 22.25, 22.125, 22.0625, 21.875, 22.026787, 22.357143, 22.395834, 22.362499, 22.297619, 22.25, 22.660715, 22.848213, 22.9375
-10, -10, -10, -10, -10, -10, -10, -10, -10, -10, -10, -10, -10, -10, -10, -10, -10, -10, -10, -10, -10, -10, 54.125, 54.083332, 54.125, 53.8125, 53.166664, 52.910713, 52.6875, 52.571426, 52.166668, 52.0625, 51.919643, 51.8125, 51.6875, 51.4375, 51.0625, 50.6875, 50.375, 50.0625, 49.6875, 49.4375, 49.116074, 48.737499, 48.607143, 48.3125, 48.1875, 48, 47.75, 47.5, 47.25, 46.875, 46.625, 46.375, 45.9375, 45.5625, 45.3125, 44.9375, 44.625, 44.375, 44.125, 43.875, 43.625, 43.375, 43.125, 42.75, 42.5, 42.25, 41.75, 41.5, 41.25, 40.75, 40.5, 40.25, 40, 39.75, 39.5, 39.0625, 38.5625, 38.3125, 38.0625, 38, 37.8125, 37.5625, 37.125, 36.580357, 36.3125, 36, 35.75, 35.5625, 35.116074, 34.651787, 34.5, 34.1875, 34.1875, 33.9375, 33.625, 33.375, 32.9375, 32.5625, 32.3125, 32.0625, 31.75, 31.5, 31.25, 30.875, 30.625, 30.375, 30.125, 29.8125, 29.5625, 29.3125, 29.0625, 28.8125, 28.553572, 28.041666, 27.571428, 27.3125, 27, 26.875, 26.723213, 26.392857, 26.071428, 25.580357, 25.375, 24.919643, 24.517857, 24.258928, 24, 23.9375, 23.6875, 23.4375, 23.125, 22.6875, 22.267857, 21.767857, 21.330357, 21.0625, 21, 21.1875, 21.294643, 21.3125, 21.3125, 21.25, 21.375, 21.625, 21.8125, 21.9375, 22, 22, 22, 22, 22, 22, 22.125, 22.3125, 22.5625, 22.75, 22.875, 22.875, 22.75, 22.75, 22.75, 22.8125, 22.9375, 23, 23, 23.1875, 23.3125, 23.5, 23.75, 23.8125, 23.9375, 24.0625, 24.0625, 24.0625, 24, 23.9375, 23.9375, 23.9375, 24, 24.0625, 24.125, 24.1875, 24.25, 24.25, 24.375, 24.5625, 24.8125, 25, 24.964287, 25, 24.9375, 25, 25, 25, 25, 25.0625, 25.0625, 25.0625, 25.125, 25.25, 25.223213, 25.151787, 25.125, 25, 25.1875, 25.1875, 25.375, 25.5625, 25.6875, 25.9375, 26, 26, 26.0625, 26.0625, 26.25, 26.5, 26.6875, 26.9375, 27, 27, 27, 27, 27, 27, 26.875, 26.875, 26.875, 26.8125, 26.901787, 26.973213, 26.9375, 27.0625, 27.1875, 27.375, 27.625, 27.8125, 27.9375, 28, 28, 28, 28, 28, 28, 28, 28, 28.125, 28.1875, 28.25, 8, 8, 8, 8, 8, 8, 8, 8, 8, 8, 8, 8, 8, 8.0625, 8.208333, -10, -10, -10, -10, -10, 18, 18.166666, 18.333334, 18.3125, 18.25, 18.125, 18.125, 18.125, 18.125, 18.25, 18.1875, 18.125, 18.1875, 18.1875, 18.3125, 18.5, 18.75, 18.9375, 19.0625, 19.258928, 19.356251, 19.299107, 19.53125, 19.40625, 19.5, 19.580357, 19.770834, 19.991072, 20.25, 20.553572, 20.875, 21, 21.0625, 21.0625, 21.214287, 21.544643, 21.803572, 21.875, 21.8125, 21.65625, 21.5, 21.580357, 21.833334, 21.959822, 22.0625, 22.0625, 22.1875, 22.25, 22.1875, 22.0625, 21.8125, 21.839287, 22.075893, 22.114584, 22.081249, 22.078869, 22.107143, 22.473215, 22.660713, 22.6875, 22.5625, 22.4375, 22.3125, 22.21875, 22.28125, 22.572916, 22.74107, 23, 23.0625, 23.125, 22.892857, 22.955357, 23, 23.125, 22.916666, 22.833334, 23.125, 23.25, 23.589287, 23.75, 24.0625, 24.1875, 24.1875, 24.1875, 23.9375, 23.8125, 23.75, 23.6875, 23.8125, 23.75, 23.839287, 23.875, 23.57778, -10, -10, -10, -10, -10, -10, -10, -10, -10, -10, -10, -10, -10, -10, -10, -10, -10, -10, -10, -10, -10, -10, -10, -10, -10, -10, -10, -10, -10, -10, -10, -10, -10, -10, -10, 54.125, 54.083332, 54.0625, 53.8125, 53.333332, 53.116074, 52.8125, 52.508926, 52.005955, 51.875, 51.794643, 51.8125, 51.75, 51.5, 51.125, 50.75, 50.375, 50, 49.625, 49.4375, 49.053574, 48.587498, 48.598217, 48.1875, 48.1875, 48, 47.75, 47.5, 47.25, 46.875, 46.625, 46.375, 45.875, 45.5, 45.25, 44.9375, 44.6875, 44.4375, 44.1875, 43.875, 43.625, 43.375, 43.0625, 42.6875, 42.4375, 42.1875, 41.75, 41.5, 41.25, 40.8125, 40.5625, 40.3125, 40.0625, 39.75, 39.5, 39.125, 38.6875, 38.4375, 38.1875, 38, 37.8125, 37.5625, 37.125, 36.598213, 36.3125, 36, 35.8125, 35.5625, 35.053574, 34.553574, 34.375, 34.125, 34.1875, 33.9375, 33.625, 33.375, 32.875, 32.5, 32.25, 32, 31.75, 31.5, 31.25, 30.875, 30.625, 30.375, 30.0625, 29.75, 29.5, 29.25, 29, 28.6875, 28.4375, 28.125, 27.6875, 27.4375, 27, 26.75, 26.598213, 26.267857, 26.008928, 25.580357, 25.375, 24.919643, 24.517857, 24.258928, 24, 23.9375, 23.6875, 23.4375, 23.1875, 22.8125, 22.5, 21.955357, 21.392857, 20.955357, 20.8125, 20.9375, 21.107143, 21.1875, 21.25, 21.25, 21.375, 21.625, 21.75, 21.875, 21.9375, 21.9375, 22, 22, 22, 22.0625, 22.25, 22.4375, 22.6875, 22.8125, 22.875, 22.875, 22.8125, 22.875, 22.875, 22.9375, 23, 23, 23, 23.25, 23.4375, 23.6875, 23.9375, 23.9375, 24, 24.0625, 24.0625, 24.0625, 24, 24, 24, 24, 24.0625, 24, 24.125, 24.25, 24.3125, 24.375, 24.375, 24.5, 24.6875, 24.875, 24.901787, 24.9375, 24.9375, 25, 25, 25, 25, 25.0625, 25.0625, 25.0625, 25.125, 25.3125, 25.348213, 25.276787, 25.3125, 25.0625, 25.125, 25.125, 25.1875, 25.4375, 25.625, 25.875, 26, 26, 26, 26.0625, 26.3125, 26.5625, 26.8125, 27, 27, 27, 27, 27, 27, 27, 26.875, 26.875, 26.875, 26.875, 26.9375, 26.9375, 26.9375, 26.9375, 27.0625, 27.25, 27.5, 27.75, 27.9375, 28, 28, 28, 28, 28, 28, 28, 28, 28.1875, 28.3125, 28.4375, 8, 8, 8, 8, 8, 8, 8, 8, 8, 8, 8, 8, 8, 8.0625, 8.1944437, -10, -10, -10, -10, -10, 18, 18.125, 18.083334, 18.0625, 18.0625, 18, 17.9375, 17.875, 17.8125, 17.8125, 17.75, 17.75, 17.75, 17.8125, 18, 18.125, 18.3125, 18.455357, 18.770834, 19.0625, 19.231251, 19.174107, 19.34375, 19.15625, 19.25, 19.330357, 19.583334, 19.866072, 20.25, 20.607143, 20.8125, 21, 21.0625, 21.0625, 21.151787, 21.419643, 21.553572, 21.625, 21.5625, 21.375, 21.1875, 21.142857, 21.333334, 21.491072, 21.6875, 21.8125, 22, 22.0625, 22, 21.9375, 21.75, 21.776787, 21.950893, 21.864584, 21.706249, 21.730656, 21.794643, 22.116072, 22.357143, 22.375
