49.1875, 48.776787, 48.5, 48.25, 47.875, 47.5, 47, 46.5, 46.1875, 45.6875, 45.375, 44.955357, 44.6875, 44.4375, 44.25, 43.9375, 43.5625, 43.1875, 42.767857, 42.5, 42, 41.464287, 41.151787, 40.75, 40.5, 40.1875, 39.75, 39.4375, 39.125, 38.75, 38.321426, 37.729168, 37.321426, 37.125, 36.8125, 36.5625, 36.3125, 35.8125, 35.5, 35.1875, 34.6875, 34.4375, 33.9375, 33.5, 33.25, 32.75, 32.5, 32.25, 31.8125, 31.5625, 31.25, 30.767857, 30.491072, 29.916666, 29.508928, 29.0625, 28.580357, 28.3125, 28, 27.75, 27.46875, 27.15625, 26.84375, 26.433035, 25.75, 25.4375, 25.125, 25, 24.625, 24.3125, 23.8125, 23.4375, 23.1875, 22.75, 22.5, 22.125, 21.6875, 21.375, 21, 20.71875, 20.46875, 20.209822, 19.697916, 19.383928, 18.875, 18.5, 18.125, 17.625, 17.375, 17.125, 16.75, 16.4375, 15.892857, 15.3125, 14.830357, 14.4375, 14.1875, 14.0625, 14, 13.9375, 13.6875, 13.5, 13.25, 13.0625, 13.0625, 13.0625, 13.1875, 13.25, 13.25, 13.25, 13.125, 13.0625, 13.1875, 13.25, 13.375, 13.375, 13.25, 13.125, 13, 13, 13, 13, 13, 13, 13, 13, 13, 13.0625, 13.0625, 13.0625, 13, 12.848214, 12.714286, 12.75, 12.75, 12.875, 12.875, 12.848214, 12.875, 12.919643, 12.96875, 13.03125, 13.03125, 13.03125, 13, 13, 12.9375, 12.875, 12.875, 12.732143, 12.526786, 12.375, 12.151786, 12.1875, 12.125, 12.125, 12.0625, 12, 12.125, 12.25, 12.4375, 12.6875, 12.625, 12.5625, 12.375, 12.125, 12.125, 12.0625, 12.0625, 12.125, 12.1875, 12.3125, 12.366072, 12.3, 12.366072, 12.208333, 11.916667, 11.767857, 11.625, 11.6875, 11.75, 11.75, 11.75, 11.6875, 11.75, 11.8125, 11.9375, 12, 12, 12, 12, 12, 11.875, 11.8125, 11.6875, 11.4375, 11.3125, 11.3125, 11.4375, 11.5, 11.5, 11.3125, 11.125, 11.125, 11.0625, 11, 10.875, 10.8125, 10.9375, 11.125, 11.1875, 11.125, 11.026786, 10.9375, 10.9375, 11, 11, 11, 11.125, 11.3125, 11.5625, 11.8125, 11.9375, 12, 12, 12, 12.0625, 12.321428, 12.875, 13.09375, 13.40625, 13.46875, 13.5625, 13.75, 13.8125, 13.875, 14, 14, 14.125, 14.1875, 14.375, 14.5625, 14.6875, 14.875, 14.9375, 15.25, 15.5, 15.75, 16, 16, 16, 16.0625, 16.0625, 16.125, 16.3125, 16.5, 16.75, 16.9375, 17, 17, 17.0625, 17.125, 17.25, 17.5, 17.6875, 17.875, 17.9375, 18, 18.0625, 18.25, 18.5625, 18.75, 18.9375, 19, 19, 19.125, 19.375, 19.5625, 19.5625, 19.4375, 19.15625, 18.875, 18.75, 18.6875, 18.71875, 18.75, 10.85, 10.333333, 10.1875, 10, 9.9375, 9.9375, 10, 9.9375, 9.75, 9.5625, 9.3125, 9.125, 9.0625, 8.9375, 8.9375, 8.9375, 8.9375, 9, 9, 9, 9, 9, 9, 9.1875, 9.375, 9.4375, 9.3303566, 9.1339283, 9, 9.125, 9.125, 9.125, 9.125, 9, 9, 9, 9, 9, 9, 9, 9, 9, 9.0625, 9.0625, 9.0625, 9.0625, 9, 8.9375, 8.875, 8.875, 8.875, 8.9375, 9, -10, -10, -10, -10, -10, -10, -10, -10, -10, -10, -10, -10, -10, -10, -10, -10, -10, -10, -10, -10, -10, -10, -10, -10, -10, -10, -10, -10, -10, -10, -10, -10, 50, 50, 50, 49.75, 49.5, 49.1875, 48.75, 48.5, 48.25, 47.8125, 47.5, 47, 46.5, 46.25, 45.75, 45.4375, 45.017857, 44.6875, 44.4375, 44.25, 43.9375, 43.5625, 43.125, 42.642857, 42.375, 41.9375, 41.580357, 41.3125, 40.875, 40.5625, 40.1875, 39.75, 39.375, 38.955357, 38.625, 38.196426, 37.666668, 37.321426, 37.0625, 36.75, 36.5, 36.25, 35.8125, 35.5, 35.1875, 34.6875, 34.4375, 33.9375, 33.5, 33.25, 32.75, 32.5, 32.25, 31.8125, 31.5625, 31.1875, 30.705357, 30.428572, 29.854166, 29.508928, 29.0625, 28.580357, 28.3125, 28, 27.75, 27.5, 27.25, 27, 26.589285, 25.875, 25.5, 25.125, 25, 24.625, 24.3125, 23.8125, 23.4375, 23.1875, 22.75, 22.5, 22.1875, 21.75, 21.5, 21.1875, 20.90625, 20.6875, 20.366072, 19.747023, 19.415178, 18.875, 18.5, 18.1875, 17.6875, 17.4375, 17.1875, 16.75, 16.4375, 15.892857, 15.3125, 14.767857, 14.375, 14.125, 13.9375, 13.875, 13.8125, 13.5625, 13.375, 13.1875, 13, 12.9375, 12.9375, 13, 13.0625, 13.125, 13.1875, 13.125, 13.125, 13.25, 13.3125, 13.375, 13.3125, 13.1875, 13.0625, 13, 13, 13, 13, 13, 12.9375, 12.9375, 12.9375, 12.9375, 13, 13, 13, 13, 12.973214, 12.839286, 12.875, 12.875, 12.9375, 12.875, 12.75, 12.6875, 12.732143, 12.84375, 12.96875, 13.03125, 13.03125, 13, 12.9375, 12.9375, 12.875, 12.875, 12.794643, 12.526786, 12.4375, 12.3125, 12.375, 12.3125, 12.25, 12.125, 12, 12, 12, 12.125, 12.3125, 12.375, 12.4375, 12.3125, 12.125, 12.125, 12.0625, 12.0625, 12.125, 12.1875, 12.3125, 12.303572, 12.175, 12.178572, 11.958333, 11.666667, 11.517857, 11.4375, 11.5, 11.5625, 11.5625, 11.5, 11.508928, 11.75, 11.8125, 12, 12, 12, 12, 12, 12, 11.875, 11.75, 11.6875, 11.5, 11.4375, 11.5, 11.5625, 11.5, 11.4375, 11.25, 11.125, 11.25, 11.3125, 11.375, 11.25, 11.25, 11.3125, 11.4375, 11.4375, 11.25, 11.089286, 10.9375, 10.9375, 11, 11, 11, 11.125, 11.375, 11.625, 11.875, 12, 12, 12.0625, 12.125, 12.3125, 12.571428, 12.916667, 13.09375, 13.40625, 13.504464, 13.526786, 13.75, 13.794643, 13.875, 14, 14.0625, 14.1875, 14.3125, 14.5, 14.625, 14.75, 14.875, 14.9375, 15.25, 15.5, 15.75, 16, 16, 16, 16.0625, 16.0625, 16.125, 16.3125, 16.5, 16.75, 16.9375, 17, 17, 17.0625, 17.0625, 17.125, 17.375, 17.5625, 17.8125, 17.9375, 17.9375, 18, 18.125, 18.4375, 18.6875, 18.875, 19.0625, 19.125, 19.25, 19.5, 19.6875, 19.625, 19.5, 19.25, 18.96875, 18.90625, 18.90625, 18.90625, 18.916666, 10.333333, 10.166666, 10.0625, 9.9375, 9.9375, 9.9375, 10, 9.9375, 9.6875, 9.4375, 9.1875, 9, 9, 8.9375, 8.9375, 8.9375, 8.9375, 9, 9, 9, 9, 9, 9, 9.125, 9.3125, 9.375, 9.3303566, 9.1964283, 9.0625, 9.125, 9, 8.9375, 8.9375, 8.875, 8.9375, 9, 9, 9, 9, 9, 9, 9, 9, 9, 9, 9, 9, 9, 9, 9, 9
49.1875, 48.75, 48.5, 48.25, 47.8125, 47.5, 47, 46.5, 46.25, 45.75, 45.4375, 45.017857, 44.625, 44.375, 44.1875, 43.875, 43.5625, 43.0625, 42.517857, 42.25, 41.875, 41.625, 41.375, 40.9375, 40.5625, 40.25, 39.8125, 39.375, 38.910713, 38.625, 38.241074, 37.729168, 37.383926, 36.991074, 36.5, 36.3125, 36.0625, 35.75, 35.5, 35.1875, 34.6875, 34.4375, 33.9375, 33.5, 33.25, 32.75, 32.5, 32.25, 31.8125, 31.5625, 31.1875, 30.642857, 30.375, 29.9375, 29.5625, 29.0625, 28.517857, 28.25, 27.875, 27.6875, 27.4375, 27.1875, 27, 26.642857, 26.145834, 25.6875, 25.3125, 25, 24.5625, 24.1875, 23.6875, 23.375, 23.125, 22.75, 22.5, 22.25, 21.8125, 21.5625, 21.3125, 20.96875, 20.75, 20.366072, 19.684523, 19.352678, 18.8125, 18.5, 18.25, 17.75, 17.5, 17.1875, 16.6875, 16.375, 15.892857, 15.375, 14.830357, 14.392857, 14.0625, 13.8125, 13.6875, 13.625, 13.4375, 13.3125, 13.1875, 13, 12.875, 12.875, 12.875, 12.9375, 13.0625, 13.0625, 13.0625, 13.125, 13.25, 13.375, 13.4375, 13.3125, 13.25, 13.125, 13.0625, 13.0625, 13, 13, 13, 12.875, 12.875, 12.875, 12.875, 13, 13, 13, 12.9375, 12.9375, 12.875, 12.875, 12.9375, 12.9375, 12.9375, 12.75, 12.625, 12.607143, 12.59375, 12.78125, 12.90625, 12.96875, 13, 12.9375, 13, 12.9375, 12.9375, 12.857143, 12.464286, 12.3125, 12.25, 12.3125, 12.375, 12.375, 12.1875, 12.0625, 11.875, 11.75, 11.8125, 11.9375, 12.125, 12.3125, 12.25, 12.125, 12.125, 12.0625, 12.0625, 12.125, 12.1875, 12.25, 12.178572, 11.9875, 11.928572, 11.708333, 11.416667, 11.330357, 11.3125, 11.375, 11.5, 11.4375, 11.3125, 11.321428, 11.5, 11.625, 11.875, 11.9375, 12, 12, 12, 12, 11.8125, 11.625, 11.5625, 11.4375, 11.5, 11.625, 11.625, 11.5, 11.4375, 11.3125, 11.25, 11.4375, 11.5, 11.5, 11.375, 11.375, 11.375, 11.5, 11.5, 11.25, 11.089286, 10.9375, 10.9375, 11, 11, 11, 11.125, 11.375, 11.625, 11.875, 12, 12, 12.0625, 12.1875, 12.4375, 12.6875, 12.875, 13.0625, 13.25, 13.348214, 13.464286, 13.6875, 13.794643, 13.9375, 14, 14.125, 14.25, 14.4375, 14.625, 14.6875, 14.8125, 14.875, 14.9375, 15.25, 15.5, 15.75, 16, 16, 16, 16, 16, 16.0625, 16.25, 16.5, 16.75, 16.9375, 17, 17, 17.0625, 17.125, 17.1875, 17.4375, 17.625, 17.75, 17.901787, 18.044643, 18.178572, 18.25, 18.4375, 18.625, 18.75, 19, 19.1875, 19.3125, 19.5625, 19.75, 19.625, 19.5, 19.25, 19.03125, 19.09375, 19.09375, 19.09375, 19.0625, 19, 10.111111, 10, 9.9375, 9.9375, 9.9375, 9.9375, 9.9375, 9.75, 9.5625, 9.375, 9.125, 9.0625, 8.9375, 8.9375, 8.9375, 8.9375, 9, 9, 9, 9, 9, 9.0625, 9.1875, 9.375, 9.4375, 9.3303566, 9.1964283, 9.0625, 9, 8.875, 8.78125, 8.71875, 8.78125, 8.90625, 9.1071434, 9.1875, 9.1875, 9.125, 9.0625, 9, 9, 9, 9, 9, 9, 9, 9, 9, 9, 9, 9, 9, -10, -10, -10, -10, -10, -10, -10, -10, -10, -10, -10, -10, -10, -10, -10, -10, -10, -10, -10, -10, -10, -10, -10, -10, -10, -10, -10, -10, -10, -10, -10, -10, -10, 50.125, 50, 49.75, 49.4375, 49.0625, 48.625, 48.375, 48.0625, 47.6875, 47.4375, 46.9375, 46.5, 46.25, 45.8125, 45.5, 45.049107, 44.59375, 44.21875, 43.96875, 43.6875, 43.375, 42.9375, 42.455357, 42.1875, 41.875, 41.625, 41.375, 40.9375, 40.5625, 40.3125, 39.875, 39.375, 38.803574, 38.4375, 38.0625, 37.75, 37.4375, 36.991074, 36.5, 36.3125, 36.0625, 35.8125, 35.5, 35.25, 34.8125, 34.625, 34.1875, 33.6875, 33.330357, 32.8125, 32.5, 32.25, 31.875, 31.625, 31.25, 30.705357, 30.375, 29.9375, 29.5625, 29.125, 28.580357, 28.3125, 28, 27.75, 27.5, 27.25, 27, 26.6875, 26.4375, 25.9375, 25.5, 25.0625, 24.5625, 24.1875, 23.6875, 23.375, 23.0625, 22.6875, 22.4375, 22.125, 21.75, 21.5, 21.1875, 20.875, 20.625, 20.241072, 19.622023, 19.258928, 18.705357, 18.4375, 18.1875, 17.75, 17.5, 17.125, 16.625, 16.375, 16, 15.5625, 15.080357, 14.580357, 14.1875, 13.8125, 13.5625, 13.4375, 13.3125, 13.25, 13.25, 13.1875, 13.0625, 13.0625, 13, 13, 13.0625, 13.0625, 13.0625, 13.125, 13.1875, 13.25, 13.375, 13.25, 13.3125, 13.25, 13.125, 13.125, 13, 13, 13, 12.875, 12.875, 12.9375, 13, 13.125, 13.125, 13.0625, 12.9375, 13, 13, 13, 13.0625, 13, 13, 12.75, 12.5625, 12.375, 12.3125, 12.5625, 12.6875, 12.875, 12.9375, 12.875, 12.9375, 12.9375, 12.9375, 12.9375, 12.6875, 12.4375, 12.375, 12.3125, 12.375, 12.375, 12.1875, 12.0625, 11.9375, 11.8125, 11.8125, 11.8125, 11.875, 12, 12, 12, 12.0625, 12.0625, 12.0625, 12.125, 12.125, 12.125, 11.928572, 11.6125, 11.553572, 11.333333, 11.229167, 11.205357, 11.1875, 11.25, 11.25, 11.125, 11.0625, 11.071428, 11.25, 11.5, 11.75, 11.875, 12, 12, 12, 12, 11.75, 11.5, 11.3125, 11.125, 11.267857, 11.583333, 11.607143, 11.5, 11.375, 11.25, 11.25, 11.4375, 11.5, 11.5625, 11.4375, 11.5, 11.5, 11.5, 11.5, 11.25, 11.125, 11, 11, 11, 11, 11, 11.125, 11.375, 11.625, 11.875, 12, 12, 12.0625, 12.25, 12.5, 12.75, 12.9375, 13, 13.125, 13.160714, 13.214286, 13.5, 13.669643, 13.875, 14, 14.125, 14.25, 14.5, 14.75, 14.8125, 14.9375, 14.9375, 14.9375, 15.1875, 15.375, 15.625, 15.875, 15.9375, 16, 16, 16, 16.0625, 16.25, 16.5, 16.75, 16.9375, 17, 17, 17.0625, 17.125, 17.25, 17.5, 17.6875, 17.75, 17.901787, 18.044643, 18.241072, 18.375, 18.5, 18.6875, 18.75, 19, 19.25, 19.4375, 19.6875, 19.875, 19.6875, 19.5, 19.25, 19.102678, 19.427084, 19.427084, 19.260416, 19.133928, 19, 19, 10, 10, 10, 10, 9.9375, 9.9375, 9.8125, 9.625, 9.4375, 9.1875, 9.0625, 9, 9, 9.0625, 9.0625, 9.125, 9.125, 9.125, 9.125, 9.125, 9.1875, 9.1875, 9.25, 9.1875, 9.1875, 9.125, 9.0625, 8.9375, 8.8125, 8.71875, 8.65625, 8.78125, 8.90625, 9.1071434, 9.1875, 9.1875, 9.125, 9.0625, 9, 9, 9, 9, 9, 9, 9, 9, 9, 9, 9
49, 48.625, 48.375, 48.0625, 47.6875, 47.375, 46.830357, 46.4375, 46.1875, 45.875, 45.625, 45.28125, 44.78125, 44.28125, 43.861607, 43.4375, 43.0625, 42.6875, 42.3125, 42.125, 41.875, 41.5625, 41.205357, 40.75, 40.375, 40.125, 39.6875, 39.25, 38.678574, 38.375, 38.0625, 37.75, 37.375, 36.82143, 36.375, 36.1875, 36, 35.8125, 35.5, 35.25, 34.8125, 34.625, 34.25, 33.8125, 33.517857, 33.053574, 32.541668, 32.258926, 31.8125, 31.5625, 31.1875, 30.6875, 30.3125, 29.8125, 29.4375, 29.0625, 28.625, 28.375, 28, 27.625, 27.375, 27.125, 26.875, 26.5625, 26.276787, 25.8125, 25.4375, 25, 24.5, 24.125, 23.625, 23.375, 23.0625, 22.6875, 22.4375, 22.0625, 21.625, 21.375, 21.0625, 20.75, 20.5, 20.125, 19.642857, 19.3125, 18.767857, 18.4375, 18.1875, 17.75, 17.5, 17.0625, 16.5625, 16.3125, 16, 15.6875, 15.3125, 14.767857, 14.3125, 13.875, 13.5, 13.3125, 13.25, 13.1875, 13.3125, 13.3125, 13.125, 13.125, 13, 12.9375, 13.0625, 13.125, 13.125, 13.25, 13.1875, 13.1875, 13.3125, 13.1875, 13.3125, 13.25, 13.1875, 13.1875, 13.0625, 13, 12.875, 12.75, 12.75, 12.875, 13, 13.125, 13.125, 13.0625, 12.9375, 12.9375, 12.9375, 12.9375, 13, 13, 13, 12.8125, 12.6875, 12.5, 12.4375, 12.625, 12.6875, 12.875, 12.9375, 12.875, 12.875, 12.8125, 12.75, 12.75, 12.5625, 12.375, 12.3125, 12.1875, 12.3125, 12.3125, 12.1875, 12.125, 11.9375, 11.8125, 11.8125, 11.75, 11.8125, 11.9375, 11.9375, 12, 12, 12, 12, 11.9375, 11.9375, 11.875, 11.6875, 11.5, 11.25, 11.0625, 11.0625, 11.0625, 11.0625, 11.0625, 11, 10.875, 10.8125, 10.883928, 11.0625, 11.375, 11.6875, 11.8125, 12, 12, 12, 12, 11.75, 11.4375, 11.080357, 10.9375, 11.080357, 11.458333, 11.544643, 11.4375, 11.3125, 11.1875, 11.1875, 11.3125, 11.3125, 11.375, 11.3125, 11.375, 11.375, 11.3125, 11.3125, 11.125, 11.0625, 11, 11, 11, 11, 11, 11.125, 11.375, 11.625, 11.875, 12, 12, 12.0625, 12.25, 12.4375, 12.625, 12.75, 12.8125, 12.9375, 12.973214, 13.026786, 13.3125, 13.544643, 13.8125, 14, 14.125, 14.25, 14.5, 14.75, 14.875, 15, 15, 15, 15.1875, 15.375, 15.625, 15.875, 15.9375, 16, 16, 16, 16.0625, 16.25, 16.5, 16.75, 16.9375, 17, 17, 17, 17.0625, 17.25, 17.5, 17.75, 17.8125, 17.901787, 18.044643, 18.241072, 18.375, 18.5, 18.6875, 18.75, 19, 19.3125, 19.5625, 19.8125, 20, 19.8125, 19.5625, 19.3125, 19.165178, 19.427084, 19.427084, 19.260416, 19.133928, 19, 19, 18.642857, 10.761905, 10.55102, 10.32653, 10.258928, 10.080357, 9.9375, 9.75, 9.5625, 9.3125, 9.125, 9, 9, 9.125, 9.125, 9.1875, 9.1875, 9.1875, 9.1875, 9.25, 9.3125, 9.1875, 9.1875, 9.125, 9.125, 9.125, 9.125, 8.9375, 8.8125, 8.71875, 8.65625, 8.78125, 8.90625, 9.1071434, 9.1875, 9.1875, 9.125, 9.0625, 9, 9, 9, 9, 9, 9, 9, 9, 9, 9, 9, 9, 9, -10, -10, -10, -10, -10, -10, -10, -10, -10, -10, -10, -10, -10, -10, -10, -10, -10, -10, -10, -10, -10, -10, -10, -10, -10, -10, -10, -10, -10, -10, -10, -10, 50, 50.125, 49.875, 49.625, 49.3125, 48.9375, 48.625, 48.375, 48, 47.625, 47.3125, 46.767857, 46.4375, 46.1875, 45.875, 45.625, 45.34375, 44.84375, 44.34375, 43.924107, 43.428574, 42.854168, 42.508926, 42.1875, 42.0625, 41.8125, 41.4375, 41.044643, 40.6875, 40.375, 40.1875, 39.75, 39.3125, 38.910713, 38.598213, 38.205357, 37.883926, 37.428574, 36.738094, 36.392857, 36.1875, 36.0625, 35.875, 35.5, 35.1875, 34.75, 34.5, 34.125, 33.75, 33.455357, 33.053574, 32.541668, 32.258926, 31.8125, 31.5625, 31.1875, 30.6875, 30.3125, 29.8125, 29.4375, 29.125, 28.6875, 28.4375, 28, 27.5625, 27.3125, 27, 26.75, 26.4375, 26.151787, 25.75, 25.4375, 25.0625, 24.5625, 24.1875, 23.6875, 23.375, 23.0625, 22.6875, 22.4375, 22.0625, 21.625, 21.375, 21, 20.625, 20.375, 20.0625, 19.678572, 19.166666, 18.651785, 18.3125, 18.0625, 17.6875, 17.4375, 16.9375, 16.5, 16.25, 15.9375, 15.6875, 15.375, 14.830357, 14.375, 14, 13.625, 13.4375, 13.375, 13.25, 13.375, 13.375, 13.25, 13.25, 13.0625, 13.0625, 13.1875, 13.3125, 13.3125, 13.3125, 13.1875, 13.125, 13.25, 13.1875, 13.3125, 13.3125, 13.3125, 13.3125, 13.1875, 13.0625, 12.9375, 12.9375, 12.96875, 13.09375, 13.15625, 13.15625, 13.125, 13, 12.875, 12.9375, 12.973214, 13, 13.0625, 13, 13, 12.875, 12.8125, 12.625, 12.5625, 12.6875, 12.6875, 12.875, 12.9375, 12.9375, 12.875, 12.75, 12.625, 12.5, 12.375, 12.25, 12.1875, 12.125, 12.3125, 12.3125, 12.25, 12.1875, 12, 11.9375, 11.9375, 11.875, 11.9375, 12, 12, 12.0625, 12, 12, 12, 11.9375, 11.9375, 11.875, 11.75, 11.625, 11.4375, 11.3125, 11.25, 11.1875, 11.125, 11.0625, 11, 10.875, 10.8125, 10.8125, 10.875, 11.25, 11.5625, 11.8125, 12, 12, 12, 12, 11.75, 11.4375, 11.017857, 10.8125, 10.892857, 11.208333, 11.294643, 11.25, 11.1875, 11.125, 11.1875, 11.25, 11.1875, 11.1875, 11.125, 11.1875, 11.25, 11.1875, 11.25, 11.125, 11.0625, 11.0625, 11, 11, 11, 11, 11.1875, 11.4375, 11.6875, 11.9375, 12, 12, 12, 12.125, 12.25, 12.4375, 12.625, 12.75, 12.875, 13, 13.1875, 13.4375, 13.6875, 13.875, 14, 14, 14.0625, 14.3125, 14.607143, 14.8125, 15, 15, 15, 15.125, 15.25, 15.5, 15.75, 15.875, 16, 16, 16.0625, 16.1875, 16.4375, 16.6875, 16.875, 17, 17, 17, 17, 17.0625, 17.3125, 17.5625, 17.8125, 17.875, 17.901787, 18.044643, 18.178572, 18.25, 18.339287, 18.607143, 18.741072, 19, 19.3125, 19.5625, 19.8125, 20, 19.8125, 19.5625, 19.3125, 19.227678, 19.489584, 19.489584, 19.322916, 19.133928, 19, 19, 18.642857, 11.933332, 11.342857, 10.764285, 10.133928, 10.017857, 10, 9.875, 9.75, 9.5625, 9.375, 9.25, 9.1875, 9.25, 9.25, 9.25, 9.25, 9.25, 9.1875, 9.25, 9.3125, 9.1875, 9.1875, 9.125, 9.0625, 9.0625, 9.0625, 8.9375, 8.9375, 8.90625, 8.84375, 8.90625, 8.96875, 9.1071434, 9.1875, 9.1875, 9.125, 9.0625, 9, 9, 9, 9, 9, 9, 9, 9, 9, 9, 9
49, 48.6875, 48.4375, 48.0625, 47.625, 47.3125, 46.767857, 46.4375, 46.1875, 45.875, 45.625, 45.34375, 44.90625, 44.40625, 43.986607, 43.491074, 42.854168, 42.571426, 42.25, 42.125, 41.875, 41.428574, 40.919643, 40.625, 40.3125, 40.125, 39.6875, 39.3125, 38.955357, 38.660713, 38.330357, 37.946426, 37.491074, 36.872025, 36.580357, 36.3125, 36.125, 35.8125, 35.4375, 35.0625, 34.6875, 34.375, 34, 33.6875, 33.392857, 33.116074, 32.604168, 32.321426, 31.875, 31.5625, 31.1875, 30.6875, 30.3125, 29.875, 29.5, 29.25, 28.8125, 28.5, 28.125, 27.625, 27.375, 27.0625, 26.75, 26.4375, 26.089287, 25.6875, 25.375, 25.0625, 24.6875, 24.366072, 23.729166, 23.383928, 23.0625, 22.75, 22.5, 22.125, 21.6875, 21.375, 20.9375, 20.5625, 20.3125, 20.0625, 19.741072, 19.229166, 18.714285, 18.3125, 18.0625, 17.6875, 17.4375, 16.9375, 16.5, 16.25, 15.875, 15.625, 15.375, 14.9375, 14.59375, 14.28125, 13.90625, 13.59375, 13.4375, 13.25, 13.3125, 13.375, 13.3125, 13.375, 13.1875, 13.25, 13.375, 13.4375, 13.4375, 13.3125, 13.1875, 13.0625, 13.125, 13.125, 13.125, 13.25, 13.375, 13.4375, 13.375, 13.1875, 13, 13, 13.03125, 13.15625, 13.21875, 13.15625, 13.125, 13, 12.875, 12.9375, 12.973214, 13, 13.0625, 13, 13.0625, 13.0625, 13.0625, 12.9375, 12.875, 12.875, 12.8125, 12.9375, 12.9375, 12.9375, 12.8125, 12.625, 12.4375, 12.25, 12.1875, 12.125, 12.0625, 12.125, 12.3125, 12.375, 12.4375, 12.3125, 12.1875, 12.1875, 12.1875, 12.1875, 12.25, 12.1875, 12.125, 12.125, 12, 12, 11.9375, 11.8125, 11.8125, 11.8125, 11.8125, 11.8125, 11.6875, 11.5625, 11.5, 11.375, 11.25, 11.1875, 11.125, 11.0625, 11, 11, 11.0625, 11.375, 11.6875, 11.875, 12, 12, 12, 12, 11.8125, 11.5625, 11.205357, 10.9375, 10.892857, 11.083333, 11.107143, 11.125, 11.0625, 11, 11.125, 11.125, 11.0625, 11.1875, 11.125, 11.25, 11.4375, 11.3125, 11.3125, 11.1875, 11.0625, 11.0625, 11, 11, 11, 11, 11.25, 11.5, 11.75, 12, 12, 12, 12.0625, 12.1875, 12.25, 12.4375, 12.5625, 12.6875, 12.875, 13, 13.1875, 13.4375, 13.6875, 13.875, 14, 13.9375, 13.9375, 14.125, 14.419643, 14.6875, 14.9375, 15, 15, 15.0625, 15.125, 15.3125, 15.5625, 15.75, 15.9375, 16, 16.0625, 16.1875, 16.375, 16.625, 16.8125, 16.9375, 17, 17, 17.0625, 17.0625, 17.3125, 17.5625, 17.75, 17.9375, 18, 18.0625, 18.107143, 17.979166, 18.130953, 18.565475, 18.794643, 19.125, 19.375, 19.625, 19.875, 20, 19.8125, 19.5625, 19.3125, 19.196428, 19.395834, 19.395834, 19.229166, 19.071428, 19, 19, 9.25, 10.380953, 10.193877, 10.112245, 10.196428, 10.080357, 10.0625, 9.9375, 9.8125, 9.6875, 9.5625, 9.5, 9.4375, 9.5, 9.4375, 9.375, 9.3125, 9.25, 9.1875, 9.25, 9.25, 9.125, 9.125, 9.0625, 9.0625, 9.0625, 9.125, 9.0625, 9.0625, 9.125, 9.125, 9.125, 9.125, 9.0625, 9, 9, 9, 9, 9, 9, 9, 9, 9, 9, 9, 9, 9, 9, 9, 9, 9, -10, -10, -10, -10, -10, -10, -10, -10, -10, -10, -10, -10, -10, -10, -10, -10, -10, -10, -10, -10, -10, -10, -10, -10, -10, -10, -10, -10, -10, -10, -10, -10, -10, 49.875, 49.791668, 49.6875, 49.535713, 49.205357, 48.8125, 48.5, 48.1875, 47.6875, 47.375, 46.830357, 46.4375, 46.125, 45.75, 45.5, 45.25, 44.875, 44.5, 44.142857, 43.616074, 43.041668, 42.758926, 42.375, 42.25, 41.9375, 41.428574, 40.857143, 40.5625, 40.25, 40, 39.625, 39.3125, 39, 38.723213, 38.392857, 37.946426, 37.491074, 36.934525, 36.642857, 36.4375, 36.241074, 35.729168, 35.383926, 34.9375, 34.5625, 34.1875, 33.75, 33.5, 33.3125, 33.053574, 32.604168, 32.258926, 31.75, 31.4375, 31.0625, 30.625, 30.3125, 29.875, 29.5, 29.25, 28.8125, 28.5, 28.125, 27.625, 27.375, 27.0625, 26.75, 26.4375, 26.026787, 25.580357, 25.3125, 25.0625, 24.75, 24.491072, 23.916666, 23.571428, 23.303572, 22.791666, 22.508928, 22.1875, 21.75, 21.4375, 21.0625, 20.625, 20.375, 20.125, 19.741072, 19.291666, 18.821428, 18.375, 18.0625, 17.625, 17.375, 16.875, 16.5, 16.25, 15.8125, 15.5625, 15.3125, 14.875, 14.59375, 14.34375, 13.96875, 13.65625, 13.4375, 13.1875, 13.1875, 13.1875, 13.125, 13.1875, 13.0625, 13.1875, 13.375, 13.4375, 13.4375, 13.3125, 13.1875, 13.0625, 13.0625, 13.0625, 13, 13.0625, 13.25, 13.3125, 13.3125, 13.1875, 13.0625, 13.0625, 13.15625, 13.200893, 13.058036, 13.03125, 12.9375, 12.9375, 12.9375, 13, 13.035714, 13.0625, 13.0625, 13, 13.125, 13.25, 13.25, 13.1875, 13.0625, 12.9375, 12.9375, 13, 13, 13, 12.875, 12.625, 12.4375, 12.25, 12.125, 12.125, 12.0625, 12.1875, 12.4375, 12.5625, 12.6875, 12.5625, 12.3125, 12.25, 12.1875, 12.1875, 12.3125, 12.25, 12.1875, 12.125, 12, 12, 11.9375, 11.8125, 11.8125, 11.8125, 11.875, 11.9375, 11.875, 11.8125, 11.6875, 11.5, 11.375, 11.3125, 11.3125, 11.375, 11.25, 11.25, 11.3125, 11.5, 11.8125, 11.9375, 12, 12, 12, 12, 11.875, 11.6875, 11.455357, 11.3125, 11.1875, 11.1875, 11.125, 11.0625, 11.125, 11.0625, 11.1875, 11.1875, 11.0625, 11.1875, 11.1875, 11.3125, 11.5625, 11.4375, 11.375, 11.3125, 11.125, 11.125, 11.0625, 11, 11, 11, 11.25, 11.5, 11.75, 12, 12, 12.0625, 12.1875, 12.3125, 12.375, 12.5, 12.5625, 12.6875, 12.875, 13.0625, 13.3125, 13.5625, 13.8125, 13.9375, 14, 13.9375, 13.9375, 14.0625, 14.357143, 14.625, 14.875, 15, 15, 15.0625, 15.125, 15.3125, 15.5625, 15.75, 15.9375, 16, 16.0625, 16.1875, 16.375, 16.625, 16.8125, 16.9375, 17, 17, 17.0625, 17.0625, 17.25, 17.5, 17.6875, 17.9375, 18.0625, 18.1875, 18.232143, 17.979166, 18.130953, 18.502975, 18.732143, 19.125, 19.375, 19.625, 19.875, 19.96875, 19.78125, 19.53125, 19.28125, 19.125, 19.0625, 19.0625, 19.0625, 19, 19, 19, 9.7222223, 10.52381, 10.265306, 10.112245, 10.196428, 10.017857, 9.9375, 9.875, 9.8125, 9.8125, 9.8125, 9.6875, 9.625, 9.5625, 9.4375, 9.3125, 9.1875, 9.125, 9.0625, 9.125, 9.125, 9.0625, 9.0625, 9.0625, 9.0625, 9.0625, 9.1875, 9.125, 9.125, 9.1875, 9.125, 9.125, 9.125, 9.0625, 9, 9, 9, 9, 9, 9, 9, 9, 9, 9, 9, 9, 9, 9, 9
49.330357, 48.9375, 48.5625, 48.25, 47.75, 47.4375, 46.9375, 46.5, 46.1875, 45.6875, 45.4375, 45.1875, 44.8125, 44.5, 44.214287, 43.741074, 43.229168, 42.946426, 42.5, 42.3125, 42, 41.553574, 41.089287, 40.75, 40.375, 40.125, 39.6875, 39.375, 39.0625, 38.723213, 38.392857, 38.008926, 37.616074, 37.166668, 36.892857, 36.625, 36.366074, 35.854168, 35.446426, 35, 34.6875, 34.25, 33.75, 33.392857, 33.0625, 32.75, 32.5, 32.1875, 31.75, 31.4375, 31.125, 30.6875, 30.4375, 30.0625, 29.625, 29.375, 28.9375, 28.5625, 28.1875, 27.642857, 27.375, 27.0625, 26.75, 26.5, 26.0625, 25.580357, 25.3125, 25, 24.75, 24.491072, 23.979166, 23.696428, 23.419643, 22.770832, 22.455357, 22.125, 21.75, 21.4375, 21, 20.5625, 20.3125, 20, 19.678572, 19.229166, 18.758928, 18.375, 18.0625, 17.625, 17.375, 16.875, 16.5, 16.25, 15.75, 15.5, 15.25, 14.8125, 14.59375, 14.34375, 14.03125, 13.71875, 13.5, 13.3125, 13.25, 13.25, 13.125, 13.089286, 13, 13.125, 13.3125, 13.3125, 13.3125, 13.1875, 13.125, 13, 12.9375, 12.9375, 12.875, 12.9375, 13.125, 13.1875, 13.1875, 13.1875, 13.1875, 13.125, 13.15625, 13.138393, 12.933036, 12.96875, 12.9375, 12.9375, 12.9375, 13, 13.035714, 13.0625, 13.0625, 13, 13.125, 13.25, 13.25, 13.3125, 13.160714, 12.964286, 13, 12.9375, 13, 13, 12.875, 12.6875, 12.5, 12.3125, 12.1875, 12.125, 12.0625, 12.1875, 12.375, 12.5625, 12.75, 12.625, 12.4375, 12.3125, 12.1875, 12.1875, 12.3125, 12.25, 12.1875, 12.125, 12, 12, 11.9375, 11.875, 11.875, 11.8125, 11.8125, 11.875, 11.875, 11.9375, 11.9375, 11.75, 11.625, 11.5625, 11.5625, 11.6875, 11.5625, 11.5625, 11.625, 11.6875, 11.9375, 12.0625, 12.0625, 12.0625, 12.0625, 12, 11.9375, 11.875, 11.8125, 11.6875, 11.5625, 11.5, 11.3125, 11.1875, 11.1875, 11.0625, 11.1875, 11.25, 11.25, 11.375, 11.375, 11.5, 11.6875, 11.5625, 11.5, 11.4375, 11.1875, 11.1875, 11.125, 11, 11, 11, 11.25, 11.4375, 11.6875, 11.9375, 11.9375, 12.125, 12.3125, 12.5, 12.625, 12.75, 12.8125, 12.875, 13, 13.1875, 13.4375, 13.6875, 13.9375, 14, 14, 13.9375, 13.9375, 14, 14.294643, 14.5625, 14.8125, 15, 15, 15, 15.0625, 15.25, 15.5, 15.75, 15.9375, 16, 16.0625, 16.125, 16.3125, 16.5625, 16.75, 16.9375, 17, 16.9375, 17, 17, 17.125, 17.4375, 17.625, 17.875, 18.0625, 18.25, 18.357143, 18.104166, 18.255953, 18.565475, 18.732143, 19.125, 19.375, 19.625, 19.875, 19.96875, 19.78125, 19.59375, 19.40625, 19.3125, 19.25, 19.125, 19.026787, 19, 19.049999, 10.5, 9.791667, 9.729167, 9.6875, 9.75, 9.8125, 9.875, 9.8125, 9.8125, 9.8125, 9.875, 10, 9.875, 9.75, 9.5625, 9.375, 9.25, 9.1875, 9.125, 9.0625, 9.125, 9.0625, 9.0625, 9.0625, 9, 9, 9, 9.125, 9.125, 9.125, 9.125, 9.0625, 9.0625, 9.0625, 9.0625, 9, 9, 9, 9, 9.0625, 9.125, 9.125, 9.125, 9, 8.875, 8.875, 8.875, 8.9375, 9, 9, 9, 9, -10, -10, -10, -10, -10, -10, -10, -10, -10, -10, -10, -10, -10, -10, -10, -10, -10, -10, -10, -10, -10, -10, -10, -10, -10, -10, -10, -10, -10, -10, -10, -10, -10, 49.875, 49.833336, 49.8125, 49.660713, 49.330357, 48.9375, 48.5625, 48.25, 47.75, 47.4375, 46.9375, 46.5, 46.1875, 45.6875, 45.4375, 45.1875, 44.8125, 44.5, 44.151787, 43.6875, 43.375, 43.0625, 42.625, 42.375, 42, 41.616074, 41.1875, 40.75, 40.375, 40.0625, 39.625, 39.3125, 38.830357, 38.5, 38.25, 37.9375, 37.625, 37.375, 37.0625, 36.75, 36.428574, 35.916668, 35.508926, 35.125, 34.8125, 34.375, 33.875, 33.455357, 33.0625, 32.6875, 32.4375, 32.125, 31.8125, 31.5, 31.25, 30.8125, 30.5, 30.1875, 29.6875, 29.375, 28.892857, 28.5, 28.1875, 27.705357, 27.4375, 27.1875, 26.8125, 26.5625, 26.125, 25.580357, 25.3125, 25, 24.75, 24.428572, 23.872025, 23.696428, 23.392857, 22.797619, 22.508928, 21.955357, 21.633928, 21.3125, 20.9375, 20.5625, 20.3125, 19.9375, 19.625, 19.375, 18.875, 18.5, 18.1875, 17.75, 17.5, 17, 16.589287, 16.3125, 15.8125, 15.517857, 15.25, 14.8125, 14.59375, 14.34375, 14.03125, 13.71875, 13.5625, 13.4375, 13.3125, 13.3125, 13.1875, 13.089286, 13.0625, 13.125, 13.1875, 13.125, 13.1875, 13.125, 13.125, 13.0625, 12.875, 12.8125, 12.6875, 12.625, 12.8125, 12.9375, 13.0625, 13.1875, 13.1875, 13.0625, 13, 12.982143, 12.839286, 12.9375, 12.9375, 13, 13, 13, 13, 13, 13, 13, 13.125, 13.25, 13.25, 13.3125, 13.098214, 12.901786, 12.9375, 12.875, 13, 13, 12.9375, 12.8125, 12.625, 12.4375, 12.25, 12.125, 12.0625, 12.125, 12.25, 12.4375, 12.6875, 12.625, 12.5, 12.375, 12.25, 12.25, 12.375, 12.3125, 12.1875, 12.1875, 12.0625, 12.0625, 12, 11.875, 11.875, 11.75, 11.75, 11.8125, 11.8125, 12, 12.0625, 11.9375, 11.875, 11.8125, 11.8125, 11.9375, 11.8125, 11.8125, 11.8125, 11.8125, 12, 12.0625, 12, 12, 12, 11.9375, 12, 11.9375, 11.875, 11.75, 11.5625, 11.5, 11.3125, 11.1875, 11.1875, 11.0625, 11.125, 11.25, 11.3125, 11.4375, 11.5, 11.625, 11.6875, 11.5625, 11.4375, 11.3125, 11.125, 11.125, 11.125, 11, 11, 11, 11.1875, 11.3125, 11.5, 11.6875, 11.75, 12.0625, 12.419643, 12.6875, 12.875, 12.9375, 12.9375, 12.9375, 13, 13.1875, 13.4375, 13.6875, 13.9375, 14, 14, 14, 14, 14, 14.25, 14.5, 14.75, 15, 15, 15, 15.0625, 15.1875, 15.375, 15.5625, 15.75, 15.875, 15.9375, 16, 16.1875, 16.4375, 16.6875, 16.9375, 17, 16.875, 16.9375, 16.9375, 17.0625, 17.4375, 17.625, 17.875, 18.0625, 18.25, 18.419643, 18.291666, 18.479166, 18.708334, 18.803572, 19.0625, 19.25, 19.5, 19.75, 19.90625, 19.84375, 19.71875, 19.59375, 19.5, 19.4375, 19.3125, 19.214287, 19.25, 19.299999, 10.333333, 10.041667, 9.979167, 9.9375, 9.9375, 9.9375, 9.9375, 9.75, 9.6875, 9.625, 9.6875, 9.875, 9.75, 9.6875, 9.5625, 9.375, 9.3125, 9.25, 9.125, 9.0625, 9.125, 9.0625, 9.0625, 9.0625, 9, 9, 9, 9.125, 9.125, 9.0625, 9, 8.9553566, 9.0625, 9.0625, 9.125, 9, 9, 9, 9, 9.0625, 9.1875, 9.1875, 9.125, 8.9642859, 8.8125, 8.8125, 8.875, 8.9375, 9, 9
49.160713, 48.8125, 48.4375, 48.125, 47.6875, 47.375, 46.875, 46.5, 46.1875, 45.6875, 45.4375, 45.1875, 44.75, 44.4375, 44.089287, 43.625, 43.375, 43, 42.5625, 42.3125, 41.875, 41.5625, 41.25, 40.8125, 40.5, 40.1875, 39.75, 39.3125, 38.785713, 38.4375, 38.1875, 38, 37.6875, 37.4375, 37.125, 36.75, 36.428574, 35.916668, 35.508926, 35.25, 34.973213, 34.517857, 34.071426, 33.642857, 33.241074, 32.604168, 32.321426, 31.9375, 31.6875, 31.4375, 31.1875, 30.8125, 30.5, 30.125, 29.625, 29.25, 28.767857, 28.4375, 28.125, 27.705357, 27.4375, 27.125, 26.75, 26.5, 26.125, 25.642857, 25.375, 25.0625, 24.6875, 24.3125, 23.848213, 23.75, 23.428572, 22.761904, 22.508928, 21.830357, 21.526787, 21.25, 20.875, 20.5625, 20.3125, 19.875, 19.5625, 19.3125, 18.875, 18.5625, 18.25, 17.875, 17.5625, 17.0625, 16.678572, 16.357143, 15.767857, 15.464286, 15.125, 14.6875, 14.4375, 14.1875, 13.9375, 13.75, 13.6875, 13.625, 13.5, 13.4375, 13.25, 13.026786, 13, 13, 13.0625, 13.125, 13.25, 13.25, 13.1875, 13.0625, 12.8125, 12.75, 12.6875, 12.5, 12.5625, 12.625, 12.75, 13, 13.125, 13.0625, 13, 13.044643, 12.901786, 12.9375, 12.901786, 12.9375, 12.9375, 13, 13, 12.9375, 12.9375, 12.9375, 13, 13.125, 13.125, 13.1875, 13.035714, 12.901786, 12.9375, 12.875, 13, 13, 12.9375, 12.8125, 12.625, 12.4375, 12.25, 12.125, 12.125, 12.1875, 12.25, 12.4375, 12.5625, 12.5, 12.4375, 12.25, 12.125, 12.0625, 12.125, 12.125, 12.0625, 12.1875, 12.1875, 12.1875, 12.1875, 12.0625, 12, 11.875, 11.8125, 11.8125, 11.8125, 12, 12.0625, 12, 12, 11.9375, 11.9375, 12, 11.875, 11.875, 11.875, 11.875, 12, 12.0625, 12, 12, 12, 11.9375, 12, 11.9375, 11.8125, 11.6875, 11.5, 11.4375, 11.3125, 11.1875, 11.1875, 11.0625, 11.0625, 11.25, 11.3125, 11.375, 11.4375, 11.5, 11.5, 11.4375, 11.375, 11.25, 11.125, 11.125, 11.125, 11, 11, 11, 11.125, 11.1875, 11.3125, 11.4375, 11.5625, 12, 12.464286, 12.75, 13, 13, 13, 13, 13, 13.25, 13.4375, 13.625, 13.8125, 13.8125, 13.875, 13.9375, 14, 14, 14.25, 14.5, 14.75, 15, 15, 15, 15.0625, 15.1875, 15.375, 15.5625, 15.75, 15.875, 15.9375, 16, 16.25, 16.5, 16.75, 17, 17, 16.875, 16.875, 16.9375, 17.0625, 17.4375, 17.6875, 17.875, 18, 18.125, 18.375, 18.5, 18.75, 18.875, 18.875, 19, 19.125, 19.3125, 19.5625, 19.78125, 19.84375, 19.84375, 19.71875, 19.6875, 19.625, 19.5, 19.401787, 19.416666, 19.4, 10.25, 10.166667, 10.0625, 10, 9.9375, 9.9375, 9.9375, 9.6875, 9.5625, 9.4375, 9.4375, 9.625, 9.5, 9.4375, 9.3125, 9.25, 9.25, 9.25, 9.1875, 9.0625, 9.125, 9.0625, 9.0625, 9.0625, 9, 9, 9, 9.0625, 9.0625, 9, 8.875, 8.8303566, 8.9375, 8.9375, 9.0625, 9, 9, 9, 9, 9.0625, 9.1875, 9.1875, 9.0625, 8.9017859, 8.6875, 8.6875, 8.8125, 8.875, 9, 9, 9, 9, -10, -10, -10, -10, -10, -10, -10, -10, -10, -10, -10, -10, -10, -10, -10, -10, -10, -10, -10, -10, -10, -10, -10, -10, -10, -10, -10, -10, -10, -10, -10, -10, -10, 50.375, 50.150002, 49.791668, 49.383926, 48.955357, 48.6875, 48.375, 48.0625, 47.75, 47.4375, 47, 46.625, 46.25, 45.705357, 45.4375, 45.1875, 44.75, 44.4375, 44.089287, 43.625, 43.375, 43, 42.5625, 42.3125, 41.875, 41.5625, 41.3125, 40.9375, 40.625, 40.3125, 39.767857, 39.3125, 38.848213, 38.5, 38.25, 38.125, 37.75, 37.4375, 37.017857, 36.5625, 36.1875, 35.875, 35.5, 35.241074, 34.848213, 34.455357, 34.071426, 33.767857, 33.357143, 32.583336, 32.267857, 31.9375, 31.75, 31.5, 31.25, 30.8125, 30.5, 30.125, 29.625, 29.25, 28.767857, 28.4375, 28.0625, 27.642857, 27.375, 27.0625, 26.6875, 26.4375, 26.0625, 25.625, 25.375, 25.0625, 24.6875, 24.25, 23.678572, 23.5625, 23.25, 22.782738, 22.5625, 21.830357, 21.464287, 21.1875, 20.75, 20.5, 20.25, 19.75, 19.5, 19.25, 18.8125, 18.5625, 18.3125, 17.9375, 17.625, 17.125, 16.678572, 16.294643, 15.705357, 15.401786, 15, 14.625, 14.375, 14.125, 14, 13.8125, 13.75, 13.6875, 13.5, 13.4375, 13.25, 13.089286, 13.125, 13.107143, 12.979167, 13.017857, 13.125, 13.1875, 13.1875, 13.0625, 12.875, 12.8125, 12.75, 12.625, 12.625, 12.6875, 12.8125, 12.9375, 13.026786, 13.035714, 12.875, 13, 12.9375, 12.9375, 12.964286, 12.9375, 12.9375, 13, 13, 13, 13, 13, 13, 13, 12.9375, 13, 12.910714, 12.839286, 12.9375, 12.875, 13, 12.9375, 12.75, 12.589286, 12.375, 12.1875, 12.125, 12, 12.125, 12.25, 12.25, 12.375, 12.4375, 12.3125, 12.3125, 12.1875, 12.0625, 12.0625, 12.125, 12.125, 12.0625, 12.1875, 12.25, 12.25, 12.25, 12.125, 12, 11.875, 11.8125, 11.8125, 11.8125, 12, 12.0625, 12.0625, 12.125, 12.0625, 12.0625, 12.0625, 11.875, 11.875, 11.875, 11.875, 12, 12.0625, 12, 12, 12, 11.9375, 12, 11.9375, 11.75, 11.625, 11.4375, 11.3125, 11.25, 11.125, 11.0625, 11, 11, 11.1875, 11.3125, 11.3125, 11.3125, 11.3125, 11.25, 11.25, 11.25, 11.125, 11.0625, 11.0625, 11.0625, 11, 11, 11, 11.0625, 11.0625, 11.125, 11.21875, 11.40625, 11.90625, 12.433036, 12.75, 13, 13, 13, 13, 13, 13.25, 13.375, 13.5, 13.625, 13.625, 13.75, 13.875, 14, 14, 14.25, 14.5, 14.75, 15, 15, 15, 15.0625, 15.125, 15.25, 15.4375, 15.5625, 15.75, 15.9375, 16.107143, 16.375, 16.5625, 16.75, 16.9375, 16.9375, 16.875, 16.875, 17, 17.1875, 17.5625, 17.8125, 17.9375, 18, 18.125, 18.375, 18.5625, 18.8125, 18.9375, 18.9375, 19, 19.0625, 19.1875, 19.4375, 19.6875, 19.875, 20, 19.9375, 19.9375, 19.875, 19.75, 19.589287, 19.541666, 10, 10, 10, 9.9375, 9.9375, 9.9375, 9.875, 9.9375, 9.75, 9.5625, 9.4375, 9.375, 9.4375, 9.3125, 9.2142859, 9.125, 9.125, 9.1875, 9.25, 9.1875, 9.0625, 9.125, 9.0625, 9.0625, 9.0625, 9, 9, 9, 9, 9, 8.9375, 8.8125, 8.8303566, 8.9375, 8.9375, 9.0625, 9, 9, 9, 9, 9.0625, 9.1875, 9.1875, 9.0625, 8.9017859, 8.6875, 8.6875, 8.8125, 8.875, 9, 9
48.767857, 48.5, 48.25, 47.9375, 47.6875, 47.4375, 47.0625, 46.6875, 46.3125, 45.767857, 45.4375, 45.1875, 44.75, 44.5, 44.1875, 43.6875, 43.4375, 43.0625, 42.625, 42.375, 41.9375, 41.5625, 41.3125, 40.9375, 40.625, 40.3125, 39.767857, 39.3125, 38.848213, 38.5625, 38.3125, 38.1875, 37.8125, 37.375, 36.848213, 36.4375, 36, 35.6875, 35.375, 35.116074, 34.723213, 34.392857, 34.008926, 33.75, 33.419643, 32.645836, 32.330357, 32, 31.75, 31.4375, 31.080357, 30.6875, 30.375, 30, 29.5625, 29.1875, 28.642857, 28.375, 28, 27.625, 27.375, 27.0625, 26.6875, 26.375, 25.955357, 25.5625, 25.3125, 25.0625, 24.6875, 24.25, 23.616072, 23.4375, 23.071428, 22.741072, 22.553572, 21.830357, 21.464287, 21.1875, 20.75, 20.5, 20.25, 19.75, 19.5, 19.25, 18.8125, 18.5625, 18.3125, 17.9375, 17.625, 17.1875, 16.741072, 16.294643, 15.660713, 15.339286, 14.9375, 14.625, 14.375, 14.125, 14, 13.8125, 13.6875, 13.5625, 13.25, 13.214286, 13.294643, 13.303572, 13.375, 13.294643, 12.979167, 12.955357, 13, 13, 13.0625, 13, 12.9375, 12.9375, 12.875, 12.75, 12.6875, 12.75, 12.875, 12.875, 12.964286, 13.035714, 12.9375, 13.125, 13.0625, 13, 12.964286, 12.9375, 12.9375, 13.0625, 13.125, 13.1875, 13.1875, 13.125, 13.0625, 12.9375, 12.8125, 12.8125, 12.75, 12.8125, 12.9375, 12.9375, 12.9375, 12.8125, 12.5625, 12.339286, 12.1875, 12.0625, 12.0625, 12, 12.125, 12.25, 12.25, 12.3125, 12.3125, 12.1875, 12.1875, 12.125, 12.0625, 12.0625, 12.1875, 12.1875, 12.125, 12.25, 12.25, 12.25, 12.25, 12.125, 12, 11.9375, 11.9375, 11.9375, 12, 12.125, 12.125, 12.125, 12.125, 12.0625, 12.0625, 12.0625, 11.875, 11.8125, 11.8125, 11.8125, 11.9375, 12, 11.9375, 11.9375, 11.9375, 11.9375, 12, 11.9375, 11.75, 11.625, 11.4375, 11.3125, 11.25, 11.125, 11.0625, 11, 11, 11.125, 11.1875, 11.1875, 11.1875, 11.1875, 11.125, 11.125, 11.0625, 10.9375, 10.9375, 10.9375, 11, 11, 11, 11, 11, 11, 11, 11.09375, 11.34375, 11.84375, 12.433036, 12.75, 13, 13, 13, 13, 13, 13.1875, 13.25, 13.3125, 13.375, 13.4375, 13.625, 13.8125, 14, 14, 14.25, 14.5, 14.75, 15, 15, 15, 15.0625, 15.0625, 15.125, 15.25, 15.3125, 15.5, 15.758928, 16.107143, 16.3125, 16.5, 16.625, 16.8125, 16.875, 16.9375, 16.9375, 17.125, 17.375, 17.6875, 17.9375, 18, 18, 18.125, 18.375, 18.625, 18.875, 19, 19, 19, 19, 19.125, 19.375, 19.625, 19.875, 20, 19.9375, 19.9375, 19.9375, 19.9375, 19.8125, 19.708332, 19.666668, 10, 10, 10, 10, 10, 9.9375, 9.9375, 9.8125, 9.5625, 9.375, 9.3125, 9.3125, 9.2321434, 9.0059528, 8.9553566, 9, 9.1875, 9.25, 9.1875, 9.0625, 9.0625, 9.0625, 9.0625, 9.0625, 9, 9, 9, 9, 9, 8.9375, 8.875, 8.8928566, 9, 9, 9.0625, 9, 9, 9, 9, 9, 9.0625, 9.0625, 8.9375, 8.9017859, 8.8125, 8.8125, 8.9375, 8.9375, 9, 9, 9, 9, -10, -10, -10, -10, -10, -10, -10, -10, -10, -10, -10, -10, -10, -10, -10, -10, -10, -10, -10, -10, -10, -10, -10, -10, -10, -10, -10, -10, -10, -10, -10, -10, -10, 50.625, 50.316666, 49.809525, 49.321426, 48.767857, 48.4375, 48.1875, 47.875, 47.6875, 47.4375, 47.125, 46.75, 46.375, 45.892857, 45.5, 45.25, 44.8125, 44.5, 44.1875, 43.6875, 43.4375, 43.0625, 42.625, 42.375, 42, 41.625, 41.375, 41, 40.625, 40.3125, 39.767857, 39.375, 39.017857, 38.75, 38.491074, 38.1875, 37.8125, 37.3125, 36.848213, 36.4375, 35.9375, 35.517857, 35.25, 34.991074, 34.723213, 34.455357, 34.071426, 33.767857, 33.482143, 32.708336, 32.392857, 32.0625, 31.6875, 31.3125, 30.848213, 30.5, 30.25, 29.875, 29.5, 29.1875, 28.75, 28.5, 28.125, 27.6875, 27.375, 27.0625, 26.6875, 26.375, 25.892857, 25.5, 25.25, 24.9375, 24.625, 24.25, 23.723213, 23.5, 23.160713, 22.776787, 22.5, 22, 21.580357, 21.3125, 20.8125, 20.5, 20.3125, 19.848213, 19.517857, 19.258928, 18.8125, 18.5625, 18.3125, 17.875, 17.5625, 17.1875, 16.714287, 16.294643, 15.660713, 15.321428, 14.9375, 14.65625, 14.40625, 14.15625, 14.03125, 13.875, 13.6875, 13.5, 13.25, 13.151786, 13.294643, 13.428572, 13.4375, 13.357143, 13.041667, 12.955357, 12.9375, 12.9375, 13, 12.9375, 13, 13.0625, 13.0625, 13, 12.875, 12.875, 12.875, 12.8125, 12.901786, 12.973214, 12.9375, 13.125, 13.0625, 13, 12.964286, 12.9375, 12.875, 13, 13.0625, 13.125, 13.1875, 13.125, 13.0625, 12.9375, 12.75, 12.75, 12.75, 12.8125, 13, 12.9375, 12.875, 12.75, 12.4375, 12.214286, 12.0625, 11.9375, 12, 12, 12.125, 12.25, 12.25, 12.3125, 12.25, 12.125, 12.125, 12.0625, 12, 12, 12.0625, 12.0625, 12.125, 12.1875, 12.25, 12.25, 12.25, 12.1875, 12.125, 12.125, 12.0625, 12.0625, 12.0625, 12.0625, 12.0625, 12.0625, 12.0625, 12.0625, 12.0625, 12.0625, 11.8125, 11.6875, 11.6875, 11.6875, 11.875, 11.9375, 11.9375, 11.9375, 12, 12.0625, 12.0625, 12.0625, 11.875, 11.8125, 11.6875, 11.5625, 11.5, 11.3125, 11.1875, 11.0625, 11, 11.0625, 11.0625, 11.0625, 11.0625, 11.0625, 11.0625, 11.0625, 11, 10.9375, 10.9375, 10.9375, 11.0625, 11.125, 11.125, 11.125, 11, 11, 11.208333, 11.34375, 11.59375, 11.90625, 12.388393, 12.6875, 12.9375, 13, 13, 13, 13, 13.125, 13.125, 13.125, 13.125, 13.25, 13.5, 13.75, 14, 14.0625, 14.3125, 14.5625, 14.8125, 15, 15, 15, 15.125, 15.1875, 15.25, 15.375, 15.3125, 15.375, 15.571428, 15.919643, 16.125, 16.3125, 16.5, 16.6875, 16.8125, 17, 17.0625, 17.3125, 17.5625, 17.8125, 18, 18, 18, 18.1875, 18.4375, 18.6875, 18.9375, 19, 19.0625, 19.0625, 19.0625, 19.1875, 19.375, 19.625, 19.875, 20, 19.875, 19.84375, 19.84375, 19.84375, 19.71875, 19.520832, 10, 10, 10, 10, 10, 10, 9.9375, 9.875, 9.8125, 9.625, 9.5, 9.4375, 9.3125, 9.1696434, 8.9434528, 8.8928566, 8.9375, 9.125, 9.125, 9.125, 9.125, 9.1875, 9.1875, 9.1875, 9.125, 9, 9, 9, 9, 9, 8.9375, 8.9642859, 9.0357141, 9.0625, 9.1875, 9.125, 9.125, 9.0625, 9, 9, 8.9375, 8.875, 8.8125, 8.6875, 8.75, 8.75, 8.8125, 8.9375, 8.9375, 9, 9
48.875, 48.5, 48.25, 47.9375, 47.75, 47.5, 47.1875, 46.75, 46.375, 45.955357, 45.625, 45.4375, 45.053574, 44.541668, 44.125, 43.625, 43.375, 43, 42.625, 42.375, 42, 41.625, 41.375, 40.9375, 40.5625, 40.25, 39.767857, 39.5, 39.25, 38.9375, 38.616074, 38.1875, 37.75, 37.1875, 36.723213, 36.375, 35.875, 35.517857, 35.25, 34.866074, 34.5625, 34.375, 34, 33.705357, 33.366074, 32.684525, 32.383926, 32.0625, 31.6875, 31.25, 30.723213, 30.375, 30.125, 29.8125, 29.5, 29.25, 28.875, 28.625, 28.25, 27.75, 27.375, 27.0625, 26.6875, 26.375, 25.830357, 25.4375, 25.1875, 24.875, 24.625, 24.3125, 23.830357, 23.5, 23.125, 22.6875, 22.375, 21.9375, 21.5625, 21.3125, 20.8125, 20.5, 20.3125, 19.848213, 19.517857, 19.258928, 18.75, 18.5, 18.25, 17.75, 17.5, 17.1875, 16.6875, 16.3125, 15.767857, 15.375, 15.0625, 14.78125, 14.53125, 14.28125, 14.09375, 13.875, 13.6875, 13.4375, 13.1875, 13.089286, 13.169643, 13.366072, 13.375, 13.294643, 12.979167, 12.830357, 12.75, 12.8125, 12.9375, 12.9375, 13.0625, 13.0625, 13.0625, 13.0625, 13, 13, 13, 12.875, 12.901786, 12.973214, 12.9375, 13.0625, 13.0625, 13.0625, 13.0625, 13.0625, 12.9375, 13, 13.0625, 13.1875, 13.25, 13.125, 13.0625, 12.875, 12.625, 12.6875, 12.6875, 12.75, 12.9375, 12.875, 12.8125, 12.6875, 12.4375, 12.214286, 12.0625, 11.9375, 12.0625, 12.0625, 12.125, 12.25, 12.1875, 12.1875, 12.1875, 12.0625, 12.0625, 12.0625, 12, 12, 12.0625, 12.0625, 12.125, 12.125, 12.125, 12.125, 12.125, 12.125, 12.125, 12.125, 12.0625, 12.0625, 12.0625, 12.0625, 12.0625, 12.0625, 12.0625, 12.0625, 12.0625, 12.0625, 11.8125, 11.6875, 11.6875, 11.6875, 11.875, 11.9375, 11.9375, 11.9375, 12, 12.0625, 12.0625, 12.0625, 11.9375, 11.9375, 11.875, 11.8125, 11.75, 11.5625, 11.4375, 11.3125, 11.25, 11.1875, 11.125, 11.0625, 11, 11, 11, 10.9375, 10.875, 10.875, 10.875, 10.9375, 11.125, 11.25, 11.3125, 11.3125, 11.125, 11.142857, 11.458333, 11.59375, 11.84375, 11.96875, 12.28125, 12.5, 12.75, 12.875, 12.9375, 13, 13, 13.0625, 13.0625, 13.0625, 13.0625, 13.25, 13.5, 13.75, 14.0625, 14.1875, 14.4375, 14.6875, 14.875, 15, 15, 15, 15.125, 15.1875, 15.1875, 15.25, 15.125, 15.196428, 15.654762, 16.026787, 16.1875, 16.3125, 16.4375, 16.625, 16.8125, 17, 17.0625, 17.3125, 17.5625, 17.8125, 18, 18, 18, 18.1875, 18.4375, 18.6875, 18.9375, 19, 19.0625, 19.0625, 19.0625, 19.25, 19.4375, 19.6875, 19.9375, 20, 19.875, 19.8125, 19.8125, 19.8125, 19.6875, 19.416666, 18.977777, 10, 10, 10, 10, 10, 9.9375, 9.875, 9.875, 9.75, 9.6875, 9.625, 9.4375, 9.2946434, 9.0684528, 9.0803566, 9.0625, 9.1875, 9.125, 9.125, 9.25, 9.3125, 9.3125, 9.25, 9.125, 9, 9, 9, 9, 9, 8.9375, 8.9642859, 9.0357141, 9.0625, 9.125, 9.0625, 9.0625, 9, 9, 9, 8.875, 8.8125, 8.6875, 8.625, 8.75, 8.8125, 8.9375, 9, 9, 9, 9, 9, 9, -10, -10, -10, -10, -10, -10, -10, -10, -10, -10, -10, -10, -10, -10, -10, -10, -10, -10, -10, -10, -10, -10, -10, -10, -10, -10, -10, -10, -10, -10, -10, -10, -10, 50.375, 50.166664, 49.830357, 49.4375, 49, 48.5625, 48.3125, 48, 47.6875, 47.4375, 47.0625, 46.625, 46.375, 46.0625, 45.75, 45.5625, 45.116074, 44.416668, 44, 43.5, 43.3125, 42.875, 42.5625, 42.3125, 41.9375, 41.625, 41.375, 40.875, 40.5, 40.25, 39.8125, 39.5625, 39.3125, 39, 38.678574, 38.1875, 37.705357, 37.1875, 36.767857, 36.4375, 36, 35.580357, 35.3125, 34.9375, 34.6875, 34.4375, 34.0625, 33.642857, 33.3125, 32.767857, 32.4375, 32.0625, 31.625, 31.1875, 30.598213, 30.3125, 30.0625, 29.75, 29.5, 29.25, 28.9375, 28.6875, 28.375, 27.875, 27.4375, 27.125, 26.75, 26.4375, 25.955357, 25.5625, 25.25, 24.9375, 24.625, 24.375, 23.9375, 23.5625, 23.1875, 22.6875, 22.375, 21.9375, 21.5625, 21.3125, 20.8125, 20.5, 20.3125, 19.848213, 19.517857, 19.258928, 18.75, 18.5, 18.25, 17.75, 17.5, 17.1875, 16.6875, 16.375, 15.830357, 15.4375, 15.1875, 14.84375, 14.59375, 14.34375, 14.09375, 14, 13.875, 13.6875, 13.4375, 13.214286, 13.232143, 13.303572, 13.25, 13.1875, 13.0625, 12.9375, 12.875, 12.9375, 13.0625, 13.0625, 13.125, 13.0625, 13, 13, 13, 13, 13, 12.9375, 12.9375, 12.9375, 12.9375, 13, 13.0625, 13.0625, 13.0625, 13, 12.875, 12.9375, 12.9375, 13.0625, 13.125, 12.9375, 12.9375, 12.75, 12.5, 12.625, 12.625, 12.6875, 12.8125, 12.75, 12.6875, 12.6875, 12.6875, 12.535714, 12.267857, 12.071428, 12.0625, 12.0625, 12.0625, 12.125, 12.125, 12.125, 12.125, 12.0625, 12, 12.0625, 12.0625, 12.0625, 12.125, 12.0625, 12.125, 12.125, 12.0625, 12.0625, 12.0625, 12.0625, 12.125, 12.125, 12.0625, 12.0625, 12.0625, 12.0625, 12.0625, 12.0625, 12, 12, 12, 12, 11.875, 11.75, 11.75, 11.75, 11.875, 11.9375, 11.9375, 11.9375, 11.9375, 11.9375, 11.875, 11.875, 11.8125, 11.8125, 11.8125, 11.75, 11.6875, 11.5625, 11.4375, 11.3125, 11.3125, 11.25, 11.1875, 11.125, 11, 11, 11, 11, 10.9375, 10.9375, 11, 11.0625, 11.3125, 11.5, 11.5, 11.4375, 11.1875, 11.205357, 11.583333, 11.75, 12, 12, 12.1875, 12.3125, 12.5625, 12.75, 12.875, 13, 13, 13, 13, 13, 13, 13.1875, 13.4375, 13.625, 13.955357, 14.294643, 14.553572, 14.8125, 14.9375, 15, 15, 15, 15.125, 15.1875, 15.1875, 15.25, 15.1875, 15.258928, 15.654762, 15.982143, 16.125, 16.3125, 16.5, 16.6875, 16.875, 17, 17.125, 17.375, 17.625, 17.875, 18, 18, 18, 18.125, 18.375, 18.625, 18.875, 19, 19.0625, 19.0625, 19.0625, 19.3125, 19.5, 19.75, 20, 20, 19.8125, 19.6875, 19.6875, 19.6875, 19.6875, 19.541666, 19.199999, 10, 10, 10, 10, 10, 10, 9.9375, 9.9375, 9.875, 9.8125, 9.6875, 9.5, 9.2946434, 9.041667, 9.0803566, 9.0625, 9.1875, 9.125, 9.1875, 9.3125, 9.375, 9.375, 9.25, 9.125, 9, 9, 9, 9, 9, 8.9375, 8.9642859, 9.0669641, 9.15625, 9.21875, 9.15625, 9.1875, 9.0625, 9.0625, 9.0625, 8.875, 8.8125, 8.6875, 8.625, 8.75, 8.8125, 8.9375, 9, 9, 9, 9
49.0625, 48.625, 48.375, 48.0625, 47.6875, 47.4375, 47, 46.5625, 46.3125, 46.0625, 45.8125, 45.625, 45.178574, 44.416668, 43.9375, 43.4375, 43.25, 42.8125, 42.625, 42.366074, 41.791668, 41.508926, 41.1875, 40.75, 40.4375, 40.125, 39.75, 39.5, 39.25, 38.9375, 38.616074, 38.0625, 37.580357, 37.1875, 36.8125, 36.5, 36.125, 35.642857, 35.375, 35, 34.6875, 34.4375, 34.0625, 33.642857, 33.25, 32.705357, 32.375, 31.9375, 31.5625, 31.125, 30.580357, 30.3125, 30.0625, 29.8125, 29.5625, 29.3125, 29.0625, 28.75, 28.5, 28, 27.5, 27.1875, 26.8125, 26.5625, 26.125, 25.642857, 25.3125, 25, 24.6875, 24.4375, 24, 23.5625, 23.25, 22.75, 22.4375, 22, 21.5625, 21.3125, 20.8125, 20.5, 20.3125, 19.848213, 19.517857, 19.258928, 18.75, 18.5, 18.25, 17.75, 17.5, 17.1875, 16.6875, 16.4375, 16, 15.5625, 15.3125, 14.90625, 14.59375, 14.34375, 14.09375, 14.0625, 14, 13.875, 13.75, 13.4375, 13.25, 13.1875, 13.0625, 13.0625, 13.0625, 13, 12.9375, 13.089286, 13.294643, 13.294643, 13.3125, 13.125, 13, 13, 13, 13, 13, 13, 13, 13, 13, 13, 13.0625, 13.0625, 13.0625, 13, 12.875, 12.8125, 12.6875, 12.6875, 12.6875, 12.5625, 12.625, 12.5625, 12.375, 12.5625, 12.625, 12.6875, 12.8125, 12.75, 12.6875, 12.75, 12.75, 12.598214, 12.392857, 12.133928, 12.125, 12.125, 12.0625, 12.125, 12.125, 12.125, 12.125, 12.0625, 12, 12.0625, 12.0625, 12.0625, 12.0625, 12, 12.0625, 12.0625, 12.0625, 12.0625, 12.0625, 12, 12.0625, 12.0625, 12, 12.0625, 12, 12, 12, 12.0625, 12.0625, 12.0625, 12.0625, 11.9375, 11.8125, 11.75, 11.75, 11.8125, 11.9375, 11.9375, 11.9375, 11.9375, 11.875, 11.8125, 11.6875, 11.625, 11.5625, 11.5625, 11.5625, 11.5, 11.5, 11.4375, 11.375, 11.375, 11.4375, 11.375, 11.3125, 11.1875, 11.0625, 11.0625, 11.0625, 11.0625, 11.0625, 11.125, 11.25, 11.375, 11.5, 11.625, 11.5625, 11.4375, 11.1875, 11.267857, 11.708333, 11.875, 12.125, 12, 12.125, 12.1875, 12.4375, 12.6875, 12.8125, 13, 13, 13, 13, 13, 13.0625, 13.25, 13.5, 13.6875, 14.017857, 14.419643, 14.678572, 14.9375, 15, 15, 15, 15, 15.0625, 15.125, 15.1875, 15.3125, 15.375, 15.508928, 15.833334, 16.044643, 16.25, 16.4375, 16.6875, 16.8125, 16.9375, 17, 17.1875, 17.4375, 17.6875, 17.9375, 18, 18, 18, 18.0625, 18.25, 18.5, 18.75, 18.9375, 19.0625, 19.0625, 19.0625, 19.3125, 19.5, 19.75, 20, 20, 19.75, 19.5625, 19.5625, 19.5, 19.5625, 19.5, 19.233334, 10, 10, 10, 10, 10, 10, 9.9375, 9.9375, 9.9375, 9.875, 9.6875, 9.4375, 9.1875, 9.125, 9.1875, 9.1875, 9.25, 9.125, 9.25, 9.375, 9.375, 9.375, 9.1875, 9.0625, 9, 9, 9, 9, 9, 8.875, 8.8392859, 8.9598217, 9.239583, 9.3973217, 9.40625, 9.4375, 9.2410717, 8.979167, 8.9553566, 8.75, 8.75, 8.6875, 8.625, 8.75, 8.8125, 8.9375, 9, 9, 9, 9, 9, 9, -10, -10, -10, -10, -10, -10, -10, -10, -10, -10, -10, -10, -10, -10, -10, -10, -10, -10, -10, -10, -10, -10, -10, -10, -10, -10, -10, -10, -10, -10, -10, -10, 50, 50.041668, 49.895832, 49.625, 49.3125, 49, 48.625, 48.375, 48.0625, 47.6875, 47.4375, 46.9375, 46.5, 46.25, 45.9375, 45.75, 45.5625, 45.116074, 44.416668, 44, 43.5, 43.3125, 42.9375, 42.75, 42.482143, 41.708336, 41.392857, 41, 40.625, 40.375, 40, 39.6875, 39.4375, 39.1875, 38.875, 38.5625, 38.125, 37.580357, 37.25, 36.75, 36.4375, 36.0625, 35.625, 35.375, 35, 34.625, 34.375, 34, 33.625, 33.25, 32.767857, 32.4375, 32, 31.625, 31.1875, 30.75, 30.4375, 30.1875, 29.9375, 29.625, 29.375, 29.125, 28.75, 28.5, 28.0625, 27.5625, 27.25, 26.9375, 26.625, 26.1875, 25.660713, 25.3125, 25.0625, 24.75, 24.5, 24, 23.5, 23.1875, 22.6875, 22.4375, 21.9375, 21.5, 21.25, 20.75, 20.5, 20.25, 19.75, 19.5, 19.25, 18.75, 18.5, 18.25, 17.75, 17.5, 17.1875, 16.6875, 16.4375, 16.0625, 15.625, 15.375, 14.9375, 14.5625, 14.3125, 14.0625, 14.0625, 14.0625, 14, 13.875, 13.5625, 13.25, 13.125, 13, 13, 13.0625, 13, 13, 13.151786, 13.357143, 13.357143, 13.3125, 13.125, 13.0625, 13.0625, 13.125, 13.1875, 13.125, 13.125, 13.0625, 13, 13, 13, 13.0625, 13.0625, 13.0625, 13, 12.9375, 12.8125, 12.625, 12.625, 12.5625, 12.4375, 12.5, 12.375, 12.1875, 12.4375, 12.5, 12.5625, 12.6875, 12.625, 12.625, 12.75, 12.75, 12.598214, 12.455357, 12.258928, 12.3125, 12.3125, 12.1875, 12.1875, 12.125, 12.125, 12.125, 12.0625, 12, 12.0625, 12.0625, 12.0625, 12.0625, 12, 12, 12, 12, 12, 12, 12, 12, 12, 12, 12, 12, 12, 12, 12.0625, 12.0625, 12.0625, 12.0625, 11.9375, 11.875, 11.875, 11.875, 11.9375, 12, 12, 12, 12, 11.875, 11.75, 11.5625, 11.4375, 11.4375, 11.375, 11.375, 11.3125, 11.25, 11.25, 11.25, 11.3125, 11.4375, 11.4375, 11.4375, 11.375, 11.3125, 11.3125, 11.3125, 11.3125, 11.3125, 11.303572, 11.166667, 11.291667, 11.4375, 11.5, 11.5, 11.3125, 11.1875, 11.330357, 11.625, 11.8125, 12.0625, 12, 12.0625, 12.0625, 12.25, 12.5, 12.6875, 12.9375, 13, 13, 13, 13, 13.125, 13.3125, 13.5625, 13.75, 14.017857, 14.357143, 14.616072, 14.875, 14.9375, 15, 15, 15, 15, 15.0625, 15.1875, 15.375, 15.5625, 15.758928, 16.083334, 16.232143, 16.375, 16.5, 16.6875, 16.8125, 16.9375, 17, 17.1875, 17.4375, 17.6875, 17.9375, 18, 18, 18, 18, 18.1875, 18.4375, 18.6875, 18.9375, 19, 19, 19.0625, 19.3125, 19.5, 19.75, 19.9375, 19.9375, 19.75, 19.53125, 19.46875, 19.34375, 19.40625, 19.5, 19.345833, 10, 10, 10, 10, 10, 10, 10, 9.9375, 9.9375, 9.875, 9.625, 9.4375, 9.1875, 9.0625, 9.125, 9.125, 9.25, 9.1875, 9.3125, 9.375, 9.3125, 9.375, 9.1875, 9.125, 9.0625, 9, 9, 9, 9, 8.9375, 8.875, 8.8616066, 9.052083, 9.0223217, 9.1026783, 9.2624998, 9.0714283, 8.979167, 8.8928566, 8.8125, 8.875, 8.875, 8.875, 8.9375, 8.9375, 9, 9, 9, 9, 9
48.9375, 48.625, 48.375, 48, 47.625, 47.375, 46.875, 46.5, 46.25, 45.9375, 45.6875, 45.4375, 44.9375, 44.375, 44.0625, 43.5625, 43.375, 43.0625, 42.8125, 42.544643, 41.770836, 41.392857, 41, 40.6875, 40.4375, 40.0625, 39.6875, 39.375, 39.0625, 38.75, 38.5, 38.0625, 37.580357, 37.3125, 36.875, 36.5625, 36.1875, 35.642857, 35.375, 35.0625, 34.6875, 34.4375, 34.0625, 33.625, 33.3125, 32.9375, 32.5625, 32.1875, 31.75, 31.3125, 30.875, 30.5, 30.25, 30, 29.6875, 29.4375, 29.1875, 28.75, 28.4375, 27.955357, 27.5, 27.25, 27, 26.6875, 26.3125, 25.723213, 25.375, 25.125, 24.75, 24.5, 24.0625, 23.5625, 23.3125, 22.8125, 22.5, 22.0625, 21.59375, 21.34375, 20.84375, 20.53125, 20.25, 19.75, 19.5, 19.25, 18.75, 18.5, 18.25, 17.75, 17.5, 17.1875, 16.6875, 16.4375, 16.125, 15.6875, 15.4375, 14.9375, 14.5, 14.25, 14, 14.0625, 14.0625, 14.0625, 13.928572, 13.416667, 13.205357, 13.0625, 13, 13.125, 13.1875, 13.1875, 13.1875, 13.276786, 13.482143, 13.419643, 13.375, 13.25, 13.125, 13.125, 13.25, 13.3125, 13.25, 13.25, 13.125, 13, 13, 13, 13, 13, 13, 12.9375, 12.9375, 12.8125, 12.625, 12.625, 12.5625, 12.4375, 12.4375, 12.25, 12.0625, 12.25, 12.3125, 12.4375, 12.625, 12.5625, 12.5625, 12.625, 12.5625, 12.473214, 12.392857, 12.258928, 12.25, 12.25, 12.125, 12.0625, 12.0625, 12.0625, 12.0625, 12.0625, 12, 12.0625, 12.0625, 12.0625, 12.0625, 12, 12.0625, 12.0625, 12.0625, 12.125, 12.125, 12.125, 12.125, 12.0625, 12, 11.9375, 11.875, 11.875, 11.875, 12, 12.0625, 12.0625, 12.0625, 11.9375, 11.875, 11.875, 11.875, 11.9375, 12.0625, 12.0625, 12.0625, 12.0625, 11.875, 11.75, 11.5, 11.3125, 11.3125, 11.1875, 11.1875, 11.125, 11, 11, 11, 11.0625, 11.1875, 11.3125, 11.4375, 11.5, 11.5, 11.4375, 11.375, 11.4375, 11.4375, 11.428572, 11.229167, 11.255953, 11.410714, 11.375, 11.375, 11.125, 11.125, 11.3125, 11.5625, 11.8125, 12, 12, 12.0625, 12.0625, 12.25, 12.5, 12.6875, 12.9375, 13, 13, 13, 13.0625, 13.25, 13.4375, 13.6875, 13.8125, 13.955357, 14.232143, 14.459822, 14.71875, 14.84375, 14.96875, 15, 15, 15.0625, 15.1875, 15.375, 15.625, 15.8125, 15.9375, 16, 16.125, 16.25, 16.375, 16.625, 16.75, 16.875, 17, 17.25, 17.5, 17.75, 18, 18, 18, 18, 18, 18.1875, 18.4375, 18.6875, 18.9375, 19, 19, 19.0625, 19.3125, 19.4375, 19.6875, 19.875, 19.8125, 19.6875, 19.4375, 19.3125, 19.1875, 19.25, 19.5, 19.458334, 19.333334, 10, 10, 9.9375, 9.9375, 9.9375, 9.9375, 9.9375, 9.9375, 9.8125, 9.5625, 9.4375, 9.125, 9, 9, 8.9375, 9.1875, 9.1875, 9.3125, 9.3125, 9.1875, 9.25, 9.125, 9.125, 9.0625, 9, 9, 9, 9, 8.9375, 8.875, 8.8616066, 9.052083, 9.0848217, 9.1651783, 9.3249998, 9.1339283, 8.979167, 8.8928566, 8.875, 8.9375, 9, 9, 9, 9, 9, 9, 9, 9, 9, 9, 9, -10, -10, -10, -10, -10, -10, -10, -10, -10, -10, -10, -10, -10, -10, -10, -10, -10, -10, -10, -10, -10, -10, -10, -10, -10, -10, -10, -10, -10, -10, -10, -10, 50, 49.833336, 49.6875, 49.5, 49.25, 49, 48.6875, 48.375, 48, 47.625, 47.375, 46.875, 46.5, 46.25, 45.9375, 45.6875, 45.4375, 44.9375, 44.5, 44.1875, 43.6875, 43.4375, 43.1875, 42.875, 42.607143, 41.833336, 41.392857, 40.9375, 40.625, 40.375, 40, 39.75, 39.4375, 39.0625, 38.642857, 38.375, 37.9375, 37.5625, 37.3125, 36.875, 36.5625, 36.125, 35.580357, 35.3125, 35, 34.6875, 34.4375, 34, 33.5625, 33.25, 32.9375, 32.625, 32.3125, 31.875, 31.375, 30.9375, 30.5, 30.1875, 29.9375, 29.625, 29.375, 29.125, 28.6875, 28.375, 27.892857, 27.5, 27.25, 26.9375, 26.625, 26.1875, 25.598213, 25.3125, 25.0625, 24.75, 24.5, 24.125, 23.625, 23.375, 22.875, 22.5, 22.125, 21.65625, 21.40625, 20.96875, 20.59375, 20.3125, 19.8125, 19.5, 19.25, 18.75, 18.5, 18.25, 17.75, 17.5, 17.1875, 16.6875, 16.4375, 16.125, 15.6875, 15.4375, 15, 14.5625, 14.3125, 14.0625, 14.0625, 14.125, 14.125, 14.053572, 13.541667, 13.142857, 13.0625, 12.9375, 13.125, 13.1875, 13.1875, 13.1875, 13.214286, 13.419643, 13.357143, 13.3125, 13.25, 13.125, 13.125, 13.25, 13.3125, 13.25, 13.25, 13.125, 13, 13, 13, 13, 13, 13, 13, 13, 12.875, 12.75, 12.6875, 12.625, 12.5, 12.375, 12.1875, 12, 12.1875, 12.3125, 12.5625, 12.785714, 12.580357, 12.508928, 12.4375, 12.25, 12.125, 12.1875, 12.125, 12.1875, 12.3125, 12.25, 12.25, 12.1875, 12.125, 12.125, 12.0625, 12.0625, 12.0625, 12, 12, 12, 12, 12.0625, 12.0625, 12.0625, 12.1875, 12.25, 12.3125, 12.3125, 12.1875, 12.0625, 11.9375, 11.8125, 11.8125, 11.8125, 11.9375, 12.0625, 12.0625, 12.0625, 11.9375, 11.875, 11.875, 11.875, 11.9375, 12.0625, 12, 11.9375, 11.875, 11.75, 11.6875, 11.5, 11.3125, 11.3125, 11.1875, 11.1875, 11.25, 11.125, 11.125, 11.125, 11.125, 11.125, 11.25, 11.375, 11.4375, 11.5, 11.4375, 11.375, 11.4375, 11.4375, 11.428572, 11.166667, 11.130953, 11.223214, 11.125, 11.1875, 11, 11.125, 11.375, 11.625, 11.875, 12, 12, 12.125, 12.1875, 12.375, 12.625, 12.75, 12.9375, 13, 13, 13.0625, 13.1875, 13.4375, 13.6875, 13.875, 14, 14.0625, 14.125, 14.34375, 14.59375, 14.78125, 14.96875, 15, 15.0625, 15.1875, 15.375, 15.625, 15.8125, 15.9375, 16, 16, 16.0625, 16.125, 16.1875, 16.4375, 16.625, 16.8125, 17.0625, 17.3125, 17.5625, 17.8125, 18, 18, 18, 18, 18, 18.125, 18.3125, 18.5625, 18.8125, 18.9375, 19, 19.0625, 19.25, 19.3125, 19.5, 19.6875, 19.625, 19.5625, 19.375, 19.1875, 19.0625, 19.125, 19.375, 19.333334, 19.444445, 10, 10, 9.9375, 9.9375, 9.9375, 9.9375, 9.9375, 9.9375, 9.8125, 9.5625, 9.5, 9.3125, 9.1875, 9.1875, 9.125, 9.3125, 9.3125, 9.375, 9.3125, 9.125, 9.1875, 9.125, 9.125, 9.0625, 9, 9.0625, 9.125, 9.125, 9.0625, 8.9375, 8.8303566, 8.958333, 8.9910717, 9.0714283, 9.1999998, 9.0714283, 8.916667, 8.8303566, 8.875, 8.875, 8.875, 8.875, 8.875, 8.9375, 9, 9, 9, 9, 9
49.125, 48.75, 48.375, 48, 47.625, 47.375, 46.875, 46.5, 46.25, 45.9375, 45.6875, 45.4375, 44.9375, 44.5, 44.1875, 43.6875, 43.4375, 43.125, 42.75, 42.428574, 41.791668, 41.383926, 41, 40.75, 40.5, 40.1875, 39.875, 39.5, 39.0625, 38.580357, 38.3125, 37.9375, 37.625, 37.375, 36.9375, 36.5625, 36.0625, 35.517857, 35.25, 34.875, 34.625, 34.375, 33.9375, 33.5625, 33.3125, 33.0625, 32.75, 32.4375, 31.892857, 31.4375, 31, 30.5625, 30.25, 29.9375, 29.625, 29.375, 29.0625, 28.625, 28.3125, 27.892857, 27.553572, 27.104166, 26.758928, 26.4375, 26.0625, 25.580357, 25.3125, 25, 24.6875, 24.4375, 24.125, 23.6875, 23.4375, 22.9375, 22.5, 22.1875, 21.71875, 21.46875, 21.03125, 20.59375, 20.3125, 19.8125, 19.5625, 19.3125, 18.8125, 18.517857, 18.25, 17.75, 17.5, 17.1875, 16.6875, 16.4375, 16.0625, 15.625, 15.375, 15, 14.625, 14.375, 14.125, 14.0625, 14.125, 14.125, 14.053572, 13.604167, 13.267857, 13.1875, 13.0625, 13.1875, 13.1875, 13.25, 13.3125, 13.3125, 13.375, 13.25, 13.1875, 13.1875, 13.125, 13.125, 13.25, 13.3125, 13.25, 13.3125, 13.1875, 13.0625, 13.0625, 13, 13, 13, 13, 13, 13, 12.9375, 12.8125, 12.8125, 12.8125, 12.625, 12.5, 12.25, 12, 12.1875, 12.3125, 12.5, 12.660714, 12.392857, 12.321428, 12.25, 12.0625, 12.0625, 12.2125, 12.0625, 12.196428, 12.25, 12.3125, 12.375, 12.375, 12.375, 12.375, 12.3125, 12.25, 12.25, 12.125, 12.0625, 12.0625, 12, 12.0625, 12.0625, 12.0625, 12.1875, 12.321428, 12.575, 12.446428, 12.321428, 12.125, 11.9375, 11.8125, 11.8125, 11.8125, 11.875, 12, 12, 12, 12, 11.9375, 11.9375, 11.9375, 11.9375, 12.0625, 12, 11.875, 11.8125, 11.75, 11.75, 11.625, 11.4375, 11.4375, 11.3125, 11.375, 11.5, 11.3125, 11.25, 11.1875, 11.0625, 11, 11.125, 11.25, 11.375, 11.4375, 11.375, 11.3125, 11.4375, 11.4375, 11.428572, 11.104167, 10.943453, 11.098214, 11, 11.125, 11, 11.125, 11.375, 11.625, 11.875, 12, 12, 12.125, 12.25, 12.4375, 12.6875, 12.8125, 12.9375, 13, 13, 13.125, 13.3125, 13.5625, 13.8125, 13.9375, 14, 14, 14, 14.21875, 14.46875, 14.71875, 14.96875, 15, 15.0625, 15.25, 15.5, 15.75, 15.9375, 16, 16, 16, 16, 16, 16.0625, 16.3125, 16.5625, 16.8125, 17.125, 17.375, 17.625, 17.875, 18, 18, 18, 18, 18, 18.125, 18.25, 18.5, 18.75, 18.875, 19, 19.0625, 19.25, 19.25, 19.375, 19.5, 19.4375, 19.5, 19.375, 19.1875, 19.125, 19.1875, 19.4375, 19.5, 19.520834, 10, 10, 9.9375, 9.9375, 9.9375, 9.9375, 9.9375, 9.9375, 9.8125, 9.5625, 9.5, 9.3125, 9.1875, 9.1875, 9.125, 9.3125, 9.3125, 9.3125, 9.25, 9.0625, 9.125, 9.125, 9.125, 9.0625, 9.0625, 9.1875, 9.25, 9.25, 9.1875, 9.0625, 8.9375, 8.875, 8.8125, 8.8214283, 8.9499998, 8.8928566, 9, 8.9375, 9.0625, 9.0625, 9, 9, 8.9375, 8.9375, 9, 9, 9, 8.9375, 8.9375, 8.9375, 8.916667, -10, -10, -10, -10, -10, -10, -10, -10, -10, -10, -10, -10, -10, -10, -10, -10, -10, -10, -10, -10, -10, -10, -10, -10, -10, -10, -10, -10, -10, -10, -10, -10, 49.625, 49.583332, 49.625, 49.5625, 49.4375, 49.25, 48.8125, 48.4375, 48.125, 47.6875, 47.4375, 47, 46.5625, 46.3125, 46, 45.6875, 45.4375, 44.9375, 44.5, 44.1875, 43.8125, 43.6875, 43.419643, 42.833332, 42.428574, 41.875, 41.4375, 41.125, 40.8125, 40.5625, 40.3125, 39.9375, 39.5625, 39.0625, 38.517857, 38.25, 37.8125, 37.5625, 37.3125, 36.9375, 36.625, 36.1875, 35.642857, 35.3125, 34.9375, 34.625, 34.375, 33.9375, 33.5625, 33.3125, 33.0625, 32.75, 32.375, 31.785713, 31.375, 30.9375, 30.5625, 30.25, 29.9375, 29.625, 29.375, 29.0625, 28.625, 28.3125, 27.892857, 27.544643, 26.895832, 26.517857, 26.25, 26, 25.625, 25.375, 25, 24.625, 24.375, 24.0625, 23.6875, 23.4375, 22.9375, 22.5, 22.25, 21.78125, 21.53125, 21.09375, 20.59375, 20.3125, 19.8125, 19.5625, 19.3125, 18.8125, 18.517857, 18.25, 17.75, 17.5, 17.125, 16.625, 16.3125, 15.875, 15.5, 15.25, 14.9375, 14.625, 14.375, 14.125, 14.0625, 14.125, 14.125, 14.053572, 13.666667, 13.392857, 13.3125, 13.25, 13.375, 13.3125, 13.4375, 13.375, 13.3125, 13.375, 13.25, 13.3125, 13.3125, 13.1875, 13.125, 13.125, 13.0625, 13, 13, 12.9375, 12.9375, 13, 13, 13, 13, 13, 13, 13, 12.9375, 12.8125, 12.8125, 12.8125, 12.625, 12.5, 12.25, 12, 12.1875, 12.375, 12.5625, 12.660714, 12.392857, 12.258928, 12.1875, 12.125, 12.1875, 12.275, 12.0625, 12.071428, 12.0625, 12.25, 12.375, 12.5, 12.5625, 12.5, 12.4375, 12.3125, 12.25, 12.125, 12.0625, 12.0625, 12, 12.0625, 12.0625, 12.0625, 12.125, 12.196428, 12.325, 12.196428, 12.133928, 12, 11.9375, 11.8125, 11.8125, 11.8125, 11.8125, 11.9375, 11.9375, 11.9375, 12, 11.875, 11.875, 11.875, 11.8125, 11.9375, 11.8125, 11.625, 11.5625, 11.5625, 11.625, 11.625, 11.5625, 11.5625, 11.5, 11.5625, 11.625, 11.4375, 11.3125, 11.1875, 11.0625, 11, 11.125, 11.25, 11.375, 11.4375, 11.3125, 11.25, 11.375, 11.3125, 11.4375, 11.3125, 11.089286, 11.160714, 11, 11.0625, 11, 11.125, 11.375, 11.625, 11.875, 12, 12, 12.1875, 12.375, 12.625, 12.875, 12.9375, 13, 13, 13, 13.125, 13.375, 13.625, 13.875, 14, 14, 14, 14, 14.15625, 14.40625, 14.65625, 14.90625, 15, 15.09375, 15.34375, 15.59375, 15.84375, 16, 16.0625, 16.125, 16.125, 16.125, 16.0625, 16.125, 16.375, 16.625, 16.875, 17.125, 17.375, 17.625, 17.875, 18, 18, 18, 18, 18, 18.0625, 18.125, 18.375, 18.625, 18.8125, 19.0625, 19.0625, 19.25, 19.25, 19.25, 19.375, 19.3125, 19.4375, 19.375, 19.25, 19.1875, 19.258928, 19.575001, 19.580357, 19.6875, 17.577776, 10.4, 10.1875, 10.116072, 9.8303566, 9.7589283, 9.8125, 9.875, 9.75, 9.5625, 9.4375, 9.25, 9.25, 9.25, 9.1875, 9.375, 9.3125, 9.3125, 9.25, 9, 9, 9, 9, 9, 9.0625, 9.1875, 9.25, 9.25, 9.1875, 9.0625, 9, 9, 9, 9, 9.0625, 9.0625, 9.0625, 9.0625, 9.0625, 9.0625, 9, 9, 8.9375, 8.9375, 9, 9, 9, 8.9375, 8.9375
49.4375, 48.9375, 48.5, 48.25, 47.75, 47.5, 47.125, 46.625, 46.375, 46.0625, 45.6875, 45.4375, 44.9375, 44.5625, 44.25, 43.875, 43.705357, 43.357143, 42.770832, 42.303574, 41.75, 41.375, 41, 40.6875, 40.4375, 40.1875, 39.875, 39.5625, 39.0625, 38.517857, 38.25, 37.8125, 37.5625, 37.3125, 36.9375, 36.625, 36.25, 35.75, 35.375, 34.9375, 34.5625, 34.3125, 33.8125, 33.5, 33.25, 32.9375, 32.6875, 32.3125, 31.723213, 31.375, 31, 30.6875, 30.375, 30.0625, 29.6875, 29.375, 29, 28.5625, 28.3125, 28, 27.660715, 26.812498, 26.401785, 26.125, 25.9375, 25.625, 25.375, 24.9375, 24.5625, 24.3125, 23.9375, 23.625, 23.3125, 22.8125, 22.4375, 22.1875, 21.75, 21.5, 21.125, 20.625, 20.375, 19.9375, 19.625, 19.375, 18.875, 18.517857, 18.25, 17.75, 17.5, 17.0625, 16.5625, 16.1875, 15.6875, 15.375, 15.125, 14.875, 14.625, 14.375, 14.125, 14.0625, 14.1875, 14.160714, 14.017857, 13.892857, 13.625, 13.625, 13.5625, 13.5, 13.3125, 13.375, 13.25, 13.1875, 13.25, 13.0625, 13.125, 13.125, 13.0625, 13.0625, 13.0625, 13.0625, 13, 13, 12.9375, 12.9375, 13, 13, 13, 13, 13, 13, 13, 12.9375, 12.75, 12.6875, 12.625, 12.5, 12.4375, 12.25, 12.0625, 12.25, 12.5, 12.625, 12.660714, 12.392857, 12.196428, 12.25, 12.375, 12.473214, 12.525, 12.205357, 12.133928, 12.0625, 12.3125, 12.4375, 12.5625, 12.625, 12.5, 12.4375, 12.3125, 12.25, 12.125, 12.0625, 12.0625, 12, 12, 12, 12, 12, 12.071428, 12.2, 12.071428, 12.071428, 12, 12, 11.9375, 11.9375, 11.9375, 11.875, 11.9375, 11.9375, 11.9375, 12, 11.875, 11.875, 11.875, 11.8125, 11.875, 11.75, 11.5, 11.4375, 11.5, 11.5625, 11.6875, 11.6875, 11.6875, 11.625, 11.625, 11.625, 11.4375, 11.3125, 11.1875, 11.0625, 11, 11.125, 11.25, 11.375, 11.5, 11.375, 11.375, 11.5, 11.4375, 11.625, 11.5, 11.25, 11.1875, 11.0625, 11.0625, 11.0625, 11.125, 11.3125, 11.5625, 11.8125, 12, 12, 12.25, 12.5, 12.75, 13, 13, 13, 13, 13, 13.125, 13.375, 13.625, 13.875, 14, 14, 14, 14, 14.125, 14.375, 14.625, 14.9375, 15.125, 15.21875, 15.46875, 15.65625, 15.84375, 16, 16.0625, 16.125, 16.125, 16.125, 16.0625, 16.1875, 16.4375, 16.6875, 16.9375, 17.125, 17.3125, 17.5625, 17.8125, 17.9375, 18, 18, 18, 18, 18, 18, 18.25, 18.5, 18.75, 19.0625, 19.0625, 19.1875, 19.1875, 19.125, 19.1875, 19.25, 19.4375, 19.5, 19.4375, 19.3125, 19.401787, 19.762501, 19.705357, 19.804167, 13.493334, 10.733334, 10.625, 10.5, 9.8928566, 9.75, 9.6875, 9.8125, 9.75, 9.5, 9.2767859, 9.125, 9.125, 9.25, 9.25, 9.4375, 9.4375, 9.375, 9.3125, 9.0625, 9, 9, 9, 9, 9.0625, 9.1875, 9.25, 9.1875, 9.0625, 8.9375, 8.875, 8.9375, 9.0625, 9.125, 9.1696434, 9.0625, 9.0625, 9, 9.0625, 9.0625, 9, 9, 8.9375, 8.9375, 9, 9, 9, 8.9375, 8.9375, 8.9375, 8.916667, -10, -10, -10, -10, -10, -10, -10, -10, -10, -10, -10, -10, -10, -10, -10, -10, -10, -10, -10, -10, -10, -10, -10, -10, -10, -10, -10, -10, -10, -10, -10, -10, -10, 49.666664, 49.75, 49.75, 49.625, 49.375, 48.830357, 48.4375, 48.1875, 47.75, 47.5, 47.125, 46.625, 46.375, 46.0625, 45.6875, 45.4375, 44.9375, 44.5625, 44.1875, 43.8125, 43.642857, 43.232143, 42.708332, 42.178574, 41.625, 41.3125, 41, 40.75, 40.5, 40.25, 39.875, 39.5625, 39.0625, 38.517857, 38.25, 37.8125, 37.5625, 37.3125, 37, 36.6875, 36.375, 35.875, 35.4375, 35.0625, 34.625, 34.375, 33.875, 33.5, 33.25, 32.875, 32.625, 32.25, 31.660713, 31.375, 31.0625, 30.75, 30.5, 30.25, 29.8125, 29.5, 29.0625, 28.5625, 28.25, 27.9375, 27.535715, 26.624998, 26.276785, 25.9375, 25.8125, 25.5625, 25.3125, 24.875, 24.5, 24.25, 23.8125, 23.5625, 23.1875, 22.6875, 22.375, 22.125, 21.75, 21.5, 21.0625, 20.5625, 20.3125, 19.875, 19.625, 19.375, 18.875, 18.517857, 18.1875, 17.6875, 17.4375, 17.0625, 16.625, 16.25, 15.8125, 15.4375, 15.125, 14.767857, 14.5, 14.25, 14.0625, 14, 14, 13.910714, 13.705357, 13.642857, 13.625, 13.625, 13.625, 13.5625, 13.4375, 13.5625, 13.4375, 13.3125, 13.25, 12.9375, 12.9375, 12.9375, 12.9375, 13, 13.0625, 13.0625, 13, 13, 12.9375, 12.9375, 13, 13, 13, 13, 13, 13, 13, 12.9375, 12.6875, 12.5625, 12.4375, 12.3125, 12.3125, 12.1875, 12.125, 12.3125, 12.5, 12.5, 12.4375, 12.25, 12.1875, 12.375, 12.5625, 12.785714, 12.8375, 12.455357, 12.321428, 12.0625, 12.1875, 12.25, 12.375, 12.5, 12.375, 12.375, 12.25, 12.1875, 12.125, 12.0625, 12.0625, 11.9375, 11.875, 11.875, 11.875, 11.875, 11.946428, 12.0125, 11.883928, 11.946428, 11.9375, 12, 12, 12, 12, 11.9375, 11.9375, 11.9375, 11.9375, 12, 11.875, 11.875, 11.8125, 11.75, 11.8125, 11.75, 11.625, 11.625, 11.6875, 11.75, 11.875, 11.875, 11.875, 11.75, 11.6875, 11.5625, 11.3125, 11.1875, 11.0625, 11, 11, 11.1875, 11.375, 11.5, 11.625, 11.4375, 11.375, 11.5, 11.5, 11.6875, 11.5625, 11.3125, 11.1875, 11.125, 11.125, 11.125, 11.1875, 11.3125, 11.5625, 11.8125, 12, 12, 12.1875, 12.4375, 12.6875, 12.9375, 13, 13, 13, 13, 13.0625, 13.3125, 13.5625, 13.8125, 14, 14, 14, 14, 14.0625, 14.3125, 14.5625, 14.9375, 15.1875, 15.21875, 15.46875, 15.59375, 15.78125, 16, 16.0625, 16.125, 16.1875, 16.25, 16.25, 16.4375, 16.625, 16.8125, 17, 17.0625, 17.1875, 17.4375, 17.6875, 17.875, 18, 18, 18, 18, 18, 18, 18.25, 18.5, 18.75, 19.0625, 19.0625, 19.25, 19.3125, 19.25, 19.25, 19.3125, 19.5, 19.625, 19.6875, 19.5, 19.526787, 19.804167, 19.773809, 19.85, 11.280001, 10.920834, 10.875, 10.75, 10.080357, 9.875, 9.75, 9.8125, 9.6875, 9.5, 9.2767859, 9.125, 9.1875, 9.3125, 9.3125, 9.5, 9.5, 9.375, 9.3125, 9.0625, 9, 9, 9, 9, 9.0625, 9.125, 9.1875, 9.0982141, 8.8303566, 8.6964283, 8.6875, 8.8125, 9, 9.125, 9.1696434, 9.0625, 9.0625, 9, 9.0625, 9.0625, 9, 9, 8.9375, 8.9375, 9, 9, 9, 8.9375, 8.9375
49.375, 48.830357, 48.4375, 48.1875, 47.75, 47.5, 47.1875, 46.6875, 46.4375, 46.125, 45.6875, 45.375, 44.830357, 44.5, 44.1875, 43.9375, 43.830357, 43.473213, 42.75, 42.25, 41.6875, 41.375, 41.0625, 40.6875, 40.4375, 40.125, 39.75, 39.4375, 38.9375, 38.455357, 38.1875, 37.8125, 37.5625, 37.3125, 37.0625, 36.75, 36.5, 36, 35.5, 35.1875, 34.6875, 34.4375, 33.9375, 33.5625, 33.3125, 32.875, 32.580357, 32.25, 31.705357, 31.4375, 31.1875, 30.8125, 30.5625, 30.3125, 29.8125, 29.5, 29.0625, 28.5625, 28.1875, 27.8125, 27.419643, 26.645832, 26.330357, 26, 25.8125, 25.5625, 25.3125, 24.9375, 24.5625, 24.3125, 23.8125, 23.5, 23.0625, 22.5625, 22.3125, 22.0625, 21.75, 21.5, 21.0625, 20.5625, 20.3125, 19.875, 19.5625, 19.3125, 18.8125, 18.5, 18.1875, 17.6875, 17.4375, 17, 16.5625, 16.1875, 15.8125, 15.5, 15.1875, 14.767857, 14.4375, 14.1875, 14, 14, 13.9375, 13.848214, 13.580357, 13.455357, 13.4375, 13.4375, 13.5, 13.5, 13.4375, 13.5625, 13.5, 13.375, 13.3125, 13, 12.9375, 12.9375, 12.9375, 13, 13.0625, 13.0625, 13, 12.9375, 12.875, 12.875, 12.9375, 13, 13, 13, 13, 13, 13, 12.9375, 12.75, 12.5625, 12.4375, 12.375, 12.3125, 12.25, 12.1875, 12.25, 12.375, 12.375, 12.3125, 12.1875, 12.1875, 12.4375, 12.75, 12.973214, 12.9375, 12.705357, 12.4375, 12.1875, 12.1875, 12.125, 12.1875, 12.25, 12.125, 12.125, 12.0625, 12, 12, 12, 12, 11.9375, 11.875, 11.8125, 11.8125, 11.8125, 11.8125, 11.8125, 11.8125, 11.875, 11.9375, 12, 12, 12, 12, 11.9375, 11.9375, 11.9375, 11.9375, 12, 11.9375, 11.9375, 11.8125, 11.75, 11.75, 11.6875, 11.6875, 11.625, 11.625, 11.6875, 11.8125, 11.9375, 12, 11.8125, 11.5625, 11.205357, 11, 10.9375, 11, 11.125, 11.1875, 11.375, 11.5, 11.5625, 11.625, 11.4375, 11.375, 11.4375, 11.4375, 11.5625, 11.4375, 11.25, 11.125, 11.125, 11.125, 11.125, 11.25, 11.375, 11.625, 11.875, 12, 12, 12.125, 12.3125, 12.5, 12.75, 12.875, 12.9375, 13, 13, 13, 13.25, 13.5, 13.75, 14, 14, 14, 14, 14.0625, 14.375, 14.732143, 15.125, 15.4375, 15.53125, 15.71875, 15.78125, 15.90625, 16, 16.0625, 16.1875, 16.3125, 16.4375, 16.5, 16.625, 16.75, 16.875, 17, 17, 17.0625, 17.3125, 17.5625, 17.8125, 18, 18, 18, 18, 18, 18, 18.25, 18.5, 18.75, 19.0625, 19.0625, 19.25, 19.375, 19.375, 19.4375, 19.5, 19.625, 19.75, 19.8125, 19.625, 19.714287, 19.950001, 10, 10.166666, 10.914286, 10.920834, 10.9375, 10.8125, 10.142857, 9.9375, 9.75, 9.8125, 9.75, 9.5625, 9.3392859, 9.25, 9.25, 9.375, 9.375, 9.4375, 9.4375, 9.3125, 9.25, 9.0625, 9, 9, 9, 9, 9, 9, 9.0625, 8.9732141, 8.7678566, 8.6964283, 8.6875, 8.8125, 9, 9.125, 9.1696434, 9.0625, 9.0625, 9, 9, 8.9375, 8.8125, 8.75, 8.75, 8.8125, 8.9375, 9, 9, 9, 9, 9, 9, -10, -10, -10, -10, -10, -10, -10, -10, -10, -10, -10, -10, -10, -10, -10, -10, -10, -10, -10, -10, -10, -10, -10, -10, -10, -10, -10, -10, -10, -10, -10, -10, -10, 49.958332, 49.866669, 49.875, 49.625, 49.375, 48.830357, 48.4375, 48.1875, 47.75, 47.5, 47.1875, 46.6875, 46.4375, 46.1875, 45.75, 45.4375, 44.892857, 44.5, 44.1875, 43.875, 43.642857, 43.178574, 42.630955, 42.196426, 41.6875, 41.464287, 41.107143, 40.642857, 40.383926, 40, 39.6875, 39.375, 38.9375, 38.517857, 38.25, 37.875, 37.5625, 37.3125, 37, 36.6875, 36.4375, 35.9375, 35.5, 35.1875, 34.6875, 34.4375, 34, 33.625, 33.375, 32.875, 32.517857, 32.25, 31.75, 31.5, 31.25, 30.8125, 30.5625, 30.3125, 29.8125, 29.5, 29, 28.5, 28.0625, 27.625, 27.241072, 26.604166, 26.321428, 26, 25.8125, 25.5625, 25.3125, 25, 24.625, 24.375, 23.875, 23.5, 23, 22.5, 22.1875, 21.875, 21.625, 21.375, 21, 20.5625, 20.3125, 19.875, 19.5625, 19.3125, 18.8125, 18.5, 18.1875, 17.6875, 17.4375, 17.0625, 16.625, 16.3125, 15.9375, 15.5625, 15.25, 14.767857, 14.4375, 14.1875, 14, 14, 13.875, 13.723214, 13.392857, 13.205357, 13.25, 13.25, 13.3125, 13.3125, 13.25, 13.375, 13.375, 13.3125, 13.25, 12.9375, 12.8125, 12.8125, 12.8125, 12.9375, 13.0625, 13.125, 13.125, 13.125, 13.0625, 13, 13, 13, 13, 13, 13, 13, 13, 13, 12.875, 12.625, 12.5, 12.375, 12.3125, 12.3125, 12.25, 12.25, 12.25, 12.25, 12.1875, 12.125, 12.125, 12.3125, 12.5625, 12.723214, 12.75, 12.642857, 12.4375, 12.3125, 12.3125, 12.1875, 12.1875, 12.125, 12, 12, 12.0625, 12.0625, 12.0625, 12.0625, 12, 11.9375, 11.875, 11.875, 11.9375, 11.982143, 11.9375, 12, 11.9375, 12, 12, 12, 12, 12, 12, 12, 12, 12, 12, 12, 12, 12, 11.875, 11.875, 11.875, 11.875, 11.9375, 11.875, 11.75, 11.6875, 11.75, 11.8125, 11.875, 11.6875, 11.375, 10.955357, 10.8125, 10.8125, 10.9375, 11.1875, 11.25, 11.375, 11.4375, 11.375, 11.375, 11.25, 11.1875, 11.25, 11.3125, 11.375, 11.3125, 11.1875, 11.125, 11.25, 11.25, 11.25, 11.375, 11.4375, 11.6875, 11.9375, 12, 12, 12.0625, 12.25, 12.4375, 12.6875, 12.875, 12.9375, 13, 13, 13, 13.25, 13.5, 13.75, 14, 14.0625, 14.125, 14.1875, 14.375, 14.6875, 15.044643, 15.4375, 15.6875, 15.8125, 16, 16, 16.0625, 16.0625, 16, 16.125, 16.3125, 16.5, 16.6875, 16.8125, 16.875, 16.9375, 17, 17, 17, 17.25, 17.5, 17.75, 18, 18, 18, 18, 18, 18, 18.25, 18.5, 18.75, 19, 19, 19.1875, 19.375, 19.5, 19.5625, 19.625, 19.6875, 19.8125, 19.9375, 19.8125, 19.955357, 20.125, 10, 10.111111, 10.375, 10.520833, 10.6875, 10.633928, 10.25, 10.116072, 9.9375, 9.9375, 9.8125, 9.5625, 9.3392859, 9.25, 9.1875, 9.3125, 9.3125, 9.3125, 9.375, 9.25, 9.1875, 9.0625, 9, 9, 9, 9, 9, 9, 9.0625, 8.9732141, 8.7678566, 8.6964283, 8.6875, 8.8125, 9, 9.125, 9.1071434, 9, 9, 8.9375, 9, 8.9375, 8.8125, 8.75, 8.75, 8.8125, 8.9375, 9, 8.9375, 8.875, 8.8125
49.25, 48.767857, 48.4375, 48.1875, 47.75, 47.5, 47.125, 46.625, 46.375, 46.125, 45.75, 45.4375, 44.892857, 44.229168, 43.883926, 43.625, 43.5, 43.178574, 42.755955, 42.446426, 42, 41.776787, 41.419643, 40.684525, 40.392857, 40, 39.6875, 39.375, 39, 38.580357, 38.3125, 37.9375, 37.5625, 37.3125, 37, 36.6875, 36.4375, 35.9375, 35.5, 35.1875, 34.6875, 34.4375, 34, 33.625, 33.375, 32.9375, 32.580357, 32.3125, 31.8125, 31.5, 31.25, 30.75, 30.5, 30.1875, 29.6875, 29.4375, 28.9375, 28.5, 28, 27.5, 27.125, 26.6875, 26.5, 26.1875, 25.9375, 25.625, 25.3125, 25, 24.625, 24.375, 23.875, 23.5, 23.0625, 22.625, 22.3125, 21.9375, 21.580357, 21.3125, 20.875, 20.5, 20.25, 19.75, 19.5, 19.25, 18.75, 18.5, 18.1875, 17.6875, 17.4375, 17.0625, 16.625, 16.375, 16, 15.625, 15.3125, 14.767857, 14.4375, 14.1875, 14, 13.9375, 13.6875, 13.5, 13.25, 13.0625, 13.1875, 13.125, 13.125, 13.1875, 13.0625, 13.1875, 13.25, 13.1875, 13.1875, 13, 12.875, 12.875, 12.875, 12.9375, 13, 13, 13, 12.9375, 12.9375, 12.9375, 12.9375, 13, 13, 13, 12.9375, 12.9375, 12.9375, 12.9375, 12.9375, 12.678572, 12.5375, 12.520833, 12.25, 12.321428, 12.1875, 12.1875, 12.1875, 12.25, 12.1875, 12.125, 12.125, 12.1875, 12.3125, 12.4375, 12.5, 12.5, 12.375, 12.375, 12.375, 12.3125, 12.375, 12.3125, 12.25, 12.1875, 12.25, 12.1875, 12.125, 12.125, 12, 11.9375, 11.9375, 12, 12.125, 12.169643, 12.0625, 12.0625, 11.9375, 12, 12, 12, 12, 12, 12, 12, 12, 12, 12, 12, 12, 12, 11.875, 11.875, 11.875, 11.8125, 11.875, 11.8125, 11.625, 11.5625, 11.625, 11.6875, 11.75, 11.625, 11.375, 10.955357, 10.875, 10.9375, 10.973214, 11.151786, 11.25, 11.25, 11.3125, 11.25, 11.1875, 11.125, 11.0625, 11.0625, 11.125, 11.125, 11.125, 11.0625, 11.125, 11.3125, 11.3125, 11.3125, 11.4375, 11.5, 11.75, 12, 12, 12, 12.0625, 12.25, 12.4375, 12.6875, 12.875, 12.9375, 13, 13, 13.0625, 13.3125, 13.625, 14.145833, 14.357143, 14.4375, 14.4375, 14.4375, 14.6875, 15, 15.357143, 15.6875, 15.8125, 15.875, 15.9375, 15.9375, 16, 16, 16.0625, 16.160713, 16.205357, 16.392857, 16.625, 16.857143, 16.9375, 17, 17, 17, 17, 17.25, 17.5, 17.75, 18, 18, 18, 18, 18, 18, 18.25, 18.5, 18.6875, 18.9375, 18.9375, 19.1875, 19.5, 19.625, 19.75, 19.75, 19.6875, 19.8125, 19.9375, 19.875, 20.125, 20.25, 20.666666, 10.083333, 10.125, 10.1875, 10.3125, 10.25, 10.0625, 9.9375, 9.9196434, 9.9285717, 9.875, 9.6875, 9.5, 9.4375, 9.3125, 9.3125, 9.375, 9.25, 9.25, 9.1875, 9.0625, 9, 9, 9, 9, 9, 9, 9, 9.0625, 9.0357141, 8.8928566, 8.8214283, 8.8125, 8.875, 8.9375, 9, 9, 9, 9, 9, 9, 8.9375, 8.8125, 8.75, 8.75, 8.8125, 8.875, 8.875, 8.8125, 8.75, 8.6875, 8.75, 8.75, -10, -10, -10, -10, -10, -10, -10, -10, -10, -10, -10, -10, -10, -10, -10, -10, -10, -10, -10, -10, -10, -10, -10, -10, -10, -10, -10, -10, -10, -10, -10, -10, 50, 49.958332, 49.804169, 49.6875, 49.4375, 49.25, 48.8125, 48.5, 48.1875, 47.6875, 47.4375, 47.0625, 46.625, 46.375, 46.125, 45.75, 45.4375, 44.892857, 44.020836, 43.705357, 43.5, 43.4375, 43.241074, 42.880955, 42.696426, 42.303574, 41.880955, 41.419643, 40.622025, 40.330357, 39.9375, 39.6875, 39.375, 39, 38.580357, 38.3125, 38, 37.625, 37.375, 37.0625, 36.6875, 36.4375, 35.9375, 35.5, 35.125, 34.625, 34.375, 33.9375, 33.625, 33.375, 33, 32.642857, 32.375, 31.875, 31.5, 31.25, 30.75, 30.5, 30.125, 29.625, 29.375, 28.875, 28.5, 28, 27.5, 27.1875, 26.8125, 26.625, 26.375, 26.09375, 25.71875, 25.34375, 24.96875, 24.5625, 24.3125, 23.875, 23.5, 23.125, 22.6875, 22.3125, 21.830357, 21.392857, 21.0625, 20.75, 20.5, 20.3125, 19.875, 19.517857, 19.25, 18.75, 18.5, 18.1875, 17.6875, 17.4375, 17, 16.5625, 16.3125, 15.9375, 15.625, 15.375, 14.875, 14.5, 14.25, 14, 13.875, 13.625, 13.4375, 13.1875, 13.0625, 13.1875, 13.125, 13.1875, 13.1875, 13, 13.0625, 13.0625, 13.125, 13.25, 13.169643, 13, 13.0625, 13.035714, 13.0625, 13.0625, 13, 13, 13, 13, 13, 13, 13, 13, 13, 12.9375, 12.9375, 12.9375, 12.9375, 13, 12.803572, 12.6625, 12.645833, 12.3125, 12.321428, 12.125, 12.125, 12.1875, 12.3125, 12.375, 12.3125, 12.1875, 12.125, 12.125, 12.1875, 12.3125, 12.375, 12.3125, 12.375, 12.4375, 12.4375, 12.5625, 12.5625, 12.5, 12.375, 12.375, 12.25, 12.125, 12.125, 12, 12, 12.0625, 12.125, 12.25, 12.232143, 12.0625, 12.0625, 11.9375, 12, 12.0625, 12.0625, 12.0625, 12.0625, 12, 12, 12, 12, 12, 12, 12, 12, 11.9375, 11.9375, 11.9375, 11.8125, 11.75, 11.6875, 11.5625, 11.5625, 11.517857, 11.508928, 11.5, 11.4375, 11.25, 10.892857, 10.875, 10.9375, 10.973214, 11.151786, 11.25, 11.1875, 11.1875, 11.125, 11.0625, 11.0625, 11.0625, 11, 11, 11, 11, 11, 11.125, 11.25, 11.25, 11.25, 11.375, 11.5, 11.75, 12, 12, 12.0625, 12.1875, 12.375, 12.5625, 12.75, 12.875, 13, 13.1875, 13.357143, 13.5, 13.75, 14.0625, 14.583333, 14.732143, 14.8125, 14.75, 14.6875, 14.9375, 15.1875, 15.544643, 15.8125, 15.9375, 16.0625, 16.0625, 16.0625, 16.125, 16.0625, 16.125, 16.160713, 16.080357, 16.205357, 16.4375, 16.732143, 16.875, 17, 17, 17, 17, 17.1875, 17.4375, 17.6875, 17.9375, 18, 18, 18, 18, 18, 18.25, 18.5, 18.6875, 18.9375, 18.9375, 19.125, 19.375, 19.5, 19.6875, 19.75, 19.6875, 19.8125, 19.875, 19.875, 20.25, 20.458334, 20.666666, 10, 10, 10, 10.0625, 10, 9.875, 9.875, 9.9196434, 9.9285717, 9.9017859, 9.625, 9.375, 9.375, 9.25, 9.3125, 9.4375, 9.3125, 9.25, 9.1875, 9.0625, 9, 9, 9, 9, 9, 9, 9, 9, 9, 9, 9, 9, 8.9375, 8.875, 8.8125, 8.8125, 8.875, 8.9375, 9, 9, 9, 8.9375, 8.875, 8.875, 8.875, 8.875, 8.875, 8.8125, 8.75, 8.6875
49.125, 48.75, 48.5, 48.125, 47.625, 47.375, 46.9375, 46.5625, 46.3125, 46.0625, 45.75, 45.5, 45.0625, 44.145836, 43.830357, 43.5, 43.3125, 43.125, 42.901787, 42.75, 42.366074, 41.880955, 41.419643, 40.684525, 40.392857, 40, 39.705357, 39.4375, 39.125, 38.705357, 38.4375, 38.0625, 37.625, 37.375, 37.0625, 36.6875, 36.4375, 36, 35.5625, 35.125, 34.580357, 34.3125, 33.875, 33.5625, 33.3125, 33, 32.6875, 32.4375, 31.9375, 31.5, 31.25, 30.75, 30.5, 30.125, 29.625, 29.375, 28.875, 28.5, 28.0625, 27.5625, 27.25, 26.9375, 26.6875, 26.4375, 26.15625, 25.71875, 25.34375, 24.90625, 24.5, 24.25, 23.8125, 23.5, 23.1875, 22.75, 22.375, 21.830357, 21.330357, 21, 20.75, 20.625, 20.428572, 19.854166, 19.464285, 19.1875, 18.75, 18.5, 18.125, 17.625, 17.375, 17, 16.625, 16.375, 16, 15.625, 15.375, 14.875, 14.5, 14.25, 14, 13.8125, 13.5625, 13.375, 13.125, 13.0625, 13.1875, 13.125, 13.1875, 13.1875, 13, 13, 12.9375, 13, 13.125, 13.107143, 13, 13.0625, 13.035714, 13.0625, 13.0625, 13, 13, 13, 13, 13, 13, 13, 13, 13, 12.9375, 12.9375, 12.9375, 12.9375, 13, 12.866072, 12.6625, 12.583333, 12.25, 12.196428, 12.125, 12.25, 12.3125, 12.5, 12.5625, 12.4375, 12.3125, 12.125, 12, 12, 12.0625, 12.125, 12.125, 12.25, 12.4375, 12.5625, 12.6875, 12.6875, 12.5625, 12.375, 12.375, 12.3125, 12.1875, 12.1875, 12.0625, 12, 12.0625, 12.1875, 12.3125, 12.294643, 12.125, 12.0625, 11.9375, 12, 12.125, 12.125, 12.1875, 12.1875, 12.0625, 12.0625, 12, 12, 12, 12, 12, 12, 12, 12, 11.9375, 11.75, 11.625, 11.625, 11.5625, 11.5625, 11.455357, 11.321428, 11.25, 11.3125, 11.25, 11.0625, 11.0625, 11.0625, 10.973214, 11.026786, 11.0625, 11, 11.0625, 11.0625, 11.0625, 11.125, 11.125, 11.0625, 11.0625, 11, 11, 11, 11.125, 11.3125, 11.3125, 11.3125, 11.4375, 11.5, 11.75, 12, 12, 12.0625, 12.1875, 12.4375, 12.6875, 12.9375, 13.125, 13.25, 13.4375, 13.669643, 13.875, 14.125, 14.375, 14.833333, 14.919643, 15, 15, 14.9375, 15.125, 15.25, 15.4375, 15.625, 15.71875, 15.84375, 15.90625, 15.96875, 16.125, 16.125, 16.1875, 16.160713, 15.955357, 16.017857, 16.258928, 16.732143, 16.875, 17.0625, 17, 17, 17, 17.125, 17.375, 17.625, 17.875, 18, 18, 18, 18, 18, 18.25, 18.5, 18.6875, 18.9375, 18.9375, 19.0625, 19.25, 19.3125, 19.5, 19.625, 19.5625, 19.75, 19.84375, 19.90625, 20.34375, 20.59375, 20.75, 10, 10, 10, 10, 9.875, 9.71875, 9.71875, 9.7633934, 9.7723217, 9.7142859, 9.4375, 9.25, 9.25, 9.1875, 9.3125, 9.5, 9.4375, 9.375, 9.25, 9.0625, 9, 9, 9, 9, 8.9375, 8.875, 8.875, 8.875, 9, 9.125, 9.125, 9.125, 9, 8.875, 8.8125, 8.8125, 8.875, 8.9375, 9, 9, 9, 9, 9, 9, 9, 8.9375, 8.875, 8.8125, 8.75, 8.6875, 8.75, 8.75, -10, -10, -10, -10, -10, -10, -10, -10, -10, -10, -10, -10, -10, -10, -10, -10, -10, -10, -10, -10, -10, -10, -10, -10, -10, -10, -10, -10, -10, -10, -10, -10, -10, 50, 49.770836, 49.5625, 49.3125, 49.0625, 48.75, 48.5, 48.0625, 47.5625, 47.3125, 46.875, 46.5625, 46.3125, 46, 45.625, 45.267857, 44.875, 44.020836, 43.705357, 43.375, 43.1875, 43.0625, 42.875, 42.75, 42.428574, 41.854168, 41.4375, 40.791668, 40.446426, 40.0625, 39.705357, 39.4375, 39.125, 38.767857, 38.5, 38.125, 37.642857, 37.3125, 37.0625, 36.6875, 36.375, 36.026787, 35.625, 35.169643, 34.559525, 34.258926, 33.8125, 33.5625, 33.3125, 33.0625, 32.75, 32.5, 32, 31.5, 31.25, 30.75, 30.5, 30.125, 29.625, 29.375, 28.875, 28.5, 28.125, 27.625, 27.375, 27.0625, 26.75, 26.5, 26.09375, 25.65625, 25.28125, 24.78125, 24.4375, 24.1875, 23.75, 23.5, 23.25, 22.8125, 22.5, 22.017857, 21.455357, 21.125, 20.875, 20.6875, 20.428572, 19.809523, 19.401785, 19.125, 18.75, 18.5, 18.0625, 17.5625, 17.3125, 16.875, 16.5625, 16.3125, 15.9375, 15.625, 15.375, 14.875, 14.5, 14.25, 14, 13.75, 13.5, 13.375, 13.125, 13.125, 13.1875, 13.0625, 13.125, 13.125, 13, 13, 13, 13.0625, 13.1875, 13.169643, 13, 13.0625, 12.973214, 13, 13, 12.9375, 13.0625, 13.125, 13.125, 13.125, 13.125, 13.0625, 13.0625, 13.0625, 12.9375, 12.9375, 12.9375, 13, 13.0625, 12.991072, 12.725, 12.583333, 12.1875, 12.071428, 12, 12.0625, 12.1875, 12.375, 12.5, 12.4375, 12.375, 12.25, 12.125, 12.125, 12.0625, 12, 12, 12.0625, 12.3125, 12.5625, 12.6875, 12.75, 12.625, 12.4375, 12.4375, 12.4375, 12.3125, 12.25, 12.125, 12, 12.0625, 12.125, 12.1875, 12.1875, 12.125, 12.0625, 12.0625, 12.125, 12.3125, 12.375, 12.4375, 12.375, 12.1875, 12.125, 12, 12, 12, 12, 12, 12, 12, 12, 11.875, 11.6875, 11.5625, 11.5625, 11.5625, 11.5625, 11.392857, 11.196428, 11.125, 11.1875, 11.1875, 11.125, 11.125, 11.125, 11.035714, 10.964286, 11, 10.9375, 11.0625, 11.125, 11.125, 11.1875, 11.125, 11.0625, 11.125, 11.0625, 11.0625, 11.0625, 11.125, 11.25, 11.25, 11.25, 11.3125, 11.4375, 11.6875, 11.9375, 12, 12.0625, 12.1875, 12.4375, 12.75, 13.107143, 13.3125, 13.5, 13.6875, 13.919643, 14.125, 14.3125, 14.5, 14.895833, 14.919643, 15, 15, 14.9375, 15.0625, 15.125, 15.25, 15.375, 15.46875, 15.59375, 15.65625, 15.78125, 16.0625, 16.125, 16.3125, 16.223213, 15.892857, 15.892857, 16.071428, 16.607143, 16.8125, 17.0625, 17, 17, 16.9375, 17, 17.1875, 17.4375, 17.75, 17.9375, 18, 18, 18, 18, 18.1875, 18.3125, 18.4375, 18.6875, 18.895834, 19, 19.1875, 19.125, 19.3125, 19.5, 19.5, 19.75, 19.875, 20, 20.4375, 20.6875, 20.833332, 10, 10, 10, 10, 9.9375, 9.78125, 9.71875, 9.7276783, 9.6473217, 9.5892859, 9.375, 9.1875, 9.25, 9.1875, 9.3125, 9.5, 9.4375, 9.375, 9.25, 9.0625, 9, 9, 9, 9, 8.9375, 8.9375, 8.9375, 9, 9.1875, 9.25, 9.25, 9.1875, 9, 8.875, 8.8125, 8.8125, 8.875, 8.9375, 9, 9, 9, 9, 9, 9, 9, 8.9375, 8.875, 8.875, 8.875, 8.875
49.0625, 48.75, 48.5, 48, 47.5625, 47.3125, 46.875, 46.580357, 46.3125, 45.9375, 45.5625, 45.142857, 44.75, 44.104168, 43.758926, 43.4375, 43.1875, 43, 42.75, 42.5625, 42.241074, 41.666668, 41.3125, 40.875, 40.5, 40.0625, 39.642857, 39.375, 39.0625, 38.767857, 38.5, 38.1875, 37.705357, 37.375, 37.0625, 36.625, 36.25, 35.964287, 35.625, 35.169643, 34.577381, 34.258926, 33.875, 33.625, 33.375, 33.125, 32.75, 32.5, 32, 31.5, 31.1875, 30.6875, 30.4375, 30.125, 29.6875, 29.4375, 28.9375, 28.5, 28.1875, 27.6875, 27.4375, 27.125, 26.6875, 26.4375, 26.03125, 25.59375, 25.28125, 24.84375, 24.5, 24.25, 23.8125, 23.5, 23.25, 22.75, 22.4375, 22.017857, 21.5, 21.1875, 21, 20.75, 20.491072, 19.934523, 19.464285, 19.125, 18.705357, 18.4375, 18, 17.5625, 17.25, 16.767857, 16.5, 16.25, 15.9375, 15.625, 15.375, 14.875, 14.5, 14.25, 14, 13.75, 13.5, 13.375, 13.125, 13.125, 13.125, 13, 13.0625, 13.125, 13.125, 13.125, 13.125, 13.125, 13.1875, 13.232143, 13.125, 13.25, 13.151786, 12.916667, 12.821428, 12.6875, 12.883928, 13.270833, 13.366072, 13.375, 13.25, 13.026786, 13, 13, 12.9375, 12.875, 12.892857, 13.145833, 13.169643, 13.1875, 12.9375, 12.5625, 12.3125, 12.0625, 11.9375, 11.9375, 12, 12.1875, 12.482143, 12.5, 12.5625, 12.5, 12.375, 12.3125, 12.1875, 12, 11.9375, 11.9375, 12.125, 12.375, 12.4375, 12.5, 12.375, 12.3125, 12.3125, 12.375, 12.3125, 12.1875, 12.125, 12.0625, 12.125, 12.125, 12.125, 12.0625, 12, 12, 12, 12.0625, 12.25, 12.3125, 12.4375, 12.375, 12.1875, 12.125, 12, 12, 12.0625, 12.125, 12.125, 12.125, 12.0625, 12, 11.875, 11.6875, 11.625, 11.625, 11.6875, 11.6875, 11.392857, 11.133928, 11.0625, 11.125, 11.1875, 11.1875, 11.125, 11.0625, 11, 11, 11, 11, 11.0625, 11.0625, 11.0625, 11.125, 11.0625, 11.0625, 11.1875, 11.125, 11.125, 11.125, 11.125, 11.1875, 11.1875, 11.1875, 11.25, 11.4375, 11.6875, 11.9375, 12.0625, 12.25, 12.410714, 12.625, 12.9375, 13.232143, 13.5, 13.6875, 13.875, 14.107143, 14.25, 14.4375, 14.5, 14.625, 14.6875, 14.8125, 14.9375, 14.9375, 15, 15, 15.0625, 15.1875, 15.34375, 15.59375, 15.78125, 15.90625, 16.1875, 16.25, 16.375, 16.3125, 16.125, 16.0625, 16.196428, 16.625, 16.8125, 17.0625, 17, 17, 16.9375, 16.9375, 17.125, 17.375, 17.6875, 17.9375, 18, 18.0625, 18.125, 18.1875, 18.3125, 18.3125, 18.4375, 18.6875, 18.994047, 19.0625, 19.125, 19, 19.125, 19.375, 19.5, 19.75, 19.9375, 20.09375, 20.4375, 20.6875, 20.833332, 10, 10, 10, 10, 10, 9.96875, 9.96875, 9.8705359, 9.71875, 9.5267859, 9.3125, 9.125, 9.1875, 9.25, 9.375, 9.5, 9.5, 9.375, 9.1875, 9.0267859, 8.9375, 8.9375, 9, 9, 9, 9.0625, 9.125, 9.25, 9.4375, 9.4375, 9.375, 9.25, 9, 8.875, 8.8125, 8.8125, 8.875, 8.9375, 9, 9, 9, 9, 9, 9, 9, 9, 9, 9, 9, 9, 9, 9, -10, -10, -10, -10, -10, -10, -10, -10, -10, -10, -10, -10, -10, -10, -10, -10, -10, -10, -10, -10, -10, -10, -10, -10, -10, -10, -10, -10, -10, -10, -10, -10, -10, 50, 49.750004, 49.5625, 49.3125, 49.0625, 48.75, 48.5, 48.0625, 47.6875, 47.4375, 47, 46.598213, 46.3125, 45.875, 45.5, 45.017857, 44.625, 44.1875, 43.8125, 43.5, 43.1875, 43, 42.6875, 42.4375, 42.0625, 41.625, 41.375, 40.9375, 40.5625, 40.125, 39.580357, 39.3125, 39.0625, 38.8125, 38.5625, 38.25, 37.705357, 37.375, 37, 36.5625, 36.1875, 35.964287, 35.6875, 35.232143, 34.595238, 34.258926, 33.875, 33.625, 33.375, 33.0625, 32.6875, 32.4375, 31.9375, 31.5, 31.125, 30.625, 30.375, 30.0625, 29.6875, 29.4375, 28.9375, 28.5, 28.25, 27.75, 27.5, 27.1875, 26.6875, 26.4375, 26.0625, 25.625, 25.375, 25, 24.625, 24.375, 23.9375, 23.5625, 23.25, 22.705357, 22.4375, 22.0625, 21.625, 21.375, 21.125, 20.8125, 20.491072, 19.934523, 19.508928, 19.1875, 18.767857, 18.4375, 18.0625, 17.625, 17.25, 16.723213, 16.4375, 16.1875, 15.875, 15.5625, 15.3125, 14.8125, 14.5, 14.25, 14, 13.75, 13.4375, 13.3125, 13.160714, 13.125, 13.1875, 13, 13, 13.125, 13.125, 13.125, 13.1875, 13.0625, 13.0625, 13.125, 13.1875, 13.3125, 13.241072, 12.979167, 12.821428, 12.6875, 12.883928, 13.270833, 13.428572, 13.5, 13.4375, 13.214286, 13.125, 13.0625, 12.875, 12.75, 12.785714, 13.229166, 13.276786, 13.3125, 13.0625, 12.6875, 12.4375, 12.1875, 11.96875, 11.78125, 11.78125, 11.90625, 12.232143, 12.375, 12.5625, 12.625, 12.5625, 12.5625, 12.3125, 12.0625, 11.9375, 11.9375, 12.125, 12.3125, 12.3125, 12.3125, 12.1875, 12.25, 12.3125, 12.375, 12.375, 12.1875, 12.125, 12.125, 12.25, 12.25, 12.25, 12.125, 12, 12, 12, 12.0625, 12.1875, 12.25, 12.375, 12.3125, 12.1875, 12.1875, 12.0625, 12.0625, 12.125, 12.1875, 12.25, 12.25, 12.1875, 12.0625, 11.875, 11.678572, 11.5, 11.5, 11.4375, 11.4375, 11.25, 11.0625, 11.0625, 11.125, 11.1875, 11.1875, 11.125, 11.0625, 11, 11, 11, 11, 11.0625, 11.0625, 11.0625, 11.125, 11.0625, 11.0625, 11.25, 11.160714, 11.089286, 11.125, 11.0625, 11.1875, 11.1875, 11.25, 11.3125, 11.5, 11.75, 12, 12.25, 12.544643, 12.723214, 12.9375, 13.1875, 13.482143, 13.75, 13.875, 13.9375, 14, 14.0625, 14.1875, 14.1875, 14.3125, 14.4375, 14.625, 14.875, 14.9375, 15, 15, 15, 15.0625, 15.21875, 15.46875, 15.71875, 15.90625, 16.1875, 16.3125, 16.5, 16.5, 16.3125, 16.1875, 16.258928, 16.625, 16.8125, 17.0625, 17, 17, 16.9375, 17, 17.1875, 17.4375, 17.75, 17.9375, 18, 18.0625, 18.1875, 18.3125, 18.375, 18.375, 18.4375, 18.625, 18.994047, 19.0625, 19.125, 19, 19.0625, 19.3125, 19.5, 19.75, 20, 20.15625, 20.375, 20.625, 20.75, 10, 10, 10, 10, 10, 9.90625, 9.78125, 9.6205359, 9.53125, 9.4375, 9.3125, 9.1875, 9.1875, 9.1875, 9.25, 9.3125, 9.3125, 9.25, 9.125, 9.0267859, 8.9375, 8.9375, 9, 9.0625, 9.125, 9.25, 9.3035717, 9.166667, 9.2589283, 9.25, 9.25, 9.1875, 9.0625, 9, 9, 9, 9, 9, 9, 9, 9, 9, 9, 9, 9, 9, 9, 9, 9, 9
49.1875, 48.8125, 48.5, 48.125, 47.8125, 47.5625, 47.125, 46.61607, 46.3125, 45.8125, 45.4375, 44.892857, 44.4375, 44, 43.625, 43.375, 43.125, 43, 42.6875, 42.375, 41.955357, 41.5625, 41.3125, 40.9375, 40.5625, 40.125, 39.580357, 39.3125, 39, 38.75, 38.5, 38.1875, 37.705357, 37.375, 37, 36.5625, 36.1875, 35.964287, 35.6875, 35.232143, 34.595238, 34.258926, 33.875, 33.625, 33.375, 33, 32.5625, 32.205357, 31.75, 31.375, 31, 30.5625, 30.3125, 29.9375, 29.625, 29.375, 28.875, 28.5, 28.25, 27.75, 27.5, 27.1875, 26.6875, 26.4375, 26.0625, 25.625, 25.375, 25, 24.625, 24.375, 24, 23.625, 23.25, 22.660713, 22.375, 22, 21.625, 21.375, 21.125, 20.75, 20.4375, 20.049107, 19.59375, 19.28125, 18.799107, 18.4375, 18.125, 17.6875, 17.3125, 16.754463, 16.40625, 16.15625, 15.78125, 15.5, 15.25, 14.8125, 14.5625, 14.3125, 14.0625, 13.75, 13.4375, 13.25, 13.098214, 13.125, 13.1875, 13, 13, 13.232143, 13.232143, 13.25, 13.25, 13.0625, 13.0625, 13.125, 13.1875, 13.3125, 13.241072, 13.041667, 12.883928, 12.75, 12.946428, 13.270833, 13.428572, 13.5625, 13.5625, 13.401786, 13.3125, 13.25, 13.0625, 12.875, 12.848214, 13.229166, 13.276786, 13.133928, 12.946428, 12.5625, 12.375, 12.1875, 11.90625, 11.59375, 11.59375, 11.65625, 12.044643, 12.375, 12.625, 12.8125, 12.8125, 12.8125, 12.5625, 12.25, 12.125, 12.125, 12.25, 12.375, 12.3125, 12.3125, 12.25, 12.4375, 12.5625, 12.5, 12.4375, 12.1875, 12.0625, 12.125, 12.25, 12.25, 12.25, 12.125, 12, 12, 12, 12.0625, 12.125, 12.1875, 12.25, 12.1875, 12.125, 12.125, 12.0625, 12.0625, 12.125, 12.25, 12.3125, 12.3125, 12.25, 12.0625, 11.875, 11.616072, 11.339286, 11.3125, 11.3125, 11.4375, 11.3125, 11.1875, 11.125, 11.125, 11.160714, 11.089286, 11.0625, 11, 11, 11.0625, 11.0625, 11.0625, 11.125, 11.125, 11.1875, 11.1875, 11.1875, 11.125, 11.25, 11.223214, 11.089286, 11.125, 11.125, 11.25, 11.25, 11.375, 11.375, 11.5, 11.75, 12, 12.357143, 12.732143, 13.035714, 13.25, 13.4375, 13.696429, 13.910714, 13.9375, 14, 13.9375, 13.9375, 14, 14, 14.1875, 14.375, 14.625, 14.875, 14.9375, 15, 15, 15, 15.0625, 15.1875, 15.375, 15.5625, 15.75, 16.03125, 16.25, 16.53125, 16.53125, 16.3125, 16.09375, 16.080357, 16.458334, 16.741072, 17, 17, 17, 16.9375, 17, 17.125, 17.3125, 17.625, 17.8125, 17.9375, 18.0625, 18.25, 18.375, 18.455357, 18.607143, 18.607143, 18.75, 19.056547, 19.0625, 19.125, 19, 19, 19.25, 19.5, 19.75, 20.03125, 20.125, 20.21875, 20.40625, 20.666666, 10.083333, 10.0625, 10, 10, 10.0625, 9.9375, 9.75, 9.6517859, 9.5625, 9.5, 9.5, 9.375, 9.375, 9.375, 9.3125, 9.25, 9.1875, 9.1875, 9.125, 9.1517859, 9.0625, 9, 9.0625, 9.0625, 9.1875, 9.375, 9.4285717, 9.291667, 9.2589283, 9.125, 9.125, 9.0625, 9, 9, 9, 9, 9, 9, 9, 9, 9, 9, 9, 9, 9, 9, 9, 9, 9, 9, 9, 9, -10, -10, -10, -10, -10, -10, -10, -10, -10, -10, -10, -10, -10, -10, -10, -10, -10, -10, -10, -10, -10, -10, -10, -10, -10, -10, -10, -10, -10, -10, -10, -10, -10, 50, 49.916668, 49.8125, 49.5625, 49.3125, 48.875, 48.5, 48.125, 47.8125, 47.5625, 47.0625, 46.55357, 46.25, 45.75, 45.5, 45.0625, 44.5625, 44.125, 43.75, 43.4375, 43.1875, 43.0625, 42.6875, 42.3125, 41.785713, 41.4375, 41.1875, 40.875, 40.5625, 40.1875, 39.642857, 39.375, 39.0625, 38.6875, 38.4375, 38.1875, 37.75, 37.5, 37.125, 36.625, 36.25, 35.892857, 35.5, 35, 34.49107, 34.1875, 33.8125, 33.5625, 33.3125, 32.875, 32.5, 32.080357, 31.625, 31.25, 30.8125, 30.4375, 30.1875, 29.875, 29.625, 29.3125, 28.767857, 28.4375, 28.125, 27.6875, 27.4375, 27.1875, 26.75, 26.5, 26.125, 25.625, 25.375, 25, 24.625, 24.375, 24, 23.625, 23.25, 22.660713, 22.375, 21.9375, 21.5625, 21.3125, 21, 20.6875, 20.4375, 20.09375, 19.65625, 19.34375, 18.799107, 18.4375, 18.1875, 17.75, 17.375, 16.848213, 16.4375, 16.125, 15.75, 15.4375, 15.1875, 14.8125, 14.5625, 14.3125, 14.0625, 13.75, 13.4375, 13.25, 13.160714, 13.25, 13.375, 13.25, 13.25, 13.482143, 13.482143, 13.4375, 13.3125, 13.0625, 13, 13.125, 13.25, 13.375, 13.366072, 13.104167, 12.946428, 12.8125, 12.883928, 13.145833, 13.303572, 13.4375, 13.5, 13.464286, 13.4375, 13.4375, 13.3125, 13.0625, 12.973214, 13.229166, 13.276786, 13.107142, 12.839285, 12.508928, 12.3125, 12.1875, 11.96875, 11.71875, 11.78125, 11.90625, 12.294643, 12.625, 12.8125, 12.9375, 12.9375, 12.9375, 12.8125, 12.5625, 12.375, 12.375, 12.375, 12.375, 12.3125, 12.3125, 12.3125, 12.5625, 12.6875, 12.5, 12.375, 12.125, 12, 12.125, 12.25, 12.25, 12.25, 12.125, 12.0625, 12.0625, 12, 12, 11.9375, 11.9375, 12, 12, 12, 12, 12, 12, 12.0625, 12.25, 12.3125, 12.3125, 12.25, 12.0625, 11.9375, 11.678572, 11.330358, 11.125, 11.125, 11.25, 11.25, 11.1875, 11.125, 11.1875, 11.196428, 11.053572, 11.0625, 10.9375, 11, 11.0625, 11.0625, 11.0625, 11.0625, 11.0625, 11.125, 11.125, 11.1875, 11.0625, 11.0625, 11.035714, 10.901786, 11, 11.125, 11.3125, 11.375, 11.5, 11.5625, 11.625, 11.8125, 12.125, 12.482143, 12.919643, 13.285714, 13.375, 13.4375, 13.526786, 13.723214, 13.8125, 13.9375, 13.9375, 13.9375, 14, 14, 14.25, 14.5, 14.75, 15, 15, 15, 15, 15, 15.0625, 15.1875, 15.3125, 15.4375, 15.625, 15.84375, 16.125, 16.40625, 16.40625, 16.1875, 15.96875, 16.017857, 16.440477, 16.741072, 17, 17, 17, 17, 17.125, 17.3125, 17.4375, 17.6875, 17.8125, 17.875, 18.0625, 18.25, 18.375, 18.455357, 18.607143, 18.633928, 18.928572, 19.169643, 19.25, 19.25, 19.125, 19.0625, 19.21875, 19.46875, 19.71875, 19.96875, 20.03125, 20.0625, 20.1875, 10.5, 10.208333, 10.145833, 10.0625, 10, 10, 9.8125, 9.625, 9.5625, 9.5625, 9.625, 9.6875, 9.625, 9.625, 9.5625, 9.4375, 9.3125, 9.1875, 9.25, 9.25, 9.3392859, 9.25, 9.125, 9.125, 9.0625, 9.125, 9.25, 9.3035717, 9.104167, 9.0714283, 9, 9, 9, 9.0625, 9.0625, 9.0625, 9.0625, 9, 9, 9, 9, 9, 9, 9, 9, 9, 9, 9, 9, 9, 9
