-10, -10, -10, -10, -10, -10, -10, -10, -10, -10, -10, -10, -10, -10, -10, -10, -10, -10, -10, -10, -10, -10, -10, -10, -10, -10, -10, -10, -10, -10, -10, -10, -10, -10, 71.708336, 71.26667, 70.892853, 70.3125, 69.571426, 68.535713, 67.928574, 67.4375, 66.928574, 66.3125, 65.892853, 65.095238, 64.505951, 64.071426, 63.616074, 62.988098, 61.9375, 61.142857, 60.434525, 60, 59.375, 58.705357, 57.991074, 57.392857, 56.665176, 55.813988, 55.272324, 54.611607, 54.0625, 53.247025, 52.642853, 52.080357, 51.6875, 51.25, 50.8125, 50.375, 49.830357, 49.1875, 48.419643, 47.785713, 47.125, 46.119049, 45.642857, 45, 44.553574, 43.773811, 43.541668, 42.8125, 42.098213, 41.5, 40.9375, 40.020836, 39.535713, 39.125, 38.741074, 38.041668, 37.410713, 36.758926, 36.089287, 35.172615, 34.589287, 34.1875, 33.75, 33.25, 32.455357, 31.666666, 31.321428, 30.785715, 29.733332, 29.083334, 28.455357, 27.9375, 27.517857, 27.125, 26.616072, 25.988094, 25.145834, 24.589285, 24.1875, 24, 23.875, 24.153061, 24.35, 24.190475, 24.5, 24.418367, 24.571428, 24.729593, 24.729593, 24.678572, 24.642857, 24.678572, 24.535713, 24.5625, 24.625, 24.785715, 24.821428, 24.821428, 24.75, 24.75, 24.714285, 24.714285, 24.714285, 24.714285, 24.714285, 24.714285, 24.642857, 24.642857, 24.714285, 24.544643, 24.482143, 24.291666, 24.205357, 24.21875, 24.40625, 24.46875, 24.46875, 24.4375, 24.375, 24.571428, 24.535715, 24.3125, 24.5, 24.5, 24.571428, 24.714285, 24.678572, 24.607143, 24.535715, 24.357143, 24.25, 24.2551, 24.270834, 24.294643, 24.071428, 24.178572, 23.9375, 24, 24.178572, 24.392857, 24.241072, 23.726191, 23.663265, 23.571428, 23.571428, 23.642857, 24.0625, 24.1875, 24.3125, 24.571428, 24.535715, 24.346939, 23.75, 23.857143, 23.214285, 23.595238, 23.861113, 24.071428, 24.166666, 24.357143, 24.25, 24.223213, 24.151787, 24.125, 24.041666, 24.583334, 24.733332, 25.166668, -10, -10, -10, -10, -10, -10, -10, -10, -10, -10, -10, -10, -10, -10, -10, -10, -10, -10, -10, -10, -10, -10, -10, -10, -10, -10, 50.5, 50.291664, 50.080357, 50.133926, 51.114582, 51.464287, -10, -10, -10, -10, -10, 56.888889, 57.422222, 57.785713, 58.1875, 58.5, 58.90625, 59.3125, 59.5625, 59.99107, 60.714882, 60.99107, 61.4375, 61.720238, 62.427776, -10, -10, -10, -10, -10, -10, 66.083336, 66.222221, 66.333336, 66.333336, 66.665176, 67.104172, 67.482147, 68.044647, 68.482147, 68.75, 69.1875, 69.625, 70.214287, 70.8125, 71.401787, 71.9375, 72.513397, 73.03125, 73.375, 73.625, 73.90625, 74.03125, 74.4375, 74.6875, 75.0625, 75.5625, 76.214287, 76.8125, 77.491074, 78.14286, 78.6875, 79.160713, 79.5625, 80.01786, 80.482147, 81.211304, 81.696426, 82.392853, 82.895088, 83.484375, 83.859375, 84.361603, 85.226196, 85.691963, 86.357147, 86.741074, 87.25, 87.84375, 88.439285, 89, 89.69445, -10, -10, -10, -10, -10, -10, -10, -10, -10, -10, -10, -10, -10, -10, -10, -10, -10, -10, -10, -10, -10, -10, -10, -10, -10, -10, -10, -10, -10, -10, -10, -10, -10, -10, -10, -10, -10, -10, -10, -10, -10, -10, -10, -10, -10, -10, -10, -10, -10, -10, -10, -10, -10, -10, -10, -10, -10, -10, -10, -10, -10, -10, -10, -10, -10, -10, -10, -10, -10, -10, -10, -10, -10, -10, -10, -10, -10, -10, -10, -10, -10, -10, -10, -10, -10, -10, -10, -10, -10, -10, -10, -10, -10, -10, -10, -10, -10, -10, -10, -10, 71.583336, 71.099998, 70.705353, 70.080353, 69.321426, 68.577377, 68, 67.5, 67, 66.4375, 65.955353, 65.011902, 64.434517, 63.946426, 63.5625, 63.071426, 62, 61.214287, 60.642857, 60.125, 59.383926, 58.526787, 57.821426, 57.3125, 56.665176, 56.075893, 55.438988, 54.736607, 54.125, 53.327381, 52.883926, 52.366074, 51.791668, 51.3125, 50.6875, 50.25, 49.767857, 49.232143, 48.419643, 47.785713, 47.125, 46.059525, 45.351189, 44.696426, 44.303574, 43.794643, 43.666668, 42.9375, 42.223213, 41.625, 41, 40.247025, 39.714287, 39.25, 38.8125, 38.1875, 37.410713, 36.714287, 36.026787, 35.154762, 34.589287, 34.125, 33.642857, 33.125, 32.330357, 31.75, 31.375, 30.857143, 29.733332, 29.011906, 28.392857, 27.875, 27.5, 27.0625, 26.553572, 25.979166, 25.5, 25.080357, 24.8125, 24.6875, 24.696428, 25.071428, 25.275, 25.523809, 25.375, 25.530611, 25.642857, 25.908163, 26.015306, 25.964285, 25.892857, 25.821428, 25.785715, 25.785715, 25.5625, 25.5, 25.5, 25.4375, 25.455357, 25.645834, 25.836735, 25.857143, 25.785715, 25.714285, 25.714285, 25.5, 25.4375, 25.4375, 25.5, 25.765306, 25.693878, 25.291666, 25.205357, 25.15625, 25.446428, 25.446428, 25.21875, 25.1875, 25.25, 25.464285, 25.464285, 25.5, 25.5, 25.5, 25.5, 25.571428, 25.25, 25.25, 25.25, 25.1875, 24.928572, 25.1875, 25.1875, 25.392857, 25.708334, 25.178572, 24.75, 24.821428, 24.785715, 25.1875, 25.116072, 25.194443, 25.178572, 25.166666, 25.208334, 25.25, 25.142857, 25.214285, 25.285715, 25.321428, 25.321428, 25.275511, 25.035715, 25.035715, 25.208334, 25.321428, 25.472221, 25.577379, 25.541666, 25.321428, 25.428572, 25.464285, 25.423471, 25.392857, 25.285715, 25.1875, 25.299999, 25.777779, -10, -10, -10, -10, -10, -10, -10, -10, -10, -10, -10, -10, -10, -10, -10, -10, -10, -10, -10, -10, -10, -10, -10, -10, 50.25, 50.404762, 50.4375, 50.354164, 50.1875, 50.267853, 50.90625, 51.095238, -10, -10, -10, -10, -10, -10, -10, 58.053574, 58.416668, 58.6875, 59.15625, 59.5, 59.8125, 60.223213, 60.929169, 61.30357, 61.75, 62.178574, 62.570831, 63.464287, 63.708336, -10, -10, -10, -10, -10, -10, -10, -10, 66.883926, 67.333336, 67.732147, 68.232147, 68.5625, 68.8125, 69.1875, 69.5625, 70.107147, 70.6875, 71.276787, 71.8125, 72.372772, 72.953125, 73.435272, 73.703125, 74.0625, 74.25, 74.5625, 74.8125, 75.151787, 75.607147, 76.169647, 76.625, 77.196426, 77.964294, 78.571426, 79.160713, 79.65625, 80.17411, 80.642853, 81.232147, 81.660713, 82.041664, 82.716522, 83.265625, 83.796875, 84.25, 85.023819, 85.827385, 86.333336, 86.75, 87.40625, 87.958336, 88.464294, 89, 89.708336, 90.314285, -10, -10, -10, -10, -10, -10, -10, -10, -10, -10, -10, -10, -10, -10, -10, -10, -10, -10, -10, -10, -10, -10, -10, -10, -10, -10, -10, -10, -10, -10, -10, -10, -10
-10, -10, -10, -10, -10, -10, -10, -10, -10, -10, -10, -10, -10, -10, -10, -10, -10, -10, -10, -10, -10, -10, -10, -10, -10, -10, -10, -10, -10, -10, -10, -10, -10, -10, 71.458336, 71.016663, 70.6875, 70.017853, 69.205353, 68.553574, 68, 67.5, 67, 66.375, 65.785713, 64.833328, 64.392853, 63.875, 63.5, 63.0625, 62.184525, 61.214287, 60.625, 60, 59.258926, 58.357143, 57.8125, 57.357143, 56.727676, 56.21875, 55.510418, 54.90625, 54.267857, 53.660713, 53.125, 52.5, 51.809525, 51.25, 50.5, 50.0625, 49.642857, 49.276787, 48.419643, 47.785713, 47.125, 46.059525, 45.351189, 44.613094, 44.196426, 43.794643, 43.5625, 43.071426, 42.330357, 41.75, 41.0625, 40.473213, 39.892857, 39.4375, 38.9375, 38.25, 37.357143, 36.607143, 35.964287, 35.208332, 34.696426, 34.125, 33.598213, 33.0625, 32.383926, 31.857143, 31.375, 30.75, 29.709522, 29.074406, 28.455357, 27.9375, 27.517857, 27.0625, 26.625, 26.3125, 26.0625, 25.830357, 25.964285, 25.75, 25.946428, 26.464285, 26.448978, 26.5, 26.25, 26.535715, 26.4375, 26.669643, 26.763393, 26.71875, 26.857143, 26.821428, 26.785715, 26.785715, 26.642857, 26.3125, 26.21875, 26.15625, 26.299107, 26.773809, 26.836735, 26.857143, 26.857143, 26.857143, 26.928572, 26.857143, 26.714285, 26.642857, 26.642857, 26.801022, 26.693878, 26.40476, 26.37755, 26.25, 26.125, 26.125, 26, 26.0625, 26.125, 26.125, 26.1875, 26.5, 26.693878, 26.714285, 26.142857, 26.214285, 26.035715, 26.035715, 26.3125, 26.1875, 26.666666, 26.464285, 26.5, 26.535715, 26.642857, 26.561224, 26.625, 26.583334, 26.416666, 26.142857, 26.078571, 25.952379, 26.020407, 26.051022, 26.178572, 26, 26, 26.0625, 26.125, 26.125, 26.125, 26.116072, 26.142857, 26.214285, 26.321428, 26.479593, 26.291666, 26.333334, 26.25, 26.5, 26.607143, 26.678572, 26.637756, 26.5, 26.285715, 26.285715, 26.392857, 26.564627, -10, -10, -10, -10, -10, -10, -10, -10, -10, -10, -10, -10, -10, -10, -10, -10, -10, -10, -10, -10, -10, -10, -10, 49.375, 50, 50.14484, 50.28125, 50.270832, 50.125, 50.196426, 50.572918, 50.888889, -10, -10, -10, -10, -10, -10, -10, 58.166668, 58.472225, 58.708332, 59.40625, 59.625, 59.9375, 60.3125, 60.979168, 61.535713, 61.9375, 62.375, 62.770832, 63.517857, 63.805557, 64.125, 64.166672, -10, -10, -10, -10, -10, -10, 67.071426, 67.5, 67.803574, 68.25, 68.5625, 68.8125, 69.125, 69.5, 69.919647, 70.392853, 71.098213, 71.633926, 72.232147, 72.84375, 73.388397, 73.71875, 74.15625, 74.4375, 74.71875, 75.03125, 75.245537, 75.575897, 76.0625, 76.482147, 77.008926, 77.732147, 78.383926, 79.035713, 79.575897, 80.138397, 80.625, 81.125, 81.473213, 81.809525, 82.625, 83.160713, 83.75, 84.160713, 84.708336, -10, -10, -10, 87.3125, 87.854172, 88.321434, 88.90625, 89.6875, 90.167854, 90.5, -10, -10, -10, -10, -10, -10, -10, -10, -10, -10, -10, -10, -10, -10, -10, -10, -10, -10, -10, -10, -10, -10, -10, -10, -10, -10, -10, -10, -10, -10, -10, -10, -10, -10, -10, -10, -10, -10, -10, -10, -10, -10, -10, -10, -10, -10, -10, -10, -10, -10, -10, -10, -10, -10, -10, -10, -10, -10, -10, -10, -10, -10, -10, -10, -10, -10, -10, -10, -10, -10, -10, -10, -10, -10, -10, -10, -10, -10, -10, -10, -10, -10, -10, -10, -10, -10, -10, -10, -10, -10, -10, -10, -10, -10, -10, -10, -10, -10, 71.458336, 71.016663, 70.6875, 69.872025, 69.205353, 68.598213, 68.0625, 67.517853, 67, 66.4375, 65.892853, 64.958328, 64.517853, 63.9375, 63.517857, 63.0625, 62.392857, 61.464287, 60.666668, 60, 59.321426, 58.535713, 58.044643, 57.607143, 56.946426, 56.32143, 55.5625, 54.708332, 54.089283, 53.473213, 53, 52.4375, 51.747025, 51.1875, 50.392857, 49.9375, 49.580357, 49.32143, 48.49107, 47.892857, 47.1875, 46.285713, 45.529762, 44.738094, 44.276787, 43.830357, 43.5, 43, 42.392857, 41.785713, 41.125, 40.535713, 40, 39.5, 39, 38.25, 37.357143, 36.607143, 35.955357, 35.392857, 34.875, 34.1875, 33.482143, 32.892857, 32.375, 31.901787, 31.375, 30.714285, 29.709522, 29.020834, 28.625, 28.125, 27.799107, 27.46875, 27.15625, 26.96875, 26.9375, 27.142857, 27.178572, 27.583334, 27.474489, 27.75, 27.663265, 27.458334, 27.071428, 27.375, 27.4375, 27.5, 27.59375, 27.821428, 27.821428, 27.821428, 27.785715, 27.714285, 27.3125, 27.1875, 27.09375, 27.09375, 27.299107, 27.552084, 27.836735, 27.857143, 27.857143, 27.857143, 27.928572, 27.892857, 27.785715, 27.714285, 27.607143, 27.482143, 27.4375, 27.375, 27.375, 26.928572, 26.892857, 27.125, 26.9375, 26.9375, 27.017857, 26.904764, 27.102041, 27.25, 27.908163, 27.857143, 27.916666, 27.875, 27.708334, 27.708334, 27.535715, 27.428572, 27.5, 27.535715, 27.571428, 27.678572, 27.785715, 27.7449, 27.642857, 27.571428, 27.321428, 27.341837, 27.314285, 26.714285, 26.867346, 26.908163, 27.25, 27.523809, 27, 26.9375, 26.9375, 27.107143, 27.178572, 27.321428, 27.357143, 27.1875, 27.3125, 27.419643, 27.678572, 27.678572, 27.833334, 27.535715, 27.535715, 27.535715, 27.423471, 27.392857, 27.357143, 27.586735, 27.678572, 27.802721, 28.791668, -10, -10, -10, -10, -10, -10, -10, -10, -10, -10, -10, -10, -10, -10, -10, -10, -10, -10, -10, -10, -10, -10, 49.383331, 50, 50.108631, 50.21875, 50.1875, 50.0625, 50.125, 50.375, -10, -10, -10, -10, -10, -10, -10, -10, -10, -10, -10, 59.65625, 59.895832, 60.1875, 60.5, 61, 61.544643, 62.044643, 62.5, 63, 63.575893, 63.961311, 64.25, 64.361115, -10, -10, -10, -10, -10, -10, 67.333336, 67.55555, 67.833336, 68.4375, 68.6875, 68.875, 69.125, 69.4375, 69.848213, 70.413696, 71.0625, 71.571426, 72.107147, 72.71875, 73.263397, 73.65625, 74.09375, 74.453125, 74.78125, 75.21875, 75.40625, 75.640625, 76.0625, 76.502975, 76.892853, 77.5625, 78.196426, 78.848213, 79.388397, 79.96875, 80.482147, 81, 81.379463, 81.715775, 82.5625, 83.035713, 83.65625, 84.0625, 84.424995, -10, -10, -10, 87.28125, 87.750008, 88.089287, 88.65625, 89.520836, 90.125893, 90.5, -10, -10, -10, -10, -10, -10, -10, -10, -10, -10, -10, -10, -10, -10, -10, -10, -10, -10, -10, -10, -10, -10, -10, -10, -10, -10, -10, -10, -10, -10, -10, -10
-10, -10, -10, -10, -10, -10, -10, -10, -10, -10, -10, -10, -10, -10, -10, -10, -10, -10, -10, -10, -10, -10, -10, -10, -10, -10, -10, -10, -10, -10, -10, -10, -10, -10, 71.291664, 71.041664, 70.6875, 69.726189, 69.133926, 68.580353, 68.0625, 67.517853, 67, 66.4375, 65.892853, 65.166664, 64.696426, 64.0625, 63.464287, 62.955357, 62.330357, 61.517857, 60.773811, 60.0625, 59.330357, 58.607143, 58.080357, 57.5625, 57.089287, 56.517857, 55.75, 54.645832, 53.955357, 53.330357, 52.875, 52.3125, 51.622025, 51.0625, 50.267857, 49.875, 49.5625, 49.32143, 48.55357, 48, 47.3125, 46.619045, 45.770832, 44.872025, 44.35714, 43.9375, 43.5625, 43.0625, 42.455357, 41.892857, 41.1875, 40.482143, 39.892857, 39.4375, 38.928574, 38.104168, 37.357143, 36.723213, 36.125, 35.535713, 35.0625, 34.366074, 33.523808, 32.892857, 32.375, 31.830357, 31.25, 30.589285, 29.872023, 29.375, 29, 28.625, 28.236607, 28.03125, 28.12755, 28.309525, 28.525511, 28.596939, 28.369047, 28.556122, 28.612246, 28.785715, 28.734694, 29.041666, 28.875, 28.607143, 28.566328, 28.375, 28.46875, 28.53125, 28.59375, 28.53125, 28.4375, 28.375, 28.1875, 28.125, 28.321428, 28.357143, 28.545918, 28.552084, 28.669643, 28.6875, 28.6875, 28.857143, 28.857143, 28.857143, 28.785715, 28.785715, 28.4375, 28.375, 28.330357, 28.59524, 28.551022, 28.666666, 28.541666, 28.357143, 28.285715, 28.285715, 28.142857, 28.736113, 28.904762, 29.083334, 29.051022, 29, 28.821428, 28.642857, 28.428572, 28.392857, 28.5, 28.535715, 28.473213, 28.4375, 28.330357, 28.5, 28.375, 28.375, 28.455357, 28.607143, 28.491072, 28.398809, 28.366667, 28.791666, 28.797621, 28.595238, 28.428572, 28.306122, 28.25, 27.979166, 27.979166, 28.0625, 28.428572, 28.464285, 28.5, 28.5, 28.571428, 28.607143, 28.678572, 28.678572, 28.607143, 28.5, 28.25, 28.3125, 28.051022, 28.035715, 28.535715, 28.693878, 28.785715, 28.826529, 29.027779, 29.25, 29.166668, -10, -10, -10, -10, -10, -10, -10, -10, -10, -10, -10, -10, -10, -10, -10, -10, -10, -10, -10, 49, 49.662498, 49.958332, 50.004463, 50.15625, 50.0625, 50.0625, 50.145832, -10, -10, -10, -10, -10, -10, -10, -10, -10, -10, -10, -10, 59.875, 60.020832, 60.3125, 60.625, 61.205357, 61.71875, 62.263393, 62.65625, 63.125, 63.59375, 64.044647, 64.25, 64.395836, 64.666664, -10, -10, -10, -10, -10, -10, -10, -10, 68.8125, 68.916664, 69.03125, 69.1875, 69.3125, 69.669647, 70.434525, 71, 71.508926, 71.875, 72.46875, 73.075897, 73.575897, 73.96875, 74.40625, 74.78125, 75.28125, 75.46875, 75.625, 75.991074, 76.477982, 76.788696, 77.669647, 78.071426, 78.6875, 79.232147, 79.84375, 80.388397, 80.90625, 81.254463, 81.622025, 82.482147, 82.910713, 83.4375, 83.790176, 84.299995, -10, -10, -10, 87.15625, 87.593758, 87.870537, 88.4375, 89.270836, 90.004471, 90.410713, 90.5, -10, -10, -10, -10, -10, -10, -10, -10, -10, -10, -10, -10, -10, -10, -10, -10, -10, -10, -10, -10, -10, -10, -10, -10, -10, -10, -10, -10, -10, -10, -10, -10, -10, -10, -10, -10, -10, -10, -10, -10, -10, -10, -10, -10, -10, -10, -10, -10, -10, -10, -10, -10, -10, -10, -10, -10, -10, -10, -10, -10, -10, -10, -10, -10, -10, -10, -10, -10, -10, -10, -10, -10, -10, -10, -10, -10, -10, -10, -10, -10, -10, -10, -10, -10, -10, -10, -10, -10, -10, -10, -10, -10, -10, -10, -10, -10, 72, 71.416664, 71.208336, 70.875, 69.75, 69.205353, 68.642853, 68.1875, 67.642853, 67.0625, 66.455353, 65.955353, 65.428574, 64.791664, 64.125, 63.401787, 62.848213, 62.330357, 61.5625, 60.898811, 60.25, 59.342262, 58.714283, 58.1875, 57.5625, 56.982143, 56.339283, 55.645832, 54.467262, 53.785713, 53.1875, 52.6875, 52.133926, 51.580357, 51.125, 50.455357, 50.0625, 49.6875, 49.276787, 48.55357, 48, 47.375, 46.785713, 46.1875, 45.300594, 44.523811, 44, 43.5625, 43.0625, 42.455357, 41.892857, 41.1875, 40.410713, 39.785713, 39.375, 38.866074, 38.104168, 37.428574, 36.830357, 36.1875, 35.553574, 35.125, 34.482143, 33.547619, 32.892857, 32.375, 31.830357, 31.1875, 30.482141, 30.017857, 29.625, 29.446428, 29.375, 29.111607, 29.083334, 29.413265, 29.630953, 29.811224, 29.775511, 29.229166, 29.330357, 29.3125, 29.3125, 29.510204, 29.642857, 29.642857, 29.607143, 29.401787, 29.375, 29.375, 29.375, 29.571428, 29.25, 29.1875, 29.1875, 29.125, 29.5, 29.553572, 29.625, 29.732143, 29.696428, 29.785715, 29.785715, 29.821428, 29.5625, 29.589287, 29.660713, 29.5625, 29.625, 29.714285, 29.714285, 29.698978, 29.809525, 29.693878, 29.678572, 29.576529, 29.413265, 29.295918, 29.260204, 29.579931, 29.824831, 29.989796, 30.035715, 29.825893, 29.78125, 29.65625, 29.53125, 29.375, 29.25, 29.3125, 29.3125, 29.612244, 29.571428, 29.205357, 29.125, 29.125, 29.1875, 29.330357, 29.801022, 29.775511, 30.053572, 30.058334, 29.857143, 29.969389, 29.553572, 29.285715, 29.12755, 29.571428, 29.833334, 29.75, 29.791666, 29.607143, 29.607143, 29.642857, 29.571428, 29.535715, 29.5, 29.3125, 29.3125, 29.25, 29.125, 29.125, 29.1875, 29.469387, 29.75, 29.642857, 29.765306, 29.821428, 29.598213, 29.458334, 29.583334, 29.396826, -10, -10, -10, -10, -10, -10, -10, -10, -10, -10, -10, -10, -10, -10, -10, -10, -10, -10, -10, -10, 49.716663, 49.944443, 49.96875, 50.177082, 50.125, 50.229168, 50.111111, -10, -10, -10, -10, -10, -10, -10, -10, -10, -10, -10, -10, 60, 60.083332, 60.25, 60.571426, 61.288689, 61.772324, 62.325893, 62.65625, 63.125, 63.59375, 64.044647, 64.3125, 64.520836, 64.666664, -10, -10, -10, -10, -10, -10, -10, -10, 69.0625, 69.0625, 69.15625, 69.3125, 69.544647, 69.857147, 70.497025, 70.9375, 71.383926, 71.803574, 72.388397, 72.96875, 73.513397, 73.90625, 74.4375, 74.875, 75.375, 75.5625, 75.75, 76.053574, 76.602982, 76.967262, 77.741074, 78.0625, 78.625, 79.107147, 79.75, 80.294647, 80.8125, 81.1875, 81.642853, 82.3125, 82.76786, 83.21875, 83.665176, 84.247917, 85.008926, 85.625, 86.1875, 86.84375, 87.296135, 87.620537, 88.1875, 88.940475, 89.584824, 90.065475, 90.333336, -10, -10, -10, -10, -10, -10, -10, -10, -10, -10, -10, -10, -10, -10, -10, -10, -10, -10, -10, -10, -10, -10, -10, -10, -10, -10, -10, -10, -10, -10, -10
-10, -10, -10, -10, -10, -10, -10, -10, -10, -10, -10, -10, -10, -10, -10, -10, -10, -10, -10, -10, -10, -10, -10, -10, -10, -10, -10, -10, -10, -10, -10, -10, -10, -10, 71.541664, 71.291672, 70.892853, 69.75, 69.205353, 68.642853, 68.25, 67.767853, 67.241074, 66.559525, 66.0625, 65.616074, 65.023804, 64.196426, 63.38393, 62.67857, 62.25, 61.741074, 61.041668, 60.5, 59.529762, 58.779758, 58.125, 57.4375, 56.741074, 56.089283, 55.395832, 54.217262, 53.535713, 53, 52.5625, 52.1875, 51.6875, 51.25, 50.705357, 50.25, 49.8125, 49.232143, 48.55357, 48, 47.375, 46.785713, 46.1875, 45.446426, 44.595238, 44, 43.5, 43, 42.3125, 41.830357, 41.125, 40.339287, 39.67857, 39.25, 38.741074, 38.104168, 37.544643, 37, 36.330357, 35.678574, 35.25, 34.669643, 33.57143, 32.964287, 32.4375, 31.892857, 31.267857, 30.660713, 30.25, 29.875, 29.830357, 30.34524, 30.364796, 30.8125, 30.609694, 30.898809, 30.9949, 30.841837, 30.511904, 30.142857, 30.1875, 30.1875, 30.1875, 30.3125, 30.25, 30.1875, 30.336735, 30.392857, 30.464285, 30.3125, 30.3125, 30.1875, 30.0625, 30.0625, 30.357143, 30.571428, 30.714285, 30.678572, 30.714285, 30.571428, 30.642857, 30.714285, 30.714285, 30.4375, 30.464287, 30.7551, 30.714285, 30.857143, 30.75, 30.785715, 30.795918, 30.833334, 30.544643, 30.5625, 30.535713, 30.424107, 30.063776, 29.992346, 30.784014, 30.955782, 30.866072, 30.875, 30.78125, 30.65625, 30.678572, 30.464285, 30.357143, 30.125, 30.357143, 30.678572, 30.790815, 30.678572, 30.205357, 30.125, 30.0625, 30.125, 30.267857, 30.693878, 30.811224, 30.892857, 30.892857, 31, 31, 31.095238, 31.125, 30.928572, 30.714285, 30.75, 30.678572, 30.714285, 30.714285, 30.678572, 30.714285, 30.375, 30.339287, 30.112244, 30.017857, 30.053572, 29.946428, 29.785715, 30.0625, 30.392857, 30.540815, 30.607143, 30.607143, 30.419643, 30.4375, 30.375, 30.25, 30.125, 29.985119, 30.666666, 31.214287, 31.333332, -10, -10, -10, -10, -10, -10, -10, -10, -10, -10, -10, -10, -10, -10, -10, -10, -10, -10, -10, 50.0625, 50.291664, 50.25, 50.395836, -10, -10, -10, -10, -10, -10, -10, -10, -10, -10, -10, -10, -10, 60, 60.166664, 60.375, 60.80357, 61.476189, 61.897324, 62.388393, 62.65625, 63.0625, 63.5, 63.982143, 64.357147, 64.6875, 64.9375, -10, -10, -10, -10, -10, -10, -10, -10, 69.1875, 69.208336, 69.3125, 69.59375, 69.888397, 70.263397, 70.791672, 70.973213, 71.419647, 71.732147, 72.294647, 72.875, 73.464287, 73.84375, 74.40625, 74.875, 75.40625, 75.75, 76, 76.272324, 76.808334, 77.154762, 77.901787, 78.125, 78.5625, 78.928574, 79.791664, 80.348213, 80.8125, 81.125, 81.5, 81.991074, 82.565475, 83.0625, 83.748512, 84.384819, 85.047615, 85.541664, 86.083336, 86.8125, 87.319946, 87.625, 88.09375, 88.752975, 89.303574, 89.70089, 90.107147, -10, -10, -10, -10, -10, -10, -10, -10, -10, -10, -10, -10, -10, -10, -10, -10, -10, -10, -10, -10, -10, -10, -10, -10, -10, -10, -10, -10, -10, -10, -10, -10, -10, -10, -10, -10, -10, -10, -10, -10, -10, -10, -10, -10, -10, -10, -10, -10, -10, -10, -10, -10, -10, -10, -10, -10, -10, -10, -10, -10, -10, -10, -10, -10, -10, -10, -10, -10, -10, -10, -10, -10, -10, -10, -10, -10, -10, -10, -10, -10, -10, -10, -10, -10, -10, -10, -10, -10, -10, -10, -10, -10, -10, -10, -10, -10, -10, 71.541664, 71.208336, 70.726196, 69.541664, 68.955353, 68.455353, 68.125, 67.75, 67.241074, 66.559525, 66.0625, 65.616074, 65.023804, 64.196426, 63.3125, 62.642857, 62.232143, 61.5625, 61.053574, 60.5, 59.529762, 58.779758, 58.0625, 57.330357, 56.741074, 56.160713, 55.3125, 54.29464, 53.589287, 53.125, 52.6875, 52.3125, 51.8125, 51.330357, 50.875, 50.4375, 49.9375, 49.196426, 48.55357, 48, 47.375, 46.785713, 46.1875, 45.446426, 44.595238, 44.0625, 43.5625, 43.125, 42.5, 41.854168, 41.125, 40.339287, 39.67857, 39.1875, 38.63393, 38.041668, 37.526787, 37, 36.330357, 35.678574, 35.25, 34.669643, 33.64286, 33.133926, 32.625, 32.142857, 31.642857, 31.205357, 30.678572, 30.428572, 30.448978, 31.208334, 31.454082, 31.607143, 31.545918, 31.552084, 31.620537, 31.486607, 31.47279, 31.184525, 31.392857, 31.15625, 31.09375, 31.125, 31.0625, 31.125, 31.125, 31.1875, 31.3125, 31.535715, 31.241072, 31.164286, 31.204082, 31.275511, 31.5, 31.678572, 31.857143, 31.5625, 31.5625, 31.4375, 31.4375, 31.5, 31.5, 31.714285, 31.780613, 31.862244, 31.821428, 31.857143, 31.785715, 31.857143, 31.857143, 31.821428, 31.642857, 31.642857, 31.683672, 31.663265, 32.005951, 32.005951, 31.988096, 31.979593, 31.857143, 31.821428, 31.59375, 31.53125, 31.46875, 31.28125, 31.464285, 31.428572, 31.658163, 31.75, 31.734694, 31.571428, 31.295918, 31.107143, 31.035715, 31.107143, 31.224489, 31.232143, 31.428572, 31.5, 31.5, 31.625, 31.5625, 31.867346, 32.07143, 32.07143, 31.8125, 31.84375, 31.71875, 31.65625, 31.5625, 31.714285, 31.714285, 31.375, 31.339287, 31.803572, 31.708334, 31.791666, 31.583334, 31.5, 31.357143, 31.535715, 31.535713, 31.5, 31.330357, 31.1875, 31.1875, 31.1875, 31.357143, 31.214285, 31.006804, 31.6, 31.476191, 31.638887, -10, -10, -10, -10, -10, -10, -10, -10, -10, -10, -10, -10, -10, -10, -10, -10, -10, -10, -10, 50.1875, 50.395832, 50.4375, 50.645836, -10, -10, -10, -10, -10, -10, -10, -10, -10, -10, -10, -10, -10, 60, 60.111111, 60.5, 60.86607, 61.476189, 61.897324, 62.388393, 62.71875, 63.0625, 63.4375, 63.875, 64.339287, 64.75, 65.208328, 66.285721, 66.625, 66.875, 67, -10, -10, -10, -10, 69.25, 69.277779, 69.8125, 70.03125, 70.325897, 70.584824, 70.895836, 71.026787, 71.419647, 71.732147, 72.169647, 72.696426, 73.422623, 73.90625, 74.390625, 74.830353, 75.450897, 75.839287, 76.171875, 76.459824, 76.912498, 77.248512, 77.933037, 78.1875, 78.5625, 78.928574, 79.9375, 80.419647, 80.8125, 81.0625, 81.3125, 81.758926, 82.485123, 82.928574, 83.632439, 84.418159, 84.964287, 85.40625, 85.8125, 86.3125, 87.045914, 87.583336, 88.129463, 88.669647, 89.178574, 89.57589, 90.273819, 91.357147, 91.699997, -10, -10, -10, -10, -10, -10, -10, -10, -10, -10, -10, -10, -10, -10, -10, -10, -10, -10, -10, -10, -10, -10, -10, -10, -10, -10, -10, -10, -10
-10, -10, -10, -10, -10, -10, -10, -10, -10, -10, -10, -10, -10, -10, -10, -10, -10, -10, -10, -10, -10, -10, -10, -10, -10, -10, -10, -10, -10, -10, -10, -10, -10, -10, 71.375, 71, 70.601196, 69.6875, 69.133926, 68.497025, 68.196426, 67.8125, 67.303574, 66.577377, 66.0625, 65.616074, 65.023804, 64.196426, 63.3125, 62.642857, 62.232143, 61.5, 60.875, 60.330357, 59.520832, 58.815475, 57.979168, 57.339287, 56.776787, 56.285713, 55.491074, 54.502975, 53.839287, 53.375, 52.9375, 52.5625, 52, 51.473213, 51.0625, 50.625, 50.125, 49.267857, 48.57143, 48, 47.375, 46.785713, 46.1875, 45.446426, 44.595238, 44.0625, 43.5625, 43.125, 42.291668, 41.675594, 41, 40.392857, 39.785713, 39.25, 38.705357, 38.1875, 37.598213, 37.0625, 36.330357, 35.678574, 35.1875, 34.553574, 33.619049, 33.196426, 32.8125, 32.5, 32.142857, 32.010204, 32.041668, 32.136906, 32.484131, 32.559525, 32.45982, 32.53125, 32.40625, 32.46875, 32.441963, 32.308037, 32.330357, 32.547619, 32.57143, 32.464287, 32.25, 32.17857, 32, 32.035713, 32, 32.125, 32.57143, 32.67857, 32.561226, 31.807142, 32.454082, 32.525509, 32.714287, 32.59375, 32.857143, 32.75, 32.75, 32.642857, 32.57143, 32.642857, 32.642857, 32.75, 32.836735, 32.877552, 32.857143, 32.625, 32.5, 32.5, 32.517857, 32.575001, 32.392857, 32.5, 32.473213, 32.760204, 32.862247, 32.790817, 32.869045, 32.669643, 32.5625, 32.5, 32.375, 32.25, 32.42857, 32.5, 32.693878, 32.82143, 33.0051, 32.82143, 32.75, 32.3125, 32.1875, 32, 31.875, 31.875, 31.9375, 32, 32.1875, 32.25, 32.25, 32.4375, 32.5, 32.6875, 32.875, 33.035713, 33.25, 32.964287, 32.857143, 32.714287, 32.67347, 32.714287, 32.619049, 32.811226, 32.724491, 32.831631, 32.607143, 32.535713, 32.32143, 32.285713, 32.464287, 32.765308, 32.964287, 32.857143, 32.392857, 32, 32.223213, 32.214287, 32.382652, 31.984694, 31.857143, 31.857143, 31.794643, 32.050594, 33, -10, -10, -10, -10, -10, -10, -10, -10, -10, -10, -10, -10, -10, -10, -10, -10, -10, -10, 50.517857, 50.645832, 50.6875, 50.770836, -10, -10, -10, -10, -10, -10, -10, -10, -10, -10, -10, -10, -10, -10, -10, 60.583332, 60.904758, 61.458332, 61.866074, 62.339287, 62.75, 63.125, 63.53125, 63.96875, 64.433037, 64.90625, 65.416664, 66.10714, 66.5, 66.75, 67, 67.75, 68.199997, -10, -10, -10, -10, 70.041664, 70.291664, 70.888397, 71.072914, 71.125, 71.276787, 71.544647, 71.857147, 72.232147, 72.696426, 73.458328, 74, 74.5, 74.955353, 75.544647, 75.995537, 76.4375, 76.78125, 77.1875, 77.602676, 78.004463, 78.25, 78.625, 78.928574, 79.674103, 80.096725, 80.65625, 80.995537, 81.25, 81.651787, 82.422623, 82.928574, 83.686012, 84.293159, 84.866074, 85.223213, 85.59375, 86.09375, 86.571426, 87.534225, 88.098213, 88.607147, 89, 89.415176, 90.190475, 91.349205, 91.704765, -10, -10, -10, -10, -10, -10, -10, -10, -10, -10, -10, -10, -10, -10, -10, -10, -10, -10, -10, -10, -10, -10, -10, -10, -10, -10, -10, -10, -10, -10, -10, -10, -10, -10, -10, -10, -10, -10, -10, -10, -10, -10, -10, -10, -10, -10, -10, -10, -10, -10, -10, -10, -10, -10, -10, -10, -10, -10, -10, -10, -10, -10, -10, -10, -10, -10, -10, -10, -10, -10, -10, -10, -10, -10, -10, -10, -10, -10, -10, -10, -10, -10, -10, -10, -10, -10, -10, -10, -10, -10, -10, -10, -10, -10, -10, 71.375, 71, 70.601196, 69.833336, 69.205353, 68.559525, 68.196426, 67.8125, 67.303574, 66.577377, 66, 65.5, 65, 64.196426, 63.32143, 62.541668, 62.098213, 61.133926, 60.428574, 59.892857, 59.4375, 58.824406, 58.104168, 57.526787, 56.800598, 56.357143, 55.616074, 54.744049, 54.089287, 53.625, 53.1875, 52.8125, 52.1875, 51.482143, 51.017857, 50.5, 50, 49.205357, 48.55357, 48, 47.375, 46.785713, 46.125, 45.339287, 44.67857, 44.125, 43.580357, 43.125, 42.083336, 41.497025, 40.875, 40.446426, 39.892857, 39.3125, 38.767857, 38.1875, 37.526787, 36.955357, 36.330357, 35.723213, 35.1875, 34.517857, 33.764881, 33.508926, 33.3125, 33.1875, 32.806122, 32.964283, 33, 33.095238, 33.59864, 33.613945, 33.637753, 33.535713, 33.535713, 33.40625, 33.379463, 33.515308, 33.591835, 33.690479, 33.785713, 33.719387, 33.459187, 33.392857, 33.142857, 32.916668, 33.041668, 33.464287, 33.714287, 33.82143, 33.668369, 33.741665, 33.704082, 33.811226, 34, 34.07143, 34.035713, 33.892857, 33.82143, 33.714287, 33.642857, 33.67857, 33.67857, 33.785713, 33.625, 33.625, 33.625, 33.5625, 33.4375, 33.375, 33.392857, 33.450001, 33.330357, 33.642857, 33.4375, 33.53125, 33.65625, 33.59375, 33.46875, 33.4375, 33.25, 33.294643, 33.238094, 33.142857, 33.142857, 33.714287, 33.836735, 33.892857, 33.979591, 33.5625, 33.4375, 33.25, 33.357143, 33.125, 33, 32.875, 32.8125, 32.92857, 33.17857, 33.32143, 33.392857, 33.57143, 33.57143, 33.714287, 33.785713, 33.785713, 33.857143, 33.785713, 33.785713, 33.5, 33.464287, 33.714287, 33.416668, 33.882652, 33.816326, 33.897957, 33.59375, 33.504463, 33.245537, 33.25, 33.3125, 33.836735, 34, 33.82143, 33.520409, 33.625, 33.362244, 33.42347, 33.489796, 32.663265, 32.591835, 32.57143, 32.642857, 33.196426, 34.299999, 34.924999, -10, -10, -10, -10, -10, -10, -10, -10, -10, -10, -10, -10, -10, 52, 52, 52.224998, 51.875, 50.910713, 50.875, 50.8125, 50.791668, 50.583336, -10, -10, -10, -10, -10, -10, -10, -10, -10, -10, -10, -10, -10, -10, -10, -10, 61.625, 62.020832, 62.464287, 62.982143, 63.328125, 63.703125, 64.140625, 64.542412, 65, 65.5625, 66.017853, 66.482147, 66.8125, 67.15625, 67.875, 68.299995, -10, -10, -10, -10, -10, -10, 71.041664, 71.260414, 71.354164, 71.526787, 71.732147, 71.928574, 72.1875, 72.633926, 73.511902, 74.107147, 74.53125, 74.986603, 75.513397, 75.964287, 76.4375, 76.84375, 77.357147, 77.71875, 78.066963, 78.3125, 78.625, 78.928574, 79.517853, 79.877975, 80.428574, 81.068451, 81.366074, 81.776787, 82.440475, 82.928574, 83.654762, 84.261909, 84.772324, 85.129463, 85.46875, 85.90625, 86.580353, 87.516373, 88.098213, 88.625, 89.0625, 89.53125, 90.297623, 91.199402, 91.559822, 91.583328, -10, -10, -10, -10, -10, -10, -10, -10, -10, -10, -10, -10, -10, -10, -10, -10, -10, -10, -10, -10, -10, -10, -10, -10, -10, -10, -10, -10
-10, -10, -10, -10, -10, -10, -10, -10, -10, -10, -10, -10, -10, -10, -10, -10, -10, -10, -10, -10, -10, -10, -10, -10, -10, -10, -10, -10, -10, -10, -10, -10, -10, -10, 71.375, 71, 70.601196, 69.833336, 69.205353, 68.559525, 68.196426, 67.75, 67.1875, 66.553574, 66, 65.375, 64.785713, 64.125, 63.339287, 62.773811, 62.285713, 61.105354, 60.220242, 59.526787, 59.1875, 58.803574, 58.166668, 57.607143, 56.979168, 56.589287, 55.928574, 55.119049, 54.51786, 53.770832, 53.25, 52.8125, 52.1875, 51.419643, 50.910713, 50.4375, 49.9375, 49.205357, 48.55357, 48, 47.375, 46.785713, 46.125, 45.401787, 44.785713, 44.1875, 43.526787, 42.946426, 41.976192, 41.372025, 40.8125, 40.5, 40, 39.375, 38.785713, 38.125, 37.401787, 36.785713, 36.25, 35.723213, 35.241074, 34.517857, 34.098213, 33.875, 33.875, 34.107143, 34.458332, 34.636906, 34.958332, 34.964283, 34.914967, 34.558037, 34.785713, 34.67857, 34.625, 34.706631, 34.796429, 34.543369, 34.489796, 34.354168, 34.660713, 34.504463, 34.370537, 34.5, 34.32143, 34.625, 34.75, 34.535713, 34.57143, 34.619049, 34.697277, 34.671429, 34.887756, 34.92347, 35.035713, 35.17857, 35.07143, 34.964287, 34.892857, 34.5, 34.642857, 34.642857, 34.714287, 34.625, 34.625, 34.625, 34.5625, 34.714287, 34.642857, 34.57143, 34.591835, 34.657143, 34.556122, 34.67857, 34.607143, 34.4375, 34.5625, 34.5, 34.4375, 34.375, 33.964287, 34.051022, 35.097225, 35.166668, 35.125, 34.785713, 34.908165, 34.92857, 34.918369, 34.4375, 34.3125, 34.357143, 34.32143, 34.214287, 34.107143, 34.035713, 34.035713, 34.107143, 34.32143, 34.464287, 34.535713, 34.642857, 34.642857, 34.642857, 34.375, 34.276787, 34.375, 34.419643, 34.5, 34.5, 34.67347, 34.714287, 34.619049, 34.989796, 34.908165, 34.92857, 34.857143, 34.540813, 34.352043, 34.392857, 34.464287, 34.836735, 34.75, 34.625, 34.455357, 34.5, 34.422619, 34.494049, 34.801022, 34.400791, 34.232143, 34.166668, 34.291668, 34.403061, 34.785713, 35.283333, 35.625, 35.5, -10, -10, -10, -10, -10, -10, -10, -10, -10, -10, -10, -10, 52, 52.224998, 51.875, 51.160713, 51.041668, 50.9375, 50.875, 50.722225, 50.666664, -10, -10, -10, -10, -10, -10, -10, -10, -10, -10, -10, -10, -10, -10, -10, 61.583332, 62.027775, 62.535717, 63.357143, 63.682289, 63.984375, 64.359375, 64.654022, 65, 65.446426, 65.994049, 66.544647, 66.9375, 67.40625, 68.03125, 68.391663, -10, -10, -10, -10, -10, -10, -10, 71.541664, 71.708328, 71.90625, 72.03125, 72.21875, 72.375, 72.696426, 73.404762, 73.959824, 74.520836, 75.017853, 75.513397, 75.933037, 76.34375, 76.767853, 77.401787, 77.745537, 78.09375, 78.375, 78.6875, 78.96875, 79.288689, 79.574402, 80.178574, 81.151787, 81.544647, 82.017853, 82.482147, 82.928574, 83.446426, 84.020836, 84.553574, 84.973213, 85.428574, 85.857147, 86.473213, 87.422623, 88.035713, 88.625, 89.125, 89.6875, 90.440475, 91.136902, 91.495537, 91.472221, -10, -10, -10, -10, -10, -10, -10, -10, -10, -10, -10, -10, -10, -10, -10, -10, -10, -10, -10, -10, -10, -10, -10, -10, -10, -10, -10, -10, -10, -10, -10, -10, -10, -10, -10, -10, -10, -10, -10, -10, -10, -10, -10, -10, -10, -10, -10, -10, -10, -10, -10, -10, -10, -10, -10, -10, -10, -10, -10, -10, -10, -10, -10, -10, -10, -10, -10, -10, -10, -10, -10, -10, -10, -10, -10, -10, -10, -10, -10, -10, -10, -10, -10, -10, -10, -10, -10, -10, -10, -10, -10, -10, -10, -10, 71.583336, 71.099998, 70.767853, 70.1875, 69.455353, 68.702377, 68.321426, 67.8125, 67.25, 66.5, 65.821426, 65.142853, 64.598213, 64.0625, 63.455357, 62.872025, 62.25, 61.176788, 60.291668, 59.443451, 59.133926, 58.741074, 58.229168, 57.714283, 57.041668, 56.696426, 56.303574, 55.583332, 54.809525, 53.958332, 53.3125, 52.767857, 52.125, 51.339287, 50.74107, 50.3125, 49.8125, 49.196426, 48.55357, 48.0625, 47.491074, 46.809525, 46.125, 45.464287, 44.892857, 44.1875, 43.410713, 42.642853, 41.619049, 41.267857, 40.75, 40.4375, 39.892857, 39.3125, 38.705357, 38.017857, 37.339287, 36.723213, 36.3125, 35.955357, 35.616074, 35.142857, 34.892857, 34.6875, 34.92857, 35, 35.214287, 35.367348, 35.642857, 35.612244, 35.676872, 35.6199, 35.53125, 35.80357, 35.857143, 36.010204, 36.135715, 35.584824, 35.450893, 35.34375, 35.5, 35.688774, 35.479591, 35.403061, 35.285713, 35.42857, 35.607143, 35.642857, 35.375, 35.416668, 35.520832, 35.5625, 35.892857, 35.71875, 35.78125, 35.90625, 36.017857, 35.92857, 35.857143, 35.4375, 35.4375, 35.4375, 35.714287, 35.857143, 35.82653, 35.7449, 35.714287, 35.642857, 35.67857, 35.642857, 35.581631, 35.614285, 35.510204, 35.5, 35.464287, 35.42857, 35.5, 35.535713, 35.607143, 35.607143, 35.833332, 35.94643, 35.976192, 36.035713, 35.964287, 35.82143, 35.607143, 35.5625, 35.553574, 35.5, 35.5, 35.392857, 35.1875, 35.125, 35.03125, 35.285713, 35.285713, 35.392857, 35.535713, 35.642857, 35.714287, 35.714287, 35.642857, 35.258926, 34.708332, 34.505955, 34.708332, 34.910713, 35.125, 35.464287, 35.551022, 35.642857, 35.666668, 35.741074, 35.669643, 35.6875, 35.857143, 35.612244, 35.4949, 35.535713, 35.464287, 35.544643, 35.625, 35.5625, 35.5625, 36, 36.023808, 36.059525, 35.770409, 35.236393, 35.142857, 35.285713, 35.392857, 35.683674, 35.645832, 35.712502, 36.083332, 36, -10, -10, -10, -10, -10, -10, -10, -10, -10, -10, -10, -10, -10, -10, -10, 51.223213, 51.083332, 50.96875, 50.875, 50.791668, 50.777775, -10, -10, -10, -10, -10, -10, -10, -10, -10, -10, -10, -10, -10, -10, -10, -10, -10, -10, 63.607143, 63.953125, 64.234375, 64.484375, 64.734375, 64.9375, 65.258926, 66.041672, 66.669647, 67.125, 67.65625, 68.21875, 68.591667, -10, -10, -10, -10, -10, -10, -10, 71.722221, 71.861107, 72.041664, 72.34375, 72.46875, 72.625, 72.875, 73.39286, 74.043159, 74.636909, 75.125, 75.46875, 75.90625, 76.285713, 76.674103, 77.245537, 77.558037, 77.96875, 78.3125, 78.6875, 78.96875, 79.080353, 79.333336, 80, 81.172623, 81.660721, 82.125, 82.4375, 82.9375, 83.482147, 83.9375, 84.5, 84.973213, 85.616074, 86.214294, 86.803574, 87.401787, 87.9375, 88.482147, 89, 89.625, 90.214287, 90.958336, 91.433037, 91.711311, 92, -10, -10, -10, -10, -10, -10, -10, -10, -10, -10, -10, -10, -10, -10, -10, -10, -10, -10, -10, -10, -10, -10, -10, -10, -10, -10, -10
-10, -10, -10, -10, -10, -10, -10, -10, -10, -10, -10, -10, -10, -10, -10, -10, -10, -10, -10, -10, -10, -10, -10, -10, -10, -10, -10, -10, -10, -10, -10, -10, -10, -10, 71.916672, 71.183334, 70.767853, 69.916664, 69.214279, 68.598213, 68.25, 67.75, 67.1875, 66.273804, 65.571426, 64.892853, 64.410713, 64, 63.5625, 62.8125, 62.178574, 61.176788, 60.407742, 59.613098, 59.214287, 58.875, 58.5, 57.955357, 57.113094, 56.589287, 56.125, 55.5625, 54.773811, 53.958332, 53.25, 52.589287, 51.955357, 51.258926, 50.61607, 50.25, 49.75, 49.041668, 48.482143, 48, 47.428574, 46.702381, 46.0625, 45.517857, 45, 44.25, 43.428574, 42.642853, 41.619049, 41.196426, 40.6875, 40.3125, 39.767857, 39.25, 38.642857, 38.017857, 37.339287, 36.785713, 36.5625, 36.40625, 36.241074, 36.153061, 36.107143, 35.964287, 35.78125, 35.84375, 36.03125, 36.196426, 36.5, 36.5, 36.446426, 36.401787, 36.67857, 36.82143, 36.857143, 37.010201, 37.135715, 36.811226, 36.658165, 36.535713, 36.67857, 36.704079, 36.357143, 36.383926, 36.035713, 36.4375, 36.5625, 36.5, 36.4375, 36.416668, 36.738094, 36.785713, 36.625, 36.625, 36.6875, 36.8125, 36.75, 36.6875, 36.625, 36.642857, 36.714287, 36.714287, 36.785713, 36.92857, 36.897957, 36.589287, 36.785713, 36.5, 36.714287, 36.642857, 36.3125, 36.25, 36.125, 36.0625, 36.0625, 36, 36.0625, 36.403061, 36.714287, 36.714287, 36.82143, 36.846943, 36.791668, 36.8125, 36.6875, 36.4375, 36.3125, 36.25, 36.3125, 36.3125, 36.57143, 36.5, 36.42857, 36.32143, 36.214287, 36.32143, 36.357143, 36.535713, 36.67857, 36.714287, 36.75, 36.714287, 36.4375, 36.321426, 35.452381, 35.190479, 35.285713, 35.660713, 35.875, 36.119045, 36.2449, 36.616074, 36.619049, 36.581631, 36.5, 36.57143, 36.4375, 36.348213, 36.551022, 36.535713, 36.464287, 36.3125, 36.3125, 36.42857, 36.57143, 36.714287, 36.785713, 36.92857, 36.584824, 36.260418, 36.178574, 36.5, 36.57143, 36.75, 36.5625, 36.59375, 36.65625, 36.892857, -10, -10, -10, -10, -10, -10, -10, -10, -10, -10, -10, -10, -10, -10, -10, 51.017857, 50.979164, 50.9375, 50.9375, 50.9375, 50.958332, -10, -10, -10, -10, -10, -10, -10, -10, -10, -10, -10, -10, -10, -10, -10, -10, -10, -10, 63.857143, 64.161461, 64.390625, 64.640625, 64.953125, 65.09375, 65.446426, 66.229172, 66.794647, 67.3125, 67.84375, 68.388397, 68.760414, 69.25, -10, -10, -10, -10, -10, -10, -10, -10, -10, 72.71875, 72.885414, 73, 73.125, 73.375, 73.824409, 74.270836, 74.895836, 75.3125, 75.8125, 76.196426, 76.517853, 77.026787, 77.339287, 77.875, 78.357147, 78.75, 79.09375, 79.375, 79.625, 80.071426, 81.291672, 81.714287, 82.0625, 82.276787, 82.794647, 83.357147, 84.020836, 84.419647, 84.901787, 85.669647, 86.285721, 86.8125, 87.357147, 87.875, 88.464287, 88.96875, 89.59375, 90.183037, 90.75, 91.285713, 91.680061, 92.125, -10, -10, -10, -10, -10, -10, -10, -10, -10, -10, -10, -10, -10, -10, -10, -10, -10, -10, -10, -10, -10, -10, -10, -10, -10, -10, -10, -10, -10, -10, -10, -10, -10, -10, -10, -10, -10, -10, -10, -10, -10, -10, -10, -10, -10, -10, -10, -10, -10, -10, -10, -10, -10, -10, -10, -10, -10, -10, -10, -10, -10, -10, -10, -10, -10, -10, -10, -10, -10, -10, -10, -10, -10, -10, -10, -10, -10, -10, -10, -10, -10, -10, -10, -10, -10, -10, -10, -10, -10, -10, -10, -10, -10, 71.916672, 71.099998, 70.732147, 70.041664, 69.392853, 68.514877, 68.089287, 67.5625, 67.053574, 66.047623, 65.321426, 64.705353, 64.267853, 63.875, 63.491074, 62.833332, 62.142857, 61.417854, 60.666668, 59.863098, 59.357143, 58.9375, 58.5, 57.955357, 57.113094, 56.589287, 56.125, 55.625, 54.880951, 54.083332, 53.375, 52.505955, 51.892857, 51.3125, 50.723213, 50.3125, 49.767857, 49.041668, 48.419643, 47.892857, 47.303574, 46.577381, 46, 45.5, 45, 44.104168, 43.35714, 42.571426, 41.619049, 41.125, 40.625, 40.1875, 39.642857, 39.1875, 38.642857, 38.142857, 37.642857, 37.205357, 37.0625, 37.09375, 37.116074, 37.285713, 37.214287, 37.107143, 36.933674, 36.857143, 36.959824, 37.053574, 37.1875, 37.42857, 37.375, 37.544643, 37.625, 37.75, 37.92857, 37.758926, 37.806252, 37.811226, 37.780609, 37.642857, 37.785713, 37.719387, 37.520409, 37.367344, 37.513889, 37.528572, 37.42857, 37.556122, 37.535713, 37.523808, 37.690479, 37.714287, 37.5, 37.714287, 37.714287, 37.5625, 37.625, 37.6875, 37.6875, 37.82143, 37.82143, 37.75, 37.857143, 37.964287, 37.933674, 37.852043, 37.785713, 37.714287, 37.642857, 37.3125, 37.1875, 37.125, 36.857143, 36.857143, 36.857143, 36.857143, 36.892857, 37.258926, 37.785713, 37.785713, 37.82143, 37.5625, 37.5, 37.4375, 37.375, 37.3125, 37.25, 37.25, 37.375, 37.714287, 37.785713, 37.75, 37.57143, 37.32143, 37.232143, 37.267857, 37.15625, 37.40625, 37.714287, 37.785713, 37.785713, 37.714287, 37.642857, 37.545918, 37.513889, 37.432541, 36.900002, 36.540813, 36.714287, 37.902775, 37.988094, 37.846943, 37.479168, 37.224487, 37.17857, 37.25, 37.214287, 37.375, 37.607143, 37.34375, 37.535713, 37.3125, 37.25, 37.21875, 37.3125, 37.375, 37.5, 37.59375, 37.584824, 37.630951, 37.663265, 37.811226, 37.547619, 37.627552, 37.57143, 37.67857, 37.892857, 38.035713, 39.395836, 39.333332, -10, -10, -10, -10, -10, -10, -10, -10, -10, -10, -10, -10, -10, 50.625, 50.791664, 50.875, 51, 51.125, 51.25, 52, 52.541664, -10, -10, -10, -10, -10, -10, -10, -10, -10, -10, -10, -10, -10, -10, -10, -10, 64, 64.208336, 64.40625, 64.71875, 65.138397, 65.3125, 65.696426, 66.416672, 66.875, 67.375, 67.875, 68.464287, 68.822914, 69.166664, -10, -10, -10, -10, -10, -10, -10, -10, -10, 73.041664, 73.385414, 73.520836, 73.473213, 73.410713, 73.717262, 74.020836, 74.583336, 75.008926, 75.75, 76.169647, 76.549103, 77.044647, 77.401787, 77.9375, 78.419647, 78.78125, 79.09375, 79.375, 79.633926, 80.226189, 81.107147, 81.5, 81.857147, 82.151787, 82.669647, 83.232147, 83.833336, 84.169647, 84.651787, 85.586311, 86.214294, 86.625, 87.071426, 87.708336, 88.339287, 88.84375, 89.34375, 89.897324, 90.645836, 91.254463, 91.825897, 92.20089, 92.75, 93, -10, -10, -10, -10, -10, -10, -10, -10, -10, -10, -10, -10, -10, -10, -10, -10, -10, -10, -10, -10, -10, -10, -10, -10, -10
-10, -10, -10, -10, -10, -10, -10, -10, -10, -10, -10, -10, -10, -10, -10, -10, -10, -10, -10, -10, -10, -10, -10, -10, -10, -10, -10, -10, -10, -10, -10, -10, -10, -10, 71.916672, 71.183334, 70.839287, 70.166664, 69.580353, 68.45536, 67.883926, 67.267853, 66.741074, 65.779762, 65.071426, 64.517853, 64.1875, 63.8125, 63.491074, 62.708332, 61.955357, 61.410713, 60.875, 60.104168, 59.428574, 58.892857, 58.401787, 57.645832, 56.863094, 56.339287, 55.9375, 55.4375, 54.684525, 54.1875, 53.553574, 52.547623, 51.892857, 51.3125, 50.723213, 50.3125, 49.767857, 49.041668, 48.348213, 47.785713, 47.303574, 46.613098, 45.916668, 45.375, 44.875, 44.041668, 43.410713, 42.75, 41.788692, 41.205357, 40.6875, 40.1875, 39.642857, 39.25, 38.8125, 38.455357, 38.142857, 37.875, 37.875, 38.17857, 38.285713, 38.392857, 38.0625, 38.214287, 37.816963, 37.892857, 38.204082, 38.239799, 38.392857, 38.535713, 38.607143, 38.765308, 38.82143, 38.892857, 38.75, 38.8125, 38.57143, 38.566326, 38.879463, 38.464287, 39.035713, 38.598213, 38.540813, 38.133926, 38.104168, 38.600002, 38.035713, 38.517857, 38.32143, 38.357143, 38.392857, 38.625, 38.5, 38.714287, 38.714287, 38.714287, 38.785713, 38.857143, 38.857143, 38.92857, 39, 38.92857, 39, 38.964287, 38.877552, 38.836735, 38.785713, 38.75, 38.4375, 38.3125, 38.1875, 38.125, 38.583332, 38.708332, 38.708332, 38.708332, 38.666668, 38.403057, 38.5, 38.4375, 38.4375, 38.375, 38.3125, 38.25, 38.1875, 38.285713, 38.260201, 38.5, 38.714287, 39, 38.964287, 39.035713, 38.892857, 38.321426, 38.087502, 38.116074, 38, 38.25, 38.321426, 38.645832, 38.669643, 38.857143, 38.75, 38.612244, 38.476189, 38.462585, 38.527775, 38.702381, 38.833332, 38.916664, 38.989799, 39.025513, 38.833336, 39.130951, 39.166668, 39.125, 39, 38.75, 38.82143, 38.770409, 38.607143, 38.535713, 38.301022, 38.257141, 38.285713, 38.040813, 38.142857, 38.40625, 38.69643, 38.767857, 38.846943, 38.918369, 38.416668, 38.455357, 38.375, 38.46875, 38.892857, 39.107143, 39.708332, -10, -10, -10, -10, -10, -10, -10, -10, -10, -10, -10, -10, 49.5, 49.833336, 50.482143, 50.729164, 50.875, 51, 51.1875, 51.40625, 52.041668, 52.652775, 53.183334, -10, -10, -10, -10, -10, -10, -10, -10, -10, -10, -10, -10, -10, -10, -10, 63.875, 64.166672, 64.455353, 64.84375, 65.325897, 65.5625, 65.96875, 66.489586, 66.84375, 67.3125, 67.803574, 68.630951, 69.013397, 69.291664, -10, -10, -10, -10, -10, -10, -10, -10, -10, -10, 73.666664, 73.8125, 73.816963, 73.816963, 74.052086, 74.125, 74.520836, 74.883926, 75.625, 76.107147, 76.59375, 77.080353, 77.453125, 78.015625, 78.482147, 78.791664, 79.166664, 79.6875, 79.925591, 80.413689, 81.023811, 81.321426, 81.607147, 81.964287, 82.526787, 83.107147, 83.770836, 84.044647, 84.526787, 85.282738, 85.857147, 86.3125, 86.875, 87.565475, 88.214287, 88.71875, 89.15625, 89.709824, 90.333336, 90.96875, 91.638397, 92.117554, 92.25, 92.44445, -10, -10, -10, -10, -10, -10, -10, -10, -10, -10, -10, -10, -10, -10, -10, -10, -10, -10, -10, -10, -10, -10, -10, -10, -10, -10, -10, -10, -10, -10, -10, -10, -10, -10, -10, -10, -10, -10, -10, -10, -10, -10, -10, -10, -10, -10, -10, -10, -10, -10, -10, -10, -10, -10, -10, -10, -10, -10, -10, -10, -10, -10, -10, -10, -10, -10, -10, -10, -10, -10, -10, -10, -10, -10, -10, -10, -10, -10, -10, -10, -10, -10, -10, -10, -10, -10, -10, -10, -10, -10, -10, 71.708336, 71.083336, 70.660713, 69.997025, 69.508926, 68.375, 67.714279, 67.142853, 66.616074, 65.833328, 65.25, 64.6875, 64.267853, 63.8125, 63.428574, 62.645832, 62.00893, 61.517857, 60.708332, 60.116074, 59.35714, 58.830357, 58.276787, 57.3125, 56.559525, 56.089287, 55.75, 55.25, 54.660713, 54.25, 53.669647, 52.57143, 51.892857, 51.375, 50.830357, 50.375, 49.830357, 48.895836, 48.205353, 47.598213, 47.1875, 46.625, 45.833336, 45.25, 44.75, 43.979168, 43.401787, 42.821426, 41.958336, 41.330357, 40.8125, 40.267857, 39.8125, 39.5625, 39.375, 39.25, 39.00893, 38.950001, 39.168369, 39.257656, 39.357143, 39.357143, 39.142857, 39.153057, 39.237244, 38.875, 39.364799, 39.239799, 39.285713, 39.42857, 39.57143, 39.765308, 39.857143, 39.857143, 39.857143, 39.857143, 40.041668, 40.142857, 40.112244, 40.333332, 40.214287, 40.07143, 39.589287, 39.4375, 39.354168, 39.462502, 39.875, 39.806122, 40.125, 40.208332, 40.083332, 39.82143, 39.785713, 39.857143, 39.92857, 39.666668, 40, 40, 39.92857, 39.92857, 40.035713, 39.964287, 40.107143, 40.07143, 39.71875, 39.71875, 39.59375, 39.5, 39.57143, 39.535713, 39.5, 39.341835, 39.448978, 39.57143, 39.642857, 39.714287, 39.642857, 39.612244, 39.5, 39.214287, 39.25, 39.17857, 39.17857, 39.333332, 39.25, 39.166668, 39.474487, 39.642857, 39.82143, 40.07143, 40, 40.07143, 39.92857, 39.617344, 39.385715, 39.346943, 38.714287, 39.1875, 39.258926, 39.809521, 39.836735, 39.785713, 39.642857, 39.3125, 39.3125, 39.383926, 39.547615, 39.714287, 39.857143, 39.904758, 39.678574, 39.678574, 39.738098, 39.897957, 40, 39.964287, 39.857143, 39.82143, 39.857143, 39.823978, 39.75, 39.785713, 39.205357, 39.153572, 39.540813, 39.714287, 40.041668, 39.857143, 39.92857, 40, 40, 39.918369, 39.690479, 39.663265, 39.642857, 39.59375, 39.71875, 39.96875, 40.197918, -10, -10, -10, -10, -10, -10, -10, -10, -10, -10, -10, -10, 49.5, 49.777782, 50.444645, 50.699406, 50.90625, 51, 51.1875, 51.40625, 51.78125, 52.346725, 53.233334, -10, -10, -10, -10, -10, -10, -10, -10, -10, -10, -10, -10, -10, -10, -10, 63.9375, 64.208336, 64.549103, 65.0625, 65.575897, 65.875, 66.28125, 66.53125, 66.78125, 67.25, 67.741074, 68.613098, 69.013397, 69.333328, -10, -10, -10, -10, -10, -10, -10, -10, -10, -10, 73.979164, 74.145836, 74.191963, 74.183037, 74.1875, 74.196426, 74.520836, 74.883926, 75.625, 76.178574, 76.75, 77.330353, 77.765625, 78.328125, 78.690475, -10, -10, 79.75, 80.238091, 80.592262, 80.940475, 81.20536, 81.482147, 81.901787, 82.464287, 83, 83.708336, 84.026787, 84.464287, 85.157738, 85.625, 86.125, 86.75, 87.485123, 88.107147, 88.59375, 88.96875, 89.477676, 90.083336, 90.65625, 91.21875, 91.763397, 92, 92.166672, -10, -10, -10, -10, -10, -10, -10, -10, -10, -10, -10, -10, -10, -10, -10, -10, -10, -10, -10, -10, -10, -10, -10, -10, -10
-10, -10, -10, -10, -10, -10, -10, -10, -10, -10, -10, -10, -10, -10, -10, -10, -10, -10, -10, -10, -10, -10, -10, -10, -10, -10, -10, -10, -10, -10, -10, -10, -10, -10, 71.5, 71.083336, 70.60714, 70.026787, 69.535713, 68.4375, 67.714279, 67.089279, 66.508926, 65.979164, 65.4375, 64.9375, 64.455353, 63.875, 63.392857, 62.8125, 61.997025, 61.455357, 60.645832, 60.053574, 59.339287, 58.767857, 58.214287, 57.25, 56.404762, 56.017857, 55.6875, 55.25, 54.660713, 54.25, 53.669647, 52.64286, 52, 51.375, 50.785713, 50.3125, 49.75893, 48.895836, 48.205353, 47.589287, 47.041668, 46.553574, 45.770836, 45.25, 44.75, 43.979168, 43.330357, 42.714287, 42.104168, 41.580357, 41.125, 40.705357, 40.4375, 40.061226, 40, 40.535713, 40.418369, 39.862499, 40.311226, 40.346943, 40.32143, 40.1875, 40.0625, 40.107143, 40.520409, 40.392857, 40.4949, 40.147324, 40.15625, 40.25, 40.375, 40.544643, 40.625, 40.5625, 40.5625, 40.857143, 41.015308, 41.193878, 41.377552, 41.357143, 41.32143, 41.142857, 40.780613, 40.607143, 40.523811, 40.585716, 40.785713, 41.010201, 41.142857, 41.214287, 41.035713, 40.892857, 40.82143, 40.857143, 40.92857, 41.166668, 40.964287, 40.92857, 40.6875, 40.6875, 40.964287, 40.92857, 41.035713, 41, 40.857143, 40.857143, 40.75, 40.4375, 40.67857, 40.785713, 40.785713, 40.663265, 40.455357, 40.4375, 40.4375, 40.4375, 40.375, 40.57143, 40.642857, 40.916668, 40.958332, 40.958332, 41.041668, 41.005951, 40.875, 41.029762, 40.785713, 40.92857, 40.8125, 41, 40.857143, 40.729168, 40.724487, 40.438774, 40.242859, 40.239799, 40.333332, 40.32143, 40.403057, 40.809521, 40.836735, 40.5625, 40.5, 40.035713, 39.92857, 40.276787, 40.375, 40.5625, 40.75, 40.625, 40.5625, 40.59375, 40.65625, 40.84375, 40.90625, 40.75, 40.683037, 40.65625, 40.688774, 40.7551, 40.642857, 40.785713, 40.556122, 40.087502, 40.612244, 40.607143, 41.051022, 41.132656, 41.142857, 41.07143, 40.8125, 40.678574, 40.738098, 40.724487, 40.714287, 40.892857, 40.964287, 41.214287, 41.380955, -10, -10, -10, -10, -10, -10, -10, -10, -10, -10, -10, -10, -10, 49.777782, 50.342854, 50.741074, 50.9375, 51, 51.125, 51.28125, 51.53125, 52.120537, 53.258335, 53.971428, -10, -10, -10, -10, -10, -10, -10, -10, -10, -10, -10, -10, -10, -10, 64.0625, 64.375, 64.78125, 65.25, 65.700897, 65.9375, 66.28125, 66.53125, 66.78125, 67.25, 67.741074, 68.613098, 69.044647, 69.479164, 70.089287, 70.642853, 71.416672, 71.633331, -10, -10, -10, -10, -10, -10, 74.083336, 74.277779, 74.339287, 74.558037, 74.708336, 74.6875, 74.75, 74.946426, 75.4375, 75.964287, 76.739586, 77.424103, 78.130211, 78.600449, 78.833336, -10, -10, -10, 80.317451, 80.770836, 80.940475, 81.151787, 81.482147, 81.9375, 82.419647, 82.928574, 83.666664, 84.098213, 84.5, 85.041664, 85.428574, 85.9375, 86.625, 87.40477, 88, 88.5, 88.875, 89.383926, 89.958336, 90.5, 91, 91.544647, 91.8125, 92.095238, -10, -10, -10, -10, -10, -10, -10, -10, -10, -10, -10, -10, -10, -10, -10, -10, -10, -10, -10, -10, -10, -10, -10, -10, -10, -10, -10, -10, -10, -10, -10, -10, -10, -10, -10, -10, -10, -10, -10, -10, -10, -10, -10, -10, -10, -10, -10, -10, -10, -10, -10, -10, -10, -10, -10, -10, -10, -10, -10, -10, -10, -10, -10, -10, -10, -10, -10, -10, -10, -10, -10, -10, -10, -10, -10, -10, -10, -10, -10, -10, -10, -10, -10, -10, -10, -10, -10, -10, -10, -10, -10, 71.5, 71.083336, 70.464287, 69.732147, 69.214287, 68.395836, 67.75, 67.089279, 66.473213, 66.125, 65.625, 65.125, 64.526787, 63.892857, 63.392857, 62.8125, 61.997025, 61.455357, 60.636902, 59.907738, 59.267853, 58.705357, 58.214287, 57.3125, 56.666664, 56.113094, 55.75, 55.1875, 54.482143, 54.017857, 53.419647, 52.601192, 52, 51.3125, 50.67857, 50.3125, 49.794643, 48.8125, 48.214287, 47.63393, 47.104168, 46.571426, 45.770836, 45.25, 44.75, 44.125, 43.401787, 42.785713, 42.3125, 41.892857, 41.5, 41.205357, 41.214287, 41.517857, 41.541668, 41.464287, 41.454082, 41.164284, 41.418369, 41.489799, 41.42857, 41.535713, 41.57143, 41.693878, 42, 41.857143, 41.75, 41.535713, 41.42857, 41.5, 41.642857, 41.714287, 41.857143, 41.32143, 41.392857, 41.57143, 42.044643, 42.1875, 42.42857, 42.1875, 42.0625, 42.107143, 41.589287, 41.82143, 41.82143, 41.32143, 42.107143, 42.142857, 42.17857, 42, 41.8125, 41.6875, 41.5625, 41.785713, 41.785713, 41.785713, 41.785713, 41.785713, 41.908165, 41.6875, 41.8125, 41.75, 41.75, 41.65625, 41.67857, 41.67857, 41.607143, 41.57143, 41.714287, 41.857143, 41.857143, 41.806122, 41.734692, 41.4375, 41.142857, 41.142857, 41.17857, 41.25, 41.882656, 41.785713, 41.857143, 41.82143, 41.964287, 41.933674, 41.785713, 41.882656, 41.887756, 41.92857, 41.964287, 42.035713, 41.732143, 41.604168, 41.508926, 41.081631, 40.885715, 40.954082, 41.166668, 41.333332, 41.464283, 41.523808, 41.794643, 41.6875, 41.75, 41.75, 41.708332, 41.566326, 41.607143, 41.5, 41.517857, 41.455357, 41.5625, 41.65625, 41.78125, 41.84375, 41.84375, 41.625, 41.620537, 41.71875, 41.367344, 41.433674, 41.5, 41.491074, 41.566322, 41.292854, 41.441963, 41.5, 41.857143, 42.168369, 42.125, 42, 41.857143, 41.714287, 41.785713, 41.785713, 41.785713, 41.92857, 41.92857, 42.107143, 42.319729, -10, -10, -10, -10, -10, -10, -10, -10, -10, -10, -10, -10, -10, -10, -10, 50.866074, 51, 51, 51.125, 51.239582, 51.375, 51.910717, 53.277775, 53.971428, 55.333336, -10, -10, -10, -10, -10, -10, -10, -10, -10, -10, -10, -10, -10, 64.083336, 64.5, 64.958336, 65.416664, 65.90625, 66.125, 66.4375, 66.6875, 66.90625, 67.330353, 67.886909, 68.684525, 69.169647, 69.666664, 70.202385, 70.761902, 71.44445, 71.755554, -10, -10, -10, -10, -10, -10, -10, -10, -10, 74.791664, 74.94445, 75.25, 75.25, 75.3125, 75.526787, 76.035721, 76.699409, 77.370529, 78.213547, 78.654022, 78.895836, -10, -10, -10, -10, 81.0625, 81.25, 81.375, 81.625, 82, 82.419647, 82.866074, 83.666664, 84.160713, 84.607147, 84.9375, 85.3125, 85.875, 86.660721, 87.321426, 87.9375, 88.482147, 88.9375, 89.4375, 89.875, 90.4375, 90.919647, 91.375, 91.6875, 92.472221, 93.857147, 94.380951, -10, -10, -10, -10, -10, -10, -10, -10, -10, -10, -10, -10, -10, -10, -10, -10, -10, -10, -10, -10, -10, -10, -10
-10, -10, -10, -10, -10, -10, -10, -10, -10, -10, -10, -10, -10, -10, -10, -10, -10, -10, -10, -10, -10, -10, -10, -10, -10, -10, -10, -10, -10, -10, -10, -10, -10, -10, 71.5, 71, 70.357147, 69.607147, 69.026787, 68.455353, 67.892853, 67.321426, 66.723213, 66.375, 65.839287, 65, 64.321426, 63.705357, 63.205357, 62.6875, 61.934525, 61.375, 60.458328, 59.738094, 59.258926, 58.75, 58.3125, 57.550598, 56.809521, 56.363094, 55.910713, 55.258926, 54.535713, 54.017857, 53.419647, 52.601192, 52, 51.3125, 50.67857, 50.3125, 49.785713, 48.666668, 48.214287, 47.678574, 47.104168, 46.535713, 45.854168, 45.375, 44.9375, 44.3125, 43.589287, 42.92857, 42.625, 42.285713, 42.041668, 41.806122, 41.785713, 42.515308, 42.1875, 42.1875, 42.053574, 42.028572, 42.17347, 42.2449, 42.32143, 42.5, 42.67857, 42.867344, 43.07143, 42.982143, 42.910713, 42.839287, 42.80357, 42.541668, 43, 42.964287, 43, 43.125, 43.041668, 43.25, 43.265308, 43.357143, 43.392857, 43.214287, 42.875, 42.8125, 42.625, 42.625, 42.82143, 43.041668, 43.035713, 43.035713, 43.107143, 42.8125, 42.92857, 42.92857, 42.625, 42.6875, 42.42857, 42.392857, 42.5625, 42.5625, 42.872448, 42.857143, 42.892857, 42.82143, 42.625, 42.59375, 42.46875, 42.46875, 42.334824, 42.32143, 42.535713, 42.693878, 42.785713, 42.867344, 42.795918, 42.785713, 42.958332, 42.958332, 43.041668, 43.041668, 42.882656, 42.6875, 42.75, 42.75, 42.9375, 42.848213, 42.75, 42.803574, 42.741074, 42.92857, 42.92857, 42.92857, 42.908165, 42.761906, 42.653057, 42.916668, 42.916668, 43, 43.125, 43.166668, 43.208332, 43.166668, 42.92857, 42.82143, 42.785713, 42.67857, 42.642857, 42.709187, 42.714287, 42.75, 42.517857, 42.455357, 42.857143, 42.892857, 42.964287, 42.92857, 42.892857, 42.714287, 42.7449, 42.92857, 43.130951, 43.261902, 42.892857, 42.616074, 42.504463, 42.421429, 42.28125, 42.510201, 42.607143, 42.803574, 42.90625, 42.875, 42.75, 42.857143, 42.625, 42.5625, 42.625, 42.75, 42.75, 42.9375, 43.113098, 44.333336, -10, -10, -10, -10, -10, -10, 46.416664, 46.416664, -10, -10, -10, -10, -10, -10, 50.928574, 51, 51.03125, 51.15625, 51.208332, -10, -10, -10, -10, 55.555557, 56, -10, -10, -10, -10, -10, -10, -10, -10, -10, -10, -10, -10, -10, -10, -10, -10, 66, 66.25, 66.59375, 66.816963, 67, 67.392853, 67.895836, 68.571434, 69.169647, 69.75, 70.276787, 70.758926, 71.395836, 71.754166, 72.380951, -10, -10, -10, -10, -10, -10, -10, -10, -10, -10, 75.5625, 75.645836, 75.6875, 75.839287, 76.285721, 76.761909, 77.227676, 78.010422, 78.450897, 78.815475, -10, -10, -10, -10, 81.25, 81.416664, 81.5625, 81.8125, 82.0625, 82.375, 82.741074, 83.541664, 84.098213, 84.544647, 85, 85.419647, 85.875, 86.544647, 87.151787, 87.794647, 88.357147, 88.9375, 89.482147, 90, 90.5625, 91.044647, 91.5, 91.8125, 92.354172, 93.238098, 93.990479, 94.083328, -10, -10, -10, -10, -10, -10, -10, -10, -10, -10, -10, -10, -10, -10, -10, -10, -10, -10, -10, -10, -10, -10, -10, -10, -10, -10, -10, -10, -10, -10, -10, -10, -10, -10, -10, -10, -10, -10, -10, -10, -10, -10, -10, -10, -10, -10, -10, -10, -10, -10, -10, -10, -10, -10, -10, -10, -10, -10, -10, -10, -10, -10, -10, -10, -10, -10, -10, -10, -10, -10, -10, -10, -10, -10, -10, -10, -10, -10, -10, -10, -10, -10, -10, -10, -10, -10, -10, -10, 71.5, 71, 70.428574, 69.776779, 69.214287, 68.705353, 68.071426, 67.401787, 66.848213, 66.4375, 65.901787, 65.008926, 64.249992, 63.598213, 63.142857, 62.625, 61.934525, 61.375, 60.541664, 59.880951, 59.4375, 58.791668, 58.383926, 57.821426, 57.113094, 56.675594, 56.151787, 55.279762, 54.571434, 54.017857, 53.419647, 52.601192, 52, 51.25, 50.57143, 50.25, 49.714287, 48.666668, 48.214287, 47.678574, 47.041668, 46.482143, 45.9375, 45.5, 45.125, 44.5625, 44.026787, 43.535713, 43.3125, 43.098213, 42.979168, 43.625, 43.666668, 43.419643, 43.3125, 43.25, 42.857143, 42.714287, 42.785713, 42.857143, 42.964287, 43.4375, 43.625, 43.785713, 43.8125, 43.75, 43.92857, 43.92857, 44, 44.25, 44.214287, 44.214287, 44.142857, 44.107143, 43.964287, 44.142857, 44.275513, 44.125, 44.0625, 43.8125, 43.625, 43.5, 43.67857, 43.75, 43.82143, 43.892857, 43.75, 43.75, 43.8125, 43.75, 43.6875, 43.892857, 43.785713, 43.785713, 43.916668, 43.875, 43.642857, 43.714287, 43.908165, 43.857143, 43.857143, 43.785713, 43.642857, 43.57143, 43.57143, 43.612244, 43.428574, 43.035713, 43.25, 43.372448, 43.6875, 43.75, 43.625, 43.892857, 43.857143, 43.82143, 43.892857, 43.857143, 43.882656, 43.785713, 43.785713, 43.785713, 43.964287, 43.877552, 43.785713, 43.678574, 43.616074, 43.6875, 43.75, 43.75, 43.732143, 43.809528, 43.82653, 43.857143, 43.857143, 43.92857, 43.964287, 44, 44.035713, 44, 43.92857, 43.857143, 43.625, 43.5625, 43.785713, 43.836735, 43.82143, 43.82143, 43.806122, 43.877552, 44.015308, 43.71875, 43.71875, 43.611607, 43.763393, 43.872448, 43.908165, 44, 43.969387, 44.081631, 43.92857, 43.739799, 43.67857, 43.34375, 43.28125, 43.267857, 43.282143, 43.544643, 43.678574, 43.92857, 43.892857, 43.857143, 43.785713, 43.714287, 43.785713, 43.82143, 43.75, 43.9375, 44.133926, 44.888889, -10, -10, -10, -10, -10, 46.375, 46.444443, 46.611111, -10, -10, -10, -10, -10, -10, 51, 51, 51.09375, 51.34375, 51.508331, -10, -10, -10, -10, 55.791668, 56.222225, -10, -10, -10, -10, -10, -10, -10, -10, -10, -10, -10, -10, -10, -10, -10, -10, -10, 66.333336, 66.90625, 67.108627, 67.25, 67.642853, 68.083336, 68.714287, 69.294647, 69.8125, 70.401787, 70.8125, 71.25, 71.666664, 72.170639, 72.690475, -10, -10, -10, -10, -10, -10, -10, -10, -10, 75.75, 75.861115, 76.125, 76.151787, 76.428574, 76.824409, 77.196426, 77.916672, 78.357147, 78.732147, 78.625, 78.833328, -10, -10, 81.25, 81.5, 81.6875, 82.044647, 82.3125, 82.5625, 82.803574, 83.479164, 83.866074, 84.357147, 84.8125, 85.294647, 85.8125, 86.464287, 87.044647, 87.669647, 88.232147, 88.8125, 89.357147, 89.9375, 90.544647, 91.044647, 91.5, 91.9375, 92.627975, 93.061226, 93.564629, 93.972221, -10, -10, -10, -10, -10, -10, -10, -10, -10, -10, -10, -10, -10, -10, -10, -10, -10, -10, -10, -10, -10, -10
-10, -10, -10, -10, -10, -10, -10, -10, -10, -10, -10, -10, -10, -10, -10, -10, -10, -10, -10, -10, -10, -10, -10, -10, -10, -10, -10, -10, -10, -10, -10, -10, -10, -10, 71.541664, 71.125, 70.607147, 70.017853, 69.321426, 68.651779, 67.964287, 67.392853, 66.892853, 66.4375, 65.85714, 64.883926, 64.062492, 63.428574, 63, 62.4375, 61.982143, 61.482143, 60.559525, 59.880951, 59.145836, 58.541668, 58.133926, 57.633926, 57.19643, 56.729168, 56.214287, 55.279762, 54.571434, 54.017857, 53.419647, 52.601192, 52, 51.3125, 50.67857, 50.25, 49.678574, 48.750004, 48.267853, 47.75, 47.1875, 46.55357, 46, 45.5, 45.1875, 44.8125, 44.517857, 44.377552, 44.357143, 44.219387, 44.261906, 44.57143, 44.57143, 44.67857, 44.607143, 44.607143, 44.450001, 44.450001, 44.5, 44.875, 45.041668, 44.892857, 44.8125, 45, 44.714287, 44.875, 44.8125, 44.75, 45, 45.07143, 45.17857, 45.17857, 45.142857, 45, 44.9375, 45.125, 45.125, 45.0625, 44.875, 44.625, 44.4375, 44.3125, 44.5, 44.383926, 44.625, 44.6875, 44.75, 44.625, 44.625, 44.785713, 44.785713, 44.857143, 44.82143, 44.82143, 44.785713, 44.75, 44.785713, 44.82143, 44.732143, 44.6875, 44.625, 44.5625, 44.4375, 44.607143, 44.642857, 44.7551, 44.775513, 44.958332, 45.041668, 45.071426, 44.92857, 45.035713, 44.5, 44.866074, 44.604168, 44.508926, 44.5, 44.508926, 44.761902, 44.908165, 44.92857, 44.892857, 44.92857, 44.857143, 44.625, 44.535713, 44.401787, 44.714287, 44.714287, 44.785713, 44.857143, 44.857143, 44.92857, 45, 45, 45.035713, 44.8125, 44.8125, 44.8125, 44.75, 44.625, 44.5, 44.4375, 44.57143, 44.5625, 44.75, 44.75, 44.75, 44.938774, 44.938774, 44.979591, 44.6875, 44.75, 44.642857, 44.857143, 45.015308, 45.035713, 44.9375, 44.785713, 45.053574, 44.666668, 44.693878, 44.660713, 44.711735, 44.767857, 44.204082, 44.05714, 44.275513, 44.418369, 45.07143, 45.07143, 45.07143, 44.92857, 44.857143, 44.857143, 44.785713, 44.92857, 45.07143, 45.183674, 45.404762, 46, 46, 46.125, 46.25, 46.5, 46.583332, 46.583332, 46.708332, 47, 46.660713, 46.533333, -10, -10, -10, 51.125, 51.166668, 51.28125, 51.65625, 51.883331, -10, -10, -10, -10, 56.166668, 56.222225, 56.833336, -10, -10, -10, -10, -10, -10, -10, -10, -10, -10, -10, -10, -10, -10, -10, -10, -10, 67.21875, 67.400299, 67.5, 67.892853, 68.333336, 68.964287, 69.482147, 69.946426, 70.544647, 70.8125, 71.1875, 71.5625, 72.065475, 72.698418, 73.428574, 73.666664, -10, -10, -10, -10, -10, -10, -10, -10, -10, 76.4375, 76.601784, 77, 77.276787, 77.602676, 77.989586, 78.366074, 78.669647, 78.75, 79.05555, -10, -10, 81.1875, 81.416664, 81.633926, 82.190475, 82.526787, 82.71875, 82.875, 83.330353, 83.616074, 84.169647, 84.625, 85.169647, 85.6875, 86.276787, 86.875, 87.526794, 88.107147, 88.6875, 89.200897, 89.78125, 90.388397, 90.888397, 91.375, 91.875, 92.401787, 92.928574, 93.464294, 93.916664, 94, -10, -10, -10, -10, -10, -10, -10, -10, -10, -10, -10, -10, -10, -10, -10, -10, -10, -10, -10, -10, -10, -10, -10, -10, -10, -10, -10, -10, -10, -10, -10, -10, -10, -10, -10, -10, -10, -10, -10, -10, -10, -10, -10, -10, -10, -10, -10, -10, -10, -10, -10, -10, -10, -10, -10, -10, -10, -10, -10, -10, -10, -10, -10, -10, -10, -10, -10, -10, -10, -10, -10, -10, -10, -10, -10, -10, -10, -10, -10, -10, -10, -10, -10, -10, -10, -10, 72, 71.541664, 71.208336, 70.785713, 70.041664, 69.392853, 68.705353, 67.880951, 67.401787, 66.9375, 66.4375, 65.8125, 64.883926, 64.133926, 63.285713, 62.857143, 62.375, 62.089287, 61.607143, 60.693451, 60.035713, 59.217262, 58.604168, 58.071426, 57.464287, 57.017857, 56.6875, 56.214287, 55.279762, 54.64286, 54.125, 53.544647, 52.726192, 52.0625, 51.392857, 50.848213, 50.366074, 49.666672, 48.833336, 48.321426, 47.875, 47.3125, 46.723213, 46.142857, 45.75, 45.5625, 45.4375, 45.3125, 45.142857, 45.5, 45.329365, 45.402775, 45.795918, 45.67347, 45.714287, 45.714287, 45.892857, 46.125, 46.208332, 46.208332, 45.892857, 45.964287, 45.92857, 45.964287, 46.07143, 46.166668, 45.92857, 45.892857, 45.625, 45.6875, 45.75, 45.8125, 45.9375, 45.9375, 46.25, 46.214287, 46.25, 46.142857, 46, 45.6875, 45.5, 45.375, 45.375, 45.107143, 45.153057, 45.92857, 45.836735, 45.690479, 45.510201, 45.383926, 45.645832, 45.669643, 45.75, 45.75, 45.660713, 45.589287, 45.625, 45.785713, 45.857143, 45.92857, 45.92857, 45.92857, 45.666668, 45.857143, 45.785713, 45.785713, 45.897957, 46.030613, 46.07143, 46.107143, 46.061222, 46.035713, 46, 46.166668, 45.954082, 45.416668, 45.348213, 45.132656, 45.142857, 45.952381, 45.943878, 45.892857, 45.6875, 45.6875, 45.625, 45.625, 45.535713, 45.401787, 45.642857, 45.464287, 45.908165, 45.732143, 45.75, 45.75, 45.75, 45.75, 45.75, 45.6875, 45.625, 45.5625, 45.714287, 45.4375, 45.375, 45.375, 45.375, 45.714287, 45.857143, 45.857143, 45.892857, 45.75, 45.75, 45.794643, 45.964287, 45.92857, 45.877552, 46.051022, 45.979591, 46, 46.035713, 46.25, 45.803574, 45.479168, 45.330357, 45.3125, 45.658165, 45.785713, 46.035717, 45.950001, 46.077381, 46.160717, 46, 46, 46.07143, 46.035713, 46.07143, 46.035713, 45.75, 46.035713, 45.875, 46, 46.104168, 46.583332, 46.400002, 46.666668, 46.666668, 46.75, 46.6875, 46.770832, 46.895832, 47.166668, 47.023808, 46.938889, -10, -10, -10, 50.795918, 51.166668, 51.53125, 52.03125, 52.299999, 52.625, 52.666668, -10, -10, -10, -10, 57.222225, -10, -10, -10, -10, -10, -10, -10, -10, -10, -10, -10, -10, -10, -10, -10, -10, -10, 67.125, 67.319046, 67.544647, 68, 68.4375, 69.071434, 69.482147, 69.9375, 70.604164, 70.883926, 71.1875, 71.4375, 71.982147, 72.702377, 73.333336, 73.55555, -10, -10, -10, -10, -10, -10, -10, -10, -10, 76.75, 76.887497, 77.174103, 77.441963, 77.75, 78, 78.3125, 78.607147, 78.8125, 79.148811, 80, 80.5, 81, 81.321426, 81.779762, 82.369049, 82.714287, 82.90625, 83, 83.392853, 83.616074, 84.0625, 84.5625, 85.107147, 85.625, 86.169647, 86.75, 87.339294, 88.083336, 88.6875, 89.200897, 89.78125, 90.325897, 90.71875, 91.25, 91.75, 92.321426, 92.75, 93.232147, 93.75, 94.25, -10, -10, -10, -10, -10, -10, -10, -10, -10, -10, -10, -10, -10, -10, -10, -10, -10, -10, -10, -10, -10
-10, -10, -10, -10, -10, -10, -10, -10, -10, -10, -10, -10, -10, -10, -10, -10, -10, -10, -10, -10, -10, -10, -10, -10, -10, -10, -10, -10, -10, -10, -10, -10, -10, -10, 71.541664, 71.208336, 70.85714, 70.148804, 69.473206, 68.8125, 67.943451, 67.419647, 66.9375, 66.4375, 65.848213, 65.258926, 64.491066, 63.285713, 62.776787, 62.25, 62.026787, 61.669643, 60.934525, 60.321426, 59.32143, 58.666668, 58.071426, 57.535713, 57.125, 56.6875, 56.178574, 55.333332, 54.714287, 54.125, 53.50893, 52.809525, 51.979168, 51.401787, 50.892857, 50.366074, 49.630955, 48.979168, 48.4375, 48.0625, 47.5, 46.955357, 46.517857, 46.3125, 46.357143, 46.107143, 46.142857, 46.142857, 46.5, 47.361111, 47.375, 47.081631, 46.387756, 46.392857, 46.6875, 47.07143, 47.142857, 47.214287, 47.214287, 47.07143, 47.035713, 46.75, 46.75, 46.8125, 47.07143, 47, 46.92857, 46.625, 46.625, 46.392857, 46.464287, 46.9375, 47.214287, 47.285713, 47.32143, 47.25, 47.035713, 46.6875, 46.785713, 46.75, 46.714287, 46.714287, 46.916668, 46.922619, 46.92857, 46.908165, 46.541668, 46.383926, 46.383926, 46.809521, 46.836735, 46.857143, 46.857143, 46.7551, 46.526787, 46.6875, 46.464287, 46.57143, 47.17857, 47.142857, 47.07143, 47.25, 46.964287, 46.892857, 46.857143, 46.948978, 47, 47.107143, 47.107143, 46.875, 46.75, 46.625, 46.785713, 46.632656, 46.166668, 46.223213, 46.952381, 47.107143, 47.238094, 47.122448, 47, 46.857143, 46.785713, 46.857143, 46.892857, 46.862244, 46.709187, 46.5, 46.589287, 47.015308, 47.015308, 46.92857, 46.892857, 46.625, 46.625, 46.625, 46.714287, 46.785713, 46.785713, 46.785713, 46.785713, 46.612244, 46.530613, 46.57143, 46.57143, 46.714287, 46.714287, 46.714287, 46.5625, 46.625, 46.669643, 46.92857, 46.892857, 46.795918, 46.669643, 46.607143, 46.625, 46.625, 46.857143, 46.491074, 46.229168, 45.984692, 46.107143, 46.384357, 46.583332, 46.795921, 46.671429, 46.7449, 46.7449, 46.714287, 46.714287, 46.857143, 46.92857, 47.07143, 47, 46.92857, 47.035713, 46.8125, 46.9375, 47, 47, 47.5, 47.1875, 47.1875, 47.1875, 47.125, 47.258926, 47.404762, 47.530613, 47.696426, 47.370834, 48.285713, 48.375, 48.714287, 49.857143, 51.023811, 51.833332, 52.473213, 52.799999, 52.845234, 52.527782, -10, -10, -10, -10, 57.541668, 58.5, 58.541664, -10, -10, -10, -10, -10, -10, -10, -10, -10, -10, -10, -10, -10, -10, -10, 67.125, 67.324997, 67.575897, 68.09375, 68.65625, 69.25, 69.625, 70.125, 70.764877, 71.071426, 71.3125, 71.5, 72.0625, 72.892853, 73.4375, 73.666664, -10, -10, -10, -10, -10, -10, -10, -10, -10, 76.833336, 76.933334, 77.424103, 77.775299, 78.125, 78.375, 78.625, 78.75, 79, 79.357147, 80, 80.5, 80.875, 81.342262, 81.913689, 82.462799, 82.870537, 83.0625, 83.232147, 83.580353, 83.741074, 84.125, 84.5, 85, 85.5625, 86.107147, 86.6875, 87.169647, 87.833336, 88.357147, 89.09375, 89.745537, 90.325897, 90.65625, 91.1875, 91.6875, 92.321426, 92.9375, 93.482147, 93.875, 94.4375, 95.099998, -10, -10, -10, -10, -10, -10, -10, -10, -10, -10, -10, -10, -10, -10, -10, -10, -10, -10, -10, -10, -10, -10, -10, -10, -10, -10, -10, -10, -10, -10, -10, -10, -10, -10, -10, -10, -10, -10, -10, -10, -10, -10, -10, -10, -10, -10, -10, -10, -10, -10, -10, -10, -10, -10, -10, -10, -10, -10, -10, -10, -10, -10, -10, -10, -10, -10, -10, -10, -10, -10, -10, -10, -10, -10, -10, -10, -10, -10, -10, -10, -10, -10, -10, -10, -10, -10, 71.791664, 71.458336, 71.035713, 70.15773, 69.428574, 68.75, 67.934525, 67.419647, 66.9375, 66.392853, 65.535713, 65.044647, 64.35714, 63.267857, 62.714287, 62.1875, 61.964287, 61.598213, 60.934525, 60.25, 59.267857, 58.75, 58.0625, 57.49107, 57, 56.5, 56.0625, 55.428574, 54.702381, 54.133926, 53.580357, 53.07143, 52.0625, 51.446426, 50.892857, 50.303574, 49.577381, 49.125, 48.6875, 48.4375, 48, 47.517857, 47.142857, 47.285713, 47.443878, 47.833332, 48, 48, 48.083332, 48.166664, 48.17857, 48.081631, 48.142857, 48.083332, 47.857143, 47.8125, 47.875, 47.9375, 47.875, 47.75, 47.75, 47.794643, 47.8125, 47.9375, 48, 47.9375, 47.9375, 48.107143, 48.07143, 48.375, 48.375, 48.285713, 48.392857, 48.357143, 48.0625, 47.901787, 47.6875, 47.5625, 47.5, 47.714287, 47.714287, 47.75, 47.785713, 47.790813, 47.92857, 47.908165, 47.797619, 47.653057, 47.653057, 47.880951, 47.836735, 47.857143, 47.857143, 47.7551, 47.7449, 47.785713, 48, 48.125, 48.035713, 48.17857, 48.214287, 48.214287, 48.142857, 48, 47.857143, 47.892857, 47.6875, 47.8125, 47.8125, 47.75, 47.75, 47.598213, 47.455357, 47.25, 46.979168, 47.357143, 47.7449, 47.948978, 48.190472, 48.061226, 47.92857, 47.82143, 47.785713, 47.857143, 47.892857, 47.877552, 47.836735, 47.785713, 47.852043, 48.051022, 47.979591, 47.92857, 47.857143, 47.785713, 47.785713, 47.714287, 47.57143, 47.57143, 47.5, 47.57143, 47.67857, 47.540813, 47.530613, 47.57143, 47.3125, 47.5625, 47.5625, 47.5625, 47.5625, 47.785713, 47.857143, 47.75, 47.75, 47.625, 47.5625, 47.5, 47.5625, 47.42857, 47.535713, 47.400513, 47.319447, 47.886902, 48.083332, 48.307541, 47.708332, 47.479591, 47.392857, 47.392857, 47.42857, 47.357143, 47.357143, 47.6875, 47.6875, 47.8125, 47.75, 47.92857, 48.035713, 47.964287, 48.035713, 48.035713, 48, 48.142857, 48.17857, 48.214287, 48, 48, 48.133926, 48.819443, 48.988098, 48.811226, 48.5, 48.857143, 48.916668, 49.238094, 50.372025, 51.251705, 52.377975, 52.973213, 53.21875, 52.991074, 52.489586, -10, -10, -10, -10, 57.958332, 58.5, 58.694443, 59.166664, -10, -10, -10, -10, -10, -10, -10, -10, -10, -10, -10, -10, -10, -10, 67, 67.408333, 67.638397, 68.09375, 68.71875, 69.357147, 69.75, 70.3125, 70.827377, 71.160713, 71.553574, 71.830353, 72.482147, 73.151794, 73.58036, 73.6875, -10, -10, -10, -10, -10, -10, -10, -10, -10, -10, -10, 77.799103, 78.129463, 78.4375, 78.6875, 78.8125, 78.875, 79.125, 79.482147, 80, 80.5, 80.875, 81.446426, 82.083336, 82.574409, 82.933037, 83.125, 83.357147, 83.674103, 83.928574, 84.25, 84.5625, 85.0625, 85.5, 86, 86.5625, 87.044647, 87.708336, 88.232147, 89.03125, 89.70089, 90.21875, 90.59375, 91.125, 91.59375, 92.214287, 92.8125, 93.357147, 93.866074, 94.645836, 95.161903, 95.666672, -10, -10, -10, -10, -10, -10, -10, -10, -10, -10, -10, -10, -10, -10, -10, -10, -10, -10, -10
-10, -10, -10, -10, -10, -10, -10, -10, -10, -10, -10, -10, -10, -10, -10, -10, -10, -10, -10, -10, -10, -10, -10, -10, -10, -10, -10, -10, -10, -10, -10, -10, -10, -10, 71.75, 71.383331, 70.928574, 70.166672, 69.544647, 69.053574, 68.291664, 67.669647, 67.071426, 66.473213, 65.705353, 65.1875, 64.29464, 63.232143, 62.642857, 62.041668, 61.821426, 61.419643, 60.708336, 60.071426, 59.434525, 58.9375, 58.25, 57.57143, 57, 56.4375, 55.955357, 55.366074, 54.684525, 54.196426, 53.767857, 53.357143, 52.145832, 51.5, 50.892857, 50.303574, 49.577381, 49.1875, 48.875, 48.875, 48.794643, 48.25, 47.984692, 48.25, 48.693878, 48.75, 48.892857, 48.892857, 49, 49.083332, 49.0625, 48.946426, 49.122448, 49.035713, 49, 48.78125, 48.71875, 48.71875, 48.6875, 48.6875, 48.6875, 49.051022, 49.07143, 49.142857, 49.214287, 49.142857, 49.142857, 49.17857, 49.32143, 49.5051, 49.535713, 49.607143, 49.5, 49.32143, 48.9375, 48.651787, 48.5, 48.4375, 48.366074, 48.25, 48.34375, 48.522324, 48.763393, 48.78125, 48.8125, 48.794643, 48.952385, 48.897957, 49, 48.854164, 48.607143, 48.625, 48.5625, 48.535713, 48.765308, 48.59375, 48.92857, 48.78125, 48.84375, 48.9375, 48.9375, 48.9375, 48.9375, 48.8125, 48.6875, 48.6875, 48.625, 48.75, 48.75, 48.6875, 48.892857, 48.7551, 48.330357, 47.867344, 47.82143, 48.276787, 48.714287, 48.919643, 49, 48.875, 48.92857, 48.785713, 48.714287, 48.785713, 48.785713, 48.785713, 48.857143, 48.82143, 48.836735, 48.75893, 48.767857, 48.625, 48.517857, 48.663265, 48.880951, 48.607143, 48.214287, 48.214287, 48.091835, 48.267857, 48.321426, 48.23214, 48.485119, 48.616074, 48.214287, 48.857143, 48.785713, 48.785713, 48.857143, 49, 49.025513, 48.737499, 48.803574, 48.583332, 48.4375, 48.57143, 48.57143, 48.916668, 49, 49, 48.958332, 48.82143, 48.964287, 49.059521, 48.773808, 48.904758, 48.791668, 48.875, 49.041668, 49.041668, 49.041668, 48.82143, 48.625, 48.75, 48.75, 48.6875, 48.75, 48.892857, 48.75, 48.8125, 48.875, 49, 49, 48.9375, 49.035713, 49.07143, 49.260201, 49.630951, 49.846943, 49.882656, 49.583336, 49.520409, 49.5, 49.775509, 50.34354, 51.295918, 52.333332, 53.327381, 53.629463, 53.553574, 52.761906, -10, -10, -10, 58, 58.333332, 58.541668, 58.770832, 59.277775, -10, -10, -10, -10, -10, -10, -10, -10, -10, -10, -10, -10, -10, -10, -10, 67.322227, 67.601189, 68.041664, 68.708336, 69.5625, 69.9375, 70.397324, 70.858627, 71.285713, 71.741074, 72.142853, 72.732147, 73.285721, 73.598213, 73.645836, 73.583328, -10, -10, -10, -10, -10, -10, -10, -10, -10, -10, 77.875, 78.125, 78.53125, 78.78125, 78.9375, 79.0625, 79.3125, 79.607147, 80.0625, 80.4375, 80.75, 81.375, 82.261902, 82.633926, 83, 83.25, 83.513397, 83.8125, 84.125, 84.375, 84.6875, 85.125, 85.5, 86, 86.5, 86.9375, 87.583336, 88.107147, 88.9375, 89.60714, 90.1875, 90.607147, 91.125, 91.53125, 92.107147, 92.6875, 93.232147, 93.834824, 94.677086, 95.090179, 95.56945, 95.533333, -10, -10, -10, -10, -10, -10, -10, -10, -10, -10, -10, -10, -10, -10, -10, -10, -10, -10, -10, -10, -10, -10, -10, -10, -10, -10, -10, -10, -10, -10, -10, -10, -10, -10, -10, -10, -10, -10, -10, -10, -10, -10, -10, -10, -10, -10, -10, -10, -10, -10, -10, -10, -10, -10, -10, -10, -10, -10, -10, -10, -10, -10, -10, -10, -10, -10, -10, -10, -10, -10, -10, -10, -10, -10, -10, -10, -10, -10, -10, -10, -10, -10, -10, -10, 71.625, 71.300003, 70.866074, 70.375, 69.723213, 69.25, 68.6875, 68.026779, 67.217262, 66.589287, 65.875, 65.267853, 64.151787, 63.267857, 62.660717, 62.041668, 61.696426, 61.232143, 60.520836, 60, 59.354168, 58.830357, 58.25, 57.61607, 57.0625, 56.383926, 55.848213, 55.303574, 54.666668, 54.196426, 53.559525, 53.178574, 52.020832, 51.48214, 50.892857, 50.3125, 49.785713, 49.5625, 49.375, 49.5, 49.836735, 49.958332, 49.916668, 49.970234, 49.744644, 49.705357, 49.607143, 49.8125, 49.9375, 50, 49.9375, 49.875, 49.982143, 49.919643, 50.107143, 49.92857, 49.780613, 49.872448, 49.918369, 50.07143, 50.214287, 50.408165, 50.357143, 50.306122, 50.25, 50.107143, 50.107143, 50, 50.42857, 50.647957, 50.75, 50.67857, 50.464287, 50.214287, 49.8125, 49.714287, 49.583332, 49.806122, 49.4375, 49.017857, 49.160713, 49.616074, 50.140308, 50.160713, 50.142857, 50.17857, 50.17857, 50.107143, 50.209187, 50.166664, 49.92857, 49.666668, 49.357143, 49.666668, 49.5, 49.78125, 49.84375, 49.90625, 49.84375, 49.875, 49.875, 49.875, 50.290813, 49.916668, 49.833332, 50.107143, 49.92857, 49.92857, 49.857143, 49.785713, 49.892857, 49.897957, 49.698978, 49.797619, 49.75, 49.535713, 49.607143, 49.8125, 49.875, 49.8125, 49.6875, 49.5625, 49.5625, 49.6875, 49.669643, 49.5625, 49.6875, 49.660713, 49.6875, 49.714287, 49.723213, 49.5625, 49.455357, 49.419643, 49.773808, 49.729591, 49.916668, 49.916668, 49.612244, 49.30357, 49.285713, 49.23214, 49.646259, 49.846943, 50.125, 50.07143, 50.07143, 50.142857, 50.17857, 50.214287, 50.132656, 49.914284, 49.954082, 49.738094, 49.57143, 49.57143, 49.57143, 49.785713, 50, 50.035713, 50.035713, 49.75, 49.8125, 49.864582, 49.904762, 49.918365, 49.892857, 50.035713, 50.107143, 50.035713, 49.964287, 49.857143, 49.75, 49.785713, 49.857143, 49.857143, 49.8125, 49.57143, 49.57143, 50.17857, 50.17857, 50.214287, 50.0625, 50.0625, 49.9375, 50.17857, 50.2551, 50.333332, 50.553574, 50.553574, 50.595238, 50.510204, 50.25, 50.55357, 51.041668, 51.464287, 52.625851, 53.747025, 54.004463, 54.022324, 53.854168, 54.5, -10, -10, -10, 58.444443, 58.611115, 59.0625, 59.458332, 60.047619, -10, -10, -10, -10, -10, -10, -10, -10, -10, -10, -10, -10, -10, -10, -10, -10, -10, -10, 69.702385, 70.166664, 70.78125, 71.066963, 71.370537, 71.897324, 72.392853, 72.919647, 73.419647, 73.6875, 73.6875, 73.722221, 74.440475, 75.035713, -10, -10, -10, -10, -10, -10, -10, -10, -10, -10, 78.8125, 78.9375, 79.125, 79.25, 79.5, 79.75, 80.0625, 80.375, 80.75, 81.410721, 82.178574, 82.580353, 82.984375, 83.296875, 83.654022, 84.015625, 84.34375, 84.59375, 84.875, 85.25, 85.5625, 86, 86.4375, 86.875, 87.357147, 87.857147, 88.6875, 89.29464, 89.8125, 90.241074, 90.979164, 91.34375, 91.892853, 92.544647, 93.035721, 93.647324, 94.427086, 94.96875, 95.534233, 95.605553, -10, -10, -10, -10, -10, -10, -10, -10, -10, -10, -10, -10, -10, -10, -10, -10, -10, -10
-10, -10, -10, -10, -10, -10, -10, -10, -10, -10, -10, -10, -10, -10, -10, -10, -10, -10, -10, -10, -10, -10, -10, -10, -10, -10, -10, -10, -10, -10, -10, -10, -10, -10, 71.75, 71.466667, 71.026787, 70.517853, 69.955353, 69.5, 69, 68.383926, 67.300598, 66.64286, 65.875, 65.205353, 64.008926, 63.339287, 62.69643, 62.041668, 61.633926, 61.107143, 60.270836, 59.785713, 59.294643, 58.723213, 58.258926, 57.651787, 56.979168, 56.258926, 55.723213, 55.241074, 54.604168, 54.196426, 53.488098, 53.07143, 52.166664, 51.598213, 51.142857, 50.6875, 50.267857, 50.1875, 50.125, 50.375, 50.908165, 50.964287, 51, 50.938774, 51.085716, 50.984692, 51.291668, 51.07143, 51.142857, 51.142857, 51, 50.857143, 51.051022, 51.122448, 51.25, 50.875, 50.745537, 51.015308, 51.025513, 51.17857, 51.357143, 51.561226, 51.5, 51.142857, 51.0625, 50.9375, 50.919643, 50.924999, 51.241074, 51.401787, 51.785713, 51.4375, 51.1875, 50.9375, 50.964287, 51.051022, 51.375, 51.127552, 50.964287, 51, 51.041668, 50.918369, 51.158165, 51.142857, 51.214287, 51.285713, 51.32143, 51.25, 51.280613, 51.202381, 50.92857, 51.166668, 51.125, 51.25, 51.333332, 51.142857, 51.214287, 51.17857, 51.035713, 51, 51.035713, 51.142857, 51.397957, 51.666668, 51.541668, 51.214287, 51, 50.892857, 50.75, 50.526787, 50.723213, 50.948978, 50.938774, 50.82653, 50.75, 50.642857, 50.75, 50.92857, 51, 51.07143, 50.989799, 50.619049, 50.591835, 50.642857, 50.693878, 50.642857, 50.82143, 50.535713, 50.607143, 50.566326, 50.612244, 50.642857, 50.714287, 50.464287, 50.570831, 50.933674, 50.908165, 50.892857, 50.7551, 50.454079, 50.2551, 50.224487, 50.488094, 50.739799, 50.964287, 51.107143, 51.107143, 51.17857, 51.17857, 51.17857, 51.096943, 50.950001, 50.776787, 50.768707, 50.5, 50.544643, 50.5625, 50.75, 50.875, 50.84375, 50.8125, 50.6875, 50.6875, 50.78125, 50.8125, 51.142857, 51.17857, 51.32143, 51.357143, 51.214287, 50.875, 50.6875, 50.785713, 50.785713, 50.92857, 51, 51.17857, 51.458332, 51.375, 51.17857, 51.142857, 51.142857, 51.142857, 51.107143, 51.07143, 51, 51.125, 51.25, 51.3125, 51.25, 51.25, 51.125, 51.125, 51.321426, 51.791668, 52.520409, 53.193878, 53.836311, 54.066963, 54.200893, 54.19643, 54.444443, -10, -10, -10, -10, -10, 59.166668, 59.833332, 60.253967, 60.666668, -10, -10, -10, -10, -10, -10, -10, -10, -10, -10, -10, -10, -10, -10, -10, -10, -10, -10, -10, 70.96875, 71.197914, 71.433037, 72.022324, 72.517853, 72.919647, 73.375, 73.625, 73.5625, 73.791664, 74.682533, 75.214287, 76, -10, -10, -10, -10, -10, -10, -10, -10, -10, 79.03125, 79.145836, 79.296875, 79.46875, 79.75, 80, 80.25, 80.5, 80.8125, 81.348221, 82.044647, 82.549103, 83.015625, 83.435272, 83.765625, 84.1875, 84.515625, 84.828125, 85.140625, 85.375, 85.625, 85.9375, 86.3125, 86.8125, 87.357147, 87.9375, 88.544647, 89.080353, 89.5625, 90.053574, 90.791664, 91.15625, 91.705353, 92.294647, 92.821426, 93.428574, 94.145836, 94.75, 95.379471, 95.745827, 96.199997, -10, -10, -10, -10, -10, -10, -10, -10, -10, -10, -10, -10, -10, -10, -10, -10, -10, -10, -10, -10, -10, -10, -10, -10, -10, -10, -10, -10, -10, -10, -10, -10, -10, -10, -10, -10, -10, -10, -10, -10, -10, -10, -10, -10, -10, -10, -10, -10, -10, -10, -10, -10, -10, -10, -10, -10, -10, -10, -10, -10, -10, -10, -10, -10, -10, -10, -10, -10, -10, -10, -10, -10, -10, -10, -10, -10, -10, -10, -10, -10, -10, -10, -10, 71.625, 71.383331, 71.017853, 70.589287, 70.125, 69.6875, 69.25, 68.5625, 67.309525, 66.64286, 66.125, 65.473213, 64.321426, 63.380951, 62.69643, 61.979168, 61.464287, 60.928574, 60.166668, 59.607143, 59.0625, 58.535713, 58.133926, 57.633926, 56.979168, 56.196426, 55.553574, 55.125, 54.625, 54.25, 53.488098, 52.809521, 52.154762, 51.8125, 51.700001, 51.330357, 51.142857, 51.32143, 51.392857, 51.67857, 51.732143, 51.8125, 51.875, 51.758926, 52.121429, 52.056122, 52.188774, 52.335716, 52.224487, 52.153057, 51.6875, 51.589287, 51.830357, 52.051022, 52.232143, 52.270832, 51.941326, 51.997448, 52.025513, 51.9375, 52.357143, 52.464287, 52.392857, 52.017857, 51.875, 51.92857, 51.872448, 51.746426, 52.241074, 52.401787, 52.5625, 52.3125, 52, 51.8125, 51.964287, 52.142857, 52.285713, 52.163265, 52.040813, 51.892857, 52, 52.066326, 51.950893, 51.9375, 51.9375, 52.214287, 52.214287, 52.214287, 52.089287, 52.020832, 52.07143, 52.07143, 51.964287, 52.07143, 52.214287, 52.232143, 52.267857, 52.232143, 52.017857, 51.92857, 51.964287, 52.07143, 52.290813, 52.392857, 52.392857, 52.32143, 52.142857, 52, 51.5625, 51.464287, 51.598213, 51.6875, 51.75, 51.6875, 51.625, 51.714287, 51.5625, 51.75, 52.07143, 52.142857, 52.096943, 51.541668, 51.455357, 51.5, 51.801022, 51.67857, 51.785713, 51.473213, 51.4375, 51.17347, 51.290813, 51.583332, 51.918365, 51.806122, 51.570831, 51.979595, 51.857143, 52.051022, 51.877552, 51.622448, 51.357143, 51.133926, 51.333332, 51.616074, 51.8125, 51.875, 51.875, 51.875, 51.875, 51.875, 51.803574, 51.885715, 51.776787, 51.672619, 51.857143, 51.979591, 51.892857, 51.92857, 52, 51.857143, 51.857143, 51.785713, 51.785713, 51.857143, 52, 52.142857, 52.214287, 52.392857, 52.357143, 52.285713, 52, 51.57143, 51.5, 51.75, 52.107143, 52.142857, 52.214287, 52.357143, 52.285713, 52.32143, 51.857143, 51.857143, 52.053574, 51.8125, 52, 51.964287, 52.07143, 52.17857, 52.0625, 52, 52.0625, 52, 52.125, 52.540813, 52.520409, 52.765308, 52.977676, 53.805061, 54.066963, 54.34375, 54.375, 54.333332, -10, -10, -10, -10, -10, -10, 60.125, 60.273811, 60.634922, -10, -10, -10, -10, -10, -10, -10, -10, -10, -10, -10, -10, -10, -10, -10, -10, -10, -10, -10, 71.21875, 71.489578, 71.65625, 72.15625, 72.5, 72.8125, 73.3125, 73.5625, 73.6875, 74, 74.699402, 75.223213, 75.916664, -10, -10, 77.125, 77.166672, -10, -10, -10, -10, -10, 79.25, 79.333336, 79.5, 79.71875, 79.96875, 80.21875, 80.40625, 80.59375, 80.875, 81.285721, 81.875, 82.330353, 82.774551, 83.3936, 83.828125, 84.375, 84.703125, 85.078125, 85.390625, 85.46875, 85.6875, 85.9375, 86.294647, 86.75, 87.294647, 87.8125, 88.357147, 88.875, 89.419647, 89.866074, 90.604164, 90.9375, 91.392853, 91.991074, 92.65477, 93.178574, 93.758926, 94.428574, 94.950897, 95.752975, 96.133331, -10, -10, -10, -10, -10, -10, -10, -10, -10, -10, -10, -10, -10, -10, -10, -10, -10
-10, -10, -10, -10, -10, -10, -10, -10, -10, -10, -10, -10, -10, -10, -10, -10, -10, -10, -10, -10, -10, -10, -10, -10, -10, -10, -10, -10, -10, -10, -10, -10, -10, -10, 71.875, 71.583328, 71.196426, 70.660713, 70.1875, 69.6875, 69.25, 68.5625, 67.309525, 66.64286, 66.0625, 65.455353, 64.571426, 63.440475, 62.767857, 62.125, 61.535713, 61, 60.375, 59.848213, 59.241074, 58.514881, 58.142853, 57.678574, 57.041668, 56.205357, 55.553574, 55.1875, 54.75, 54.375, 53.613098, 52.943455, 52.571426, 52.446426, 52.575001, 52.127552, 52.416668, 52.416668, 52.5, 52.964287, 53, 53, 53.07143, 52.821426, 52.799999, 52.841835, 53.258926, 53.585716, 53.089287, 52.883926, 52.5625, 52.464287, 52.705357, 52.732143, 52.875, 53.07143, 53.051022, 52.919643, 52.704082, 52.785713, 53.1875, 53.1875, 53.0625, 52.767857, 52.625, 52.785713, 52.836735, 53.174488, 53.561226, 53.596943, 53.57143, 53.0625, 52.875, 53.035713, 53.107143, 52.892857, 53.285713, 53.035713, 52.964287, 52.90625, 53.03125, 53.09375, 53.09375, 53, 52.9375, 52.9375, 52.875, 52.875, 53.07143, 53, 52.875, 52.875, 52.8125, 52.875, 52.9375, 52.9375, 52.9375, 52.96875, 52.78125, 52.71875, 52.78125, 52.875, 53.098213, 53.1875, 53.1875, 53.125, 53, 53.07143, 52.892857, 52.816326, 52.897957, 52.75, 52.8125, 52.6875, 52.6875, 52.857143, 52.92857, 53.07143, 53.142857, 53.214287, 53.204082, 52.904762, 52.913265, 52.669643, 52.57143, 52.714287, 52.5625, 52.535713, 52.75, 53, 53, 53.083332, 52.979591, 52.887756, 52.735714, 52.954082, 53.051022, 53.122448, 52.8125, 52.397957, 52.137756, 52.714287, 52.67857, 52.857143, 53.035713, 52.9375, 52.9375, 52.9375, 52.9375, 52.875, 52.57143, 52.57143, 53.112244, 53.030613, 53.035713, 53.086735, 52.964287, 52.92857, 52.8125, 52.75, 52.75, 52.6875, 52.857143, 52.857143, 52.964287, 52.875, 52.9375, 53.0625, 53.0625, 53.285713, 53.25, 53.333332, 53.333332, 53.07143, 53.25, 53.357143, 53.1875, 53.3125, 53.25, 53.25, 53.666668, 53.583332, 53.053574, 52.8125, 52.8125, 52.8125, 52.9375, 52.785713, 52.785713, 52.714287, 53.0625, 53, 53.42347, 53.734692, 53.5, 53.443878, 53.834824, 54.013393, 54.15625, 54.28125, 54.375, 54.416664, -10, -10, -10, -10, -10, -10, 60.333332, 60.773811, 60.976192, 61.433334, -10, -10, -10, -10, -10, -10, -10, -10, -10, -10, -10, -10, -10, -10, -10, -10, -10, -10, 71.4375, 71.666664, 71.8125, 72.3125, 72.65625, 73, 73.4375, 73.758926, 74.0625, 74.375, 75.163689, 75.681549, 76.116074, 76.982147, 77.321426, 77.375, 77.56945, -10, -10, -10, -10, -10, 79.40625, 79.520836, 79.71875, 79.9375, 80.1875, 80.40625, 80.625, 80.90625, 81.25, 81.607147, 81.875, 82.25, 82.680801, 83.406998, 83.921875, 84.46875, 84.796875, 85.234375, 85.546875, 85.5625, 85.776787, 86.044647, 86.348213, 86.75, 87.232147, 87.6875, 88.232147, 88.75, 89.232147, 89.665176, 90.385414, 90.78125, 91.174103, 91.758926, 92.511902, 93.022324, 93.665176, 94.245537, 94.75, 95.693451, 96.099998, 96.416672, -10, -10, -10, -10, -10, -10, -10, -10, -10, -10, -10, -10, -10, -10, -10, -10, -10, -10, -10, -10, -10, -10, -10, -10, -10, -10, -10, -10, -10, -10, -10, -10, -10, -10, -10, -10, -10, -10, -10, -10, -10, -10, -10, -10, -10, -10, -10, -10, -10, -10, -10, -10, -10, -10, -10, -10, -10, -10, -10, -10, -10, -10, -10, -10, -10, -10, -10, -10, -10, -10, -10, -10, -10, -10, -10, -10, -10, -10, -10, -10, -10, -10, 72.208336, 71.683327, 71.258926, 70.598213, 70.080353, 69.5625, 69.0625, 68.383926, 67.288689, 66.60714, 66, 65.375, 64.642853, 63.547623, 62.892857, 62.1875, 61.553574, 61, 60.375, 59.848213, 59.241074, 58.514881, 58.142853, 57.669647, 56.895836, 56.205357, 55.598213, 55.3125, 54.9375, 54.625, 54.258926, 53.747025, 53.571426, 53.760201, 53.907143, 54.05357, 54.083332, 54.166668, 54.291668, 54.214287, 54.25, 54.17857, 54.142857, 54.035713, 54.25, 54.375, 54.331631, 54.44286, 54.026787, 53.883926, 53.5625, 53.7449, 53.660713, 53.6875, 53.8125, 53.875, 53.875, 54.142857, 54.375, 54.375, 54.214287, 53.9375, 53.875, 53.625, 53.526787, 53.669643, 53.785717, 54.395916, 54.67347, 54.602043, 54.25, 53.9375, 53.75, 53.964287, 54.107143, 54.541668, 54.433674, 54.080357, 54.017857, 53.9375, 54.107143, 54.214287, 54.25, 54.214287, 54.17857, 53.9375, 53.642857, 53.928574, 53.666668, 53.580357, 53.785713, 53.785713, 53.785713, 53.82143, 53.6875, 53.6875, 53.8125, 53.993752, 53.71875, 53.727676, 53.65625, 53.6875, 53.8125, 53.875, 53.9375, 54.214287, 54.17857, 54.142857, 53.964287, 53.836735, 53.877552, 54, 54.035713, 53.92857, 53.92857, 53.857143, 53.92857, 54.035713, 54.07143, 53.9375, 53.928574, 54.023808, 54.081635, 54.051022, 53.660717, 53.666668, 53.92857, 53.964287, 53.92857, 53.892857, 53.892857, 53.892857, 53.732143, 53.669643, 53.549999, 53.741074, 53.794643, 54.051022, 54.035713, 54.208332, 54.125, 54.035713, 54.035713, 54.142857, 54.17857, 54.142857, 54.07143, 54, 54.07143, 54.07143, 54.25, 54.291668, 54.091835, 54.051022, 54.107143, 53.919643, 53.8125, 53.6875, 53.852043, 53.979591, 54.061226, 54.142857, 54.107143, 53.57143, 53.642857, 53.714287, 53.714287, 54, 54, 54.214287, 54.17857, 54.142857, 54.142857, 54.07143, 54.17857, 54.214287, 54.17857, 54.25, 54.214287, 54.25, 54.285713, 54.214287, 54.132656, 53.857143, 53.892857, 53.92857, 54.107143, 54.416668, 54.375, 54.333332, 54.17857, 54.214287, 54.4949, 54.806122, 54.67857, 54.925598, 54.40625, 54.34375, 54.40625, 54.5, 54.625, 54.770832, 55.5, -10, -10, -10, -10, -10, -10, 61.041668, 61.226192, 61.622223, 62.549999, -10, -10, -10, -10, -10, -10, -10, -10, -10, -10, -10, -10, -10, -10, -10, -10, -10, 71.375, 71.625, 71.84375, 72.388397, 72.78125, 73.1875, 73.625, 74.008926, 74.375, 74.6875, 75.247025, 75.788696, 76.366074, 77.071434, 77.464287, 77.53125, 77.802086, 78.75, 79.0625, 79.25, 79.25, 79.25, 79.46875, 79.708336, 80.013397, 80.25, 80.5, 80.71875, 81, 81.28125, 81.5625, 81.75, 81.9375, 82.25, 82.696426, 83.422623, 83.96875, 84.515625, 84.828125, 85.328125, 85.546875, 85.5625, 85.839287, 86.151787, 86.473213, 86.875, 87.25, 87.625, 88.169647, 88.6875, 89.232147, 89.71875, 90.21875, 90.71875, 91.138397, 91.651787, 92.458328, 92.959824, 93.602676, 94.004463, 94.464287, 95.589287, 96.099998, 96.44445, 96.708328, -10, -10, -10, -10, -10, -10, -10, -10, -10, -10, -10, -10, -10, -10, -10
