-10, -10, -10, 38, 38, 37.9375, 37.8125, 37.8125, 37.75, 37.625, 37.5625, 37.375, 37.1875, 37.1875, 37.125, 37.0625, 37.125, 37.0625, 37.0625, 37.0625, 37, 36.9375, 36.75, 36.5625, 36.375, 36.1875, 36.125, 36.0625, 36.0625, 36.0625, 36, 35.9375, 35.8125, 35.6875, 35.5625, 35.375, 35.25, 35.1875, 35.1875, 35.1875, 35.125, 35.0625, 34.875, 34.75, 34.5625, 34.4375, 34.5, 34.5, 34.59375, 34.875, 35.0625, 35.25, 34.927082, 34.819939, 35.242561, 35.275295, 35.34375, 35.477676, 35.245537, 35.214287, 34.867348, 34.566326, 34.541668, 33.95536, 33.8125, 33.875, 34.035713, 34.03125, 33.96875, 33.910713, 33.6875, 33.549107, 33.34375, 33.214287, 33.125, 33.0625, 33.0625, 32.875, 32.78125, 32.625, 32.625, 32.767857, 32.84375, 32.84375, 32.71875, 32.53125, 32.611607, 32.75, 32.875, 33.0625, 33.044643, 32.958332, 33.03125, 32.96875, 33.022324, 32.708336, 32.979591, 33.323128, 33.353569, 32.898811, 32.821426, 32.619049, 32.821426, 33.0625, 33, 33.1875, 33.125, 33.125, 33.1875, 33.125, 33.25, 33.375, 33.4375, 33.392857, 33.258926, 33.0625, 33.026787, 32.991074, 32.430271, 32.175167, 32.231293, 32.607143, 32.803574, 33.0625, 33.223213, 33.080357, 32.870537, 32.758926, 32.8125, 33.035713, 33.34375, 33.799999, 34.452381, 34.722225, 35, -10, -10, -10, 31.75, 32.337502, 32.491074, 32.75, 32.90625, 33.03125, 33.09375, 32.90625, 32.767857, 32.6875, 32.625, 33.07143, 33.285713, 33.5, 33.5, 33.42857, 33.285713, 33.07143, 33.142857, 33.295918, 33.371429, 33.224491, 33.270409, 33.142857, 33.285713, 33.32653, 33.056122, 32.867348, 32.591835, 32.5, 32.125, 31.96875, 31.90625, 32.05357, 32.19643, 32.392857, 32.57143, 32.476192, 32.469387, 32.489796, 32.619049, 32.765308, 33.035713, 33.142857, 33.132652, 32.833336, 32.545918, 32.044643, 31.839287, 31.758928, 32.061222, 31.948978, 32.047619, 32.122448, 32.107143, 32.17857, 32.142857, 31.954082, 31.547619, 31.486393, 31.453739, 30.829931, 30.486393, 30.051022, 29.875, 29.75, 29.216665, 29.064285, 28.933331, -10, -10, -10, -10, 26.071428, 26.083334, 26.1875, 26.291666, 26.4375, 26.5625, 26.5625, 26.375, 26.1875, 26.125, 26.125, 26.276787, 26.607143, 26.741072, 26.8125, 26.8125, 26.446428, 22.330952, 20.624491, 19.671429, 19.375, 19.125, 19.125, 19.0625, 19, 19, 18.9375, 18.6875, 18.4375, 18.1875, 18, 17.9375, 17.875, 17.75, 17.75, 17.8125, 17.875, 17.75, 17.5, 17.25, 17, 17, 17, 17, 17, 17, 17, 17, 16.875, 16.75, 16.5, 16.25, 16.1875, 16.0625, 16.0625, 16, 15.9375, 15.875, 15.8125, 15.8125, 15.6875, 15.5, 15.3125, 15.125, 15.0625, 15.0625, 15.0625, 15.0625, 14.875, 14.6875, 14.5, 14.3125, 14.1875, 14.25, 14.25, 14.1875, 14.1875, 14.0625, 14, 14, 14, 13.9375, 13.875, 13.8125, 13.5625, 13.375, 13.1875, 13, 13, 13, 13, 12.9375, 12.9375, 12.9375, 12.9375, 12.9375, 12.8125, 12.5625, 12.3125, 12.1875, 12.0625, 12.0625, 12.0625, 12, 12, 12.0625, 12.125, 12.125, 12.125, 12.0625, 12, 11.9375, 11.8125, 11.6875, 11.625, 11.6875, 11.8125, 11.9375, 12, 12, 12, 12, 12, 12, 12, 12, 12, 12, 12, 12, 12.0625, 12.25, 12.5, 12.6875, 12.8125, 12.8125, 12.678572, 12.416667, 12.397322, 12.333333, -10, -10, -10, -10, -10, -10, -10, -10, -10, -10, -10, -10, -10, -10, -10, -10, -10, -10, -10, -10, -10, -10, -10, -10, -10, -10, -10, 38.25, 38.049999, 37.892857, 37.830357, 37.625, 37.6875, 37.6875, 37.625, 37.5625, 37.3125, 37.125, 37.125, 37.125, 37.125, 37.125, 37, 37, 37, 37, 37, 36.875, 36.6875, 36.4375, 36.1875, 36.0625, 36, 36, 36, 35.9375, 35.875, 35.8125, 35.6875, 35.5625, 35.4375, 35.375, 35.3125, 35.25, 35.125, 35, 34.9375, 34.8125, 34.75, 34.6875, 34.640625, 34.828125, 34.890625, 34.953125, 35.25, 35.4375, 35.607143, 35.208332, 35.239582, 35.492561, 35.552082, 35.65625, 35.834824, 35.808037, 36.05357, 36.030613, 35.816326, 35.57143, 35.132652, 34.82143, 34.75, 34.660713, 34.566963, 34.361607, 34.294643, 34.125, 34.049107, 33.808037, 33.414288, 33.375, 33.241074, 33.3125, 33.0625, 32.90625, 32.75, 32.821426, 33.075001, 32.84375, 32.708332, 32.4375, 32.25, 32.330357, 32.67857, 32.75, 32.892857, 32.872448, 32.583332, 32.78125, 32.78125, 32.90625, 32.770836, 32.897957, 32.989796, 32.853569, 32.273811, 32.133926, 32.104168, 32.196426, 32.375, 32.339287, 32.607143, 32.616074, 32.75, 32.875, 33, 33.25, 33.5, 33.5625, 33.392857, 33.133926, 32.8125, 32.714287, 32.616074, 32.282738, 32.059525, 32.104164, 32.502975, 32.741074, 33.0625, 33.25, 33.25, 33.111607, 33.008926, 33.0625, 33.223213, 33.40625, 33.821426, 34.339287, 34.604168, 34.888889, -10, -10, -10, 32.458332, 33.066666, 33.053574, 33.25, 33.3125, 33.375, 33.5, 33.375, 33.267857, 33, 33.125, 33.3125, 33.571426, 33.9375, 33.9375, 33.875, 33.6875, 33.4375, 33.4375, 33.571426, 33.575001, 33.446426, 33.517857, 33.4375, 33.5625, 33.598213, 33.330357, 33.133926, 32.955357, 32.9375, 32.732143, 32.5, 32.5, 32.375, 32.5, 32.6875, 32.875, 33, 33.0625, 33, 32.875, 32.9375, 33.1875, 33.375, 33.428574, 33.104168, 32.758926, 32.321426, 32.089287, 32.1875, 32.32143, 32.267857, 32.416668, 32.5, 32.5, 32.5625, 32.5, 32.366074, 31.970238, 31.779167, 31.647022, 30.726191, 30.27976, 29.387756, 29.428572, 29.071428, 28.797619, 28.617346, 28.380951, 27.373016, 25.666668, 25.178572, 25.125, 25.547617, 25.8125, 25.9375, 26, 26.125, 26.1875, 26.1875, 26.125, 26.0625, 26, 26, 26.089287, 26.357143, 26.553572, 26.410713, 26.142857, 25.520407, 21.039682, 19.6625, 19.321428, 19.125, 19.125, 19.125, 19.0625, 19, 19, 19, 18.75, 18.5, 18.25, 18, 17.9375, 17.875, 17.6875, 17.6875, 17.75, 17.8125, 17.8125, 17.5625, 17.3125, 17.0625, 17, 17, 17, 17, 17, 17, 17, 16.875, 16.75, 16.5, 16.25, 16.125, 16, 16, 15.9375, 15.9375, 15.8125, 15.6875, 15.6875, 15.5, 15.375, 15.25, 15.0625, 15, 15, 15, 15, 14.875, 14.6875, 14.5625, 14.375, 14.25, 14.3125, 14.25, 14.1875, 14.1875, 14.0625, 14, 14, 14, 13.9375, 13.9375, 13.9375, 13.6875, 13.5, 13.25, 13, 13, 13, 13, 12.9375, 12.9375, 12.9375, 12.9375, 13, 12.9375, 12.6875, 12.4375, 12.25, 12.0625, 12.0625, 12.0625, 12, 12, 12, 11.9375, 11.875, 11.875, 11.8125, 11.8125, 11.75, 11.5625, 11.4375, 11.4375, 11.5625, 11.75, 11.9375, 12, 12, 12.0625, 12.0625, 12.0625, 12.0625, 12, 12, 12, 12, 12, 12, 12, 12.1875, 12.4375, 12.625, 12.75, 12.625, 12.392858, 12.166667, 12.254464, 12.25
-10, -10, 38.333332, 38.099998, 37.857143, 37.830357, 37.5625, 37.6875, 37.6875, 37.6875, 37.6875, 37.5, 37.3125, 37.25, 37.1875, 37.125, 37.125, 37, 37, 37, 37, 37, 36.9375, 36.8125, 36.5625, 36.3125, 36.125, 36, 36, 36, 35.9375, 35.875, 35.8125, 35.75, 35.6875, 35.625, 35.625, 35.5625, 35.4375, 35.25, 35, 34.875, 34.875, 34.982143, 35, 35.046875, 35.234375, 35.234375, 35.359375, 35.6875, 35.857143, 36, 35.845238, 35.996597, 36.122025, 36.145832, 36.035713, 36.366074, 36.401787, 36.625, 36.669643, 36.780613, 36.596943, 35.883926, 35.857143, 35.5, 35.806122, 35.612244, 35.142857, 35.013393, 34.90625, 34.861607, 34.558037, 33.985714, 33.839287, 33.678574, 33.6875, 33.5, 33.34375, 33.125, 33.223213, 33.470833, 32.959824, 32.681549, 32.464287, 32.375, 32.153061, 31.916666, 31.791666, 31.833334, 32.132652, 32.270832, 32.46875, 32.46875, 32.65625, 32.8125, 32.946426, 33.07143, 32.991074, 32.559525, 32.133926, 31.8125, 31.758928, 31.714285, 31.887756, 32.357143, 32.366074, 32.5, 32.5625, 32.6875, 33, 33.25, 33.3125, 33.205357, 32.946426, 32.6875, 32.651787, 32.473213, 32.104164, 32.080357, 32.0625, 32.294643, 32.375, 32.6875, 32.875, 33, 32.986607, 32.883926, 32.8125, 32.8125, 32.924107, 33.488094, 34.05357, 34.375, 34.559525, -10, -10, -10, 32.541664, 32.754166, 32.76786, 32.875, 32.982143, 33.1875, 33.25, 33.0625, 32.785713, 32.625, 32.625, 32.8125, 33.071426, 33.375, 33.5, 33.3125, 33.25, 33.0625, 33, 33.008926, 32.950001, 32.883926, 33.017857, 33, 33.125, 33.160713, 33.017857, 33.008926, 33.125, 33.1875, 32.982143, 32.714287, 32.625, 32.4375, 32.5625, 32.6875, 32.875, 33, 33, 32.875, 32.75, 32.75, 33, 33.1875, 33.25, 33.125, 32.8125, 32.446426, 32.151787, 32.1875, 32.214287, 32.080357, 32.166668, 32.25, 32.25, 32.3125, 32.25, 32.1875, 31.991072, 31.737499, 31.559523, 30.534014, 29.931973, 28.816328, 28.724489, 28.285715, 28.050594, 27.75, 27.375, 26.161905, 25.527779, 25.119049, 25.083334, 25.410713, 25.625, 25.8125, 25.875, 26, 26, 26, 26, 26, 26, 25.9375, 25.964287, 26.169643, 26.303572, 25.910713, 23.361113, 22.238096, 19.708334, 19.3125, 19, 19, 19, 19, 19, 19, 18.9375, 18.875, 18.625, 18.375, 18.1875, 18, 17.875, 17.8125, 17.625, 17.625, 17.75, 17.75, 17.75, 17.5, 17.25, 17.0625, 17, 17, 17, 17, 17, 17, 17, 16.8125, 16.625, 16.375, 16.125, 16.0625, 16, 16, 15.9375, 15.875, 15.6875, 15.5, 15.4375, 15.25, 15.1875, 15.125, 15, 15, 15, 15, 15, 14.9375, 14.8125, 14.75, 14.5625, 14.375, 14.3125, 14.1875, 14.0625, 14.0625, 14, 13.9375, 13.9375, 13.9375, 13.875, 13.875, 13.9375, 13.75, 13.5625, 13.3125, 13.0625, 13, 13, 13, 12.9375, 12.9375, 12.9375, 12.9375, 13, 12.875, 12.625, 12.375, 12.1875, 12.0625, 12.0625, 12.0625, 12, 12, 12, 11.9375, 11.875, 11.875, 11.75, 11.6875, 11.5625, 11.3125, 11.1875, 11.1875, 11.375, 11.625, 11.875, 12, 12, 12.0625, 12.0625, 12.0625, 12.0625, 12, 12, 12, 12, 12, 12, 12, 12.25, 12.5, 12.625, 12.625, 12.339286, 12.142858, 12.023809, 12.223214, 12.291667, -10, -10, -10, -10, -10, -10, -10, -10, -10, -10, -10, -10, -10, -10, -10, -10, -10, -10, -10, -10, -10, -10, -10, -10, -10, -10, -10, 38.25, 38.099998, 37.857143, 37.892857, 37.6875, 37.8125, 37.875, 37.875, 37.8125, 37.625, 37.4375, 37.3125, 37.25, 37.1875, 37.125, 37, 37, 37, 37, 37, 37, 36.9375, 36.6875, 36.4375, 36.1875, 36, 36, 36, 36, 36, 36, 36, 35.875, 35.8125, 35.75, 35.625, 35.5625, 35.375, 35.25, 35.160713, 35.151787, 35.419643, 35.395832, 35.192707, 35.317707, 35.446877, 35.776043, 36.15625, 36.357143, 36.616074, 36.833336, 37.091835, 37.387753, 37.285713, 37.666668, 37.0625, 37.075893, 37.229168, 37.059525, 37.035717, 37.632656, 36.273808, 36.166668, 36.3125, 36.690479, 36.5051, 36.234692, 35.790176, 35.71875, 35.71875, 35.433037, 34.860714, 34.651787, 34.428574, 34.4375, 34.607143, 34.517857, 34.357143, 34.469387, 34.573811, 33.489796, 33.028912, 32.724491, 32.758926, 32.217262, 32.145832, 32.125, 31.928572, 32.11607, 31.913689, 32.03125, 31.90625, 31.96875, 32, 32.080357, 32.587502, 32.612499, 32.392857, 32.0625, 31.6875, 31.5625, 31.5, 31.651787, 31.982143, 32.053574, 32.1875, 32.1875, 32.3125, 32.625, 32.75, 32.8125, 32.8125, 32.5625, 32.3125, 32.294643, 32.194641, 31.9375, 32.008926, 31.982143, 32.125, 32.125, 32.401787, 32.586735, 32.693878, 32.830357, 32.633926, 32.4375, 32.375, 32.455357, 32.925594, 33.446426, 33.6875, 33.90136, 31.357143, 30.964287, 31.142857, 32.5, 32.541668, 32.589287, 32.625, 32.732143, 32.9375, 33, 32.875, 32.598213, 32.5, 32.5, 32.625, 32.821426, 33, 32.785713, 32.9375, 32.9375, 32.8125, 32.75, 32.6875, 32.5, 32.5625, 32.625, 32.625, 32.625, 32.625, 32.6875, 32.75, 32.9375, 33, 32.794643, 32.589287, 32.5, 32.3125, 32.375, 32.4375, 32.5625, 32.6875, 32.6875, 32.5625, 32.4375, 32.375, 32.580357, 32.895832, 32.895832, 32.6875, 32.5, 32.3125, 32.1875, 32.125, 32.044643, 31.830357, 31.854166, 32, 32, 32, 31.90625, 31.875, 31.741072, 31.549999, 31.340773, 30.449406, 29.77976, 28.464287, 28.321428, 28, 27.845238, 27.571428, 26.642857, 26.068027, 25.552084, 25.183037, 25.09375, 25.160713, 25.4375, 25.6875, 25.75, 25.875, 25.875, 25.8125, 25.8125, 25.875, 25.875, 25.9375, 26, 26.0625, 25.875, 24.945578, 21.880953, 20.632654, 19.476191, 19.3125, 19, 19, 19, 19, 19, 19, 18.875, 18.75, 18.5, 18.25, 18.125, 17.9375, 17.8125, 17.75, 17.5625, 17.5625, 17.625, 17.625, 17.6875, 17.5, 17.3125, 17.125, 17, 17, 17, 17, 17, 17, 17, 16.8125, 16.5625, 16.3125, 16.0625, 16, 16, 16, 16, 15.9375, 15.75, 15.5625, 15.4375, 15.25, 15.1875, 15.125, 15, 15, 15, 15, 15, 15, 14.9375, 14.9375, 14.8125, 14.625, 14.4375, 14.25, 14, 13.875, 13.875, 13.75, 13.75, 13.8125, 13.8125, 13.875, 13.9375, 13.75, 13.5625, 13.3125, 13.125, 13.0625, 13, 12.9375, 12.875, 12.875, 12.875, 12.9375, 13, 12.8125, 12.5625, 12.3125, 12.0625, 12, 12, 12, 12, 12, 12, 11.9375, 11.875, 11.8125, 11.625, 11.5, 11.375, 11.25, 11.1875, 11.25, 11.375, 11.5625, 11.8125, 11.9375, 12, 12.0625, 12.0625, 12.0625, 12.0625, 12, 12, 12, 12, 12, 12, 12, 12.25, 12.4375, 12.5625, 12.482143, 11.982143, 11.880953, 12.190476, 12.473214, 12.666667
-10, 38, 38.25, 38.099998, 37.857143, 37.830357, 37.714287, 37.910713, 37.875, 37.830357, 37.6875, 37.4375, 37.3125, 37.25, 37.294643, 37.25, 37.1875, 37.0625, 37, 37, 37, 36.9375, 36.875, 36.8125, 36.5625, 36.375, 36.1875, 36, 36, 36, 36, 36, 36, 36, 35.9375, 35.9375, 35.875, 35.8125, 35.8125, 35.732143, 35.6875, 35.660713, 35.651787, 35.919643, 35.864582, 35.630207, 35.630207, 35.759377, 36.088543, 36.46875, 36.794643, 37.1875, 37.543751, 37.925171, 38.462246, 37.849998, 38.416664, 38.07143, 37.65625, 37.770836, -10, -10, 38.491074, -10, -10, 36.979168, 37.379166, 37.205357, 37.080357, 36.821426, 36.6875, 36.6875, 36.401787, 36.124489, 35.959187, 35.7449, 35.57143, 35.556122, 35.42857, 35.25, 35.357143, 35.352379, 35.035717, 34.579365, 34.303574, 33.831631, 32.498299, 32.652775, 32.541668, 32.5, 32.234692, 31.948978, 31.989796, 31.857143, 31.785715, 31.583334, 31.663265, 32.150002, 32.174999, 31.955357, 31.6875, 31.375, 31.25, 31.25, 31.401787, 31.669643, 31.741072, 31.875, 31.875, 32.0625, 32.3125, 32.17857, 32.4375, 32.36607, 32.0625, 32.0625, 32.258926, 32.292858, 31.857143, 31.973213, 31.857143, 32, 32.0625, 32.276787, 32.544643, 32.535713, 32.4375, 32.3125, 32.125, 32.0625, 32.080357, 32.425594, 32.724491, 33.035713, 32.539684, 31.404762, 31.119049, 31.238096, 32, 32.291668, 32.401787, 32.46875, 32.544643, 32.6875, 32.6875, 32.59375, 32.455357, 32.375, 32.375, 32.5, 32.571426, 32.6875, 32.6875, 32.42857, 32.625, 32.5625, 32.4375, 32.375, 32.1875, 32.1875, 32.1875, 32.1875, 32.25, 32.3125, 32.5, 32.5625, 32.75, 32.8125, 32.607143, 32.464287, 32.4375, 32.25, 32.25, 32.25, 32.25, 32.375, 32.375, 32.25, 32.125, 32, 32.142857, 32.458332, 32.520832, 32.375, 32.25, 32, 31.875, 31.8125, 31.8125, 31.875, 31.875, 31.875, 31.8125, 31.6875, 31.65625, 31.625, 31.491072, 31.299999, 31.197916, 30.544643, 29.77976, 28.571428, 28.321428, -10, -10, -10, 26.1875, 25.708334, 25.34375, 25.0625, 24.9375, 24.875, 25.125, 25.375, 25.5, 25.625, 25.625, 25.5625, 25.5625, 25.6875, 25.75, 25.875, 26, 25.785713, 25.09524, 22.230158, 20.452381, 19.642857, 19.125, 19.0625, 19, 19, 19, 19, 19, 18.9375, 18.75, 18.5625, 18.3125, 18.125, 18.0625, 17.9375, 17.875, 17.875, 17.6875, 17.625, 17.5625, 17.5, 17.625, 17.5625, 17.4375, 17.25, 17.0625, 17, 17, 17, 17, 17, 17, 16.875, 16.625, 16.375, 16.125, 16, 16, 16, 16, 15.9375, 15.8125, 15.6875, 15.5625, 15.375, 15.25, 15.125, 15, 15, 15, 15, 15, 15, 15, 15, 14.875, 14.75, 14.5, 14.25, 14, 13.875, 13.875, 13.8125, 13.8125, 13.8125, 13.8125, 13.875, 13.9375, 13.75, 13.5625, 13.3125, 13.125, 13.0625, 13, 12.9375, 12.9375, 12.9375, 12.875, 12.875, 12.8125, 12.625, 12.4375, 12.25, 12.0625, 12, 12, 12, 12, 12, 12, 11.875, 11.75, 11.625, 11.375, 11.25, 11.1875, 11.1875, 11.1875, 11.25, 11.375, 11.5, 11.75, 11.9375, 12, 12.0625, 12.0625, 12.0625, 12.0625, 12, 12, 12, 12, 12, 12, 12, 12.1875, 12.3125, 12.5, 12.482143, 12.107143, 12.068453, 12.377976, 12.660714, 12.833334, -10, -10, -10, -10, -10, -10, -10, -10, -10, -10, -10, -10, -10, -10, -10, -10, -10, -10, -10, -10, -10, -10, -10, -10, -10, -10, 38, 38.125, 38.049999, 37.964287, 37.9375, 37.901787, 38.035713, 37.875, 37.767857, 37.5625, 37.375, 37.3125, 37.25, 37.294643, 37.25, 37.1875, 37.125, 37.0625, 37, 37, 36.875, 36.75, 36.625, 36.375, 36.25, 36.125, 36, 36, 35.9375, 35.9375, 35.9375, 35.9375, 35.9375, 35.875, 35.9375, 36.053574, 36.160713, 36.21875, 36.200893, 36.125, 36.207142, 36.14286, 36.226192, 36.302082, 36.152084, 36.239582, 36.431252, 36.854168, 37.15625, 37.544643, 37.9375, 38.450001, 38.760418, 39.289879, -10, 39.208332, 38.416668, 38.125, 38.111115, -10, -10, 39.387756, -10, -10, 37.761906, 38.400002, 38.232143, 38.42857, 38.25, 38.035713, 37.892857, 37.520409, 37.183674, 36.979591, 36.75, 36.5, 36.205357, 36.125, 36, 36.089287, 35.958332, 35.7449, 35.377552, 35.153065, 34.867348, 34.436508, 34.388889, 34.25, 34.291668, 34.238094, 33.505955, 32.815308, 32.67857, 32.479591, 32.392857, 32.336735, 32.400002, 32.424999, 32.19643, 31.729166, 31.455357, 31.375, 31.5, 31.6875, 31.875, 31.8125, 31.604166, 31.571428, 31.669643, 31.875, 32, 32.0625, 32.05357, 31.8125, 31.8125, 32.008926, 32.042858, 31.75, 31.660713, 31.544643, 31.705357, 31.958332, 32.205357, 32.482143, 32.401787, 32.125, 32.0625, 31.8125, 31.75, 31.705357, 31.854168, 32.098213, 32.541664, 32.267857, 31.303572, 31.089287, 31.261906, 31.741072, 31.9375, 32.089287, 32.15625, 32.263393, 32.3125, 32.25, 32.09375, 31.986607, 32, 32.0625, 32.25, 32.25, 32.1875, 32.25, 32.25, 32.3125, 32.3125, 32.1875, 32.0625, 31.9375, 31.9375, 31.9375, 31.9375, 32, 32.0625, 32.25, 32.3125, 32.4375, 32.4375, 32.25, 32.276787, 32.3125, 32.25, 32.25, 32.1875, 32.125, 32.1875, 32.1875, 32.0625, 31.875, 31.6875, 31.705357, 32.020832, 32.145832, 32.0625, 32, 31.75, 31.6875, 31.75, 31.8125, 31.767857, 31.696428, 31.625, 31.5625, 31.4375, 31.40625, 31.3125, 31.1875, 31.0625, 30.96875, 30.741072, 30.175594, 29.321428, 28.795918, -10, -10, -10, 25.75, 25.625, 25.4375, 25.25, 25.0625, 24.9375, 25.0625, 25.1875, 25.375, 25.5, 25.5, 25.4375, 25.375, 25.5, 25.625, 25.8125, 25.785713, 25.183672, 22.579363, 21.034014, 19.761906, 19.25, 19, 19, 19, 19, 19, 19, 19, 18.9375, 18.6875, 18.4375, 18.1875, 18, 18, 17.9375, 17.875, 17.875, 17.6875, 17.5625, 17.4375, 17.375, 17.410713, 17.267857, 17.205357, 17.0625, 17, 17, 17, 17, 17, 17, 16.9375, 16.8125, 16.5625, 16.3125, 16.125, 16, 16, 16, 16, 15.9375, 15.875, 15.8125, 15.6875, 15.5625, 15.375, 15.1875, 15.0625, 15, 15, 15, 15, 15, 15, 15, 14.9375, 14.875, 14.625, 14.375, 14.0625, 13.875, 13.875, 13.8125, 13.8125, 13.8125, 13.8125, 13.8125, 13.875, 13.75, 13.5625, 13.375, 13.1875, 13.0625, 13, 12.9375, 12.875, 12.875, 12.75, 12.6875, 12.625, 12.3125, 12.1875, 12.0625, 11.9375, 12, 12, 12, 12, 12, 12, 11.9375, 11.875, 11.6875, 11.4375, 11.25, 11.125, 11.1875, 11.1875, 11.25, 11.375, 11.5, 11.75, 11.9375, 12, 12, 12, 12, 12, 12, 12, 12, 12, 12, 12, 12, 12.125, 12.1875, 12.25, 12.232143, 12.044643, 12.211309, 12.565476, 12.803572, 12.916667
-10, 38, 38, 38, 38.0625, 38, 38.026787, 38.098213, 37.8125, 37.705357, 37.5, 37.25, 37.25, 37.1875, 37.232143, 37.3125, 37.25, 37.1875, 37.125, 37, 37, 36.875, 36.75, 36.625, 36.4375, 36.375, 36.25, 36.125, 36.0625, 35.9375, 35.9375, 35.9375, 36, 36.0625, 35.96875, 36.0625, 36.209824, 36.285713, 36.484375, 36.555061, 36.5, -10, -10, -10, 36.927082, 37.019047, 37.119045, 37.371429, 37.572918, 37.84375, 38.1875, 38.5, 39.012501, 39.509357, 39.837502, -10, 39.770832, -10, -10, -10, -10, -10, 39.9375, -10, -10, 39.777779, 39.647617, 39.42857, 39.42857, 39.32143, 39.142857, 38.92857, 38.151787, 37.767857, 37.625, 37.348213, 37.089287, 37.017857, 36.875, 36.875, 36.8125, 36.625, 36.3125, 35.9375, 35.714287, 35.383926, 35.190475, 35.261906, 35.214287, 35.25, 35.204079, 34.540817, 33.701191, 33.541668, 33.309525, 33.101192, 32.82653, 32.435715, 32.451786, 32.303574, 31.729166, 31.622025, 31.669643, 31.866072, 32, 32.125, 32.0625, 31.791666, 31.696428, 31.625, 31.6875, 31.75, 31.8125, 31.678572, 31.375, 31.366072, 31.671429, 31.614285, 31.5, 31.410713, 31.357143, 31.517857, 31.833332, 32.080357, 32.392857, 32.214287, 31.767857, 31.625, 31.4375, 31.5, 31.5, 31.375, 31.464287, 31.854166, 31.833336, 31.303572, 31.232143, 31.377977, 31.616072, 31.75, 31.839287, 31.84375, 31.875, 31.875, 31.765625, 31.671875, 31.640625, 31.765625, 31.875, 32.125, 32.1875, 32.125, 32.178574, 31.9375, 31.9375, 31.875, 31.75, 31.6875, 31.625, 31.5625, 31.625, 31.6875, 31.75, 31.8125, 32, 32, 32, 32, 31.8125, 31.8125, 31.9375, 31.9375, 31.9375, 31.875, 31.75, 31.75, 31.75, 31.6875, 31.5, 31.3125, 31.267857, 31.583332, 31.708332, 31.625, 31.517857, 31.3125, 31.375, 31.5, 31.526787, 31.455357, 31.258928, 31.25, 31.1875, 31.0625, 31.03125, 30.875, 30.678572, 30.487499, 30.489584, 30.220238, 30.104166, 29.908161, 29.928572, -10, -10, -10, 25.333334, 25.357143, 25.1875, 24.964287, 24.75, 24.6875, 24.8125, 24.9375, 25.125, 25.1875, 25.25, 25.1875, 25.125, 25.25, 25.375, 25.383928, 25.136053, 22.666666, 21.210882, 20.092262, 19.375, 19, 19, 19, 19, 19, 19, 19, 19, 18.9375, 18.6875, 18.4375, 18.25, 18.0625, 18.0625, 18, 17.9375, 17.9375, 17.75, 17.5625, 17.3125, 17.25, 17.285713, 17.267857, 17.267857, 17.125, 17.0625, 17, 17, 17, 17, 17, 16.9375, 16.875, 16.625, 16.375, 16.1875, 16, 16, 16, 16, 16, 16, 16, 15.9375, 15.8125, 15.5625, 15.3125, 15.125, 15, 15, 15, 15, 15, 15, 15, 14.9375, 14.875, 14.625, 14.375, 14.125, 13.9375, 13.9375, 13.875, 13.875, 13.875, 13.875, 13.8125, 13.8125, 13.625, 13.4375, 13.3125, 13.125, 13.0625, 13, 12.9375, 12.875, 12.875, 12.6875, 12.5625, 12.5, 12.25, 12.1875, 12.125, 12, 12, 12, 12, 12, 12, 12, 11.9375, 11.875, 11.625, 11.375, 11.1875, 11.0625, 11.25, 11.3125, 11.4375, 11.5, 11.5625, 11.75, 11.875, 12, 12, 12, 12, 12, 12, 12, 12, 12, 12, 12, 12, 12.0625, 12.0625, 12.125, 12.232143, 12.205357, 12.398809, 12.708333, 12.866072, 12.916667, -10, -10, -10, -10, -10, -10, -10, -10, -10, -10, -10, -10, -10, -10, -10, -10, -10, -10, -10, -10, -10, -10, -10, -10, -10, -10, 37.75, 37.849998, 38, 38.0625, 38.0625, 38.026787, 38.098213, 37.8125, 37.705357, 37.5625, 37.3125, 37.25, 37.1875, 37.169643, 37.25, 37.25, 37.1875, 37.125, 37, 37, 36.875, 36.75, 36.5625, 36.4375, 36.4375, 36.3125, 36.25, 36.125, 35.9375, 35.9375, 35.9375, 36.0625, 36.0625, 35.822918, 35.946426, 36.200893, 36.455357, 36.734375, 36.888393, -10, -10, -10, -10, 37.291668, 37.662498, 37.708332, 37.875, 38.09375, 38.419643, 38.75, 39.0625, 39.583927, 40.065479, 40.462502, -10, 40.416664, -10, -10, -10, 40.875, 41.083336, 40.59375, 41.4375, 41.625, 40.738094, 40.68095, 40.438774, 40.125, 40.285713, 40.25, 40.015308, 39.172619, 38.556122, 38.42857, 38.183674, 37.834187, 37.848213, 37.625, 37.785713, 37.4375, 37.1875, 36.767857, 36.5, 36.285713, 35.955357, 35.830357, 35.875, 35.875, 36, 35.955357, 35.602043, 35.454762, 35.333332, 35.333332, 35.327381, 33.75, 33.224487, 32.92857, 32.875, 32.193451, 32.184525, 32.232143, 32.419643, 32.375, 32.4375, 32.3125, 32.104164, 32.071426, 31.928572, 31.666666, 31.633928, 31.5625, 31.428572, 31.1875, 31.241072, 31.528572, 31.433037, 31.40625, 31.245537, 31.071428, 31.044643, 31.467262, 31.907738, 32.214287, 32.075893, 31.549107, 31.40625, 31.21875, 31.3125, 31.375, 31.3125, 31.339287, 31.791666, 32.03125, 31.5, 31.482143, 31.440477, 31.522322, 31.625, 31.651787, 31.65625, 31.6875, 31.65625, 31.578125, 31.546875, 31.578125, 31.671875, 31.8125, 31.9375, 31.9375, 31.8125, 31.741072, 31.5625, 31.5625, 31.5625, 31.5, 31.4375, 31.375, 31.25, 31.25, 31.25, 31.3125, 31.5, 31.794643, 31.8125, 31.8125, 31.75, 31.5625, 31.5625, 31.6875, 31.6875, 31.6875, 31.625, 31.5, 31.5, 31.4375, 31.3125, 31.1875, 31.0625, 31.0625, 31.25, 31.3125, 31.25, 31.080357, 30.875, 30.875, 31.0625, 31.089287, 31.017857, 30.821428, 30.8125, 30.8125, 30.75, 30.75, 30.5625, 30.232143, 29.862499, 29.833334, 29.435373, 29.818453, 29.964285, 29.946428, 28.845238, 25.016666, 24.666668, 24.895834, 24.961309, 24.78125, 24.558037, 24.40625, 24.4375, 24.5625, 24.625, 24.8125, 24.8125, 24.9375, 25, 25, 25.125, 25.071428, 24.748301, 22.650793, 21.428572, 20.187075, 19.633928, 19.1875, 19, 18.9375, 18.875, 18.875, 18.875, 18.9375, 19, 19, 18.9375, 18.6875, 18.4375, 18.25, 18.0625, 18.0625, 18.0625, 18, 18, 17.875, 17.6875, 17.5, 17.4375, 17.348213, 17.267857, 17.205357, 17.0625, 17.0625, 17, 16.9375, 16.9375, 16.9375, 16.9375, 16.9375, 16.875, 16.625, 16.375, 16.1875, 16, 16, 16, 16, 16, 16, 16, 15.9375, 15.8125, 15.5625, 15.3125, 15.125, 15, 15, 15, 15, 14.9375, 14.9375, 14.9375, 14.8125, 14.75, 14.5, 14.25, 14.125, 14.0625, 14.0625, 14.0625, 14.0625, 14, 14, 13.875, 13.8125, 13.625, 13.375, 13.25, 13.0625, 13, 13, 13, 12.9375, 12.9375, 12.75, 12.5625, 12.5, 12.25, 12.1875, 12.125, 12, 12, 12, 12, 12, 12, 12, 11.9375, 11.8125, 11.5625, 11.3125, 11.125, 11, 11.125, 11.1875, 11.375, 11.5625, 11.6875, 11.875, 11.9375, 12, 11.9375, 11.9375, 11.9375, 11.9375, 12, 12, 12.0625, 12.125, 12.125, 12.125, 12, 12, 12.208333, 12.178572, 12.339286, 12.5, 12.669643, 12.875, 12.9375, 12.916667
-10, 37.5, 37.599998, 37.8125, 37.9375, 38.0625, 38.0625, 38, 37.8125, 37.75, 37.6875, 37.625, 37.5, 37.375, 37.1875, 37.1875, 37.1875, 37.125, 37.125, 37, 37, 36.875, 36.75, 36.5625, 36.5, 36.5625, 36.4375, 36.375, 36.1875, 35.9375, 35.9375, 36, 36.1875, 36.25, 36.072918, 36.258926, 36.638393, 36.955357, 37.234375, 37.28125, -10, -10, -10, -10, -10, 37.966667, 38.458332, 38.666668, 38.9375, 39.276787, 39.59375, 39.90625, 40.352676, 40.930061, 41.125, 41.875, 41.083332, -10, -10, -10, 41.25, 41.388889, 41.09375, 41.625, 41.75, 41.5, 41.395832, 41.267857, 41.1875, 41.1875, 41.1875, 41.158165, 40.544216, 40.386906, 40.083332, 39.898808, 39.517857, 39.056122, 38.82143, 38.5, 38.3125, 38.0625, 37.642857, 37.17857, 36.933674, 36.561222, 36.476189, 36.416668, 36.450001, 36.663265, 36.5, 36.214287, 36.257145, 36.142857, 36.142857, 36.102043, 35.625, 35.202381, 34.69643, 33.90625, 33.447277, 33.302723, 33.122448, 33.044643, 32.8125, 32.9375, 32.75, 32.541664, 32.571426, 32.366074, 31.863943, 31.800594, 31.705357, 31.5625, 31.5, 31.491072, 31.6, 31.397322, 31.34375, 31.15625, 30.883928, 30.732143, 30.772108, 31.282738, 31.607141, 31.547321, 31.049107, 30.977678, 30.888393, 31, 31.1875, 31.1875, 31.214287, 31.604166, 31.927084, 31.589287, 31.325001, 31.25, 31.084822, 31.267857, 31.422621, 31.419643, 31.40625, 31.241072, 31.171875, 31.171875, 31.265625, 31.390625, 31.5625, 31.625, 31.625, 31.4375, 31.241072, 30.857143, 30.857143, 31.125, 31.1875, 31.1875, 31.1875, 31.0625, 31, 31, 31.0625, 31.357143, 31.607143, 31.625, 31.5625, 31.375, 31.25, 31.25, 31.3125, 31.375, 31.375, 31.3125, 31.1875, 31.125, 31, 30.8125, 30.75, 30.6875, 30.6875, 30.875, 30.875, 30.75, 30.580357, 30.4375, 30.5, 30.6875, 30.530613, 30.580357, 30.383928, 30.4375, 30.5, 30.5, 30.5, 30.3125, 29.910715, 29.279165, 29.154762, 28.761904, 29.589287, 30, 30.053572, 28.674604, 25.844444, 25.055557, 24.708334, 24.669643, 24.46875, 24.214287, 24.125, 24.1875, 24.3125, 24.375, 24.5625, 24.5625, 24.75, 24.875, 24.75, 24.59524, 24.326529, 22.228174, 21.414965, 20.408163, 19.955357, 19.5, 19.25, 19.0625, 18.9375, 18.8125, 18.8125, 18.8125, 18.875, 19, 19, 18.9375, 18.6875, 18.4375, 18.25, 18.0625, 18.0625, 18.0625, 18, 18, 17.9375, 17.8125, 17.6875, 17.625, 17.410713, 17.205357, 17.080357, 16.875, 16.9375, 16.9375, 16.875, 16.9375, 16.9375, 16.9375, 16.875, 16.75, 16.5, 16.25, 16.125, 16, 16, 16, 16, 16, 16, 16, 15.9375, 15.875, 15.625, 15.375, 15.1875, 15.0625, 15.0625, 15.0625, 15.0625, 14.9375, 14.9375, 14.875, 14.6875, 14.5625, 14.3125, 14.125, 14.0625, 14, 14, 14, 14, 14, 14, 13.875, 13.75, 13.5625, 13.3125, 13.1875, 13, 12.9375, 12.9375, 12.9375, 12.9375, 12.9375, 12.8125, 12.6875, 12.625, 12.375, 12.25, 12.125, 12, 12, 12, 12, 12, 12, 12, 12, 11.875, 11.625, 11.375, 11.125, 11, 11.0625, 11.125, 11.375, 11.5625, 11.75, 11.9375, 11.9375, 11.9375, 11.8125, 11.75, 11.75, 11.8125, 11.9375, 12, 12.0625, 12.125, 12.125, 12.125, 12.0625, 12.125, 12.395833, 12.366072, 12.464286, 12.5625, 12.732143, 12.9375, 13, 13, -10, -10, -10, -10, -10, -10, -10, -10, -10, -10, -10, -10, -10, -10, -10, -10, -10, -10, -10, -10, -10, -10, -10, -10, -10, -10, 37.25, 37.349998, 37.5625, 37.6875, 37.875, 37.9375, 37.9375, 37.875, 37.8125, 37.75, 37.6875, 37.5625, 37.4375, 37.25, 37.1875, 37.125, 37.0625, 37.0625, 37, 37, 36.875, 36.75, 36.5625, 36.5, 36.5625, 36.4375, 36.4375, 36.3125, 36.125, 36.166668, 36.083332, 36.333332, 36.416668, 36.180557, 36.345238, 36.959824, 37.169643, 37.515625, 37.6875, -10, -10, -10, -10, -10, -10, 38.611111, 38.805557, 39.083332, 40.026787, 40.40625, 40.979591, 41.331631, 41.761906, 41.614582, 42.041668, 41.520832, 42.125, 42.25, 42.375, 41.65625, 41.791668, 41.84375, 41.96875, 42.0625, 42.125, 42.0625, 42.153057, 42.142857, 42.142857, 42.214287, 42.086735, 41.636055, 41.295918, 41, 40.734692, 40.372448, 40.091835, 39.82143, 39.4375, 39.1875, 39.142857, 38.806122, 38.916668, 38.815475, 38.380955, 37.301189, 37.425594, 37.450001, 37.517857, 37.366074, 36.916668, 36.821426, 36.625, 36.696426, 36.651787, 36.357143, 35.959183, 35.525509, 35.117348, 34.709187, 34.55442, 33.801022, 33.836735, 33.4375, 33.458332, 33.357143, 33.428574, 33.5, 33.42857, 33.307541, 32.309525, 31.992859, 31.928572, 31.6875, 31.803572, 31.85, 31.647322, 31.53125, 31.40625, 31.196428, 30.964287, 30.795918, 31.104166, 31.232141, 31.18125, 30.799107, 30.727678, 30.638393, 30.6875, 30.955357, 31.270834, 31.428572, 31.6875, 31.819941, 31.339287, 31.003571, 30.729166, 30.549107, 30.8125, 31.038691, 31.107143, 31.03125, 30.959822, 30.953125, 31.078125, 31.171875, 31.057291, 31.125, 31.0625, 31.1875, 31.0625, 30.866072, 30.6875, 30.6875, 30.75, 30.875, 30.9375, 30.9375, 30.8125, 30.75, 30.75, 30.8125, 31.035715, 31.157143, 31.303572, 31.169643, 31, 30.8125, 30.6875, 30.6875, 30.75, 30.75, 30.8125, 30.723213, 30.589287, 30.5, 30.3125, 30.375, 30.3125, 30.375, 30.5, 30.4375, 30.3125, 30.080357, 30, 30, 30.125, 30.151787, 30.125, 30.0625, 30.1875, 30.25, 30.25, 30.1875, 30, 29.598215, 28.904165, 28.717262, 28.447916, 28.995537, 29.40625, 29.459822, 28.541666, 26.171429, 25.148809, 24.583334, 24.419643, 24.1875, 23.901787, 23.875, 24, 24.125, 24.1875, 24.3125, 24.3125, 24.5, 24.482143, 24.190477, 22.412697, 21.785713, 21.088436, 20.595238, 20.107143, 19.8125, 19.5625, 19.3125, 19.125, 18.9375, 18.75, 18.75, 18.75, 18.8125, 19, 18.9375, 18.8125, 18.5625, 18.3125, 18.1875, 18.0625, 18.0625, 18.0625, 18, 18, 18, 17.9375, 17.875, 17.8125, 17.5625, 17.4375, 17.25, 17, 17, 16.9375, 16.875, 16.875, 16.901787, 16.9375, 16.758928, 16.696428, 16.4375, 16.25, 16.125, 16, 16, 16, 16, 16, 16, 16, 15.9375, 15.8125, 15.5625, 15.3125, 15.125, 15, 15, 15, 14.9375, 14.8125, 14.75, 14.6875, 14.5625, 14.5, 14.3125, 14.125, 14.0625, 14, 14, 14, 14, 14, 14, 13.9375, 13.8125, 13.5625, 13.3125, 13.125, 12.9375, 12.9375, 12.9375, 12.9375, 13, 13, 12.9375, 12.875, 12.75, 12.5625, 12.375, 12.1875, 12.0625, 12, 12, 12, 12, 12, 12, 12, 11.875, 11.625, 11.375, 11.125, 11, 11.0625, 11.125, 11.375, 11.5, 11.625, 11.8125, 11.8125, 11.8125, 11.6875, 11.5625, 11.5625, 11.6875, 11.875, 12, 12.0625, 12.125, 12.125, 12.125, 12.0625, 12.1875, 12.520833, 12.616072, 12.776786, 12.8125, 12.875, 13, 13, 13
-10, 37.125, 37.26667, 37.4375, 37.5, 37.6875, 37.75, 37.8125, 37.9375, 37.875, 37.75, 37.75, 37.625, 37.5, 37.375, 37.1875, 37.0625, 37, 37, 37, 37, 36.875, 36.6875, 36.4375, 36.3125, 36.3125, 36.25, 36.375, 36.4375, 36.424999, 36.222225, -10, -10, -10, -10, -10, 37.530613, 37.627975, 37.9375, 38.208332, 39.125, 39.375, 39.375, 39.428574, -10, -10, -10, -10, -10, 40.657143, 41.5, 41.84864, 42.147957, 42.291668, 42.28125, 42.28125, 42.145832, 42.416668, 42.5, 42.625, 42.34375, 42.5, 42.59375, 42.6875, 42.75, 42.8125, 42.8125, 42.8125, 42.8125, 42.8125, 42.875, 42.732143, 42.395832, 42.125, 41.8125, 41.5625, 41.21875, 40.892857, 40.625, 40.714287, 40.464287, 40.083336, 39.867344, 39.785713, 39.806122, 39.397957, 38.691158, 38.70068, 38.621429, 38.591835, 38.178574, 37.666668, 37.446426, 37.1875, 37.196426, 37.3125, 37.125, 36.883926, 36.540176, 36.290813, 36.086735, 35.852043, 35.791668, 35.702381, 34.107143, 34.130951, 33.969387, 34.19643, 34.520409, 34.316326, 34.156464, 33.670071, 33.206123, 33.132652, 32.857143, 32.857143, 32.642857, 32.55357, 32.232143, 32.017857, 31.826532, 31.62245, 31.797621, 31.479166, 31.508928, 31.43125, 31.15625, 31.165178, 31.013393, 30.9375, 31.142857, 31.395834, 31.553572, 31.8125, 31.575893, 30.630951, 30.253571, 29.811905, 29.745537, 30.229166, 30.65774, 30.848215, 30.8125, 30.647322, 30.6875, 30.9375, 31.125, 30.872025, 30.653061, 30.464285, 30.6875, 30.5625, 30.4375, 30.4375, 30.4375, 30.5, 30.651787, 30.857143, 30.928572, 30.8125, 30.625, 30.5, 30.5, 30.660715, 30.719643, 30.866072, 30.732143, 30.625, 30.5, 30.4375, 30.4375, 30.5, 30.4375, 30.4375, 30.285713, 30.089287, 30.03125, 29.90625, 30.03125, 29.96875, 30, 30, 29.875, 29.75, 29.625, 29.5625, 29.5, 29.6875, 29.8125, 29.8125, 29.875, 29.8125, 29.75, 29.6875, 29.625, 29.5625, 29.294643, 28.729166, 28.383928, 28.21875, 28.46875, 28.808037, 28.888393, 28.226191, 26.375, 25.351191, 24.625, 24.375, 24.125, 23.9375, 23.9375, 24, 24.0625, 24, 23.910713, 23.738094, 23.775511, 23.693878, 21.944445, 21.353741, 20.816326, 20.416666, 20.178572, 20, 19.875, 19.625, 19.375, 19.125, 18.9375, 18.75, 18.75, 18.75, 18.8125, 19, 18.875, 18.6875, 18.4375, 18.1875, 18.0625, 18, 18, 18, 18, 18, 18, 18, 18, 18, 17.8125, 17.5625, 17.3125, 17, 16.9375, 16.9375, 16.875, 16.875, 16.839287, 16.875, 16.696428, 16.571428, 16.375, 16.1875, 16.0625, 15.9375, 15.9375, 15.9375, 15.9375, 16, 16, 16, 15.875, 15.6875, 15.4375, 15.1875, 15.0625, 15, 15, 15, 14.875, 14.6875, 14.625, 14.5625, 14.5625, 14.625, 14.4375, 14.25, 14.125, 14, 14, 14, 14, 14, 14, 14, 13.875, 13.6875, 13.4375, 13.1875, 13, 12.9375, 12.9375, 12.9375, 13, 13, 13, 13, 12.875, 12.625, 12.375, 12.125, 12, 12, 12, 12, 12, 12, 12, 12, 11.875, 11.625, 11.375, 11.125, 11, 11, 11, 11.25, 11.375, 11.5, 11.6875, 11.625, 11.5625, 11.4375, 11.3125, 11.375, 11.5625, 11.8125, 12, 12.0625, 12.125, 12.125, 12.125, 12.125, 12.3125, 12.645833, 12.803572, 12.901786, 12.8125, 12.875, 12.9375, 12.9375, 13, -10, -10, -10, -10, -10, -10, -10, -10, -10, -10, -10, -10, -10, -10, -10, -10, -10, -10, -10, -10, -10, -10, -10, -10, -10, -10, 37.125, 37.166668, 37.1875, 37.3125, 37.5, 37.6875, 37.8125, 37.875, 37.75, 37.5625, 37.625, 37.625, 37.625, 37.5625, 37.3125, 37.125, 37, 37, 37, 37, 36.875, 36.6875, 36.5, 36.3125, 36.25, 36.1875, 36.3125, 36.458332, 36.566666, -10, -10, -10, -10, -10, -10, 38, 38.270832, 38.544643, 38.8125, 39.5, 39.75, 39.833332, 39.952381, 40.599998, -10, -10, -10, -10, -10, 41.791668, 42.523811, 42.697918, 42.828125, 42.828125, 42.84375, 42.919643, 43, 43.09375, 43.125, 43.125, 43.09375, 43.125, 43.15625, 43.42857, 43.4375, 43.5625, 43.75, 43.785713, 43.642857, 43.571426, 43.375, 43.1875, 42.9375, 42.75, 42.473213, 42.080357, 41.821426, 41.5625, 41.75, 41.57143, 41.041668, 40.642857, 40.535713, 40.8125, 40.401787, 39.919048, 39.962585, 39.828571, 39.734692, 39.074406, 38.726192, 38.321426, 38.25, 38.125, 37.854168, 37.6875, 37.607143, 37.625, 37.283165, 37.012756, 36.908165, 36.642857, 36.642857, 36.166668, 36.097221, 35.880951, 35.438778, 35.267857, 35, 34.821426, 34.676872, 34.267345, 34.311226, 34.025509, 33.625, 33.4375, 33.25, 33, 32.75, 32.5625, 32.4375, 32.714287, 32.5051, 31.973213, 31.783928, 31.714285, 31.508928, 31.357143, 31.25, 31.330357, 31.520834, 31.616072, 31.8125, 31.669643, 30.309525, 29.920238, 29.643452, 29.25, 29.666666, 30.122448, 30.535715, 30.5625, 30.428572, 30.4375, 30.5625, 30.6875, 30.403275, 30.321428, 30.1875, 30.3125, 30.3125, 30.3125, 30.3125, 30.3125, 30.25, 30.339287, 30.607143, 30.714287, 30.6875, 30.5625, 30.4375, 30.4375, 30.410715, 30.237499, 30.366072, 30.232143, 30.25, 30.25, 30.1875, 30.1875, 30.25, 30.1875, 30.1875, 29.973213, 29.714287, 29.65625, 29.53125, 29.65625, 29.59375, 29.5625, 29.5, 29.4375, 29.375, 29.3125, 29.3125, 29.1875, 29.3125, 29.375, 29.34375, 29.46875, 29.285713, 28.9375, 28.883928, 28.928572, 29.035713, 28.866072, 28.443453, 28.133928, 28.03125, 28.21875, 28.450893, 28.370537, 27.585035, 25.988094, 25.038691, 24.5, 24.3125, 24.125, 24, 24, 24, 23.9375, 23.723213, 23.077381, 21.86508, 21.517859, 21.321428, 20.952381, 20.559523, 20.178572, 20, 20, 20, 19.875, 19.625, 19.375, 19.125, 19, 18.875, 18.875, 18.875, 18.875, 19, 18.875, 18.6875, 18.4375, 18.1875, 18.0625, 18, 18, 18, 18, 18, 18, 18, 18, 18, 17.8125, 17.5625, 17.3125, 17, 16.9375, 16.9375, 16.9375, 16.9375, 16.839287, 16.8125, 16.508928, 16.321428, 16.1875, 16.0625, 16, 15.9375, 15.9375, 15.9375, 15.9375, 16, 16, 16, 15.875, 15.6875, 15.4375, 15.1875, 15.0625, 15, 15, 15, 14.875, 14.6875, 14.625, 14.5625, 14.625, 14.75, 14.59375, 14.40625, 14.21875, 14.03125, 14, 14, 14, 14, 14, 14, 13.9375, 13.75, 13.5, 13.3125, 13.035714, 12.901786, 12.9375, 12.875, 13, 13, 13, 13, 12.875, 12.6875, 12.4375, 12.1875, 12.0625, 12, 12, 12, 12, 12, 12, 12, 11.9375, 11.6875, 11.4375, 11.1875, 11, 11, 11, 11.1875, 11.25, 11.3125, 11.4375, 11.375, 11.3125, 11.25, 11.1875, 11.3125, 11.5625, 11.8125, 12, 12, 12, 12, 12, 12.1875, 12.4375, 12.5625, 12.8125, 12.8125, 12.6875, 12.8125, 12.8125, 12.8125, 12.916667
-10, 37.25, 37.25, 37.1875, 37.3125, 37.4375, 37.625, 37.875, 37.875, 37.6875, 37.5, 37.5, 37.5625, 37.5625, 37.5, 37.25, 37.0625, 37, 37, 37, 37, 36.9375, 36.8125, 36.625, 36.375, 36.1875, 36.0625, 36.25, 36.479164, -10, -10, -10, -10, -10, -10, -10, 38.166668, 38.708332, 39.044643, 39.520832, 39.875, 40.1875, 40.3125, 40.714287, 41.149998, -10, -10, -10, -10, -10, -10, 43.086311, 43.166668, 43.25, 43.3125, 43.40625, 43.801022, 43.964287, 44.017857, 43.859375, 43.859375, 43.765625, 43.8125, 43.84375, 43.9375, 44.125, 44.25, 44.642857, 44.683674, 44.330357, 44.196426, 44, 43.741074, 43.487499, 43.739799, 43.484692, 43.234692, 43.045918, 42.785713, 42.857143, 42.67857, 42.261906, 42.375, 42.125, 41.92857, 41.581631, 41.114285, 41.040813, 40.82143, 40.653057, 39.980656, 39.845242, 39.683674, 39.785713, 39.642857, 38.930557, 38.948978, 38.4375, 38.67857, 38.0625, 37.614288, 37.6875, 37.491074, 37.714287, 37.214287, 37.047615, 36.82653, 36.551022, 36.267857, 35.9375, 35.705357, 35.508926, 35.332653, 35.078236, 34.894558, 34.5625, 34.642857, 34.3125, 34, 33.75, 33.625, 33.5, 33.5625, 33.612244, 33.234692, 32.974491, 32.785713, 32.375, 32.125, 31.875, 31.767857, 31.958334, 31.964287, 31.955357, 31.75, 30.928572, 29.928572, 29.583929, 29.25, 29.523809, 30.002975, 30.303572, 30.375, 30.375, 30.4375, 30.5, 30.5625, 30.247025, 30.071428, 29.9375, 30.0625, 30.1875, 30.25, 30.25, 30.142857, 30, 30.026787, 30.294643, 30.464287, 30.4375, 30.375, 30.25, 30.1875, 29.991072, 29.737499, 29.866072, 29.794643, 30, 30, 29.875, 29.8125, 29.8125, 29.75, 29.75, 29.598213, 29.339287, 29.34375, 29.34375, 29.53125, 29.53125, 29.491072, 29.25, 29.1875, 29, 28.9375, 28.875, 28.6875, 28.75, 28.8125, 28.71875, 28.78125, 28.535713, 27.857143, 27.724489, 27.739796, 28.17857, 28.270834, 28.13393, 28, 27.90625, 28.03125, 27.986607, 27.610546, 25.666666, 24.988094, 24.517857, 24.125, 24.125, 24, 23.9375, 24, 24, 23.794643, 23.056547, 21.965986, 21.02721, 20.693878, 20.489796, 20.333334, 20.142857, 20, 20, 20, 20, 19.8125, 19.5625, 19.3125, 19.0625, 19, 18.9375, 18.9375, 18.9375, 18.9375, 18.9375, 18.8125, 18.6875, 18.4375, 18.25, 18.125, 18, 18, 18, 18, 18, 18, 18, 18, 17.9375, 17.75, 17.5, 17.25, 17.0625, 17, 17, 17, 16.9375, 16.901787, 16.848213, 16.464285, 16.267857, 16.125, 16.0625, 16, 15.9375, 15.9375, 15.9375, 15.9375, 16, 16, 16, 15.8125, 15.5625, 15.3125, 15.0625, 15, 14.9375, 14.9375, 14.9375, 14.8125, 14.6875, 14.625, 14.625, 14.75, 14.9375, 14.84375, 14.59375, 14.34375, 14.09375, 14, 14, 14, 14, 14, 14, 14, 13.875, 13.625, 13.4375, 13.160714, 12.964286, 13, 12.9375, 13, 13, 13, 13, 12.9375, 12.75, 12.5, 12.25, 12.0625, 12, 12, 12, 12, 12, 11.9375, 11.9375, 11.875, 11.625, 11.4375, 11.1875, 11, 11, 11, 11.125, 11.1875, 11.25, 11.375, 11.3125, 11.25, 11.1875, 11.1875, 11.375, 11.625, 11.875, 12, 12, 12, 12, 12, 12.125, 12.3125, 12.375, 12.5625, 12.5625, 12.4375, 12.5625, 12.625, 12.625, 12.75, -10, -10, -10, -10, -10, -10, -10, -10, -10, -10, -10, -10, -10, -10, -10, -10, -10, -10, -10, -10, -10, -10, -10, -10, -10, -10, 37.5, 37.5, 37.375, 37.4375, 37.5, 37.625, 37.875, 37.8125, 37.625, 37.5, 37.5, 37.5625, 37.5625, 37.4375, 37.1875, 37.0625, 37, 37, 37, 36.9375, 36.9375, 36.875, 36.6875, 36.5, 36.25, 36, 36.104168, 36.472218, -10, -10, -10, -10, -10, -10, -10, -10, 39.208332, 39.832142, 40.288689, 40.6875, 40.9375, 41.25, 41.448978, 41.600002, 42.416664, 42.333332, -10, -10, -10, -10, 43.541668, 43.604168, 43.6875, 43.8125, 44, 44.232143, 44.57143, 44.453125, 44.484375, 44.515625, 44.390625, 44.4375, 44.46875, 44.5625, 44.8125, 44.9375, 45.125, 45.098213, 44.973213, 44.946426, 44.666668, 44.448982, 44.230614, 44.382656, 44.392857, 44.2551, 44.045918, 43.857143, 43.862244, 43.591835, 43.248299, 43.142857, 42.964287, 42.857143, 42.607143, 42.214287, 42.035713, 41.71875, 41.415176, 40.902084, 41.142857, 40.908165, 41.107143, 40.857143, 40.25, 39.627552, 39.32143, 39.25, 38.9375, 38.444641, 38.517857, 38.303574, 38.375, 38.125, 37.875, 37.544643, 37.530613, 37.510201, 37.25, 36.984692, 36.5625, 36.366074, 35.710884, 35.800594, 35.795918, 35.607143, 35.357143, 35.030613, 34.785713, 34.57143, 34.57143, 34.57143, 34.469387, 34.198978, 34.010204, 33.92857, 33.482143, 33.104168, 32.821426, 32.625, 32.739796, 32.285713, 32.205357, 32.044643, 31.663265, 30.25, 29.950001, 29.544643, 29.666666, 30.002975, 30.272322, 30.34375, 30.40625, 30.46875, 30.4375, 30.4375, 30.267857, 30.102678, 30, 30, 30, 29.9375, 29.8125, 29.705357, 29.625, 29.714287, 30.044643, 30.214287, 30.1875, 30.0625, 29.875, 29.75, 29.5625, 29.5, 29.5625, 29.625, 29.8125, 29.8125, 29.6875, 29.5625, 29.5625, 29.5, 29.4375, 29.3125, 29.125, 29.09375, 29.15625, 29.21875, 29.21875, 29.116072, 28.8125, 28.8125, 28.6875, 28.75, 28.6875, 28.5, 28.375, 28.1875, 27.698978, 27.607143, 27.326529, 27.0625, 26.883928, 26.801022, 27.55357, 27.851191, 27.94643, 27.875, 27.633928, 27.452379, 27.193878, 25.376984, 24.62245, 24.010204, 24.035713, 23.8125, 23.9375, 23.9375, 23.875, 23.9375, 23.821428, 23.169643, 22.059525, 21.017008, 20.398809, 20.107143, 20, 20, 20, 20, 20, 20, 20, 19.8125, 19.5625, 19.3125, 19.0625, 19, 19, 19, 19, 19, 18.875, 18.75, 18.625, 18.375, 18.25, 18.125, 18, 18, 18, 18, 18, 18, 18, 18, 17.9375, 17.75, 17.5, 17.25, 17.0625, 17, 17, 17, 17, 16.9375, 16.848213, 16.580357, 16.321428, 16.1875, 16.125, 16.0625, 16, 16, 15.9375, 15.9375, 16, 16, 16, 15.8125, 15.5625, 15.3125, 15.0625, 15, 15, 15, 15, 14.9375, 14.8125, 14.8125, 14.8125, 14.875, 15, 14.90625, 14.65625, 14.40625, 14.15625, 14, 14, 14, 14, 14, 14, 14, 13.875, 13.625, 13.4375, 13.160714, 12.964286, 13, 12.9375, 13, 13, 13, 13, 12.9375, 12.75, 12.5, 12.25, 12.0625, 12, 12, 12, 12, 12, 11.875, 11.8125, 11.75, 11.5625, 11.4375, 11.25, 11.0625, 11, 10.9375, 10.9375, 11, 11.0625, 11.25, 11.25, 11.25, 11.25, 11.3125, 11.5625, 11.75, 11.9375, 12, 12, 12, 12, 12, 12.125, 12.25, 12.25, 12.4375, 12.375, 12.25, 12.375, 12.4375, 12.5, 12.666667
-10, 37.625, 37.583332, 37.5, 37.5, 37.5625, 37.6875, 37.875, 37.741074, 37.375, 37.25, 37.205357, 37.410713, 37.4375, 37.375, 37.125, 37.0625, 37, 37, 37, 36.875, 36.875, 36.875, 36.6875, 36.625, 36.4375, 36.166668, 36.055557, -10, -10, -10, -10, -10, -10, -10, -10, -10, 39.857143, 40.790478, 41.101189, 41.40625, 41.65625, 41.78125, 42.004463, 42.1875, 42.722218, -10, -10, -10, -10, -10, 44, 44.083336, 44.09375, 44.21875, 44.40625, 44.700893, 45.053574, 45.238838, 45.203125, 45.167412, 44.890625, 44.892857, 45.107143, 45.241074, 45.5625, 45.6875, 45.9375, 45.790813, 45.683674, 45.839287, 45.550594, 46.023808, 45.938095, 46.160717, 45.683674, 45.265308, 44.830357, 44.857143, 44.7449, 44.059525, 43.839287, 43.75, 43.6875, 43.5625, 43.3125, 43.142857, 42.6875, 42.82143, 42.352676, 42.05476, 42.17857, 41.943878, 42.107143, 41.857143, 40.842262, 40.101189, 39.833332, 40.037498, 39.666668, 39.157143, 39.32143, 39.169643, 39.25, 39.0625, 38.8125, 38.285713, 38.517857, 38.67857, 38.341835, 38.081631, 37.785713, 37.704082, 37.53373, 36.952381, 37.034016, 36.4375, 36.178574, 35.776787, 35.517857, 35.1875, 35.151787, 35.223213, 35.160713, 35, 34.723213, 34.92857, 34.658165, 34.333336, 34.045918, 33.857143, 33.553574, 32.969387, 32.973213, 32.892857, 32.416664, 30.833334, 30.464287, 30.160713, 30.510204, 30.513393, 30.6875, 30.625, 30.6875, 30.734375, 30.604166, 30.25, 30.354166, 30.197916, 30.125, 30.1875, 30.125, 30, 29.875, 29.705357, 29.6875, 29.6875, 29.8125, 29.848213, 29.75, 29.6875, 29.5625, 29.5, 29.3125, 29.25, 29.3125, 29.375, 29.5625, 29.5625, 29.4375, 29.3125, 29.3125, 29.3125, 29.3125, 29.25, 29.1875, 29.1875, 29.133928, 28.8125, 28.705357, 28.584822, 28.40625, 28.53125, 28.392857, 28.404764, 28.326529, 27.991072, 27.8125, 27.46875, 26.941963, 26.461735, 26.198978, 26.03125, 25.915178, 25.826529, 26.92857, 27.440477, 27.69643, 27.625, 27.17687, 25.460318, 24.833334, 24.32313, 23.848213, 23.508928, 23.5, 23.4375, 23.6875, 23.8125, 23.75, 23.758928, 23.279762, 22.229593, 21.289118, 20.622023, 20.169643, 20.0625, 20, 20, 20, 20, 20, 20, 20, 19.875, 19.625, 19.375, 19.125, 19, 19, 19, 18.9375, 18.875, 18.6875, 18.5625, 18.5, 18.375, 18.375, 18.25, 18.125, 18.0625, 18, 18, 18, 18, 18, 18, 17.9375, 17.6875, 17.4375, 17.1875, 17, 17, 17, 17, 17, 17, 16.910713, 16.642857, 16.446428, 16.241072, 16.0625, 16.0625, 16, 16.0625, 16, 16, 16, 16, 16, 15.875, 15.6875, 15.4375, 15.1875, 15.0625, 15, 15, 15, 15, 14.9375, 14.9375, 14.9375, 14.9375, 15, 14.96875, 14.71875, 14.46875, 14.21875, 14, 14, 14, 14, 14, 14, 13.9375, 13.75, 13.5, 13.3125, 13.098214, 12.964286, 13, 12.9375, 13, 13, 13, 13, 12.875, 12.6875, 12.4375, 12.1875, 12.0625, 12, 12, 12, 12, 12, 11.875, 11.8125, 11.75, 11.5625, 11.4375, 11.25, 11.0625, 11, 10.875, 10.8125, 10.875, 10.9375, 11.25, 11.375, 11.4375, 11.5, 11.5625, 11.75, 11.875, 12, 12, 12, 12, 12, 12, 12.125, 12.1875, 12.1875, 12.375, 12.3125, 12.3125, 12.4375, 12.5, 12.5625, 12.666667, -10, -10, -10, -10, -10, -10, -10, -10, -10, -10, -10, -10, -10, -10, -10, -10, -10, -10, -10, -10, -10, -10, -10, -10, -10, -10, 37.875, 37.833332, 37.75, 37.6875, 37.625, 37.6875, 37.8125, 37.678574, 37.4375, 37.375, 37.267857, 37.410713, 37.3125, 37.1875, 37, 37, 37, 37, 36.9375, 36.75, 36.75, 36.6875, 36.5, 36.5625, 36.5, 36.404167, -10, -10, -10, -10, -10, -10, -10, -10, -10, -10, 41.166668, 41.760548, 41.913689, 42.21875, 42.46875, 42.59375, 42.754463, 42.875, 42.958332, -10, -10, -10, -10, -10, 44.260418, 44.529167, 44.515625, 44.671875, 44.825893, 45.260418, 45.616074, 45.895088, 45.859375, 45.886162, 45.734375, 45.705357, 45.919643, 45.928574, 46.285713, 46.1875, 46.375, 46.958332, 47.136902, 46.948978, 46.736393, 46.841839, 46.696941, 46.780613, 46.423466, 46.040813, 45.696426, 45.5625, 45.464287, 44.934525, 44.589287, 44.375, 44.375, 44.223213, 44.026787, 43.8125, 43.5, 43.53125, 43.21875, 42.881248, 42.96875, 42.803574, 42.785713, 42.535713, 42.092262, 41.051189, 40.666664, 41.028572, 40.460884, 40.563267, 40.38393, 40.448978, 40.392857, 40.214287, 39.964287, 39.916668, 39.806122, 39.790813, 39.397957, 39.188774, 38.857143, 38.816326, 38.421764, 38.217686, 38.105442, 37.724487, 37.453571, 36.602043, 36.418365, 36.132652, 36.051022, 35.994045, 35.767857, 35.607143, 35.401787, 35.5, 35.515308, 35.261906, 35.045918, 34.857143, 34.811226, 34.469387, 33.911564, 33.601189, 33.333332, 31.721088, 31.346939, 30.90476, 31.214287, 31.15625, 31.4375, 31.3125, 31.375, 31.359375, 31.270832, -10, 30.472221, 30.263887, 30.625, 30.604166, 30.5, 30.3125, 30.0625, 29.830357, 29.8125, 29.75, 29.8125, 29.75, 29.5625, 29.375, 29.1875, 29.125, 28.9375, 28.9375, 29.0625, 29.0625, 29.25, 29.25, 29.125, 29, 28.9375, 28.9375, 28.9375, 29, 29.125, 29.25, 29.241072, 28.645834, 28.188776, 27.923468, 27.90625, 27.96875, 27.830357, 27.236113, 27.331633, 27.616072, 27.473213, 26.989584, 26.244047, 25.658163, 25.392857, 25.163265, 24.607143, 25.071428, 25.913265, 26.610546, 27, 26.964285, 25.061508, 24.251699, 23.714285, 23.166668, 23.223213, 23.125, 23.25, 23.25, 23.4375, 23.5, 23.3125, 23.151785, 22.391157, 21.489796, 20.985119, 20.580357, 20.25, 20.1875, 20.0625, 20, 20, 20, 20, 20, 20, 19.9375, 19.6875, 19.4375, 19.1875, 19, 19, 19, 18.9375, 18.8125, 18.5625, 18.375, 18.25, 18.25, 18.375, 18.3125, 18.25, 18.125, 18, 18, 18, 18, 18, 18, 17.9375, 17.6875, 17.4375, 17.1875, 17, 17, 17, 17, 17, 17.0625, 17.035713, 16.830357, 16.696428, 16.419643, 16.0625, 16.0625, 15.9375, 16.0625, 16, 16, 16, 16, 16, 15.9375, 15.8125, 15.5625, 15.3125, 15.125, 15, 15, 15, 15, 15, 15, 15, 15, 15, 15, 14.75, 14.5, 14.25, 14, 14, 14, 14, 14, 14, 13.9375, 13.8125, 13.5625, 13.3125, 13.125, 13, 13, 13, 13, 13, 13, 13, 12.8125, 12.5625, 12.375, 12.125, 12.0625, 12.0625, 12, 12, 12, 12, 11.875, 11.8125, 11.75, 11.5625, 11.4375, 11.25, 11.0625, 11, 10.875, 10.8125, 10.875, 11, 11.375, 11.5625, 11.6875, 11.75, 11.75, 11.875, 11.9375, 12, 12, 12, 12, 12, 12, 12.0625, 12.0625, 12.125, 12.3125, 12.375, 12.5, 12.5625, 12.625, 12.6875, 12.75
-10, 38, 38, 37.9375, 37.8125, 37.75, 37.75, 37.8125, 37.741074, 37.5625, 37.5, 37.330357, 37.410713, 37.25, 37.125, 37, 37, 37, 37, 36.875, 36.625, 36.5625, 36.4375, 36.375, 36.625, 36.866074, 36.954166, -10, -10, -10, -10, -10, 42, 41.583336, 41.416664, 41.25, 41.410713, 41.520832, 42.219048, 42.526787, 42.96875, 43.09375, 43.464287, 43.535713, 43.419643, 43.333332, -10, -10, -10, -10, -10, 44.604168, 45.191666, 45.276787, 45.214287, 45.336735, 46.072918, 46.525513, 46.82653, 46.658165, 46.401787, 46.491074, 46.446426, 46.732143, 46.803574, 47, 46.82143, 47.1875, 47.57143, 47.653057, 47.591835, 47.544216, 47.813992, 47.501705, 47.677082, 47.150295, 46.723213, 46.508926, 46.5, 46.339287, 45.809525, 45.526787, 45.25, 45.25, 45.035713, 44.839287, 44.6875, 44.4375, 44.5625, 44.25, 44.128571, 43.9375, 43.678574, 44.25, 43.94643, 42.986397, 42.058502, 42.263889, 42.17551, 42.194447, 41.753059, 41.57143, 41.520409, 41.452381, 41.07143, 40.92857, 40.714287, 40.867344, 40.7449, 40.035713, 39.883926, 39.5625, 39.5625, 39.285713, 39.044643, 38.779762, 38.719387, 38.696938, 38.238094, 38.244045, 38.059525, 38.077381, 36.850338, 36.510204, 36.294643, 36.026787, 36.270832, 36.214287, 36.041668, 35.821426, 35.92857, 35.887756, 35.642857, 34.544216, 34.845238, 34.656464, 34.210316, 33.988094, 33.123013, 32.172619, 32.022324, 32.30357, 32.19643, 32.232143, 32.046875, 32.041664, -10, -10, -10, 31.571428, 30.805555, 30.583334, 30.333334, 30.083334, 29.916666, 29.916666, 29.833334, 29.571428, 29.25, 29.125, 28.9375, 28.75, 28.6875, 28.5, 28.5625, 28.6875, 28.6875, 28.8125, 28.875, 28.8125, 28.75, 28.6875, 28.625, 28.625, 28.6875, 28.875, 29, 28.866072, 28.145834, 27.758928, 27.46875, 27.40625, 27.40625, 27.330357, 26.773809, 26.653061, 27.053572, 26.910713, 26.364584, 25.650297, 25.294643, 24.986607, 24.424107, 23.586735, 23.273809, 23.75, 24.154762, 24.464285, 24.333334, 23.802721, 23.013607, 22.866072, 22.75, 22.875, 23, 23.0625, 23.125, 23.1875, 23.125, 22.767857, 22.280611, 21.564627, 21, 20.714287, 20.5, 20.375, 20.3125, 20.1875, 20.0625, 20, 20, 20, 19.9375, 19.875, 19.8125, 19.625, 19.4375, 19.25, 19.0625, 19, 19, 18.9375, 18.8125, 18.625, 18.375, 18.1875, 18.1875, 18.25, 18.25, 18.25, 18.125, 18, 18, 18, 18, 18, 18, 18, 17.8125, 17.5625, 17.3125, 17.0625, 17, 17, 17, 17, 17, 17, 16.9375, 16.875, 16.669643, 16.25, 16.1875, 16, 16.0625, 16, 16, 16, 16, 16, 16, 15.9375, 15.75, 15.5625, 15.3125, 15.125, 15.0625, 15, 15, 15, 15, 15, 15, 14.9375, 14.875, 14.625, 14.375, 14.1875, 14, 14, 14, 13.9375, 13.875, 13.8125, 13.75, 13.6875, 13.5, 13.375, 13.1875, 13.0625, 13.0625, 13, 13, 13, 13, 13, 12.8125, 12.625, 12.4375, 12.1875, 12.125, 12.0625, 12, 12, 12, 12, 11.9375, 11.875, 11.8125, 11.625, 11.4375, 11.25, 11.0625, 11, 10.875, 10.875, 10.9375, 11.0625, 11.4375, 11.625, 11.8125, 11.9375, 11.9375, 12, 12, 12, 12, 12, 12.0625, 12.0625, 12.0625, 12.125, 12.0625, 12.1875, 12.4375, 12.5625, 12.75, 12.8125, 12.8125, 12.875, 12.916667, -10, -10, -10, -10, -10, -10, -10, -10, -10, -10, -10, -10, -10, -10, -10, -10, -10, -10, -10, -10, -10, -10, -10, -10, -10, -10, 38, 37.875, 37.833332, 37.8125, 37.8125, 37.8125, 37.8125, 37.741074, 37.625, 37.5625, 37.392857, 37.410713, 37.1875, 37.0625, 37, 37, 37, 37, 36.875, 36.6875, 36.625, 36.5, 36.5, 36.8125, 37.136902, 37.355556, -10, -10, -10, -10, -10, -10, 41.583336, 41.833332, 41.666664, 42.023808, 42.333332, 42.619049, 42.955353, 43.46875, 43.65625, 43.90625, 43.986607, 44.214287, 44.178574, -10, -10, -10, -10, -10, 45.190479, 46.066666, 46.334187, 46.8125, 46.925598, 47.172619, 47.280613, 47.285713, 47.044643, 46.839287, 47.096943, 47.07143, 47.294643, 47.607143, 47.919643, 48.17857, 48.125, 48.25, 48.1875, 48.017857, 48.035713, 48.67857, 48.953373, 48.585033, 47.754463, 47.401787, 47.196426, 47.42857, 47.387756, 47.095242, 46.867344, 46.57143, 46.464287, 46.035713, 45.776787, 45.625, 45.607143, 45.596943, 45.214287, 45.035713, 44.82143, 44.795918, 44.92857, 44.491074, 43.851192, 43.196598, 43.404758, 43.240818, 43.166668, 43.014286, 42.7449, 42.704082, 42.559521, 41.875, 41.75, 41.5625, 41.6875, 41.45536, 40.702381, 40.455357, 40.25, 40.25, 40.125, 40.151787, 39.666664, 39.67857, 39.844898, 39.224487, 39.17347, 38.979591, 39.030613, 39.079365, 38.863094, 37.183674, 36.797619, 36.788689, 36.669643, 36.75, 36.6875, 36.75, 36.933674, 36.663265, 36.424603, 35.916664, 35.87075, 35.465984, 35.275509, 34.236111, 33.488094, 33.453571, 33.106251, 32.994049, 33.293369, 33.006699, 33.104164, -10, -10, -10, 32.099998, -10, -10, -10, -10, -10, -10, -10, 28.714285, 28.75, 28.625, 28.5, 28.3125, 28.25, 28.125, 28.125, 28.25, 28.25, 28.375, 28.5, 28.5, 28.5, 28.4375, 28.375, 28.375, 28.4375, 28.625, 28.6875, 28.491072, 27.770834, 27.383928, 27.125, 27.0625, 26.9375, 26.736607, 26.270834, 26.102678, 26.178572, 26.035713, 25.552084, 24.971727, 24.803572, 24.450893, 23.715773, 23.04018, 22.561224, 22.785715, 23.051022, 23.2551, 23.142857, 22.666666, 22.553572, 22.4375, 22.4375, 22.625, 22.8125, 22.8125, 22.8125, 22.642857, 22.4375, 22.080357, 21.561224, 21.145834, 20.75, 20.5625, 20.4375, 20.375, 20.3125, 20.1875, 20.0625, 20, 20, 20, 19.875, 19.75, 19.625, 19.4375, 19.3125, 19.1875, 19.0625, 19, 19, 18.9375, 18.8125, 18.6875, 18.5, 18.3125, 18.3125, 18.3125, 18.25, 18.25, 18.125, 18, 18, 18, 18, 18, 17.9375, 17.9375, 17.8125, 17.5625, 17.375, 17.125, 16.9375, 16.9375, 16.9375, 16.9375, 17, 17, 17, 17, 16.857143, 16.4375, 16.3125, 16.0625, 16.0625, 16, 16, 16, 16, 16, 16, 16, 15.8125, 15.625, 15.375, 15.125, 15.0625, 15, 15, 15, 15, 15, 15, 14.9375, 14.8125, 14.5625, 14.3125, 14.125, 14, 14, 14, 13.9375, 13.875, 13.75, 13.6875, 13.625, 13.4375, 13.4375, 13.25, 13.125, 13.125, 13, 13, 13, 13, 13, 12.875, 12.75, 12.625, 12.4375, 12.3125, 12.1875, 12.0625, 12, 12, 12, 12, 12, 11.875, 11.625, 11.375, 11.125, 11, 11, 10.9375, 11, 11.125, 11.3125, 11.625, 11.8125, 11.9375, 12, 12, 12, 12, 12, 12, 12, 12.0625, 12.0625, 12.0625, 12.125, 12.0625, 12.1875, 12.4375, 12.625, 12.875, 13, 13, 13, 13
-10, -10, 38, 37.916664, 37.9375, 37.875, 37.875, 37.8125, 37.75, 37.8125, 37.75, 37.625, 37.4375, 37.1875, 37, 37, 37, 37, 37, 36.875, 36.75, 36.6875, 36.5625, 36.6875, 36.958332, 37.265873, -10, -10, -10, -10, -10, -10, -10, -10, 42.458332, 42.291664, 42.841835, 43, 43.040813, 43.705353, 44.125, 44.25, 44.607143, 44.69643, 44.933037, 45.085033, 46.166664, -10, -10, -10, -10, 47.027782, 47.285713, 47.42347, 47.607143, 47.806126, 48.023811, 48.084824, 48, 47.765308, 47.530613, 47.647324, 47.45536, 47.59375, 47.897324, 48.57653, 48.872448, 48.92857, 48.6875, 48.4375, 48.339287, 48.571426, 49.21875, 49.67432, 49.638607, 48.413265, 48.132656, 48, 48.107143, 48.102043, 48.261906, 48.010201, 47.714287, 47.57143, 47.306122, 46.979591, 46.663265, 46.464287, 46.107143, 45.625, 45.5625, 45.419643, 45.508926, 45.625, 45.428574, 44.842262, 44.192856, 44.642857, 44.160713, 43.895832, 43.952381, 43.845238, 43.948978, 43.835033, 43.119049, 42.903057, 42.642857, 42.5, 42.33036, 41.684525, 41.455357, 41.035713, 41.1875, 41.0625, 41.214287, 41.166668, 40.877552, 40.650002, 40.133926, 40.142857, 40.044643, 40.04464, 40.119045, 39.724487, 39.25, 38, 37.639458, 37.408165, 37.669643, 37.5625, 37.857143, 37.589287, 37.205357, 37.139458, 36.904758, 36.833332, 36.741074, 36.63393, 36.746033, 36.17857, 34.799999, 34.157143, 33.751701, 34.241074, 34.178574, 34.404762, 35.333336, -10, -10, -10, -10, -10, -10, -10, -10, -10, -10, 28.4, 28.4375, 28.375, 28.25, 28.0625, 27.9375, 27.8125, 27.75, 27.875, 27.9375, 28, 28.125, 28.125, 28.125, 28.0625, 28, 28, 28.0625, 28.25, 28.25, 27.982143, 27.413691, 27.053572, 26.78125, 26.59375, 26.34375, 26.21875, 26.0625, 25.888393, 25.440475, 25.183672, 24.731293, 24.578869, 24.678572, 24.357143, 23.693453, 22.654762, 22.276787, 22.1875, 22.3125, 22.410713, 22.375, 22.25, 22.125, 22.1875, 22.1875, 22.375, 22.5625, 22.5625, 22.5, 22.205357, 21.875, 21.455357, 21.142857, 20.8125, 20.5625, 20.375, 20.3125, 20.3125, 20.25, 20.1875, 20.0625, 20, 20, 20, 19.875, 19.75, 19.5625, 19.375, 19.25, 19.125, 19.0625, 19, 19, 19, 18.9375, 18.875, 18.75, 18.5625, 18.4375, 18.3125, 18.1875, 18.125, 18.0625, 18, 18, 18, 18, 18, 17.9375, 17.9375, 17.875, 17.625, 17.4375, 17.1875, 16.9375, 16.9375, 16.9375, 16.9375, 17, 17, 17, 17, 16.866072, 16.5625, 16.375, 16.125, 16.0625, 16, 16, 16, 16, 16, 16, 16, 15.8125, 15.625, 15.375, 15.125, 15.0625, 15, 15, 15, 15, 15, 15, 14.9375, 14.75, 14.5, 14.25, 14.0625, 14, 14, 14, 13.9375, 13.8125, 13.625, 13.5625, 13.5, 13.375, 13.4375, 13.25, 13.125, 13.125, 13, 13, 13, 13, 13, 12.9375, 12.875, 12.8125, 12.625, 12.4375, 12.25, 12.0625, 12, 12, 12, 12, 12, 11.875, 11.625, 11.375, 11.125, 11, 11.0625, 11.0625, 11.125, 11.3125, 11.5, 11.75, 11.9375, 12, 12, 12, 12, 12, 12, 12, 12, 12.0625, 12.125, 12.125, 12.125, 12.0625, 12.125, 12.375, 12.625, 12.875, 13, 13, 13, 13, -10, -10, -10, -10, -10, -10, -10, -10, -10, -10, -10, -10, -10, -10, -10, -10, -10, -10, -10, -10, -10, -10, -10, -10, -10, -10, -10, 38.125, 38, 38, 37.9375, 37.9375, 37.875, 37.875, 37.875, 37.8125, 37.75, 37.5625, 37.3125, 37.125, 37.0625, 37, 37, 37, 36.9375, 36.875, 36.8125, 36.8125, 37, 37.25, -10, -10, -10, -10, -10, -10, -10, -10, -10, -10, -10, 43.414284, 44.238098, 44.563492, 44.424103, 44.75, 44.8125, 45.169643, 45.32143, 45.683037, 45.989799, 46.444443, -10, -10, -10, -10, 47.785713, 48.104763, 48.058037, 48.25, 48.526787, 48.857143, 48.959824, 49.416668, 49.404758, 49.113098, 48.397324, 47.948982, 48.010418, 48.376488, 48.994045, 49.348213, 49.4375, 49.3125, 49, 48.839287, 49.133926, 49.875, 50.261906, 50.324406, 50.297619, 50.083332, 49.958332, 49.958332, 49.863098, 49.261906, 49.045918, 48.785713, 48.596943, 48.119049, 47.841835, 47.392857, 47.132656, 46.897957, 46.309528, 46.2551, 46.357143, 46.4375, 46.3125, 46.116074, 45.819725, 45.410206, 45.714287, 45.520409, 44.702381, 44.630951, 45.059521, 45.112247, 44.894562, 44.190479, 43.938774, 43.607143, 43.3125, 43.306126, 42.761906, 42.510201, 42.666668, 42.25, 42.142857, 42.17857, 41.964287, 41.785713, 41.57143, 41.183674, 41.040813, 40.92857, 40.897957, 40.8125, 40.5, 40.285713, 40.166668, 40.015873, 39.33532, 38.607143, 38.375, 38.4375, 38.276787, 37.892857, 37.830357, 37.625, 37.892857, 37.75, 37.709187, 37.806122, 37.5, 37.185715, 35.841667, 35.351192, 35.335033, 35.443878, 35.465984, 35.555557, -10, -10, -10, -10, -10, -10, -10, -10, -10, -10, -10, 28, 27.916666, 27.9375, 27.8125, 27.6875, 27.6875, 27.5625, 27.625, 27.6875, 27.625, 27.6875, 27.6875, 27.6875, 27.6875, 27.625, 27.625, 27.5625, 27.5625, 27.4375, 27.125, 26.830357, 26.625, 26.40625, 26.21875, 25.96875, 25.71875, 25.5, 25.263393, 24.916666, 24.830357, 24.776785, 24.566328, 24.761906, 24.086309, 23.229166, 22.467262, 22.169643, 22.125, 22.125, 22.125, 22.0625, 22, 22, 22.0625, 22.125, 22.1875, 22.25, 22.1875, 22, 21.705357, 21.4375, 21.142857, 20.9375, 20.625, 20.4375, 20.1875, 20.125, 20.1875, 20.125, 20.125, 20.0625, 20, 20, 20, 19.875, 19.75, 19.5, 19.3125, 19.1875, 19.0625, 19.0625, 19, 19, 19, 19, 19, 18.9375, 18.8125, 18.625, 18.375, 18.1875, 18.0625, 18, 18, 18, 18, 18, 18, 17.875, 17.875, 17.875, 17.625, 17.5, 17.25, 16.9375, 16.9375, 16.9375, 16.9375, 17, 17, 17, 17, 16.9375, 16.75, 16.5, 16.25, 16.0625, 16, 16, 16, 16, 16, 16, 16, 15.8125, 15.625, 15.375, 15.125, 15.0625, 15, 15, 15, 15, 15, 15, 14.875, 14.625, 14.375, 14.125, 14, 14, 14, 14, 13.875, 13.6875, 13.4375, 13.3125, 13.25, 13.25, 13.375, 13.25, 13.1875, 13.125, 13, 13, 13, 13, 13, 13, 12.9375, 12.8125, 12.625, 12.375, 12.1875, 12.0625, 12, 12, 12, 12, 12, 11.875, 11.625, 11.375, 11.125, 11, 11.0625, 11.0625, 11.1875, 11.375, 11.5, 11.75, 11.875, 11.9375, 12, 12, 12, 12, 12, 12, 12, 12.0625, 12.1875, 12.1875, 12.1875, 12.125, 12.0625, 12.3125, 12.5625, 12.8125, 13, 13, 13, 13
-10, -10, 38.25, 38, 37.892857, 37.8125, 37.8125, 37.8125, 37.875, 37.875, 37.8125, 37.8125, 37.6875, 37.5, 37.3125, 37.1875, 37.0625, 37, 36.9375, 36.9375, 36.9375, 36.9375, 37.125, 37.3125, 37.479168, -10, -10, -10, -10, -10, -10, -10, -10, -10, -10, -10, -10, 45.083336, 45.190472, 45.362244, 45.535713, 45.40625, 45.700893, 45.94643, 46.433037, 46.678574, 46.864582, -10, -10, -10, -10, 48.473213, 48.541668, 48.772324, 48.803574, 49.026787, 49.479591, 49.757656, 49.862244, 49.92857, 49.739799, 49.232143, 49.267857, 48.572918, 48.938988, 49.556545, 49.848213, 50, 50, 49.875, 49.797619, 49.912498, 50.458332, 50.732147, 50.991074, 51.064629, 50.92857, 50.785713, 50.67857, 50.561226, 50.119049, 49.696426, 49.5, 49.303574, 48.854168, 48.580357, 48.330357, 48.767857, 48.547619, 48.055557, 47.886902, 47.443878, 47.57143, 47.392857, 46.9375, 46.598213, 46.485714, 46.714287, 46.67347, 46.555553, 46.555553, 46.181973, 46.056122, 45.918369, 45.261906, 45.117344, 44.32143, 44.383926, 44.011906, 43.809528, 43.448978, 43.435711, 43.345238, 42.8125, 42.946426, 42.75, 42.642857, 42.375, 41.916668, 41.75, 41.857143, 41.5625, 41.5, 41.267857, 41.125, 41.285713, 41.108845, 40.222225, 39.851192, 39.25, 39.224491, 38.959187, 38.705357, 38.642857, 38.5, 38.6875, 38.526787, 38.226788, 38.419643, 38.547615, 38.118366, 36.200001, 35.884357, 35.761906, 36.091835, 36.116074, 35.952381, 36.666664, -10, -10, -10, -10, -10, -10, -10, -10, -10, -10, 27.75, 27.666666, 27.625, 27.4375, 27.25, 27.21875, 27.15625, 27.28125, 27.40625, 27.375, 27.375, 27.4375, 27.4375, 27.375, 27.267857, 27.25, 27.125, 27.125, 27, 26.6875, 26.392857, 26.25, 26.013393, 25.611607, 25.352678, 25.03125, 24.8125, 24.669643, 24.416666, 24.633928, 24.75, 25.059525, 24.726192, 23.693453, 23.086309, 22.360119, 22.107143, 22, 22, 22, 22, 22, 22, 22, 21.9375, 21.875, 21.8125, 21.6875, 21.5, 21.267857, 21.125, 21, 20.8125, 20.5625, 20.375, 20.1875, 20.125, 20.125, 20.0625, 20, 20, 20, 20, 20, 19.9375, 19.875, 19.6875, 19.4375, 19.25, 19.0625, 19, 19, 19, 19, 19, 19, 19, 18.9375, 18.8125, 18.5625, 18.3125, 18.125, 18, 18, 18, 18, 18, 18, 17.8125, 17.75, 17.6875, 17.4375, 17.375, 17.1875, 16.9375, 16.9375, 16.9375, 16.9375, 17, 17, 17, 17, 16.9375, 16.75, 16.5, 16.25, 16.0625, 16, 16, 16, 16, 16, 16, 16, 15.8125, 15.5625, 15.3125, 15.0625, 15, 15, 15, 15, 15, 15, 14.9375, 14.8125, 14.5625, 14.3125, 14.125, 14, 14, 14, 14, 13.9375, 13.8125, 13.625, 13.5, 13.375, 13.375, 13.4375, 13.3125, 13.25, 13.125, 13, 13, 13, 13, 13, 13, 12.875, 12.75, 12.5625, 12.3125, 12.25, 12.1875, 12.1875, 12.178572, 11.916667, 11.892857, 11.875, 11.875, 11.6875, 11.4375, 11.1875, 11, 11.0625, 11.0625, 11.1875, 11.375, 11.5, 11.75, 11.875, 11.9375, 12, 12, 12, 12, 12, 12, 12, 12, 12.125, 12.125, 12.1875, 12.25, 12.1875, 12.4375, 12.625, 12.75, 12.9375, 12.9375, 12.9375, 13, -10, -10, -10, -10, -10, -10, -10, -10, -10, -10, -10, -10, -10, -10, -10, -10, -10, -10, -10, -10, -10, -10, -10, -10, -10, -10, -10, 38.375, 38.104164, 37.892857, 37.6875, 37.6875, 37.75, 37.875, 37.9375, 37.8125, 37.75, 37.625, 37.4375, 37.3125, 37.1875, 37.0625, 37, 36.875, 36.875, 36.875, 36.875, 37.1875, 37.395832, 37.555557, -10, -10, -10, -10, -10, -10, -10, -10, -10, -10, -10, -10, 45.666668, 45.833332, 45.96875, 46.09375, 46.03125, 46.242561, 46.404766, 46.767857, 47, 47.708332, 48.916664, 49.09375, 49.34375, 49.5625, 48.973213, 49.104168, 49.397324, 49.491074, 49.705357, 49.844643, 50.232143, 50.339287, 50.5, 50.4375, 50.137501, 50.051022, 49.47364, 49.458336, 50.044216, 50.29464, 50.5625, 50.6875, 51, 51.003399, 50.832146, 51.357143, 51.303574, 51.5625, 51.660713, 51.651787, 51.6875, 51.598213, 51.32143, 50.863094, 50.633926, 50.5625, 50.375, 49.666668, 49.3125, 49.224487, 49.443878, 49.265308, 48.823128, 48.724487, 48.454082, 48.57143, 48.142857, 47.5, 47.235119, 47.208332, 47.357143, 47.612244, 47.333332, 47.333332, 47.241493, 46.875, 46.595238, 45.988094, 46.040813, 46.041668, 45.545918, 44.958332, 44.625, 44.294643, 44.287498, 44.416664, 43.866074, 43.903057, 43.714287, 43.642857, 43.5, 42.854168, 42.580357, 42.4375, 42.25, 42.125, 41.830357, 41.767857, 42.083332, 41.961311, 41.944447, 41.654762, 41.357143, 41.279758, 40.809525, 39.92857, 39.714287, 39.57143, 39.625, 39.526787, 39.200001, 39.1875, 39.125, 38.892857, 37.204082, 36.789116, 36.380951, 36.591072, 36.488094, 36.26984, 36.666664, -10, -10, -10, -10, -10, -10, -10, -10, -10, -10, 27.4375, 27.375, 27.28125, 27.125, 26.9375, 26.875, 26.875, 26.9375, 27, 26.9375, 26.875, 26.9375, 26.875, 26.8125, 26.705357, 26.75, 26.6875, 26.6875, 26.5625, 26.1875, 25.955357, 25.875, 25.651787, 25.122023, 24.830357, 24.5625, 24.428572, 24.580357, 24.479166, 24.821428, 25, 24.955357, 24.404762, 23.336309, 22.857143, 22.270834, 22.107143, 22, 22, 22, 22, 22, 22, 21.9375, 21.8125, 21.625, 21.4375, 21.3125, 21.1875, 21.125, 21.0625, 21, 20.8125, 20.5625, 20.375, 20.1875, 20.125, 20.125, 20.0625, 20, 20, 20, 20, 20, 20, 20, 19.8125, 19.5625, 19.3125, 19.0625, 19, 19, 19, 19, 19, 19, 19, 18.9375, 18.8125, 18.5625, 18.3125, 18.125, 18, 18, 18, 18, 18, 18, 17.875, 17.8125, 17.75, 17.5625, 17.4375, 17.25, 17.0625, 17, 17, 17, 16.9375, 16.875, 16.892857, 17, 16.875, 16.714287, 16.5, 16.25, 16.125, 16.0625, 16, 16, 16, 16, 16, 15.9375, 15.75, 15.5, 15.25, 15.0625, 15, 15, 15, 15, 14.9375, 14.9375, 14.875, 14.6875, 14.5, 14.25, 14.0625, 14, 14, 14, 14, 13.9375, 13.8125, 13.6875, 13.5625, 13.5, 13.5625, 13.5625, 13.4375, 13.3125, 13.125, 13, 13, 13, 13, 13, 12.9375, 12.75, 12.5625, 12.3125, 12.125, 12.125, 12.1875, 12.25, 12.178572, 11.809524, 11.767857, 11.75, 11.875, 11.75, 11.5, 11.25, 11, 11.0625, 11.0625, 11.25, 11.4375, 11.5625, 11.8125, 11.875, 11.9375, 12, 12, 12, 12, 12, 12, 12, 12, 12.125, 12.125, 12.25, 12.375, 12.375, 12.625, 12.6875, 12.6875, 12.8125, 12.8125, 12.875, 13
-10, 37.875, 38.208332, 37.989582, 37.767857, 37.5625, 37.5625, 37.6875, 37.875, 38, 37.875, 37.8125, 37.75, 37.625, 37.5, 37.3125, 37.125, 37, 36.875, 36.8125, 36.8125, 36.791668, 37.25, 37.444443, -10, -10, -10, -10, -10, -10, -10, -10, -10, -10, -10, -10, -10, 46, 46.520832, 46.614582, 46.8125, 46.84375, 46.96875, -10, -10, -10, 48.67857, 49.138885, 49.291668, 49.541668, 49.708332, 49.410713, 49.541668, 49.928574, 50.223213, 50.428574, 50.487499, 50.803574, 50.839287, 51, 51.071426, 51.012501, 50.662498, 50.336311, 50.220238, 50.699406, 50.9375, 51.125, 51.5, 52.047619, 52.105438, 52.078571, 52, 51.928574, 52.0625, 52.125, 52.1875, 52.357143, 52.2551, 51.767857, 51.571426, 51.607143, 51.714287, 51.540813, 50.880955, 50.3125, 49.857143, 50.294643, 50.142857, 49.782738, 49.602676, 49.34375, 49.46875, 49.241074, 48.224487, 47.952381, 48.208332, 48.223213, 48.077381, 47.955357, 47.9375, 47.857143, 47.63393, 47.354168, 46.946426, 46.8125, 46.964287, 46.724487, 46.314625, 45.877552, 45.443878, 45.292854, 45.309521, 44.954082, 44.633926, 44.785713, 44.719387, 44.367344, 43.916668, 43.5, 43.061226, 42.892857, 42.955357, 42.75, 42.625, 42.75, 42.607143, 42.666668, 42.42857, 42.234692, 42.168365, 41.734692, 41.127552, 40.82143, 40.535713, 40.607143, 40.42347, 39.978573, 39.8125, 39.75, 39.50893, 39.261906, 39.198414, 37.555557, 37.341072, -10, -10, -10, -10, -10, -10, -10, -10, -10, -10, -10, -10, -10, 26.9375, 26.958334, 26.84375, 26.75, 26.6875, 26.625, 26.6875, 26.6875, 26.625, 26.5625, 26.5, 26.5625, 26.5, 26.4375, 26.267857, 26.3125, 26.25, 26.125, 26, 25.6875, 25.5625, 25.5625, 25.464287, 24.997023, 24.767857, 24.5, 24.4375, 24.473213, 24.625, 24.928572, 24.922619, 24.741072, 23.721088, 22.836309, 22.285715, 22.0625, 22, 22, 22, 22, 22, 22, 22, 21.875, 21.6875, 21.4375, 21.1875, 21.0625, 21, 21, 21, 21, 20.875, 20.625, 20.4375, 20.25, 20.125, 20.125, 20.0625, 20, 20, 20, 20, 20, 19.9375, 19.875, 19.6875, 19.4375, 19.25, 19.0625, 19, 19, 19, 19, 19, 19, 19, 18.9375, 18.8125, 18.5625, 18.3125, 18.125, 18, 18, 18, 18, 18, 18, 17.875, 17.8125, 17.75, 17.625, 17.5625, 17.4375, 17.3125, 17.1875, 17.125, 17.0625, 16.875, 16.75, 16.705357, 16.75, 16.75, 16.714287, 16.625, 16.5, 16.3125, 16.1875, 16.0625, 16, 16, 16, 15.9375, 15.8125, 15.625, 15.375, 15.1875, 15.0625, 15, 15, 15, 14.9375, 14.8125, 14.75, 14.625, 14.4375, 14.3125, 14.125, 14, 14, 14, 14, 14, 13.9375, 13.875, 13.8125, 13.75, 13.75, 13.8125, 13.8125, 13.6875, 13.5, 13.25, 13.0625, 13, 13, 13, 13, 12.875, 12.625, 12.375, 12.125, 12, 12.0625, 12.1875, 12.25, 12.178572, 11.747024, 11.642857, 11.625, 11.75, 11.75, 11.5625, 11.3125, 11.0625, 11, 11, 11.1875, 11.3125, 11.4375, 11.625, 11.625, 11.75, 11.875, 11.9375, 12, 12, 12, 12, 12, 12, 12.0625, 12.0625, 12.1875, 12.3125, 12.375, 12.625, 12.625, 12.5625, 12.625, 12.5625, 12.6875, 12.833333, -10, -10, -10, -10, -10, -10, -10, -10, -10, -10, -10, -10, -10, -10, -10, -10, -10, -10, -10, -10, -10, -10, -10, -10, -10, -10, 37.75, 38, 37.84375, 37.705357, 37.5, 37.5, 37.625, 37.8125, 38, 37.875, 37.8125, 37.6875, 37.5625, 37.4375, 37.25, 37.125, 37, 36.875, 36.8125, 36.8125, 36.791668, -10, -10, -10, -10, -10, -10, -10, -10, -10, -10, -10, -10, -10, -10, -10, -10, 47.0625, 47.229164, 47.4375, 47.53125, 47.65625, -10, -10, -10, 49.34375, 49.520832, 49.59375, 49.78125, 49.864582, 49.714283, 49.974998, 50.641075, 50.901787, 51.239799, 51.235714, 51.418369, 51.276787, 51.375, 51.617344, 51.69286, 51.256248, 51.388393, 51.334824, 51.616074, 51.651787, 51.767857, 52.145832, 52.720238, 52.779758, 52.842857, 52.75, 52.553574, 52.6875, 52.8125, 52.875, 52.9375, 52.848213, 52.580357, 52.383926, 52.3125, 52.607143, 52.438774, 51.964287, 51.551022, 51.541668, 51.392857, 51.2551, 50.6875, 50.53125, 50.5, 50.642857, 50.561226, 50.107143, 49.960316, 49.630951, 49.1875, 48.666668, 48.392857, 48.3125, 48.482143, 48.294643, 48.068455, 48.010201, 47.6875, 47.6875, 47.446426, 47.231293, 46.806122, 46.489796, 46.414284, 46.208332, 45.87075, 45.428574, 45.57143, 45.410713, 45.133926, 45.07143, 44.857143, 44.892857, 44.708332, 43.830357, 43.75, 43.598213, 43.6875, 43.5, 43.166668, 43.017857, 42.892857, 42.848213, 42.648979, 42.139458, 41.454082, 41.083332, 41.137501, 40.848213, 40.695919, 40.535713, 40.32143, 40.168369, 40.045918, 40.146259, 40, 38.608334, -10, -10, -10, -10, -10, -10, -10, -10, -10, -10, -10, -10, -10, 26.625, 26.684525, 26.40625, 26.375, 26.3125, 26.25, 26.375, 26.375, 26.3125, 26.25, 26.1875, 26.25, 26.1875, 26.125, 25.892857, 25.875, 25.8125, 25.75, 25.75, 25.5, 25.3125, 25.205357, 25.089287, 24.684523, 24.580357, 24.5, 24.5625, 24.589285, 24.479166, 24.5625, 24.244049, 23.739796, 22.979593, 22.482143, 22.107143, 22, 22, 22, 22, 22, 22, 22, 22, 21.875, 21.625, 21.375, 21.125, 21, 21, 21, 21, 21, 20.9375, 20.75, 20.5625, 20.375, 20.25, 20.25, 20.1875, 20.125, 20.0625, 20, 20, 20, 19.875, 19.75, 19.5625, 19.3125, 19.1875, 19.0625, 19, 19, 19, 19, 19, 19, 19, 18.9375, 18.75, 18.5, 18.25, 18.0625, 18, 18, 18, 18, 18, 18, 17.9375, 17.875, 17.8125, 17.75, 17.6875, 17.5625, 17.4375, 17.25, 17.125, 17.0625, 16.875, 16.75, 16.642857, 16.6875, 16.6875, 16.714287, 16.75, 16.625, 16.4375, 16.25, 16.0625, 16, 16, 16, 15.9375, 15.8125, 15.625, 15.375, 15.1875, 15.0625, 15, 15, 15, 14.9375, 14.8125, 14.75, 14.5625, 14.375, 14.25, 14.0625, 14, 14, 14, 14, 14, 14, 14, 14, 14, 14, 13.9375, 13.875, 13.75, 13.5, 13.3125, 13.125, 13, 13, 13, 13, 12.8125, 12.5625, 12.3125, 12.0625, 12, 12.0625, 12.1875, 12.25, 12.178572, 11.747024, 11.642857, 11.625, 11.6875, 11.75, 11.5625, 11.3125, 11.125, 11, 11.0625, 11.1875, 11.3125, 11.4375, 11.5, 11.5625, 11.6875, 11.8125, 11.9375, 12, 12, 12, 12, 12, 12, 12, 12, 12.125, 12.25, 12.375, 12.625, 12.5625, 12.4375, 12.4375, 12.3125, 12.4375, 12.583333
-10, 37.5625, 37.625, 37.59375, 37.5625, 37.375, 37.4375, 37.5625, 37.75, 38, 37.875, 37.8125, 37.625, 37.4375, 37.3125, 37.125, 37.125, 37.125, 37.0625, 37.0625, 37, 36.9375, -10, -10, -10, -10, -10, -10, -10, -10, -10, -10, -10, -10, -10, -10, -10, -10, 47.854168, 47.638885, 47.791668, 48.150002, 48.266666, -10, -10, -10, 49.8125, 50.041664, 50.09375, 50.21875, 50.25, -10, 50.375, 51.3125, 51.61607, 51.866074, 52.100002, 51.991074, 52.053574, 52.125, 52.196426, 52.293751, 51.943748, 52.311226, 52.239799, 52.459187, 52.339287, 52.455357, 52.833332, 53.282738, 53.321426, 53.3125, 53.25, 53.125, 53.1875, 53.375, 53.53125, 53.78125, 53.879463, 53.660713, 53.383926, 53.375, 53.375, 53.258926, 53.07143, 52.704082, 52.42857, 52.392857, 52.198978, 51.719387, 51.517857, 51.410713, 51.28125, 51.479591, 51.020409, 50.914967, 50.904758, 50.551022, 49.25, 48.919643, 48.75, 49.0625, 49.080357, 48.818455, 48.696426, 48.5625, 48.535713, 48.267857, 47.98214, 47.580357, 47.607143, 47.464287, 47.32143, 46.699406, 46.357143, 46.375, 46.285713, 45.946426, 45.971092, 45.846943, 45.801022, 45.683674, 45.040813, 44.938774, 44.683674, 44.714287, 44.464287, 43.729168, 43.473213, 43.455357, 43.517857, 43.255356, 42.934525, 42.025513, 41.809521, 41.866669, 41.633926, 41.383926, 41.15625, 40.799107, 40.620537, 40.790176, 40.982143, 41.142857, 41.266666, -10, -10, -10, -10, -10, -10, -10, -10, -10, -10, 26, 26.166668, 26.107143, 26.125, 26.184525, 25.90625, 26, 26, 25.96875, 26.03125, 25.96875, 25.84375, 25.75, 25.6875, 25.6875, 25.625, 25.625, 25.5, 25.5, 25.5, 25.4375, 25.5, 25.375, 25.232143, 24.934523, 24.803572, 24.541666, 24.508928, 24.5625, 24.625, 24.589285, 24.354166, 24.133928, 23.452381, 23.241072, 22.5625, 22.232143, 22, 22, 22, 22, 22, 22, 22, 22, 22, 21.875, 21.6875, 21.5, 21.25, 21.125, 21.0625, 21, 21, 21, 21, 20.875, 20.75, 20.5625, 20.4375, 20.4375, 20.375, 20.3125, 20.1875, 20.0625, 20, 20, 19.875, 19.75, 19.5625, 19.375, 19.3125, 19.1875, 19.125, 19.0625, 19, 19, 19, 19, 19, 18.9375, 18.75, 18.5, 18.3125, 18.125, 18.0625, 18.0625, 18, 18, 18, 18, 18, 18, 17.9375, 17.9375, 17.8125, 17.625, 17.5, 17.25, 17.125, 17.0625, 16.875, 16.75, 16.642857, 16.6875, 16.6875, 16.714287, 16.75, 16.625, 16.4375, 16.25, 16.0625, 16, 16, 16, 15.9375, 15.8125, 15.5625, 15.3125, 15.125, 15, 15, 15, 15, 14.9375, 14.8125, 14.75, 14.5625, 14.375, 14.25, 14.0625, 14, 14, 14, 14, 14, 14, 14, 14, 13.9375, 13.875, 13.75, 13.625, 13.5625, 13.375, 13.25, 13.125, 13, 12.9375, 12.9375, 12.9375, 12.75, 12.5625, 12.3125, 12.0625, 12, 12, 12.0625, 12.0625, 12, 11.830357, 11.75, 11.75, 11.75, 11.75, 11.5625, 11.3125, 11.125, 11, 11.0625, 11.125, 11.1875, 11.3125, 11.375, 11.5, 11.6875, 11.8125, 11.9375, 12, 12, 12, 12, 12, 12, 12, 12, 12.125, 12.1875, 12.25, 12.4375, 12.3125, 12.3125, 12.3125, 12.1875, 12.3125, 12.333333, -10, -10, -10, -10, -10, -10, -10, -10, -10, -10, -10, -10, -10, -10, -10, -10, -10, -10, -10, -10, -10, -10, -10, -10, -10, -10, 37.3125, 37.375, 37.34375, 37.34375, 37.21875, 37.34375, 37.53125, 37.75, 38, 37.9375, 37.875, 37.6875, 37.5, 37.3125, 37.125, 37.125, 37.1875, 37.1875, 37.25, 37.1875, 37.083332, -10, -10, -10, -10, -10, -10, -10, -10, -10, -10, -10, -10, -10, -10, -10, -10, 48.25, -10, -10, -10, -10, -10, -10, -10, 50.052082, 50.270832, 50.421875, 50.520088, 50.450001, -10, 50.728573, 52.0625, 52.33482, 52.65625, 52.8125, 52.8125, 52.875, 52.803574, 52.674999, 52.772324, 52.622322, 52.96875, 52.959824, 53.0625, 53.017857, 53.198978, 53.595238, 53.845238, 53.946426, 54, 53.9375, 53.875, 53.9375, 54.0625, 54.227676, 54.75, 54.92857, 55.020409, 54.714287, 54.714287, 54.535713, 54.311226, 53.904762, 53.627552, 53.25, 53.1875, 53.03125, 52.540176, 52.010418, 51.852676, 51.8125, 51.910713, 51.767857, 51.758926, 52, 51.67347, 50, 49.658165, 49.42857, 49.67857, 49.683674, 49.839287, 49.75, 49.82143, 49.535713, 49.330357, 49.035713, 48.580357, 48.642857, 48.367344, 47.988094, 47.452381, 47.265308, 47.25, 47.223213, 46.946426, 46.818455, 46.732143, 46.732143, 46.535713, 46.102043, 45.974487, 45.473213, 45.428574, 45.0625, 44.541668, 44.348213, 44.375, 44.232143, 44.005356, 43.872025, 43.744049, 43.597218, 42.759525, 42.217262, 42.017857, 41.888393, 41.448978, 41.260201, 41.183037, 41.410713, 41.67857, 42.361904, -10, -10, -10, -10, -10, -10, -10, -10, 25.625, 25.75, 25.875, 25.944445, 25.821428, 25.6875, 25.726191, 25.5, 25.625, 25.6875, 25.6875, 25.616072, 25.375, 25.3125, 25.294643, 25.375, 25.4375, 25.4375, 25.4375, 25.25, 25.125, 25.0625, 25, 25.125, 25.125, 24.919643, 24.559523, 24.446428, 24.375, 24.375, 24.375, 24.25, 24.053572, 23.583332, 23.367346, 23.083334, 22.723213, 22.4375, 22.25, 22.125, 22.125, 22.0625, 22, 22, 22, 22, 22, 22, 21.9375, 21.8125, 21.625, 21.375, 21.1875, 21.0625, 21, 21, 21, 21, 20.9375, 20.875, 20.75, 20.625, 20.5625, 20.5, 20.4375, 20.3125, 20.1875, 20.0625, 20, 19.875, 19.75, 19.625, 19.5, 19.4375, 19.3125, 19.1875, 19.0625, 19, 19, 19, 19, 18.9375, 18.875, 18.75, 18.5625, 18.5, 18.3125, 18.1875, 18.125, 18, 18, 18, 18, 18, 18, 17.9375, 17.875, 17.75, 17.5625, 17.4375, 17.25, 17.125, 17.0625, 16.875, 16.8125, 16.6875, 16.625, 16.75, 16.6875, 16.6875, 16.5625, 16.3125, 16.1875, 16.0625, 16, 16, 16, 15.9375, 15.875, 15.625, 15.375, 15.1875, 15, 15, 15, 15, 14.9375, 14.875, 14.8125, 14.5625, 14.375, 14.1875, 14, 14, 14, 14, 14, 14, 14, 14, 14, 13.9375, 13.875, 13.6875, 13.5, 13.4375, 13.25, 13.1875, 13.125, 13, 12.875, 12.875, 12.875, 12.75, 12.625, 12.375, 12.125, 12, 12, 12, 12, 12, 11.9375, 11.875, 11.875, 11.8125, 11.8125, 11.625, 11.375, 11.1875, 11, 11.0625, 11.0625, 11.125, 11.25, 11.3125, 11.5, 11.6875, 11.8125, 11.9375, 12, 12, 12, 12, 12, 12, 12, 12, 12.125, 12.125, 12.125, 12.25, 12.125, 12.25, 12.3125, 12.25, 12.375, 12.333333
-10, 37.125, 37.166668, 37.1875, 37.34375, 37.379463, 37.46875, 37.549107, 37.6875, 37.8125, 37.875, 37.8125, 37.625, 37.4375, 37.1875, 37.0625, 37.0625, 37.1875, 37.25, 37.5, 37.678574, 37.716667, -10, -10, -10, -10, -10, -10, -10, -10, -10, -10, -10, -10, -10, -10, -10, -10, -10, -10, -10, -10, -10, -10, -10, 50.75, 50.708332, 50.982143, 51.1875, 51.316963, 50.996429, -10, 52.241669, 52.8125, 52.91518, 53.28125, 53.4375, 53.5, 53.6875, 53.678574, 53.200001, 53.647324, 53.584824, 53.65625, 53.65625, 53.625, 53.517857, 53.642857, 53.958332, 54.116074, 54.25, 54.25, 54.375, 54.5, 54.625, 54.8125, 54.977676, 55.464287, 55.607143, 55.765308, 55.57653, 55.535713, 55.5, 55.311226, 54.711311, 54.309525, 54.142857, 54.0625, 53.90625, 53.327679, 52.84375, 52.519344, 52.346943, 52.625, 52.6875, 52.625, 52.625, 52.520409, 51.972225, 51.726192, 51.541668, 51.583332, 51.523808, 51.112244, 50.857143, 50.82143, 50.647957, 50.448978, 50.07143, 49.637756, 49.607143, 49.196426, 48.666664, 48.166664, 47.979591, 48.333332, 48.5, 48.234692, 47.839287, 47.5625, 47.67857, 47.285713, 46.948978, 46.831631, 46.410713, 46.303574, 46, 45.738098, 45.530613, 45.57143, 45.346943, 45.120403, 45.095242, 44.7449, 44.761902, 43.998413, 43.325394, 43.095234, 43.135201, 43.199406, 43.002975, 41.75, 41.811226, 42.335033, 43.191666, 43.799999, -10, -10, -10, -10, -10, -10, -10, 25.75, 25.833334, 25.84375, 25.833334, 25.678572, 25.4375, 25.392857, 25.1875, 25.25, 25.25, 25.3125, 25.241072, 24.821428, 25, 24.982143, 25.0625, 25.1875, 25.1875, 25.125, 24.90625, 24.65625, 24.53125, 24.53125, 24.6875, 24.8125, 24.669643, 24.309523, 24.071428, 23.9375, 23.875, 23.8125, 23.75, 23.553572, 23.229166, 23.071428, 22.8125, 22.5, 22.3125, 22.294643, 22.232143, 22.25, 22.125, 22, 22, 22, 22, 22, 22, 22, 21.9375, 21.75, 21.5, 21.25, 21.0625, 21, 21, 21, 21, 21, 20.9375, 20.8125, 20.6875, 20.5625, 20.5, 20.4375, 20.3125, 20.1875, 20.0625, 20, 19.9375, 19.875, 19.8125, 19.6875, 19.5625, 19.375, 19.1875, 19.0625, 19, 19, 19, 19, 18.875, 18.75, 18.6875, 18.5, 18.5, 18.375, 18.1875, 18.125, 18, 18, 18, 18, 18, 17.9375, 17.875, 17.75, 17.625, 17.4375, 17.25, 17.125, 17, 17, 16.9375, 16.9375, 16.875, 16.875, 16.875, 16.6875, 16.5625, 16.3125, 16.125, 16.0625, 16, 16, 16, 16, 16, 16, 15.8125, 15.5625, 15.3125, 15.0625, 15, 15, 15, 15, 15, 15, 14.75, 14.5, 14.25, 14, 14, 13.9375, 13.8125, 13.714286, 13.75, 13.857143, 13.9375, 13.9375, 13.8125, 13.75, 13.5, 13.3125, 13.25, 13.0625, 13.0625, 13.0625, 13, 12.875, 12.8125, 12.8125, 12.75, 12.625, 12.4375, 12.1875, 12, 12, 12, 12, 12, 12, 12, 12, 11.9375, 11.875, 11.625, 11.375, 11.1875, 11, 11.125, 11.1875, 11.3125, 11.5, 11.5625, 11.75, 11.875, 11.9375, 12, 12, 12, 12, 12, 12, 12, 12, 12, 12.1875, 12.1875, 12.1875, 12.25, 12.0625, 12.25, 12.375, 12.4375, 12.5625, 12.5, -10, -10, -10, -10, -10, -10, -10, -10, -10, -10, -10, -10, -10, -10, -10, -10, -10, -10, -10, -10, -10, -10, -10, -10, -10, -10, 37.125, 37.083332, 37.125, 37.28125, 37.379463, 37.46875, 37.486607, 37.5625, 37.5625, 37.6875, 37.625, 37.5625, 37.4375, 37.1875, 37.125, 37.0625, 37.1875, 37.321426, 37.833332, 38.078571, 37.955555, -10, -10, -10, -10, -10, -10, -10, -10, -10, -10, -10, -10, -10, -10, -10, -10, -10, -10, -10, -10, -10, -10, -10, 51, 51.238094, 51.659863, 52.122448, 52.362244, 52.661106, 53.5, 52.828575, 53.256248, 53.424107, 53.888393, 54.0625, 54.125, 54.392857, 54.311226, 54.325001, 54.382656, 54.346943, 54.125, 54.125, 54.375, 54.163265, 54.339287, 54.65625, 54.616074, 54.612499, 54.803574, 54.857143, 55, 55, 55.133926, 55.561012, 55.959824, 56.15625, 56.294643, 56.160713, 56.125, 56.1875, 56.116074, 55.773811, 55.497025, 55.205357, 54.9375, 54.71875, 54.256248, 53.84375, 53.236393, 54.101192, 53.5, 53.75, 53.4375, 53.5625, 53.147957, 53.149662, 52.708164, 52.642857, 52.443878, 52.5, 52.346943, 52, 51.75, 51.473213, 51.438778, 50.875, 50.464287, 50.5, 50.443878, 50.329365, 50.263889, 50.266666, 50.095234, 49.607143, 49.032314, 48.812927, 48.67857, 48.375, 48.17857, 47.736607, 47.477676, 47.5, 47.084824, 47, 46.92857, 46.795921, 46.92857, 46.739799, 46.15136, 45.918369, 45.75, 45.785713, 45.694443, 45.222218, 44.952381, 44.32143, 44.081635, 43.913265, 43.625, 43.619049, 43.797619, 43.941666, 44.200001, -10, -10, -10, -10, -10, -10, -10, 25.75, 25.833334, 25.708334, 25.5, 25.303572, 25, 25, 24.9375, 25, 25, 25, 24.928572, 24.625, 24.625, 24.669643, 24.75, 24.9375, 24.9375, 24.8125, 24.59375, 24.34375, 24.28125, 24.28125, 24.375, 24.5, 24.419643, 24.104166, 23.883928, 23.6875, 23.5, 23.375, 23.25, 23.125, 23.0625, 23, 22.75, 22.4375, 22.25, 22.232143, 22.232143, 22.25, 22.125, 22, 22, 21.9375, 21.9375, 21.9375, 21.9375, 22, 21.9375, 21.75, 21.5, 21.25, 21.0625, 21, 21, 21, 21, 21, 20.875, 20.75, 20.5625, 20.375, 20.375, 20.3125, 20.25, 20.1875, 20.0625, 20, 20, 20, 20, 19.9375, 19.75, 19.5, 19.25, 19.0625, 19, 19, 19, 19, 18.875, 18.75, 18.6875, 18.5, 18.5, 18.375, 18.1875, 18.125, 18, 18, 18, 18, 18, 17.9375, 17.8125, 17.625, 17.4375, 17.25, 17.125, 17.0625, 17, 17, 16.9375, 16.9375, 16.9375, 16.9375, 16.9375, 16.6875, 16.4375, 16.1875, 16, 16, 16, 16, 16, 16, 16, 16, 15.875, 15.6875, 15.4375, 15.1875, 15.0625, 15, 15, 15, 15, 15, 14.8125, 14.5625, 14.3125, 14.0625, 14, 14, 13.848214, 13.678572, 13.75, 13.794643, 13.9375, 13.9375, 13.75, 13.6875, 13.4375, 13.25, 13.1875, 13, 13, 13, 13, 12.875, 12.8125, 12.8125, 12.75, 12.625, 12.4375, 12.1875, 12, 12, 12, 12, 12, 12, 12, 12, 12, 11.9375, 11.6875, 11.4375, 11.1875, 11, 11.125, 11.25, 11.4375, 11.6875, 11.8125, 11.9375, 12, 12, 12, 12, 12, 12, 11.9375, 11.875, 11.875, 11.875, 12, 12.3125, 12.375, 12.4375, 12.4375, 12.25, 12.4375, 12.5625, 12.6875, 12.8125, 12.75
-10, 37.125, 37.083332, 37.0625, 37.245537, 37.558037, 37.614582, 37.504463, 37.446426, 37.3125, 37.4375, 37.375, 37.4375, 37.375, 37.1875, 37.1875, 37, 37.125, 37.383926, 37.945831, 38.271427, -10, -10, -10, -10, -10, -10, -10, -10, -10, -10, -10, -10, -10, -10, -10, -10, -10, -10, -10, -10, -10, -10, -10, -10, 51.42857, 51.809521, 52.683674, 53.122448, 53.413265, 53.542854, 54, 53.650002, 53.90625, 54.03125, 54.419643, 54.65625, 54.78125, 54.96875, 54.866074, 54.445831, 54.636906, 54.845242, 54.946426, 55.0625, 55.42857, 55.547619, 55.583332, 55.21875, 55.209824, 55.206249, 55.397324, 55.388393, 55.5625, 55.625, 55.758926, 56.154762, 56.428574, 56.5625, 56.714287, 56.80357, 56.982143, 57.107143, 57.053574, 57.003399, 56.700684, 56.520409, 56.285713, 55.9375, 55.757141, 55.404758, 55.182541, 54.979591, 54.75, 54.714287, 54.535713, 54.57143, 54.708332, 54.151787, 53.762501, 53.6875, 53.357143, 53.3125, 53.311226, 52.92857, 52.892857, 52.57143, 52.1875, 51.866074, 51.7449, 51.857143, 51.704079, 51.258507, 51.210884, 51.228573, 51.061222, 50.714287, 49.670071, 49.497025, 49.392857, 49.1875, 49.017857, 48.78125, 48.285713, 48.209187, 48.063992, 48.010201, 47.92857, 47.857143, 47.892857, 47.704082, 46.913689, 46.616074, 46.5, 46.5625, 46.44643, 46.333332, 46.091839, 45.510201, 45.0625, 44.767857, 44.520409, 44.459187, 44.612244, 45.031975, 44.837502, 46.017857, 45.933334, -10, -10, -10, -10, -10, -10, -10, -10, 25.375, 25.208334, 25.0625, 25, 25, 25, 25, 25, 24.928572, 24.5625, 24.5625, 24.544643, 24.5625, 24.75, 24.6875, 24.5625, 24.34375, 24.09375, 24.03125, 24.03125, 24, 24.0625, 24, 23.875, 23.75, 23.5625, 23.3125, 23.125, 23.0625, 23, 23, 23, 22.75, 22.4375, 22.25, 22.232143, 22.232143, 22.25, 22.125, 22, 22, 21.875, 21.8125, 21.75, 21.75, 21.875, 21.875, 21.6875, 21.4375, 21.1875, 21, 21, 21, 21, 21, 20.9375, 20.75, 20.5625, 20.3125, 20.125, 20.125, 20.125, 20.125, 20.125, 20.0625, 20, 20, 20, 20, 19.875, 19.625, 19.375, 19.125, 19, 19, 19, 19, 19, 18.875, 18.75, 18.6875, 18.5, 18.4375, 18.3125, 18.125, 18.0625, 18, 18, 18, 18, 18, 17.9375, 17.875, 17.6875, 17.5, 17.3125, 17.125, 17.0625, 17, 17, 16.9375, 16.9375, 16.9375, 16.875, 16.8125, 16.5625, 16.3125, 16.125, 16, 16, 16, 16, 16, 16, 16, 16, 15.875, 15.75, 15.5, 15.25, 15.125, 15, 15, 15, 15, 15, 14.875, 14.6875, 14.4375, 14.1875, 14.0625, 14, 13.848214, 13.678572, 13.75, 13.732143, 13.875, 13.875, 13.6875, 13.6875, 13.5, 13.3125, 13.25, 13.0625, 13, 13, 13, 12.9375, 12.875, 12.875, 12.75, 12.5625, 12.375, 12.125, 12, 12, 12, 12, 12, 12, 12, 12, 12, 11.9375, 11.6875, 11.4375, 11.1875, 11, 11.125, 11.25, 11.4375, 11.6875, 11.8125, 11.9375, 12, 12, 12, 12, 12, 12, 11.875, 11.75, 11.75, 11.75, 11.9375, 12.25, 12.375, 12.4375, 12.5, 12.4375, 12.5625, 12.75, 12.875, 13, 13, -10, -10, -10, -10, -10, -10, -10, -10, -10, -10, -10, -10, -10, -10, -10, -10, -10, -10, -10, -10, -10, -10, -10, -10, -10, -10, 37.25, 37.166664, 37.1875, 37.482143, 37.985119, 37.979164, 37.577381, 37.401787, 37.25, 37.4375, 37.401787, 37.5, 37.375, 37.25, 37.1875, 37.0625, 37.25, 37.75, 38.370831, -10, -10, -10, -10, -10, -10, -10, -10, -10, -10, -10, -10, -10, -10, -10, -10, -10, -10, -10, -10, -10, -10, -10, -10, -10, 53.083332, 53.476192, 53.473213, 53.857143, 54.09375, 54.25, 54.3125, 54.375, 54.46875, 54.65625, 55.044643, 55.25, 55.4375, 55.65625, 55.625, 55.166664, 55.238094, 55.666668, 55.696426, 56, 56.25, 56.183674, 56.142857, 56.07143, 55.989799, 55.706249, 55.96875, 55.920067, 56.132656, 56.214287, 56.571426, 56.833332, 56.866074, 56.9375, 57.026787, 57.285713, 57.765308, 57.794643, 58.07143, 57.794643, 57.809528, 57.653057, 57.392857, 57.214287, 56.914284, 56.690472, 56.329933, 55.982143, 55.92857, 55.5625, 55.535713, 55.5, 55.392857, 55.17347, 54.799999, 54.785713, 54.232143, 54.1875, 53.991074, 53.857143, 53.857143, 53.525513, 52.9375, 52.892857, 52.693878, 52.892857, 52.770409, 52.184525, 52.122025, 52.075001, 51.80357, 51.4375, 51.277782, 50.497025, 50.4375, 50.041668, 50.137756, 49.92857, 49.979168, 49.88393, 49.226192, 48.821426, 48.75, 49, 48.535713, 48.357143, 47.770832, 47.410713, 47.25, 47.3125, 47.303574, 47.285713, 47.056126, 46.540813, 46.17857, 45.625, 45.424107, 45.375, 45.508926, 46.00816, 45.92857, 46.261902, 46.17778, -10, -10, -10, -10, -10, -10, -10, -10, 25.375, 25.229168, 25.125, 25, 25, 25, 25, 25, 24.9375, 24.75, 24.6875, 24.625, 24.5625, 24.625, 24.5, 24.3125, 24.15625, 23.96875, 23.90625, 23.90625, 23.8125, 23.875, 23.875, 23.75, 23.625, 23.375, 23.125, 23, 23, 23, 23, 22.9375, 22.6875, 22.375, 22.125, 22.107143, 22.107143, 22.1875, 22.125, 22.0625, 22.0625, 21.875, 21.75, 21.6875, 21.6875, 21.75, 21.75, 21.5625, 21.3125, 21.125, 21, 21, 21, 21, 21, 20.875, 20.625, 20.375, 20.125, 20, 20, 20, 20, 20, 20, 20, 20, 20, 20, 19.8125, 19.5625, 19.3125, 19.0625, 19, 19, 19, 19, 19, 18.9375, 18.875, 18.8125, 18.625, 18.4375, 18.25, 18.0625, 18, 18, 18, 18, 18, 18, 17.9375, 17.875, 17.75, 17.625, 17.4375, 17.25, 17.125, 17, 17, 17, 17, 17, 16.875, 16.6875, 16.4375, 16.1875, 16.0625, 16, 16, 16, 16, 16, 16, 16, 16, 15.9375, 15.8125, 15.5625, 15.3125, 15.125, 15, 15, 15, 15, 15, 14.9375, 14.8125, 14.5625, 14.3125, 14.125, 14, 13.848214, 13.678572, 13.75, 13.732143, 13.875, 13.875, 13.625, 13.5625, 13.375, 13.1875, 13.1875, 13.0625, 13, 13, 13, 13, 12.9375, 12.9375, 12.75, 12.5, 12.3125, 12.0625, 12, 12, 12, 12, 12, 12, 12, 12, 12, 11.875, 11.6875, 11.4375, 11.1875, 11.0625, 11.125, 11.25, 11.375, 11.5625, 11.6875, 11.8125, 11.9375, 12, 12, 12, 12, 12, 11.875, 11.75, 11.75, 11.75, 11.9375, 12.1875, 12.375, 12.4375, 12.5625, 12.625, 12.6875, 12.875, 12.9375, 13, 13
-10, 37.375, 37.25, 37.1875, 37.357143, 37.761902, 37.791664, 37.559525, 37.464287, 37.4375, 37.625, 37.589287, 37.625, 37.375, 37.25, 37.1875, 37.241074, 37.791668, 38.4375, 39.016666, -10, -10, -10, -10, -10, -10, -10, -10, -10, -10, -10, -10, -10, -10, -10, -10, -10, -10, -10, -10, -10, -10, -10, 53, 53.333332, 53.857143, 54.122448, 54.316326, 54.419643, 54.5625, 54.541668, 54.625, 54.875, 55.55357, 55.666664, 55.669643, 55.75, 55.875, 56.214287, 56.17857, 56.180557, 56.222225, 56.297619, 56.474487, 56.67857, 56.78125, 56.816963, 56.75, 56.71875, 56.584824, 56.393749, 56.71875, 57.203369, 57.351192, 57.458332, 57.32653, 57.333332, 57.428574, 57.625, 57.75, 58, 58.294643, 58.419643, 58.5, 58.4375, 58.375, 58.510201, 58.514286, 58.260201, 58.081631, 57.785713, 57.267857, 57, 56.75, 56.4375, 56.3125, 56.25, 56.125, 55.964287, 55.828571, 55.785713, 55.418365, 55, 54.705357, 54.4375, 54.375, 54.116074, 53.6875, 53.5, 53.375, 53.5625, 53.517857, 53.122025, 52.997025, 52.825001, 52.49107, 52.125, 51.785034, 51.605442, 51.632652, 51.229168, 50.887756, 50.719387, 50.970238, 50.711735, 50.101192, 49.862244, 49.59375, 49.75, 49.958332, 49.617344, 48.645832, 48.285713, 47.857143, 48.0625, 48, 47.875, 47.584824, 47.387756, 47.07143, 46.714287, 46.520409, 46.25, 46.321426, 46.632145, 46.714287, 46.375, 45.938099, -10, -10, -10, -10, -10, -10, -10, -10, 25.375, 25.250002, 25.1875, 25, 25, 25, 25, 25, 24.875, 24.6875, 24.5625, 24.4375, 24.375, 24.375, 24.25, 24.125, 24.0625, 24, 24, 24, 23.8125, 23.8125, 23.8125, 23.625, 23.5625, 23.3125, 23.0625, 23, 23, 23, 23, 22.875, 22.625, 22.375, 22.125, 22, 22, 22.125, 22.125, 22.125, 22.125, 21.875, 21.75, 21.6875, 21.625, 21.625, 21.5625, 21.375, 21.1875, 21.0625, 21, 21, 21, 21, 21, 20.8125, 20.5625, 20.3125, 20.0625, 20, 20, 20, 20, 20, 20, 20, 20, 20, 20, 19.8125, 19.5625, 19.3125, 19.0625, 19, 19, 19, 19, 19, 19, 19, 18.9375, 18.8125, 18.5625, 18.3125, 18.125, 18, 18, 18, 18, 18, 18, 17.9375, 17.8125, 17.6875, 17.5, 17.375, 17.25, 17.125, 17.0625, 17, 17, 17, 17, 16.8125, 16.625, 16.375, 16.125, 16.0625, 16, 16, 16, 16, 16, 16, 16, 16, 15.9375, 15.8125, 15.5625, 15.3125, 15.125, 15, 15, 15, 15, 15, 15, 14.875, 14.625, 14.375, 14.125, 14.0625, 14.035714, 13.964286, 14, 13.875, 13.9375, 13.875, 13.625, 13.5, 13.3125, 13.125, 13.125, 13.0625, 13, 13, 13, 13, 13, 13, 12.75, 12.5, 12.25, 12.0625, 12.125, 12.125, 12.125, 12.0625, 12, 12, 12, 12, 12, 11.875, 11.75, 11.5, 11.25, 11.125, 11.0625, 11.125, 11.1875, 11.3125, 11.5, 11.625, 11.75, 11.8125, 11.8125, 11.875, 11.9375, 12, 11.875, 11.75, 11.75, 11.75, 11.9375, 12.125, 12.3125, 12.4375, 12.625, 12.75, 12.8125, 12.9375, 12.9375, 13, 13, -10, -10, -10, -10, -10, -10, -10, -10, -10, -10, -10, -10, -10, -10, -10, -10, -10, -10, -10, -10, -10, -10, -10, -10, -10, -10, 37.375, 37.333332, 37.3125, 37.482143, 37.886902, 37.916664, 37.684525, 37.651787, 37.6875, 37.8125, 37.714287, 37.625, 37.3125, 37.25, 37.25, 37.491074, 38.291668, 39.035713, 39.453331, -10, -10, -10, -10, -10, -10, -10, -10, -10, -10, -10, -10, -10, -10, -10, -10, -10, -10, -10, -10, -10, -10, -10, -10, -10, 54.5625, 54.690475, 54.770832, 54.75, 54.833332, -10, -10, -10, 56.099998, 56.489582, 56.520832, 56.5, 56.5625, 56.6875, 56.65625, 56.772106, 57.166668, 57.083336, 57.171425, 57.397324, 57.28125, 57.34375, 57.09375, 57.151787, 57.15625, 56.950893, 57.258926, 57.458332, 57.700893, 57.9375, 57.9375, 57.875, 57.875, 58.0625, 58.285713, 58.5625, 58.857143, 58.857143, 58.9375, 58.875, 58.875, 59.008926, 59.012501, 58.883926, 58.821426, 58.669643, 58.591835, 58.035713, 57.775513, 57.464287, 57.464287, 57.116074, 56.729168, 56.571426, 56.4375, 56.4375, 56.392857, 56, 55.642857, 55.142857, 55.040813, 54.824406, 54.419643, 54.25, 54.25, 54.375, 54.357143, 54.238094, 53.767857, 53.5, 53.232143, 52.875, 52.541069, 52.571434, 52.479591, 52.297619, 52.547619, 52.55357, 51.895832, 51.607147, 50.934525, 50.660713, 50.540176, 50.440472, 50.392857, 50.132439, 49.526787, 49.336735, 49.5, 49.044643, 48.839287, 48.75, 48.379463, 47.916668, 47.662498, 47.200001, 47.064285, 46.900002, 47.125, 47.273811, 47.21875, 46.732143, 45.083332, 43.599998, -10, -10, -10, -10, -10, -10, -10, 25.5, 25.333334, 25.25, 25, 25, 25, 25, 25, 24.8125, 24.625, 24.5, 24.3125, 24.25, 24.1875, 24.0625, 24, 24, 24, 24, 24, 23.8125, 23.75, 23.75, 23.625, 23.5625, 23.375, 23.125, 23, 23, 23, 23, 22.8125, 22.5625, 22.3125, 22.0625, 22, 22, 22.125, 22.125, 22.125, 22.125, 21.9375, 21.8125, 21.75, 21.625, 21.5, 21.4375, 21.25, 21.125, 21.0625, 21, 21, 20.9375, 20.9375, 20.9375, 20.6875, 20.5, 20.25, 20, 20, 20, 20, 20, 20, 20, 20, 20, 20, 19.9375, 19.75, 19.5625, 19.375, 19.1875, 19.125, 19.0625, 19, 19, 19, 19, 19, 19, 18.9375, 18.6875, 18.4375, 18.1875, 17.9375, 17.9375, 17.9375, 17.9375, 18, 18, 17.875, 17.75, 17.625, 17.4375, 17.375, 17.25, 17.125, 17.0625, 17, 17, 17, 17, 16.8125, 16.625, 16.375, 16.125, 16.0625, 16, 16, 16, 16, 16, 16, 16, 16, 15.9375, 15.75, 15.5, 15.25, 15.0625, 15, 15, 15.0625, 15.0625, 15.0625, 15.0625, 14.875, 14.625, 14.375, 14.125, 14, 14, 14, 14, 13.9375, 13.9375, 13.8125, 13.5625, 13.375, 13.1875, 13.0625, 13.0625, 13.0625, 13, 13, 13, 13, 13, 13, 12.8125, 12.5625, 12.3125, 12.1875, 12.1875, 12.1875, 12.1875, 12.0625, 12, 12, 12, 12, 12, 11.8125, 11.6875, 11.4375, 11.1875, 11.125, 11.0625, 11.0625, 11.0625, 11.125, 11.3125, 11.5, 11.6875, 11.8125, 11.8125, 11.875, 11.9375, 12, 11.9375, 11.875, 11.875, 11.875, 11.9375, 12, 12.1875, 12.3125, 12.5, 12.625, 12.6875, 12.8125, 12.8125, 12.9375, 12.916667
