-10, -10, -10, -10, -10, -10, -10, -10, -10, -10, -10, -10, -10, -10, -10, 48.375, 48.25, 48.1875, 48.0625, 47.9375, 47.75, 47.625, 47.375, 47.125, 47.0625, 46.9375, 46.803574, 46.541668, 46.455357, 46.3125, 46.375, 46.1875, 46.116074, 46.267857, 46.241074, 46.375, 46.25, 46.1875, 46.0625, 46, 46, 46, 46, 46, 45.875, 45.75, 45.625, 45.348213, 45.142857, 44.946426, 44.75, 44.625, 44.4375, 44.3125, 44.125, 44.0625, 44, 44, 44, 43.9375, 43.75, 43.6875, 43.6875, 43.625, 43.5625, 43.1875, 43.053574, 43.276787, 43.386906, 43.282738, 42.854164, 42.434525, 42.258926, 42.125, 42.0625, 42.0625, 42, 41.875, 41.6875, 41.375, 41.125, 41, 40.9375, 40.9375, 40.9375, 40.875, 40.875, 40.8125, 40.75, 40.6875, 40.625, 40.5625, 40.375, 40.25, 40.125, 40, 40, 39.8125, 39.625, 39.4375, 39.1875, 39.125, 39.0625, 38.9375, 38.9375, 38.9375, 38.9375, 38.875, 38.625, 38.375, 38.125, 38.0625, 38.0625, 38.0625, 38, 37.8125, 37.625, 37.4375, 37.3125, 37.1875, 37, 36.901787, 36.875, 36.875, 37, 36.75, 36.5625, 36.3125, 36.0625, 36.0625, 35.9375, 35.875, 35.75, 35.625, 35.5625, 35.4375, 35.4375, 35.3125, 35.1875, 35.125, 35, 34.9375, 34.875, 34.875, 34.6875, 34.5625, 34.5, 34.25, 34.1875, 34.125, 34, 34, 34, 33.9375, 33.8125, 33.75, 33.5625, 33.375, 33.25, 33.0625, 33, 32.9375, 32.875, 32.8125, 32.75, 32.5625, 32.375, 32.1875, 32, 32, 32, 32, 31.75, 31.5625, 31.3125, 31.0625, 31.0625, 31, 31, 31, 31, 30.9375, 30.875, 30.8125, 30.5625, 30.375, 30.1875, 30, 30, 30, 29.875, 29.8125, 29.625, 29.4375, 29.3125, 29.125, 29.0625, 28.9375, 28.9375, 28.9375, 28.75, 28.625, 28.375, 28.125, 28.089287, 28.0625, 28.0625, 28.0625, 28, 27.75, 27.5, 27.25, 27, 27, 26.9375, 26.9375, 26.875, 26.75, 26.6875, 26.5, 26.3125, 26.1875, 26.0625, 26, 26, 26, 26, 26, 25.875, 25.625, 25.375, 25.125, 25, 25, 25, 24.875, 24.75, 24.5, 24.25, 24.125, 24, 23.9375, 23.875, 23.8125, 23.75, 23.6875, 23.5625, 23.375, 23.1875, 22.9375, 22.75, 22.625, 22.5625, 22.5625, 22.6875, 22.8125, 22.625, 22.5, 22.3125, 22.0625, 22.0625, 22.0625, 22, 22, 22, 21.875, 21.625, 21.375, 21.125, 21, 21, 21, 21, 21, 21, 21, 20.75, 20.5, 20.25, 20, 19.875, 19.625, 19.4375, 19.1875, 19.0625, 19.0625, 19, 19, 19, 19, 19, 19, 18.9375, 18.8125, 18.5625, 18.3125, 18.125, 18, 18, 18, 18, 18, 18, 17.75, 17.5, 17.25, 17, 17, 16.9375, 16.9375, 16.9375, 16.9375, 16.75, 16.5, 16.25, 16, 16, 16, 15.9375, 15.8125, 15.6875, 15.5625, 15.375, 15.25, 15.125, 15, 15, 15, 15, 15, 14.8125, 14.5625, 14.3125, 14.0625, 14, 14, 14, 14, 13.875, 13.8125, 13.5625, 13.3125, 13.1875, 13, 13, 13, 13, 13, 13, 13, 12.8125, 12.625, 12.5625, 12.5625, 12.75, 12.9375, 13, 13, 13, -10, -10, -10, -10, -10, -10, -10, -10, -10, -10, -10, -10, -10, -10, -10, -10, -10, -10, -10, -10, -10, -10, -10, -10, -10, -10, -10, -10, -10, -10, -10, -10, 48.125, 48.083332, 48.0625, 48, 47.866074, 47.549999, 47.482143, 47.125, 46.892857, 46.875, 46.8125, 46.732143, 46.625, 46.633926, 46.645832, 46.6875, 46.5, 46.276787, 46.294643, 46.241074, 46.375, 46.375, 46.3125, 46.1875, 46.0625, 46, 46, 46, 46, 45.8125, 45.625, 45.5, 45.223213, 45.017857, 44.883926, 44.625, 44.5, 44.375, 44.1875, 44.0625, 44, 43.9375, 44, 44, 43.875, 43.625, 43.5, 43.4375, 43.375, 43.375, 43.0625, 42.991074, 43.276787, 43.386906, 43.282738, 42.916664, 42.497025, 42.321426, 42.1875, 42.0625, 42, 41.875, 41.6875, 41.5625, 41.3125, 41.125, 41.0625, 41, 41, 41, 40.9375, 40.875, 40.8125, 40.8125, 40.6875, 40.5625, 40.5, 40.3125, 40.25, 40.1875, 40.0625, 40, 39.75, 39.5, 39.3125, 39.0625, 39.0625, 39.0625, 38.9375, 38.875, 38.8125, 38.8125, 38.75, 38.625, 38.5, 38.25, 38.1875, 38.0625, 38, 38, 37.875, 37.8125, 37.6875, 37.5625, 37.375, 37.125, 36.964287, 36.875, 36.875, 37, 36.8125, 36.625, 36.375, 36.125, 36.0625, 35.9375, 35.875, 35.8125, 35.6875, 35.625, 35.5, 35.375, 35.25, 35.125, 35.0625, 35, 35, 35, 35, 34.8125, 34.625, 34.5, 34.25, 34.1875, 34.125, 34, 34, 34, 34, 33.9375, 33.9375, 33.75, 33.5, 33.3125, 33.0625, 33, 32.875, 32.8125, 32.75, 32.6875, 32.5625, 32.375, 32.1875, 32, 32, 32, 32, 31.75, 31.5, 31.25, 31, 31, 31, 31, 31, 31, 30.9375, 30.8125, 30.6875, 30.4375, 30.25, 30.125, 30, 30, 30, 29.9375, 29.875, 29.75, 29.5625, 29.375, 29.1875, 29.0625, 28.9375, 28.9375, 28.9375, 28.75, 28.625, 28.4375, 28.25, 28.25, 28.1875, 28.125, 28.0625, 28, 27.8125, 27.5625, 27.3125, 27.125, 27.0625, 27, 27, 26.875, 26.75, 26.75, 26.625, 26.5, 26.375, 26.125, 25.892857, 25.875, 25.875, 25.9375, 26, 25.875, 25.625, 25.375, 25.125, 25, 25, 25, 24.9375, 24.8125, 24.5625, 24.375, 24.25, 24.1875, 24.1875, 24.125, 24.0625, 23.9375, 23.875, 23.6875, 23.4375, 23.25, 22.9375, 22.75, 22.625, 22.5625, 22.5625, 22.6875, 22.8125, 22.625, 22.5, 22.25, 22, 22, 22, 22, 22, 21.928572, 21.6875, 21.5, 21.25, 21.125, 21, 21, 21, 21, 21, 21, 21, 20.75, 20.5, 20.25, 20, 19.9375, 19.6875, 19.5, 19.25, 19.0625, 19.0625, 19, 19, 19, 18.9375, 18.9375, 18.9375, 18.875, 18.875, 18.625, 18.4375, 18.25, 18.0625, 18.0625, 18, 18, 18, 18, 17.75, 17.5, 17.25, 17, 17, 17, 17, 17, 17, 16.8125, 16.5625, 16.3125, 16.0625, 16, 16, 16, 15.9375, 15.875, 15.75, 15.5, 15.3125, 15.125, 15, 15, 15, 15, 15, 14.8125, 14.5625, 14.3125
-10, -10, -10, -10, -10, -10, -10, -10, -10, -10, -10, -10, -10, -10, -10, 48, 48, 48, 48.0625, 47.866074, 47.320831, 47.223213, 46.875, 46.767857, 46.714287, 46.75, 46.732143, 46.723213, 46.651783, 46.654762, 46.6875, 46.5625, 46.3125, 46.1875, 46.0625, 46.125, 46.125, 46.125, 46.0625, 46, 46, 46, 46, 46, 45.75, 45.5, 45.375, 45.098213, 44.955357, 44.883926, 44.553574, 44.166668, 44.017857, 43.875, 43.875, 43.9375, 43.9375, 44, 44, 43.875, 43.625, 43.5, 43.375, 43.3125, 43.3125, 43, 42.991074, 43.214287, 43.261906, 43.095238, 42.738094, 42.517857, 42.375, 42.25, 42.0625, 41.875, 41.6875, 41.4375, 41.3125, 41.1875, 41.0625, 41.125, 41.0625, 41.0625, 41, 40.8125, 40.6875, 40.625, 40.6875, 40.5625, 40.4375, 40.3125, 40.125, 40.125, 40.125, 40.0625, 40, 39.8125, 39.625, 39.5, 39.25, 39.1875, 39.125, 39, 38.9375, 38.875, 38.875, 38.75, 38.6875, 38.625, 38.375, 38.375, 38.1875, 38.0625, 38, 37.875, 37.875, 37.875, 37.875, 37.625, 37.267857, 37.026787, 36.875, 36.875, 37, 36.875, 36.625, 36.4375, 36.1875, 36.0625, 36.0625, 36, 36, 35.9375, 35.8125, 35.5625, 35.3125, 35.125, 35, 35, 35, 35, 35, 35, 34.875, 34.6875, 34.5625, 34.3125, 34.1875, 34.125, 34, 34, 34, 34, 33.9375, 33.9375, 33.6875, 33.4375, 33.25, 33, 33, 32.875, 32.8125, 32.75, 32.6875, 32.625, 32.4375, 32.25, 32.0625, 32, 32, 32, 31.8125, 31.5625, 31.3125, 31.0625, 31, 31, 31, 31, 31, 30.9375, 30.8125, 30.625, 30.375, 30.1875, 30.0625, 30, 30, 30, 29.875, 29.75, 29.625, 29.4375, 29.3125, 29.1875, 29.0625, 29, 29, 29, 28.875, 28.6875, 28.5, 28.25, 28.125, 28.0625, 28, 28, 28, 27.875, 27.6875, 27.5, 27.375, 27.25, 27.0625, 26.964287, 26.8125, 26.6875, 26.75, 26.6875, 26.625, 26.5, 26.25, 25.955357, 25.875, 25.875, 25.9375, 25.9375, 25.8125, 25.5625, 25.3125, 25.125, 25, 25, 25, 25, 24.875, 24.6875, 24.5625, 24.4375, 24.4375, 24.4375, 24.3125, 24.1875, 24.0625, 24, 23.875, 23.625, 23.375, 23, 22.75, 22.6875, 22.625, 22.6875, 22.8125, 22.875, 22.6875, 22.5, 22.3125, 22.0625, 22.0625, 22.0625, 22, 22.0625, 21.964287, 21.508928, 21.3125, 21.0625, 21, 21, 21, 21, 21, 21, 21, 21, 20.75, 20.5, 20.25, 20, 20, 19.8125, 19.6875, 19.4375, 19.1875, 19.125, 19, 19, 19.0625, 19, 19, 19, 18.9375, 19, 18.8125, 18.625, 18.375, 18.125, 18.0625, 18, 18, 18, 18, 17.75, 17.5, 17.25, 17, 17, 17, 17, 17, 17, 16.8125, 16.5625, 16.3125, 16.0625, 16, 16, 15.9375, 15.9375, 15.875, 15.6875, 15.5, 15.25, 15.0625, 15, 15, 15, 15, 15, 14.8125, 14.5625, 14.3125, 14.0625, 14, 14, 14, 14, 14, 13.8125, 13.5625, 13.3125, 13.0625, 13, 13, 13, 13, 13, 13, 12.9375, 12.75, 12.6875, 12.6875, 12.75, 12.9375, 13, 13, 13, 13, -10, -10, -10, -10, -10, -10, -10, -10, -10, -10, -10, -10, -10, -10, -10, -10, -10, -10, -10, -10, -10, -10, -10, -10, -10, -10, -10, -10, -10, -10, -10, -10, 48, 48, 48.0625, 48.1875, 48.053574, 47.570831, 47.410713, 47.0625, 46.875, 46.678574, 46.75, 46.669643, 46.660713, 46.526783, 46.529762, 46.5, 46.4375, 46.25, 46.125, 46, 46, 46, 46, 46, 46, 46, 46, 46, 46, 45.75, 45.5, 45.375, 45.125, 45.0625, 44.883926, 44.446426, 44.041668, 43.955357, 43.9375, 44.169643, 44.1875, 44.125, 44.0625, 43.9375, 43.8125, 43.625, 43.5, 43.3125, 43.3125, 43.25, 43.0625, 43.089287, 43.107143, 43.020832, 42.854168, 42.758926, 42.5, 42.375, 42.1875, 41.9375, 41.8125, 41.6875, 41.5, 41.4375, 41.375, 41.3125, 41.375, 41.25, 41.1875, 41, 40.75, 40.625, 40.5625, 40.625, 40.5, 40.375, 40.1875, 40.0625, 40.0625, 40.0625, 40.0625, 40, 39.875, 39.75, 39.5625, 39.375, 39.25, 39.125, 39.0625, 38.9375, 38.875, 38.8125, 38.625, 38.625, 38.5625, 38.375, 38.4375, 38.1875, 38.0625, 38, 37.875, 37.9375, 37.9375, 37.9375, 37.6875, 37.330357, 37.089287, 36.9375, 36.9375, 37, 36.9375, 36.75, 36.625, 36.375, 36.1875, 36.125, 36, 36, 36, 35.9375, 35.8125, 35.625, 35.4375, 35.25, 35.125, 35.0625, 35, 35, 34.9375, 34.8125, 34.625, 34.4375, 34.25, 34.125, 34.0625, 34, 34, 34, 34, 33.9375, 33.9375, 33.6875, 33.5, 33.3125, 33.0625, 33.0625, 32.9375, 32.848213, 32.714287, 32.625, 32.5, 32.4375, 32.25, 32.125, 32.0625, 32, 32, 31.875, 31.625, 31.375, 31.125, 31, 31, 31, 31, 31, 30.9375, 30.8125, 30.5625, 30.3125, 30.125, 30, 30, 30, 30, 29.875, 29.75, 29.625, 29.4375, 29.3125, 29.1875, 29.0625, 29, 29, 29, 28.9375, 28.8125, 28.6875, 28.4375, 28.25, 28.125, 28, 27.9375, 27.875, 27.8125, 27.6875, 27.625, 27.5625, 27.375, 27.125, 26.964287, 26.8125, 26.75, 26.8125, 26.8125, 26.8125, 26.625, 26.4375, 26.080357, 25.875, 25.767857, 25.75, 25.6875, 25.625, 25.5, 25.3125, 25.1875, 25.0625, 25, 25, 25, 24.875, 24.75, 24.6875, 24.625, 24.625, 24.5625, 24.375, 24.1875, 24.0625, 24, 23.9375, 23.75, 23.5625, 23.25, 22.9375, 22.839287, 22.8125, 22.875, 22.9375, 22.9375, 22.6875, 22.4375, 22.3125, 22.0625, 22.0625, 22, 21.875, 21.9375, 21.776787, 21.321428, 21.1875, 20.9375, 20.9375, 21, 21, 21, 21, 21, 21, 21, 20.75, 20.5, 20.25, 20, 20, 19.875, 19.75, 19.5, 19.25, 19.125, 19, 19, 19.0625, 19, 19, 19, 18.9375, 19, 18.8125, 18.625, 18.4375, 18.1875, 18.125, 18.0625, 18, 18, 17.9375, 17.6875, 17.4375, 17.1875, 17, 17, 17, 17, 17, 17, 16.875, 16.625, 16.375, 16.125, 16, 16, 15.9375, 15.9375, 15.9375, 15.75, 15.5625, 15.3125, 15.0625, 15, 15, 15, 15, 15, 14.8125, 14.5625, 14.3125
-10, -10, -10, -10, -10, -10, -10, -10, -10, -10, -10, -10, -10, -10, -10, 48, 48, 48.0625, 48.1875, 48.053574, 47.633331, 47.535713, 47.3125, 47.25, 47.053574, 47.0625, 46.919643, 46.723213, 46.464283, 46.404762, 46.25, 46.25, 46.125, 46.0625, 46, 46, 46, 46, 46, 46, 46, 46, 46, 45.9375, 45.6875, 45.4375, 45.25, 45.0625, 45, 44.75, 44.175598, 43.809525, 43.767857, 43.8125, 44.107143, 44.1875, 44.160713, 44.125, 44.0625, 43.9375, 43.8125, 43.625, 43.375, 43.3125, 43.1875, 43.125, 43.125, 43, 42.875, 42.8125, 42.8125, 42.5625, 42.4375, 42.25, 41.9375, 41.8125, 41.6875, 41.5625, 41.5625, 41.5625, 41.5625, 41.5625, 41.375, 41.25, 41, 40.8125, 40.75, 40.669643, 40.541668, 40.383926, 40.25, 40.125, 40.0625, 40.0625, 40.0625, 40.0625, 40, 39.9375, 39.803574, 39.5, 39.375, 39.1875, 39.125, 39.0625, 38.9375, 38.875, 38.75, 38.5625, 38.5625, 38.5, 38.375, 38.4375, 38.1875, 38.0625, 38, 37.875, 37.9375, 37.875, 37.8125, 37.5625, 37.267857, 37.125, 37, 37, 37, 37, 36.875, 36.8125, 36.5625, 36.3125, 36.1875, 36, 36, 36, 36, 35.9375, 35.8125, 35.6875, 35.4375, 35.25, 35.125, 35, 35, 34.875, 34.75, 34.625, 34.4375, 34.3125, 34.1875, 34.0625, 34, 34, 34, 34, 34, 34, 33.75, 33.5625, 33.3125, 33.0625, 33.0625, 33.0625, 33.008926, 32.794643, 32.696426, 32.5, 32.5, 32.3125, 32.1875, 32.125, 32, 32, 31.9375, 31.75, 31.5, 31.25, 31.0625, 31, 31, 31, 31, 30.9375, 30.8125, 30.5625, 30.3125, 30.125, 30, 30, 30, 29.9375, 29.75, 29.5625, 29.4375, 29.25, 29.1875, 29.125, 29, 29, 29, 29, 29, 28.875, 28.75, 28.5, 28.25, 28.125, 27.9375, 27.8125, 27.6875, 27.625, 27.5625, 27.5625, 27.5625, 27.375, 27.1875, 27.026787, 26.9375, 26.9375, 27, 26.9375, 26.875, 26.625, 26.375, 26.080357, 25.8125, 25.642857, 25.625, 25.5625, 25.5625, 25.5, 25.3125, 25.1875, 25.0625, 25, 25, 25, 24.9375, 24.875, 24.8125, 24.75, 24.6875, 24.5625, 24.375, 24.1875, 24.0625, 24, 23.875, 23.75, 23.5625, 23.3125, 23.125, 22.964287, 22.9375, 22.9375, 22.9375, 22.875, 22.625, 22.375, 22.25, 22.0625, 22.0625, 22, 21.875, 21.9375, 21.776787, 21.383928, 21.3125, 21.053572, 20.987499, 21.107143, 21, 21.0625, 21, 21, 21, 21, 20.75, 20.5, 20.25, 20, 20, 19.9375, 19.875, 19.6875, 19.4375, 19.25, 19.0625, 19, 19.0625, 18.9375, 18.9375, 18.9375, 18.875, 19, 18.875, 18.6875, 18.5, 18.25, 18.125, 18.0625, 18, 18, 17.875, 17.625, 17.375, 17.125, 17, 17, 17, 17, 17, 16.9375, 16.8125, 16.5625, 16.3125, 16.125, 16, 16, 15.9375, 15.9375, 15.9375, 15.8125, 15.625, 15.375, 15.125, 15, 15, 15, 15, 15, 14.8125, 14.625, 14.4375, 14.1875, 14.0625, 13.964286, 13.9375, 13.9375, 14, 13.875, 13.6875, 13.4375, 13.1875, 13.0625, 13, 13, 13, 13, 13, 12.9375, 12.875, 12.875, 12.875, 12.875, 12.9375, 12.9375, 12.9375, 13, 13, -10, -10, -10, -10, -10, -10, -10, -10, -10, -10, -10, -10, -10, -10, -10, -10, -10, -10, -10, -10, -10, -10, -10, -10, -10, -10, -10, -10, -10, -10, -10, -10, 48.125, 48.083332, 48.125, 48.25, 48.125, 47.833332, 47.678574, 47.5625, 47.482143, 47.303574, 47.3125, 47.1875, 47.098213, 46.705357, 46.446426, 46.1875, 46.125, 46.125, 46.125, 46.107143, 46, 46.0625, 46.035713, 46.0625, 46.0625, 46, 46, 46, 45.9375, 45.6875, 45.4375, 45.25, 45.0625, 45, 44.75, 44.175598, 43.747025, 43.642857, 43.6875, 43.982143, 44.125, 44.160713, 44.125, 44.0625, 44, 43.9375, 43.75, 43.5, 43.375, 43.1875, 43.125, 43.125, 43, 42.8125, 42.6875, 42.6875, 42.4375, 42.375, 42.25, 41.9375, 41.875, 41.8125, 41.75, 41.75, 41.75, 41.6875, 41.625, 41.4375, 41.25, 41, 40.75, 40.6875, 40.544643, 40.354168, 40.321426, 40.1875, 40.1875, 40.125, 40.0625, 40.0625, 40, 40, 40, 39.928574, 39.6875, 39.625, 39.375, 39.25, 39.125, 39, 38.9375, 38.8125, 38.625, 38.5, 38.375, 38.25, 38.3125, 38.1875, 38.125, 38.0625, 37.9375, 37.9375, 37.8125, 37.6875, 37.4375, 37.142857, 37.0625, 37, 37, 36.9375, 36.875, 36.8125, 36.75, 36.5625, 36.375, 36.1875, 36, 36, 36, 36, 35.875, 35.75, 35.6875, 35.4375, 35.3125, 35.1875, 35, 35, 34.8125, 34.625, 34.5, 34.375, 34.3125, 34.25, 34.125, 34, 34, 34, 34, 34, 33.9375, 33.6875, 33.5, 33.25, 33.0625, 33.125, 33.125, 32.863094, 32.607143, 32.446426, 32.3125, 32.4375, 32.375, 32.3125, 32.25, 32.0625, 32, 32, 31.8125, 31.5625, 31.3125, 31.0625, 31, 31, 31, 31, 30.9375, 30.8125, 30.5625, 30.3125, 30.125, 30, 30, 30, 29.9375, 29.75, 29.5625, 29.4375, 29.25, 29.1875, 29.125, 29, 28.9375, 28.9375, 28.9375, 28.875, 28.75, 28.5625, 28.3125, 28.1875, 28.125, 28, 27.875, 27.625, 27.5, 27.4375, 27.4375, 27.4375, 27.3125, 27.125, 26.964287, 26.9375, 26.9375, 27, 26.875, 26.75, 26.5, 26.3125, 26.1875, 25.9375, 25.767857, 25.6875, 25.5625, 25.625, 25.5625, 25.375, 25.25, 25.0625, 25, 25, 25, 25, 25, 24.875, 24.75, 24.5625, 24.375, 24.25, 24.125, 24.0625, 24, 23.9375, 23.875, 23.6875, 23.4375, 23.1875, 22.964287, 22.9375, 22.9375, 22.9375, 22.8125, 22.5625, 22.3125, 22.1875, 22.0625, 22.0625, 22, 21.875, 21.9375, 21.848213, 21.633928, 21.5, 21.303572, 21.174999, 21.232143, 21.125, 21.125, 21, 21, 21, 21, 20.75, 20.5, 20.25, 20, 20, 20, 20, 19.875, 19.625, 19.375, 19.125, 19, 19.0625, 19, 19, 19, 18.9375, 18.9375, 18.8125, 18.5625, 18.4375, 18.25, 18.125, 18.125, 17.9375, 17.9375, 17.8125, 17.5625, 17.375, 17.125, 17, 17, 17, 17, 17, 16.9375, 16.8125, 16.5625, 16.375, 16.1875, 16.0625, 16.0625, 15.9375, 15.9375, 15.9375, 15.875, 15.6875, 15.4375, 15.1875, 15, 15, 15, 15, 15, 14.875, 14.75, 14.5625
-10, -10, -10, -10, -10, -10, -10, -10, -10, -10, -10, -10, -10, -10, -10, 48.125, 48.083332, 48.125, 48.1875, 48.125, 48.1875, 48.0625, 47.875, 47.625, 47.401787, 47.375, 47.25, 47.125, 46.875, 46.625, 46.4375, 46.375, 46.375, 46.375, 46.294643, 46.125, 46.1875, 46.160713, 46.1875, 46.1875, 46.0625, 46, 46, 45.875, 45.625, 45.375, 45.1875, 45, 44.9375, 44.6875, 44.122025, 43.955357, 43.8125, 43.8125, 44.044643, 44.125, 44.160713, 44.125, 44.0625, 44, 44, 43.75, 43.5, 43.3125, 43.0625, 43.0625, 43.0625, 43, 42.75, 42.5625, 42.5, 42.25, 42.3125, 42.25, 42, 42, 41.9375, 41.9375, 42, 41.9375, 41.8125, 41.625, 41.4375, 41.25, 41.0625, 40.875, 40.8125, 40.607143, 40.291668, 40.321426, 40.125, 40.1875, 40.1875, 40.0625, 40.0625, 40, 40, 40, 39.928574, 39.6875, 39.6875, 39.4375, 39.3125, 39.1875, 39, 38.9375, 38.8125, 38.625, 38.4375, 38.25, 38.125, 38.125, 38.0625, 38.0625, 38.0625, 38.03125, 38.09375, 37.883926, 37.553574, 37.258926, 37, 37, 37, 37, 36.9375, 36.875, 36.8125, 36.6875, 36.5, 36.3125, 36.125, 36, 36, 36, 36, 35.875, 35.75, 35.75, 35.5, 35.375, 35.25, 35, 35, 34.75, 34.5, 34.375, 34.25, 34.25, 34.25, 34.125, 34, 34, 34, 34, 34, 33.9375, 33.6875, 33.5, 33.25, 33.0625, 33.125, 33.125, 32.863094, 32.607143, 32.383926, 32.1875, 32.3125, 32.25, 32.25, 32.25, 32.0625, 32, 32, 31.8125, 31.5625, 31.3125, 31.0625, 31, 31, 31, 31, 30.875, 30.6875, 30.4375, 30.1875, 30.0625, 30, 30, 30, 29.9375, 29.8125, 29.6875, 29.625, 29.4375, 29.3125, 29.1875, 29, 28.9375, 28.9375, 28.9375, 28.8125, 28.6875, 28.5, 28.25, 28.1875, 28.125, 28, 27.875, 27.625, 27.4375, 27.375, 27.3125, 27.3125, 27.3125, 27.1875, 27.125, 27.0625, 27, 27, 26.875, 26.75, 26.5, 26.3125, 26.1875, 25.9375, 25.767857, 25.6875, 25.625, 25.6875, 25.625, 25.5, 25.3125, 25.125, 25.0625, 25, 25, 25, 25, 24.8125, 24.625, 24.375, 24.125, 24.0625, 24, 24, 24, 23.9375, 23.875, 23.6875, 23.4375, 23.1875, 22.964287, 22.9375, 22.9375, 22.9375, 22.8125, 22.625, 22.375, 22.1875, 22.0625, 22, 21.9375, 21.875, 21.875, 21.8125, 21.75, 21.625, 21.428572, 21.237499, 21.232143, 21.125, 21.125, 21, 21, 21, 21, 20.75, 20.5, 20.25, 20, 20, 20, 20, 19.9375, 19.6875, 19.4375, 19.1875, 19, 19, 18.9375, 18.9375, 18.9375, 18.9375, 18.9375, 18.8125, 18.5625, 18.4375, 18.25, 18.125, 18.125, 17.9375, 17.9375, 17.8125, 17.5625, 17.375, 17.125, 17, 17, 17, 17, 17, 16.9375, 16.875, 16.625, 16.4375, 16.25, 16.0625, 16.0625, 16, 16, 15.9375, 15.9375, 15.6875, 15.4375, 15.25, 15, 15, 15, 15, 15, 14.9375, 14.8125, 14.625, 14.375, 14.125, 13.964286, 13.9375, 13.9375, 14, 14, 13.8125, 13.5625, 13.3125, 13.0625, 13, 13, 13, 12.9375, 12.9375, 12.9375, 12.9375, 13, 12.9375, 12.8125, 12.8125, 12.8125, 12.875, 13, 13, -10, -10, -10, -10, -10, -10, -10, -10, -10, -10, -10, -10, -10, -10, -10, -10, -10, -10, -10, -10, -10, -10, -10, -10, -10, -10, -10, -10, -10, -10, -10, 48, 48.25, 48.25, 48.1875, 48.1875, 48.0625, 48.0625, 48.0625, 47.9375, 47.705357, 47.5625, 47.4375, 47.3125, 47.1875, 47, 46.8125, 46.6875, 46.625, 46.625, 46.625, 46.544643, 46.375, 46.375, 46.285713, 46.25, 46.1875, 46.0625, 46.0625, 46.125, 45.982143, 45.604168, 45.321426, 45.0625, 45, 44.973213, 44.830357, 44.416668, 44.205357, 44, 43.75, 43.8125, 43.875, 43.973213, 44.0625, 44.0625, 44, 44, 43.8125, 43.625, 43.375, 43.125, 43.125, 43.0625, 43.0625, 42.875, 42.625, 42.5, 42.25, 42.25, 42.1875, 42, 42, 41.9375, 41.9375, 41.9375, 41.875, 41.6875, 41.4375, 41.3125, 41.1875, 41.098213, 40.821426, 40.791668, 40.714287, 40.470238, 40.571426, 40.3125, 40.3125, 40.25, 40.0625, 40.0625, 40, 40, 40, 39.928574, 39.75, 39.75, 39.5, 39.375, 39.1875, 39, 38.9375, 38.875, 38.6875, 38.4375, 38.3125, 38.125, 38.0625, 38.0625, 38, 38, 38.03125, 38.03125, 37.821426, 37.491074, 37.258926, 37.0625, 37.0625, 37.0625, 37, 36.9375, 36.875, 36.8125, 36.625, 36.5, 36.3125, 36.125, 36.0625, 36, 36, 36, 35.875, 35.6875, 35.6875, 35.4375, 35.3125, 35.25, 35, 35, 34.75, 34.5, 34.375, 34.1875, 34.1875, 34.1875, 34.0625, 34, 34, 34, 33.9375, 33.875, 33.8125, 33.5625, 33.375, 33.1875, 33, 33.0625, 33.0625, 32.827381, 32.642857, 32.383926, 32.25, 32.25, 32.25, 32.3125, 32.3125, 32.1875, 32.0625, 32, 31.875, 31.6875, 31.4375, 31.1875, 31.0625, 31, 31, 31, 30.8125, 30.5625, 30.3125, 30.0625, 30, 30, 30, 30, 29.9375, 29.875, 29.8125, 29.8125, 29.6875, 29.5, 29.3125, 29.0625, 28.9375, 28.9375, 28.9375, 28.8125, 28.6875, 28.4375, 28.1875, 28.125, 28.0625, 28, 27.9375, 27.75, 27.5625, 27.5, 27.3125, 27.25, 27.25, 27.125, 27.1875, 27.125, 27.0625, 27.0625, 26.875, 26.75, 26.5, 26.25, 26.125, 25.9375, 25.8125, 25.75, 25.75, 25.75, 25.6875, 25.5625, 25.3125, 25.125, 25.0625, 25, 25, 25, 25, 24.75, 24.5, 24.25, 24, 24, 24, 24, 24, 23.9375, 23.875, 23.625, 23.375, 23.1875, 23, 23, 23, 23, 22.875, 22.75, 22.5625, 22.3125, 22.1875, 22.0625, 22, 22.0625, 22.125, 22.125, 22.0625, 21.8125, 21.616072, 21.362499, 21.294643, 21.1875, 21.125, 21, 21, 21, 20.9375, 20.6875, 20.4375, 20.1875, 20, 20, 20, 20, 20, 19.8125, 19.5625, 19.3125, 19.0625, 19, 18.9375, 18.9375, 18.9375, 18.9375, 18.9375, 18.875, 18.6875, 18.5625, 18.366072, 18.0625, 18.0625, 17.8125, 17.8125, 17.6875, 17.5, 17.375, 17.1875, 17.0625, 17, 17, 17, 17, 16.9375, 16.875, 16.625, 16.4375, 16.25, 16.0625, 16.0625, 16, 16, 15.9375, 15.875, 15.625, 15.375, 15.1875, 15, 15, 15, 15, 15, 15, 14.875, 14.6875
-10, -10, -10, -10, -10, -10, -10, -10, -10, -10, -10, -10, -10, -10, -10, 48.5, 48.5, 48.4375, 48.375, 48.1875, 48.125, 48.0625, 47.9375, 47.642857, 47.4375, 47.3125, 47.25, 47.3125, 47.25, 47.125, 47, 46.875, 46.875, 46.875, 46.794643, 46.5625, 46.5, 46.348213, 46.25, 46.1875, 46.0625, 46.0625, 46.0625, 45.857143, 45.443451, 45.196426, 44.9375, 44.875, 44.866074, 44.901787, 44.6875, 44.455357, 44.1875, 43.875, 43.9375, 44, 44.0625, 44.125, 44.0625, 44.0625, 44.0625, 44, 43.875, 43.5625, 43.267857, 43.25, 43.125, 43.125, 43, 42.75, 42.5625, 42.3125, 42.25, 42.125, 42, 42, 41.9375, 41.9375, 41.875, 41.75, 41.5625, 41.3125, 41.25, 41.25, 41.160713, 40.821426, 40.729168, 40.607143, 40.553574, 40.6875, 40.4375, 40.375, 40.25, 40.125, 40.1875, 40.125, 40.125, 40.0625, 40, 40, 39.9375, 39.6875, 39.4375, 39.1875, 39, 38.9375, 38.9375, 38.8125, 38.625, 38.5625, 38.3125, 38.1875, 38.125, 38, 38, 38.03125, 38.03125, 37.883926, 37.553574, 37.383926, 37.25, 37.169643, 37.0625, 37, 36.875, 36.875, 36.8125, 36.625, 36.5625, 36.375, 36.1875, 36.125, 36, 36, 36, 35.875, 35.625, 35.625, 35.375, 35.25, 35.25, 35, 35, 34.8125, 34.5625, 34.4375, 34.169643, 34.026787, 34.0625, 33.9375, 34, 34, 34, 33.9375, 33.8125, 33.6875, 33.4375, 33.25, 33.125, 33, 33.0625, 33, 32.791668, 32.6875, 32.4375, 32.3125, 32.25, 32.3125, 32.375, 32.375, 32.25, 32.0625, 32, 31.875, 31.75, 31.5625, 31.3125, 31.1875, 31.0625, 31, 31, 30.875, 30.625, 30.375, 30.125, 30, 30, 30.0625, 30.0625, 30.0625, 30.0625, 30, 29.928572, 29.541666, 29.258928, 29.0625, 28.9375, 28.875, 28.9375, 28.9375, 28.8125, 28.75, 28.5625, 28.375, 28.3125, 28.1875, 28.125, 28.0625, 27.9375, 27.8125, 27.6875, 27.4375, 27.3125, 27.25, 27.125, 27.1875, 27.125, 27.0625, 27, 26.875, 26.8125, 26.5625, 26.375, 26.1875, 26, 25.9375, 25.875, 25.875, 25.8125, 25.75, 25.625, 25.375, 25.1875, 25.0625, 25, 25, 25, 25, 24.75, 24.5, 24.25, 24, 24, 24, 24, 24, 24, 23.9375, 23.6875, 23.4375, 23.1875, 23, 23, 23, 23, 22.9375, 22.875, 22.6875, 22.4375, 22.25, 22.0625, 22, 22.0625, 22.1875, 22.1875, 22.125, 21.875, 21.6875, 21.5, 21.3125, 21.1875, 20.9375, 20.8125, 20.8125, 20.8125, 20.75, 20.5625, 20.3125, 20.125, 20, 20, 20, 20, 20, 19.8125, 19.5625, 19.3125, 19.0625, 19, 19, 19, 19, 19, 18.875, 18.75, 18.5625, 18.5, 18.428572, 18.1875, 18.1875, 17.8125, 17.6875, 17.5625, 17.4375, 17.375, 17.25, 17.125, 17, 17, 17, 17, 17, 17, 16.75, 16.5625, 16.3125, 16.0625, 16.0625, 16, 16, 15.875, 15.75, 15.5, 15.25, 15.0625, 14.9375, 14.9375, 14.875, 14.9375, 14.9375, 14.9375, 14.8125, 14.5625, 14.3125, 14.0625, 14, 14, 13.9375, 13.8125, 13.6875, 13.4375, 13.25, 13.125, 13, 13, 13, 13, 12.9375, 12.9375, 12.9375, 12.9375, 13, 12.9375, 12.875, 12.875, 12.875, 12.9375, 13, 13, -10, -10, -10, -10, -10, -10, -10, -10, -10, -10, -10, -10, -10, -10, -10, -10, -10, -10, -10, -10, -10, -10, -10, -10, -10, -10, -10, -10, -10, -10, -10, -10, 48.625, 48.666668, 48.5625, 48.4375, 48.25, 48.125, 48.0625, 48, 47.705357, 47.4375, 47.25, 47.1875, 47.25, 47.25, 47.1875, 47, 46.964287, 47.035713, 47, 46.9375, 46.6875, 46.5, 46.3125, 46.1875, 46.125, 46.0625, 46.0625, 46.0625, 45.857143, 45.505951, 45.321426, 45.125, 45.125, 45.053574, 45.026787, 44.75, 44.455357, 44.1875, 43.8125, 43.901787, 44.035713, 44.0625, 44.1875, 44.0625, 44.0625, 44.0625, 44.0625, 44, 43.6875, 43.392857, 43.375, 43.1875, 43.1875, 43.125, 42.875, 42.6875, 42.5, 42.4375, 42.3125, 42.3125, 42.25, 42.125, 42.0625, 41.8125, 41.625, 41.5, 41.25, 41.25, 41.3125, 41.160713, 40.883926, 40.791668, 40.732143, 40.741074, 40.75, 40.5625, 40.4375, 40.3125, 40.3125, 40.375, 40.3125, 40.25, 40.125, 39.9375, 39.9375, 39.875, 39.6875, 39.5, 39.25, 39.0625, 39, 38.9375, 38.875, 38.75, 38.6875, 38.5, 38.3125, 38.1875, 38, 38, 38.03125, 38.03125, 37.946426, 37.678574, 37.571426, 37.5, 37.419643, 37.241074, 36.916668, 36.758926, 36.8125, 36.75, 36.625, 36.5625, 36.3125, 36.1875, 36.125, 36, 36, 36, 35.9375, 35.75, 35.6875, 35.4375, 35.25, 35.1875, 35, 35, 34.875, 34.6875, 34.5625, 34.232143, 34.026787, 34, 33.875, 34, 34, 34, 33.9375, 33.8125, 33.75, 33.5, 33.3125, 33.1875, 33, 33, 32.928574, 32.666664, 32.580357, 32.375, 32.1875, 32.151787, 32.294643, 32.357143, 32.375, 32.25, 32.0625, 32, 31.9375, 31.8125, 31.625, 31.375, 31.1875, 31.0625, 31, 31, 30.875, 30.6875, 30.4375, 30.1875, 30.0625, 30, 30.0625, 30.0625, 30.0625, 30.0625, 30, 29.866072, 29.479166, 29.196428, 29, 28.9375, 28.9375, 29, 29, 28.875, 28.75, 28.625, 28.4375, 28.3125, 28.1875, 28.0625, 28, 28, 27.9375, 27.8125, 27.5625, 27.375, 27.25, 27.125, 27.1875, 27.125, 27.0625, 27, 26.9375, 26.875, 26.5625, 26.375, 26.223213, 26, 26, 25.875, 25.875, 25.75, 25.6875, 25.5625, 25.3125, 25.1875, 25.0625, 25, 25, 25, 25, 24.75, 24.5625, 24.3125, 24.0625, 24.0625, 24, 24, 24, 24, 23.9375, 23.6875, 23.4375, 23.1875, 23, 23, 23, 23, 22.9375, 22.9375, 22.75, 22.5, 22.3125, 22.0625, 22, 22.0625, 22.1875, 22.1875, 22.0625, 21.8125, 21.5625, 21.375, 21.223213, 20.955357, 20.696428, 20.5625, 20.5625, 20.5625, 20.5, 20.375, 20.1875, 20.0625, 20, 20, 20, 20, 20, 19.8125, 19.5625, 19.3125, 19.0625, 19, 19, 19, 19, 19, 18.875, 18.75, 18.5625, 18.5, 18.401787, 18.089287, 18.125, 17.8125, 17.75, 17.5625, 17.4375, 17.3125, 17.1875, 17.125, 17, 17, 17, 17, 17, 16.9375, 16.6875, 16.4375, 16.1875, 16, 16, 16, 16, 15.875, 15.6875, 15.4375, 15.1875, 15, 14.9375, 14.9375, 14.8125, 14.875, 14.875, 14.875, 14.75, 14.5
-10, -10, -10, -10, -10, -10, -10, -10, -10, -10, -10, -10, -10, -10, -10, 48.75, 48.75, 48.6875, 48.5625, 48.4375, 48.25, 48.125, 48.0625, 47.8125, 47.625, 47.375, 47.25, 47.25, 47.1875, 47.1875, 47, 46.964287, 47.035713, 47, 47, 46.75, 46.5, 46.25, 46.0625, 46, 46, 46.0625, 46.0625, 45.919643, 45.568451, 45.383926, 45.1875, 45.1875, 45.116074, 45.089287, 44.8125, 44.455357, 44.1875, 43.8125, 43.964287, 44.098213, 44.125, 44.25, 44.0625, 44, 43.9375, 44, 43.9375, 43.6875, 43.455357, 43.375, 43.1875, 43.1875, 43.1875, 43, 42.875, 42.75, 42.625, 42.4375, 42.4375, 42.3125, 42.1875, 42.125, 41.75, 41.5625, 41.4375, 41.1875, 41.1875, 41.25, 41.098213, 40.883926, 40.854168, 40.794643, 40.803574, 40.6875, 40.5625, 40.4375, 40.3125, 40.375, 40.375, 40.3125, 40.25, 40.0625, 39.8125, 39.8125, 39.75, 39.625, 39.5, 39.25, 39.0625, 38.9375, 38.8125, 38.75, 38.6875, 38.75, 38.625, 38.4375, 38.3125, 38.125, 38.125, 38.0625, 37.830357, 37.6875, 37.5, 37.5, 37.5625, 37.482143, 37.303574, 36.916668, 36.633926, 36.6875, 36.6875, 36.6875, 36.6875, 36.4375, 36.25, 36.125, 36, 35.9375, 35.9375, 35.9375, 35.8125, 35.8125, 35.5625, 35.3125, 35.1875, 35, 35, 34.9375, 34.8125, 34.75, 34.419643, 34.151787, 34.0625, 33.875, 34, 34, 34, 33.9375, 33.75, 33.625, 33.375, 33.1875, 33.125, 33, 33, 32.857143, 32.466667, 32.508926, 32.366074, 32.25, 32.214287, 32.357143, 32.357143, 32.375, 32.25, 32.0625, 32, 32, 31.875, 31.6875, 31.4375, 31.1875, 31.0625, 31, 30.9375, 30.875, 30.75, 30.5, 30.3125, 30.125, 30, 30.0625, 30.0625, 30.0625, 30.0625, 30, 29.866072, 29.479166, 29.196428, 29, 28.9375, 28.9375, 29, 29, 28.9375, 28.8125, 28.6875, 28.5, 28.3125, 28.1875, 28.0625, 28, 28, 28, 27.875, 27.625, 27.375, 27.125, 27, 27.0625, 27.0625, 27.0625, 27, 26.875, 26.75, 26.4375, 26.25, 26.160713, 26, 26, 25.8125, 25.75, 25.6875, 25.625, 25.5, 25.3125, 25.125, 25, 25, 25, 25, 25, 24.75, 24.625, 24.375, 24.125, 24.125, 24, 24, 24, 24, 24, 23.75, 23.5, 23.25, 23, 23, 23, 23, 22.9375, 22.9375, 22.75, 22.5, 22.3125, 22.0625, 22, 22.0625, 22.1875, 22.1875, 22.0625, 21.8125, 21.5625, 21.4375, 21.285713, 21.017857, 20.758928, 20.5625, 20.5, 20.4375, 20.375, 20.25, 20.125, 20.0625, 20, 20, 20, 20, 20, 19.8125, 19.5625, 19.3125, 19.0625, 19, 19, 19, 19, 19, 18.8125, 18.625, 18.4375, 18.375, 18.339287, 18.089287, 18.125, 17.8125, 17.75, 17.5625, 17.4375, 17.3125, 17.1875, 17.125, 17, 17, 17, 17, 17, 16.9375, 16.6875, 16.4375, 16.1875, 16, 16, 16, 16, 15.9375, 15.6875, 15.4375, 15.1875, 14.9375, 14.9375, 14.875, 14.6875, 14.6875, 14.625, 14.625, 14.5625, 14.375, 14.1875, 14, 14, 14, 13.9375, 13.8125, 13.5625, 13.3125, 13.125, 13, 13, 13, 13, 13, 13, 13, 12.9375, 12.875, 12.875, 12.875, 12.9375, 13, 13, 13, 13, 13, -10, -10, -10, -10, -10, -10, -10, -10, -10, -10, -10, -10, -10, -10, -10, -10, -10, -10, -10, -10, -10, -10, -10, -10, -10, -10, -10, -10, -10, -10, -10, -10, 48.625, 48.583332, 48.625, 48.5, 48.4375, 48.3125, 48.125, 48, 47.75, 47.625, 47.4375, 47.4375, 47.4375, 47.3125, 47.25, 47, 46.964287, 47.035713, 47, 46.9375, 46.6875, 46.5, 46.25, 46.125, 46.0625, 46, 46, 45.875, 45.6875, 45.464287, 45.3125, 45.1875, 45.125, 45.080357, 45.125, 44.8125, 44.517857, 44.25, 43.9375, 44.151787, 44.348213, 44.3125, 44.375, 44.125, 44, 43.9375, 43.9375, 43.875, 43.625, 43.392857, 43.3125, 43.125, 43.125, 43.125, 43, 42.9375, 42.875, 42.75, 42.5625, 42.5, 42.3125, 42.1875, 42.125, 41.8125, 41.5625, 41.5, 41.25, 41.25, 41.3125, 41.125, 41.125, 41.0625, 40.875, 40.75, 40.5, 40.375, 40.3125, 40.25, 40.375, 40.375, 40.25, 40.125, 39.8125, 39.5, 39.5, 39.4375, 39.4375, 39.375, 39.25, 39.098213, 38.830357, 38.633926, 38.625, 38.6875, 38.8125, 38.75, 38.5, 38.3125, 38.125, 38.125, 38, 37.830357, 37.75, 37.5625, 37.5625, 37.5625, 37.419643, 37.241074, 36.916668, 36.633926, 36.6875, 36.625, 36.625, 36.5625, 36.3125, 36.1875, 36.0625, 36, 35.875, 35.8125, 35.8125, 35.75, 35.8125, 35.6875, 35.4375, 35.25, 35.0625, 35, 35, 34.9375, 34.875, 34.607143, 34.276787, 34.125, 33.9375, 34, 34, 34, 34, 33.875, 33.75, 33.5, 33.25, 33.0625, 32.9375, 32.9375, 32.794643, 32.466667, 32.508926, 32.366074, 32.25, 32.214287, 32.294643, 32.232143, 32.25, 32.125, 32, 32, 31.9375, 31.75, 31.5625, 31.3125, 31.125, 31.0625, 31, 30.9375, 30.9375, 30.875, 30.625, 30.4375, 30.1875, 30, 30.0625, 30.0625, 30.0625, 30.0625, 30, 29.866072, 29.416666, 29.133928, 28.9375, 28.875, 28.9375, 29, 29, 28.9375, 28.8125, 28.75, 28.625, 28.4375, 28.3125, 28.125, 28, 28, 28, 27.8125, 27.5625, 27.3125, 27.0625, 27, 27, 27, 27, 26.9375, 26.8125, 26.625, 26.3125, 26.125, 26.098213, 26, 26.0625, 25.9375, 25.875, 25.8125, 25.625, 25.4375, 25.25, 25.0625, 25, 25, 25, 25, 24.9375, 24.6875, 24.5625, 24.3125, 24.125, 24.125, 24, 24, 24, 24, 23.9375, 23.6875, 23.4375, 23.1875, 23, 23, 23, 23, 22.9375, 22.875, 22.625, 22.375, 22.1875, 22, 22, 22, 22.0625, 22.0625, 21.875, 21.6875, 21.4375, 21.375, 21.285713, 21.017857, 20.821428, 20.5, 20.4375, 20.375, 20.375, 20.3125, 20.1875, 20.125, 20, 20, 20, 20, 20, 19.75, 19.5, 19.25, 19, 19, 19, 19, 19, 19, 18.75, 18.5, 18.25, 18.125, 18.160713, 18.089287, 18.125, 17.9375, 17.875, 17.75, 17.5625, 17.375, 17.1875, 17.0625, 17, 17, 17, 17, 16.9375, 16.8125, 16.5625, 16.3125, 16.125, 16, 16, 16, 16, 15.9375, 15.6875, 15.4375, 15.1875, 15, 15, 14.875, 14.580357, 14.5, 14.4375, 14.5, 14.5625, 14.4375
-10, -10, -10, -10, -10, -10, -10, -10, -10, -10, -10, -10, -10, -10, -10, 48.375, 48.333332, 48.4375, 48.375, 48.375, 48.3125, 48.125, 48, 47.75, 47.625, 47.4375, 47.4375, 47.375, 47.25, 47.1875, 46.9375, 46.964287, 47.035713, 47, 46.9375, 46.75, 46.5625, 46.3125, 46.1875, 46.0625, 46, 46, 45.9375, 45.875, 45.6875, 45.5, 45.375, 45.25, 45.25, 45.25, 45, 44.75, 44.4375, 44.0625, 44.151787, 44.223213, 44.1875, 44.25, 44, 43.875, 43.8125, 43.6875, 43.5625, 43.339287, 43.1875, 43.125, 43.0625, 43.0625, 43, 42.9375, 42.875, 42.8125, 42.75, 42.5625, 42.5, 42.3125, 42.1875, 42.125, 41.875, 41.6875, 41.625, 41.4375, 41.375, 41.3125, 41.125, 41.0625, 41, 40.8125, 40.6875, 40.5, 40.375, 40.375, 40.3125, 40.3125, 40.25, 40.0625, 39.875, 39.5, 39.125, 39.125, 39.125, 39.25, 39.375, 39.375, 39.205357, 38.747025, 38.455357, 38.375, 38.4375, 38.5625, 38.5625, 38.375, 38.25, 38.125, 38.125, 38, 37.767857, 37.625, 37.4375, 37.375, 37.375, 37.3125, 37.241074, 36.916668, 36.696426, 36.625, 36.5, 36.4375, 36.3125, 36.125, 36.0625, 36, 36, 35.875, 35.8125, 35.8125, 35.75, 35.75, 35.625, 35.375, 35.1875, 35.0625, 35, 35, 35, 34.875, 34.625, 34.375, 34.125, 34, 34, 34, 34, 34, 33.9375, 33.875, 33.625, 33.375, 33.125, 32.9375, 32.9375, 32.794643, 32.404167, 32.446426, 32.303574, 32.1875, 32.151787, 32.169643, 32.107143, 32.125, 32.0625, 32, 31.9375, 31.875, 31.625, 31.375, 31.1875, 31, 31, 31, 30.9375, 30.875, 30.8125, 30.5625, 30.375, 30.1875, 30.0625, 30.035713, 29.964287, 30, 29.9375, 30, 29.9375, 29.6875, 29.4375, 29.1875, 29, 29, 29, 28.9375, 28.875, 28.75, 28.6875, 28.625, 28.4375, 28.3125, 28.125, 28, 28, 27.9375, 27.75, 27.5, 27.25, 27.0625, 27, 27, 27, 27, 27, 26.875, 26.6875, 26.375, 26.125, 26.098213, 26, 26.0625, 25.9375, 25.875, 25.8125, 25.625, 25.5, 25.3125, 25.125, 25.0625, 25, 25, 25, 24.875, 24.625, 24.5, 24.25, 24.125, 24.125, 24, 24, 24, 23.9375, 23.8125, 23.5625, 23.3125, 23.125, 23, 23, 23, 23, 22.9375, 22.8125, 22.5625, 22.3125, 22.125, 22, 22, 22, 22, 22, 21.8125, 21.5625, 21.3125, 21.25, 21.160713, 21.080357, 20.982143, 20.651787, 20.625, 20.5, 20.5625, 20.4375, 20.3125, 20.1875, 20, 20, 20, 20, 19.9375, 19.6875, 19.4375, 19.1875, 19, 19, 19, 19, 19, 19, 18.8125, 18.5625, 18.3125, 18.125, 18.035713, 17.964287, 18, 17.9375, 18, 17.9375, 17.6875, 17.4375, 17.1875, 17, 17, 17, 17, 17, 16.875, 16.6875, 16.4375, 16.25, 16.125, 16.0625, 16.0625, 16, 16, 16, 15.75, 15.5, 15.25, 15.125, 15.125, 15, 14.767857, 14.5625, 14.5, 14.5625, 14.625, 14.5, 14.3125, 14.125, 14, 14, 14, 14, 13.8125, 13.625, 13.375, 13.125, 13.0625, 13, 13, 13, 13, 13, 12.9375, 12.75, 12.6875, 12.6875, 12.75, 12.875, 12.9375, 12.9375, 13, 13.083333, -10, -10, -10, -10, -10, -10, -10, -10, -10, -10, -10, -10, -10, -10, -10, -10, -10, -10, -10, -10, -10, -10, -10, -10, -10, -10, -10, -10, -10, -10, -10, -10, 48.25, 48.25, 48.375, 48.3125, 48.375, 48.3125, 48.125, 47.9375, 47.75, 47.6875, 47.5625, 47.5625, 47.4375, 47.25, 47.125, 47, 47, 47, 47, 46.875, 46.8125, 46.625, 46.375, 46.25, 46.0625, 46, 46, 46, 45.875, 45.479168, 45.25, 45.0625, 45, 45.125, 45.1875, 45.0625, 44.9375, 44.625, 44.3125, 44.3125, 44.25, 44.1875, 44.1875, 44, 43.875, 43.8125, 43.625, 43.4375, 43.214287, 43.0625, 43, 43, 43, 42.875, 42.875, 42.75, 42.6875, 42.6875, 42.4375, 42.375, 42.1875, 42, 41.9375, 41.8125, 41.6875, 41.6875, 41.5625, 41.4375, 41.3125, 41.125, 41.0625, 41, 40.75, 40.625, 40.5, 40.3125, 40.3125, 40.1875, 40.0625, 40, 39.8125, 39.625, 39.3125, 39.0625, 39.125, 39.1875, 39.25, 39.375, 39.357143, 39.035713, 38.497025, 38.205357, 38.125, 38.1875, 38.375, 38.375, 38.25, 38.1875, 38.125, 38.125, 38, 37.705357, 37.5, 37.25, 37.125, 37.125, 37.0625, 37.0625, 37, 36.875, 36.75, 36.625, 36.5625, 36.375, 36.25, 36.125, 36, 36, 35.875, 35.75, 35.6875, 35.5625, 35.5625, 35.5, 35.3125, 35.1875, 35.0625, 35, 35, 35, 34.8125, 34.5625, 34.3125, 34.0625, 34, 34, 34, 34, 34, 33.9375, 33.875, 33.625, 33.375, 33.125, 32.9375, 32.9375, 32.866074, 32.674999, 32.678574, 32.491074, 32.3125, 32.1875, 32.0625, 32, 32, 32, 32, 31.9375, 31.875, 31.625, 31.375, 31.1875, 31, 31, 31, 30.9375, 30.8125, 30.75, 30.5, 30.3125, 30.1875, 30.125, 30.098213, 30.026787, 30.0625, 29.9375, 30, 30, 29.8125, 29.625, 29.4375, 29.1875, 29.125, 29.0625, 28.875, 28.8125, 28.75, 28.6875, 28.669643, 28.375, 28.25, 28.0625, 28, 28, 27.875, 27.6875, 27.4375, 27.1875, 27.0625, 27, 27, 27, 27, 27, 26.875, 26.6875, 26.4375, 26.1875, 26.0625, 26, 26, 25.9375, 25.875, 25.875, 25.75, 25.6875, 25.5, 25.25, 25.125, 25, 25, 25, 24.875, 24.625, 24.5, 24.25, 24.125, 24.125, 24, 24, 24, 23.9375, 23.8125, 23.5625, 23.3125, 23.125, 23, 23, 23, 23, 23, 22.8125, 22.625, 22.375, 22.125, 22.0625, 22, 22, 22, 22, 21.875, 21.625, 21.375, 21.25, 21.125, 21.25, 21.223213, 20.964287, 20.9375, 20.75, 20.75, 20.5625, 20.375, 20.1875, 20, 20, 20, 20, 19.9375, 19.6875, 19.5, 19.3125, 19.125, 19.125, 19.0625, 19, 19, 19, 18.875, 18.625, 18.375, 18.125, 18, 18, 18, 18, 18, 18, 17.75, 17.5, 17.25, 17, 17, 17, 17, 17, 16.875, 16.75, 16.5625, 16.375, 16.25, 16.125, 16.0625, 16, 16, 16, 15.75, 15.5, 15.25, 15.125, 15.125, 15, 14.830357, 14.625, 14.5, 14.5, 14.5, 14.375
-10, -10, -10, -10, -10, -10, -10, -10, -10, -10, -10, -10, -10, -10, -10, 48.375, 48.416668, 48.4375, 48.3125, 48.25, 48.125, 48, 47.875, 47.75, 47.6875, 47.5625, 47.625, 47.5, 47.3125, 47.1875, 47, 47, 47, 46.9375, 46.75, 46.6875, 46.5, 46.3125, 46.25, 46.0625, 46, 46, 46, 45.803574, 45.208336, 44.946426, 44.75, 44.8125, 45, 45.125, 45.125, 45, 44.6875, 44.375, 44.25, 44.1875, 44.125, 44.125, 44, 43.9375, 43.875, 43.625, 43.4375, 43.151787, 43, 43, 43, 43, 42.875, 42.875, 42.6875, 42.5625, 42.5, 42.25, 42.1875, 42.0625, 41.9375, 41.8125, 41.8125, 41.6875, 41.6875, 41.625, 41.4375, 41.3125, 41.125, 41.0625, 40.9375, 40.6875, 40.625, 40.5, 40.3125, 40.3125, 40.125, 40, 40, 39.8125, 39.5625, 39.3125, 39.125, 39.1875, 39.25, 39.25, 39.3125, 39.357143, 39.071426, 38.452381, 38.151787, 38.0625, 38.1875, 38.3125, 38.3125, 38.1875, 38.0625, 38, 38, 37.9375, 37.75, 37.5625, 37.3125, 37.125, 37.0625, 37, 37, 37, 37, 36.875, 36.75, 36.5625, 36.3125, 36.1875, 36.0625, 36, 36, 35.9375, 35.8125, 35.75, 35.5625, 35.4375, 35.375, 35.1875, 35.125, 35.0625, 35, 35, 34.9375, 34.75, 34.5, 34.25, 34.0625, 34, 34, 34, 34, 34, 34, 34, 33.75, 33.5, 33.1875, 32.9375, 32.9375, 32.9375, 32.8125, 32.625, 32.375, 32.125, 32.0625, 32, 32, 32, 32, 32, 31.9375, 31.875, 31.625, 31.375, 31.1875, 31, 31, 31, 31, 30.875, 30.8125, 30.625, 30.375, 30.25, 30.1875, 30.098213, 30.026787, 30.0625, 29.9375, 30, 30, 29.875, 29.6875, 29.5, 29.3125, 29.1875, 29.125, 28.9375, 28.8125, 28.8125, 28.8125, 28.794643, 28.5, 28.3125, 28.0625, 27.9375, 27.9375, 27.75, 27.5625, 27.4375, 27.1875, 27.125, 27.0625, 27, 27, 27.0625, 27.125, 27.044643, 26.729166, 26.446428, 26.1875, 26.0625, 26, 26, 26, 26, 26, 25.9375, 25.8125, 25.5625, 25.3125, 25.125, 25, 25, 25, 24.8125, 24.5625, 24.375, 24.125, 24.0625, 24.0625, 24, 24, 24, 23.9375, 23.75, 23.5, 23.25, 23.0625, 23, 23, 23, 22.9375, 22.875, 22.625, 22.4375, 22.25, 22.0625, 22.0625, 22, 22, 22, 22, 21.9375, 21.6875, 21.4375, 21.25, 21.0625, 21.1875, 21.160713, 20.964287, 21, 20.875, 20.8125, 20.625, 20.375, 20.125, 20, 20, 20, 20, 19.875, 19.625, 19.4375, 19.3125, 19.1875, 19.25, 19.1875, 19, 18.892857, 18.875, 18.8125, 18.625, 18.4375, 18.1875, 18, 18, 18, 18, 18, 18, 17.75, 17.5, 17.25, 16.9375, 16.9375, 16.9375, 16.9375, 17, 16.875, 16.75, 16.625, 16.4375, 16.3125, 16.1875, 16.0625, 16, 16, 16, 15.75, 15.5, 15.25, 15.125, 15.125, 15.0625, 14.955357, 14.8125, 14.6875, 14.625, 14.5625, 14.375, 14.25, 14.125, 14, 14, 14, 14, 13.9375, 13.75, 13.5, 13.25, 13.0625, 13, 13, 13, 12.9375, 12.9375, 12.9375, 12.8125, 12.6875, 12.5625, 12.5, 12.5625, 12.75, 12.875, 13, 13.083333, -10, -10, -10, -10, -10, -10, -10, -10, -10, -10, -10, -10, -10, -10, -10, -10, -10, -10, -10, -10, -10, -10, -10, -10, -10, -10, -10, -10, -10, -10, -10, -10, 48.375, 48.5, 48.4375, 48.3125, 48.25, 48.0625, 48, 47.9375, 47.875, 47.8125, 47.625, 47.5625, 47.375, 47.1875, 47.125, 47, 47, 47, 46.875, 46.6875, 46.5625, 46.375, 46.3125, 46.25, 46.125, 46.0625, 46, 46.0625, 45.866074, 45.333336, 45.133926, 44.875, 44.9375, 45.0625, 45.125, 45.1875, 45.125, 44.8125, 44.5, 44.25, 44.0625, 44, 44, 43.9375, 43.9375, 43.875, 43.6875, 43.5, 43.214287, 43.0625, 43.0625, 43.125, 43.107143, 42.875, 42.875, 42.5625, 42.4375, 42.375, 42.125, 42.125, 42.0625, 41.9375, 41.8125, 41.8125, 41.6875, 41.625, 41.5625, 41.375, 41.3125, 41.1875, 41.0625, 40.830357, 40.5625, 40.5, 40.4375, 40.3125, 40.3125, 40.125, 40, 40, 39.875, 39.625, 39.5, 39.375, 39.375, 39.4375, 39.3125, 39.3125, 39.294643, 39.035713, 38.559525, 38.267857, 38.125, 38.1875, 38.25, 38.25, 38.25, 38.125, 38.0625, 38.0625, 38, 37.75, 37.5625, 37.375, 37.125, 37.125, 37.0625, 37, 37, 37, 36.875, 36.8125, 36.625, 36.375, 36.25, 36.0625, 36, 36, 36, 35.9375, 35.875, 35.6875, 35.4375, 35.25, 35.0625, 35, 35, 35, 35, 34.9375, 34.75, 34.5, 34.25, 34.0625, 34, 34, 34, 34, 34, 34, 34, 33.75, 33.5, 33.25, 33, 33, 33, 32.8125, 32.5625, 32.3125, 32.0625, 32, 32, 32, 32, 32, 32, 31.9375, 31.875, 31.625, 31.375, 31.1875, 31, 31, 31, 31, 30.875, 30.8125, 30.6875, 30.4375, 30.3125, 30.25, 30.098213, 30.089287, 30.1875, 30.0625, 30.125, 30, 29.8125, 29.625, 29.4375, 29.3125, 29.1875, 29.125, 28.9375, 28.8125, 28.8125, 28.75, 28.669643, 28.375, 28.1875, 28, 27.875, 27.8125, 27.625, 27.5, 27.4375, 27.25, 27.25, 27.1875, 27.125, 27.125, 27.125, 27.125, 27.044643, 26.729166, 26.446428, 26.1875, 26.0625, 26, 26, 26, 26, 26, 26, 25.875, 25.625, 25.375, 25.125, 25, 25, 25, 24.875, 24.6875, 24.5625, 24.3125, 24.1875, 24.125, 24, 24, 24, 23.9375, 23.75, 23.5, 23.25, 23.0625, 23, 23, 23, 22.9375, 22.875, 22.625, 22.4375, 22.25, 22.0625, 22.0625, 22, 22, 22, 22, 22, 21.75, 21.5, 21.25, 21, 21.125, 21.098213, 21.026787, 21.0625, 20.9375, 20.8125, 20.5625, 20.3125, 20.0625, 20, 20, 20, 19.9375, 19.75, 19.5, 19.3125, 19.25, 19.1875, 19.25, 19.1875, 18.9375, 18.767857, 18.6875, 18.625, 18.5, 18.375, 18.1875, 18, 18, 18, 18, 18, 18, 17.75, 17.5, 17.25, 16.9375, 16.9375, 16.9375, 16.9375, 17, 16.9375, 16.875, 16.8125, 16.625, 16.4375, 16.25, 16.0625, 16, 15.9375, 15.875, 15.625, 15.4375, 15.25, 15.125, 15.125, 15.0625, 15.0625, 15, 14.875, 14.6875, 14.5, 14.25
-10, -10, -10, -10, -10, -10, -10, -10, -10, -10, -10, -10, -10, -10, -10, 48.375, 48.5, 48.375, 48.25, 48.1875, 48, 48, 47.9375, 47.9375, 47.9375, 47.75, 47.625, 47.375, 47.125, 47.0625, 47, 47, 47, 46.875, 46.6875, 46.5, 46.3125, 46.1875, 46.0625, 46, 45.9375, 45.9375, 46.0625, 45.866074, 45.333336, 45.133926, 44.875, 44.9375, 45, 45, 45.0625, 45, 44.8125, 44.5625, 44.375, 44.1875, 44.0625, 44.125, 44.125, 44.107143, 43.854168, 43.705357, 43.5625, 43.375, 43.25, 43.1875, 43.125, 43.107143, 42.9375, 42.9375, 42.625, 42.5, 42.375, 42.125, 42.125, 42.0625, 41.9375, 41.8125, 41.8125, 41.625, 41.5, 41.375, 41.1875, 41.25, 41.1875, 41.0625, 40.794643, 40.5625, 40.4375, 40.375, 40.25, 40.1875, 40.0625, 40, 40, 39.9375, 39.75, 39.75, 39.75, 39.75, 39.75, 39.5, 39.3125, 39.169643, 38.92857, 38.642857, 38.446426, 38.3125, 38.375, 38.375, 38.375, 38.4375, 38.25, 38.1875, 38.125, 38, 37.75, 37.5625, 37.4375, 37.1875, 37.1875, 37.125, 37, 37, 37, 36.9375, 36.9375, 36.75, 36.5, 36.3125, 36.0625, 36, 36, 36, 35.9375, 35.875, 35.75, 35.5, 35.3125, 35.125, 35, 35, 35, 34.9375, 34.8125, 34.625, 34.375, 34.1875, 34.0625, 34, 34, 34, 34, 34, 33.9375, 33.875, 33.625, 33.375, 33.1875, 33, 33, 33, 32.875, 32.625, 32.375, 32.125, 32, 32, 32, 32, 32, 31.9375, 31.875, 31.75, 31.5, 31.3125, 31.125, 31, 31, 31, 31, 30.9375, 30.9375, 30.875, 30.625, 30.4375, 30.25, 30.0625, 30.125, 30.1875, 30.125, 30.0625, 29.9375, 29.75, 29.5625, 29.4375, 29.3125, 29.1875, 29.125, 29, 28.875, 28.875, 28.75, 28.544643, 28.25, 28.0625, 28, 27.910713, 27.705357, 27.508928, 27.375, 27.375, 27.25, 27.1875, 27.125, 27.0625, 27.0625, 27.125, 27.125, 27.044643, 26.666666, 26.383928, 26.125, 26, 26, 26, 26, 26, 26, 26, 25.8125, 25.5625, 25.3125, 25.0625, 25, 25, 25, 24.9375, 24.8125, 24.75, 24.5, 24.3125, 24.1875, 24, 24, 24, 24, 23.875, 23.6875, 23.5, 23.25, 23.125, 23.0625, 23, 22.9375, 22.875, 22.6875, 22.5, 22.3125, 22.125, 22.0625, 22, 22, 22, 22, 22, 21.75, 21.5, 21.25, 21, 21.0625, 21.0625, 21.0625, 21.0625, 21, 20.75, 20.5, 20.25, 20, 20, 20, 20, 19.875, 19.6875, 19.4375, 19.25, 19.25, 19.1875, 19.25, 19.1875, 18.875, 18.642857, 18.5, 18.375, 18.3125, 18.25, 18.125, 18, 18, 18, 18, 18, 18, 17.8125, 17.5625, 17.3125, 17, 16.9375, 16.9375, 16.9375, 17, 17, 17, 17, 16.75, 16.5, 16.25, 15.9375, 15.875, 15.75, 15.6875, 15.5, 15.375, 15.25, 15.0625, 15.0625, 15, 15, 15, 14.875, 14.6875, 14.4375, 14.1875, 14.0625, 14, 14, 14, 14, 14, 14, 13.75, 13.5, 13.25, 13, 13, 13, 13, 12.875, 12.875, 12.875, 12.8125, 12.6875, 12.4375, 12.3125, 12.25, 12.5, 12.75, 12.875, 13, -10, -10, -10, -10, -10, -10, -10, -10, -10, -10, -10, -10, -10, -10, -10, -10, -10, -10, -10, -10, -10, -10, -10, -10, -10, -10, -10, -10, -10, -10, -10, -10, 48.375, 48.416664, 48.3125, 48.1875, 48.125, 48, 47.9375, 47.875, 47.875, 47.875, 47.6875, 47.5625, 47.3125, 47.0625, 47.0625, 47, 47, 47, 46.875, 46.6875, 46.4375, 46.25, 46.125, 46, 46, 45.9375, 45.9375, 46, 45.866074, 45.479168, 45.258926, 45, 44.9375, 44.9375, 44.9375, 45, 44.9375, 44.8125, 44.625, 44.4375, 44.1875, 43.955357, 44, 44, 44.044643, 43.791668, 43.642857, 43.5, 43.3125, 43.25, 43.1875, 43.125, 43.107143, 43, 43, 42.6875, 42.5, 42.25, 42, 42, 42, 42, 41.9375, 41.9375, 41.75, 41.5625, 41.4375, 41.25, 41.3125, 41.25, 41.0625, 40.794643, 40.625, 40.5, 40.375, 40.25, 40.125, 40, 40, 40, 40, 39.875, 39.875, 39.8125, 39.6875, 39.625, 39.375, 39.1875, 39.125, 39.035713, 38.892857, 38.758926, 38.5625, 38.5625, 38.4375, 38.4375, 38.5, 38.3125, 38.25, 38.125, 38.0625, 37.848213, 37.580357, 37.446426, 37.1875, 37.1875, 37.125, 37, 37, 37, 36.9375, 36.875, 36.625, 36.375, 36.25, 36.125, 36.1875, 36.1875, 36.125, 36.0625, 36, 35.9375, 35.6875, 35.4375, 35.1875, 35, 35, 35, 34.875, 34.6875, 34.5, 34.25, 34.125, 34.0625, 34, 34, 34, 34, 34, 33.875, 33.75, 33.5, 33.25, 33.125, 33, 33, 33, 32.9375, 32.6875, 32.4375, 32.1875, 32.0625, 32.125, 32.1875, 32.1875, 32.125, 32, 31.8125, 31.625, 31.375, 31.1875, 31.0625, 31.0625, 31.0625, 31.0625, 31.0625, 31, 31, 31, 30.75, 30.5, 30.25, 30, 30.0625, 30.125, 30.125, 30, 29.8125, 29.5625, 29.3125, 29.1875, 29.125, 29.0625, 29.0625, 29.0625, 29, 29, 28.8125, 28.5625, 28.3125, 28.125, 28.125, 27.910713, 27.598213, 27.383928, 27.25, 27.3125, 27.25, 27.1875, 27.125, 27.0625, 27.0625, 27.125, 27.125, 27.044643, 26.729166, 26.446428, 26.1875, 26.0625, 26, 26, 26, 26, 26, 26, 25.75, 25.5, 25.25, 25, 25, 25, 25, 24.9375, 24.875, 24.75, 24.5, 24.3125, 24.125, 24, 24, 24, 24, 23.8125, 23.625, 23.5, 23.25, 23.1875, 23.0625, 22.9375, 22.875, 22.8125, 22.6875, 22.4375, 22.25, 22.0625, 22, 22, 22, 22, 22, 22, 21.8125, 21.625, 21.375, 21.125, 21.0625, 21, 21, 21, 21, 20.8125, 20.5625, 20.3125, 20.0625, 20, 20, 20, 19.8125, 19.5625, 19.375, 19.1875, 19.1875, 19.1875, 19.1875, 19.125, 18.875, 18.580357, 18.375, 18.1875, 18.125, 18.1875, 18.1875, 18.125, 18.125, 18.0625, 18, 18, 18, 17.8125, 17.5625, 17.3125, 17, 16.9375, 16.9375, 16.9375, 17, 17, 16.9375, 16.875, 16.625, 16.375, 16.1875, 15.9375, 15.875, 15.75, 15.6875, 15.5, 15.4375, 15.3125, 15.125, 15.125, 15, 15, 15, 14.9375, 14.8125, 14.5625, 14.3125
-10, -10, -10, -10, -10, -10, -10, -10, -10, -10, -10, -10, -10, -10, -10, 48.25, 48.249996, 48.1875, 48.0625, 48.0625, 47.9375, 47.8125, 47.6875, 47.6875, 47.6875, 47.5625, 47.4375, 47.1875, 47, 47, 47, 47, 46.9375, 46.8125, 46.6875, 46.5, 46.375, 46.25, 46.0625, 46, 45.9375, 45.9375, 45.9375, 45.8125, 45.6875, 45.5, 45.3125, 45.1875, 45.0625, 45, 45, 45, 44.9375, 44.75, 44.5625, 44.25, 43.955357, 44, 44, 43.982143, 43.791668, 43.642857, 43.5, 43.375, 43.25, 43.1875, 43.125, 43.107143, 43, 43, 42.75, 42.625, 42.4375, 42.1875, 42.125, 42.0625, 42, 42, 41.9375, 41.8125, 41.6875, 41.5, 41.375, 41.375, 41.25, 41.0625, 40.857143, 40.75, 40.625, 40.5625, 40.4375, 40.3125, 40.1875, 40.125, 40.0625, 39.9375, 39.875, 39.8125, 39.6875, 39.625, 39.5, 39.375, 39.3125, 39.25, 39.25, 39.1875, 39.0625, 38.875, 38.723213, 38.455357, 38.383926, 38.5, 38.375, 38.3125, 38.1875, 38, 37.785713, 37.455357, 37.258926, 37.080357, 37.270832, 37.303574, 37.1875, 37.125, 37.0625, 36.9375, 36.8125, 36.5625, 36.3125, 36.1875, 36.125, 36.1875, 36.1875, 36.125, 36.0625, 36, 36, 35.8125, 35.5625, 35.3125, 35.0625, 35, 35, 34.875, 34.6875, 34.4375, 34.1875, 34.0625, 34, 34, 34, 34, 34, 33.9375, 33.75, 33.5625, 33.3125, 33.125, 33.0625, 33, 33, 33, 33, 32.75, 32.5, 32.25, 32.125, 32.1875, 32.3125, 32.3125, 32.1875, 32.0625, 31.8125, 31.5625, 31.375, 31.25, 31.125, 31.1875, 31.125, 31.0625, 31.0625, 31, 31.0625, 31.0625, 30.8125, 30.517857, 30.25, 30, 30.0625, 30.125, 30.125, 29.9375, 29.6875, 29.375, 29.125, 29.0625, 29, 29, 29, 29, 29, 28.9375, 28.6875, 28.4375, 28.1875, 28.0625, 28.125, 27.973213, 27.723213, 27.544643, 27.267857, 27.196428, 27.1875, 27.125, 27.125, 27.125, 27.0625, 27.0625, 27, 26.875, 26.6875, 26.4375, 26.1875, 26.0625, 26, 26, 26, 26, 26, 25.9375, 25.6875, 25.4375, 25.1875, 25, 25, 25, 25, 25, 24.9375, 24.8125, 24.5625, 24.3125, 24.125, 24, 24, 24, 24, 23.875, 23.6875, 23.5625, 23.3125, 23.1875, 23.0625, 22.9375, 22.875, 22.8125, 22.6875, 22.5, 22.3125, 22.1875, 22.125, 22.0625, 22.0625, 22, 22, 22, 21.875, 21.75, 21.5, 21.25, 21.125, 21, 21, 21, 21, 20.875, 20.6875, 20.4375, 20.1875, 20.0625, 20, 20, 19.75, 19.5, 19.375, 19.25, 19.25, 19.25, 19.125, 19, 18.875, 18.625, 18.375, 18.125, 18, 18.125, 18.25, 18.25, 18.25, 18.125, 18, 18, 18, 17.8125, 17.5625, 17.3125, 17.0625, 17, 17, 17, 17, 17, 16.9375, 16.8125, 16.5625, 16.3125, 16.1875, 16, 15.9375, 15.8125, 15.6875, 15.5625, 15.5625, 15.4375, 15.25, 15.1875, 15, 15, 15, 15, 14.9375, 14.75, 14.5, 14.25, 14.0625, 14, 13.875, 13.8125, 13.75, 13.75, 13.75, 13.625, 13.4375, 13.1875, 13.0625, 13, 13, 12.9375, 12.9375, 12.875, 12.6875, 12.5625, 12.4375, 12.4375, 12.5, 12.6875, 12.8125, 12.875, 13, -10, -10, -10, -10, -10, -10, -10, -10, -10, -10, -10, -10, -10, -10, -10, -10, -10, -10, -10, -10, -10, -10, -10, -10, -10, -10, -10, -10, -10, -10, -10, -10, 48.5, 48.333332, 48.25, 48.0625, 48, 47.875, 47.6875, 47.5625, 47.5625, 47.5625, 47.5, 47.375, 47.1875, 47.0625, 47.0625, 47.0625, 46.9375, 46.8125, 46.6875, 46.5625, 46.5, 46.375, 46.1875, 46, 45.875, 45.875, 45.9375, 45.875, 45.75, 45.625, 45.4375, 45.3125, 45.1875, 45.0625, 45, 45, 45, 45, 44.8125, 44.625, 44.3125, 44.017857, 44.0625, 44, 43.875, 43.604168, 43.392857, 43.25, 43.1875, 43.125, 43.0625, 43, 43, 43, 42.9375, 42.75, 42.5625, 42.375, 42.1875, 42.125, 42.0625, 42, 42, 41.875, 41.75, 41.6875, 41.5625, 41.4375, 41.4375, 41.25, 41.0625, 41.026787, 40.9375, 40.875, 40.875, 40.6875, 40.270832, 40.116074, 40.0625, 40.169643, 40.044643, 39.854168, 39.696426, 39.5, 39.5, 39.375, 39.375, 39.4375, 39.4375, 39.5, 39.375, 39.25, 39.0625, 38.785713, 38.517857, 38.446426, 38.5, 38.4375, 38.375, 38.1875, 38.0625, 37.883926, 37.410713, 37.142857, 37.017857, 37.270832, 37.428574, 37.375, 37.25, 37.125, 36.9375, 36.75, 36.5, 36.25, 36.125, 36.125, 36.1875, 36.1875, 36.125, 36.0625, 36, 36, 35.8125, 35.5625, 35.3125, 35.0625, 35, 35, 34.875, 34.6875, 34.5, 34.25, 34.125, 34.0625, 34, 34, 34, 34, 33.9375, 33.75, 33.5, 33.25, 33.0625, 33, 33, 33, 33, 33, 32.8125, 32.5625, 32.3125, 32.25, 32.25, 32.375, 32.375, 32.1875, 32.0625, 31.75, 31.5625, 31.4375, 31.375, 31.3125, 31.3125, 31.1875, 31.0625, 31.0625, 31, 31.0625, 31.0625, 30.8125, 30.517857, 30.3125, 30.125, 30.125, 30.0625, 29.964287, 29.75, 29.625, 29.4375, 29.1875, 29.125, 29, 29, 29, 28.9375, 28.875, 28.75, 28.5, 28.3125, 28.125, 28, 28, 27.910713, 27.723213, 27.544643, 27.267857, 27.133928, 27.0625, 27, 27, 27, 26.9375, 27, 27, 26.875, 26.6875, 26.4375, 26.1875, 26.0625, 26, 26, 26, 26, 26, 25.9375, 25.75, 25.5625, 25.375, 25.1875, 25.125, 25.0625, 25, 25, 24.9375, 24.75, 24.5, 24.3125, 24.125, 24.0625, 24.0625, 24, 24, 23.9375, 23.75, 23.625, 23.375, 23.125, 22.9375, 22.75, 22.625, 22.5625, 22.5625, 22.5, 22.4375, 22.4375, 22.3125, 22.1875, 22.125, 22, 22, 22, 21.9375, 21.875, 21.625, 21.375, 21.1875, 21, 21, 21, 21, 20.875, 20.6875, 20.4375, 20.1875, 20.0625, 20, 20, 19.8125, 19.625, 19.5625, 19.4375, 19.375, 19.3125, 19.125, 19, 18.9375, 18.75, 18.5, 18.25, 18.0625, 18.125, 18.3125, 18.375, 18.375, 18.25, 18.0625, 17.9375, 17.9375, 17.8125, 17.5625, 17.375, 17.125, 17, 17, 17, 17, 17, 16.9375, 16.75, 16.5, 16.25, 16.1875, 16.0625, 16, 15.9375, 15.8125, 15.75, 15.75, 15.5625, 15.3125, 15.1875, 15, 15, 15, 15, 15, 14.8125, 14.5625
-10, -10, -10, -10, -10, -10, -10, -10, -10, -10, -10, -10, -10, -10, -10, 48.75, 48.5, 48.375, 48.125, 48, 47.875, 47.6875, 47.5625, 47.5625, 47.5, 47.4375, 47.3125, 47.125, 47.0625, 47.0625, 47.0625, 46.9375, 46.75, 46.625, 46.5, 46.5, 46.4375, 46.3125, 46.1875, 46, 46, 46, 45.875, 45.75, 45.6875, 45.5625, 45.4375, 45.3125, 45.125, 45, 45, 45, 44.9375, 44.75, 44.5, 44.1875, 43.955357, 43.9375, 43.875, 43.705357, 43.625, 43.375, 43.1875, 43.125, 43, 43, 43, 42.9375, 42.875, 42.75, 42.5625, 42.5, 42.4375, 42.375, 42.375, 42.3125, 42.1875, 42.1875, 41.982143, 41.705357, 41.633926, 41.5, 41.4375, 41.375, 41.1875, 41.0625, 41.0625, 41, 40.9375, 40.875, 40.6875, 40.270832, 40.178574, 40.125, 40.294643, 40.169643, 39.916668, 39.758926, 39.4375, 39.375, 39.3125, 39.375, 39.5625, 39.625, 39.625, 39.4375, 39.25, 39.125, 38.848213, 38.642857, 38.571426, 38.5625, 38.5, 38.375, 38.1875, 38.0625, 37.946426, 37.473213, 37.142857, 37.080357, 37.333332, 37.491074, 37.5, 37.3125, 37.125, 36.875, 36.6875, 36.5, 36.3125, 36.25, 36.25, 36.25, 36.1875, 36.125, 36.0625, 36, 35.9375, 35.75, 35.5, 35.25, 35.0625, 35, 35, 34.9375, 34.75, 34.5625, 34.3125, 34.125, 34.0625, 34, 34, 34, 34, 33.9375, 33.8125, 33.625, 33.375, 33.1875, 33.0625, 33, 33, 33, 33, 32.875, 32.625, 32.375, 32.375, 32.375, 32.482143, 32.375, 32.1875, 32.0625, 31.875, 31.75, 31.6875, 31.5625, 31.4375, 31.375, 31.1875, 31.0625, 31.0625, 31, 31.0625, 31.0625, 30.8125, 30.517857, 30.375, 30.25, 30.25, 30.1875, 30.026787, 29.75, 29.5625, 29.375, 29.125, 29.0625, 29, 29, 28.9375, 28.8125, 28.75, 28.5625, 28.375, 28.25, 28.0625, 28, 27.875, 27.75, 27.705357, 27.598213, 27.455357, 27.321428, 27.1875, 27.125, 27.0625, 27.0625, 27, 27, 27, 26.875, 26.75, 26.5625, 26.375, 26.25, 26.125, 26.0625, 26, 26, 26, 25.9375, 25.8125, 25.625, 25.4375, 25.25, 25.125, 25.0625, 25, 25, 24.875, 24.625, 24.375, 24.25, 24.125, 24.125, 24.125, 24, 24, 23.9375, 23.6875, 23.5, 23.25, 23, 22.875, 22.75, 22.625, 22.5, 22.4375, 22.375, 22.3125, 22.375, 22.3125, 22.1875, 22.125, 22, 22, 22, 22, 21.9375, 21.6875, 21.4375, 21.1875, 21, 21, 21, 20.9375, 20.8125, 20.625, 20.375, 20.1875, 20.0625, 20, 20, 19.875, 19.75, 19.75, 19.6875, 19.5625, 19.4375, 19.1875, 19, 19, 18.875, 18.6875, 18.4375, 18.1875, 18.1875, 18.3125, 18.4375, 18.4375, 18.3125, 18.125, 17.9375, 17.9375, 17.8125, 17.5625, 17.375, 17.125, 17, 17, 17, 17, 16.9375, 16.8125, 16.5625, 16.375, 16.1875, 16.1875, 16.1875, 16.125, 16.125, 16, 15.9375, 15.9375, 15.6875, 15.4375, 15.25, 15, 15, 15, 15, 15, 14.8125, 14.5625, 14.3125, 14.0625, 14, 13.75, 13.5625, 13.5, 13.375, 13.5625, 13.5625, 13.375, 13.25, 13.0625, 13, 13, 13, 13, 12.9375, 12.8125, 12.75, 12.75, 12.8125, 12.9375, 13, 13, 13, 13, -10, -10, -10, -10, -10, -10, -10, -10, -10, -10, -10, -10, -10, -10, -10, -10, -10, -10, -10, -10, -10, -10, -10, -10, -10, -10, -10, -10, -10, -10, -10, -10, 48.875, 48.583332, 48.4375, 48.1875, 48, 47.875, 47.75, 47.6875, 47.6875, 47.5625, 47.4375, 47.25, 47.0625, 47.0625, 47.0625, 47.0625, 46.9375, 46.6875, 46.5625, 46.4375, 46.4375, 46.4375, 46.3125, 46.1875, 46, 46, 46, 45.875, 45.75, 45.75, 45.75, 45.660713, 45.455357, 45.196426, 45, 45, 45, 44.875, 44.625, 44.375, 44.125, 44.0625, 44.0625, 44, 43.767857, 43.6875, 43.5, 43.3125, 43.25, 43.0625, 43, 43, 42.9375, 42.8125, 42.5625, 42.339287, 42.375, 42.482143, 42.5, 42.5, 42.375, 42.1875, 42.1875, 41.919643, 41.580357, 41.446426, 41.25, 41.25, 41.25, 41.125, 41.0625, 41.0625, 41, 40.875, 40.8125, 40.625, 40.208332, 40.178574, 40.125, 40.357143, 40.294643, 40.041668, 39.883926, 39.5625, 39.4375, 39.375, 39.5, 39.625, 39.6875, 39.6875, 39.4375, 39.25, 39.1875, 38.973213, 38.830357, 38.696426, 38.625, 38.5, 38.3125, 38.1875, 38, 37.910713, 37.517857, 37.196426, 37.142857, 37.333332, 37.491074, 37.5625, 37.348213, 37.017857, 36.758926, 36.5625, 36.5, 36.375, 36.25, 36.1875, 36.0625, 36, 36, 36, 35.9375, 35.8125, 35.625, 35.375, 35.1875, 35.0625, 35, 35, 35, 34.8125, 34.625, 34.375, 34.125, 34.0625, 34, 34, 34, 34, 33.9375, 33.875, 33.75, 33.5, 33.3125, 33.125, 33, 33, 33, 33, 32.9375, 32.6875, 32.4375, 32.4375, 32.3125, 32.357143, 32.25, 32.0625, 32, 31.9375, 31.875, 31.8125, 31.6875, 31.5, 31.3125, 31.125, 31, 31, 31, 31.0625, 31.0625, 30.8125, 30.517857, 30.4375, 30.375, 30.375, 30.3125, 30.089287, 29.8125, 29.625, 29.4375, 29.1875, 29.0625, 29, 29, 28.875, 28.75, 28.6875, 28.4375, 28.3125, 28.1875, 28, 27.9375, 27.8125, 27.75, 27.75, 27.660713, 27.517857, 27.321428, 27.1875, 27.125, 27.0625, 27.0625, 27, 27, 27, 26.875, 26.75, 26.5625, 26.375, 26.25, 26.125, 26.0625, 26, 26, 26, 25.875, 25.8125, 25.625, 25.4375, 25.3125, 25.125, 25, 24.875, 24.8125, 24.6875, 24.5, 24.3125, 24.25, 24.125, 24.125, 24.125, 24, 24, 24, 23.8125, 23.5625, 23.3125, 23, 22.875, 22.8125, 22.6875, 22.5, 22.4375, 22.375, 22.3125, 22.5, 22.4375, 22.294643, 22.125, 22, 21.9375, 22, 21.9375, 21.8125, 21.5625, 21.3125, 21.125, 21, 21, 21, 20.9375, 20.75, 20.5625, 20.3125, 20.125, 20.0625, 20, 20, 19.875, 19.8125, 19.75, 19.625, 19.5, 19.3125, 19.125, 19, 18.9375, 18.8125, 18.625, 18.375, 18.25, 18.1875, 18.25, 18.375, 18.3125, 18.25, 18.125, 17.9375, 17.875, 17.8125, 17.5625, 17.375, 17.1875, 17, 17, 17, 17, 16.9375, 16.8125, 16.5625, 16.375, 16.1875, 16.1875, 16.1875, 16.125, 16.125, 16, 16, 15.9375, 15.6875, 15.4375, 15.1875, 15, 15, 15, 15, 15, 14.875, 14.625
-10, -10, -10, -10, -10, -10, -10, -10, -10, -10, -10, -10, -10, -10, -10, 49, 48.666668, 48.5, 48.25, 48, 47.9375, 47.875, 47.875, 47.875, 47.75, 47.625, 47.4375, 47.25, 47.1875, 47.125, 47.0625, 46.9375, 46.75, 46.6875, 46.5, 46.5, 46.4375, 46.25, 46.1875, 46.0625, 46.035713, 46, 46.044643, 45.875, 45.9375, 46, 45.910713, 45.642857, 45.339283, 45.0625, 45, 45, 44.8125, 44.5625, 44.3125, 44.125, 44.125, 44.125, 44.0625, 43.830357, 43.75, 43.625, 43.4375, 43.3125, 43.125, 43, 43, 42.9375, 42.8125, 42.455357, 41.989288, 42.125, 42.160713, 42.3125, 42.4375, 42.4375, 42.3125, 42.3125, 41.982143, 41.517857, 41.321426, 41.1875, 41.25, 41.375, 41.3125, 41.1875, 41.125, 41, 40.8125, 40.625, 40.339287, 39.958332, 40.026787, 40.0625, 40.419643, 40.482143, 40.260418, 40.165176, 39.84375, 39.53125, 39.4375, 39.4375, 39.4375, 39.5, 39.4375, 39.25, 39.125, 39.0625, 38.9375, 38.9375, 38.8125, 38.6875, 38.5, 38.25, 38.0625, 37.9375, 37.910713, 37.642857, 37.446426, 37.375, 37.3125, 37.3125, 37.375, 37.223213, 36.955357, 36.758926, 36.5625, 36.5, 36.375, 36.25, 36.125, 36, 36, 36.035713, 36.0625, 35.9375, 35.6875, 35.4375, 35.25, 35.1875, 35.125, 35.125, 35.0625, 34.9375, 34.75, 34.5625, 34.3125, 34.125, 34.0625, 34, 34, 34, 34, 34, 34, 33.875, 33.625, 33.375, 33.125, 33, 33, 33, 33, 33, 32.75, 32.5625, 32.5625, 32.375, 32.357143, 32.1875, 32, 31.9375, 31.875, 31.875, 31.75, 31.625, 31.5, 31.25, 31.125, 31, 31, 31, 31, 30.9375, 30.6875, 30.4375, 30.375, 30.375, 30.375, 30.3125, 30.089287, 29.875, 29.6875, 29.5, 29.25, 29.0625, 29, 29, 28.875, 28.75, 28.6875, 28.5, 28.375, 28.25, 28.0625, 27.9375, 27.8125, 27.75, 27.6875, 27.5625, 27.5, 27.3125, 27.1875, 27.1875, 27.125, 27.125, 27.0625, 27, 26.9375, 26.8125, 26.6875, 26.5, 26.375, 26.25, 26.125, 26.0625, 26, 26, 26, 25.875, 25.8125, 25.625, 25.4375, 25.3125, 25.125, 25, 24.875, 24.75, 24.6875, 24.5, 24.3125, 24.25, 24.0625, 24.0625, 24.0625, 24, 24, 24, 23.875, 23.6875, 23.4375, 23.125, 22.9375, 22.8125, 22.75, 22.5625, 22.5625, 22.5, 22.4375, 22.5625, 22.4375, 22.294643, 22, 21.875, 21.8125, 21.875, 21.8125, 21.6875, 21.4375, 21.1875, 21.0625, 21, 21, 21, 20.9375, 20.6875, 20.4375, 20.1875, 20, 20.0625, 20.035713, 19.964287, 19.875, 19.75, 19.6875, 19.5, 19.375, 19.1875, 19.0625, 19, 18.9375, 18.875, 18.75, 18.5625, 18.5, 18.375, 18.3125, 18.375, 18.25, 18.1875, 18.125, 17.9375, 17.875, 17.8125, 17.5625, 17.375, 17.1875, 17, 17, 17, 17, 16.9375, 16.8125, 16.625, 16.4375, 16.25, 16.1875, 16.125, 16.0625, 16.0625, 16, 16, 15.875, 15.625, 15.375, 15.125, 15, 15, 15, 15, 15, 14.8125, 14.5625, 14.3125, 14.0625, 14, 13.875, 13.75, 13.75, 13.5625, 13.5, 13.375, 13.125, 13.0625, 13, 13, 13, 13, 13, 13, 13, 13, 13, 13, 13, 13, 13, 12.9375, 12.916667, -10, -10, -10, -10, -10, -10, -10, -10, -10, -10, -10, -10, -10, -10, -10, -10, -10, -10, -10, -10, -10, -10, -10, -10, -10, -10, -10, -10, -10, -10, -10, -10, 49, 48.666668, 48.5, 48.25, 48, 48, 48, 48, 48, 47.875, 47.6875, 47.5625, 47.375, 47.25, 47.1875, 47.0625, 47, 46.875, 46.875, 46.75, 46.6875, 46.5625, 46.3125, 46.1875, 46.0625, 46.035713, 46, 46.107143, 46, 46.0625, 46.125, 46.035713, 45.767857, 45.526783, 45.25, 45.125, 45.0625, 44.8125, 44.5625, 44.375, 44.1875, 44.125, 44.125, 44.0625, 43.9375, 43.9375, 43.875, 43.6875, 43.5625, 43.3125, 43.125, 43.0625, 42.9375, 42.8125, 42.517857, 42.114288, 42.25, 42.285713, 42.375, 42.4375, 42.5, 42.375, 42.3125, 41.9375, 41.455357, 41.196426, 41.125, 41.25, 41.375, 41.4375, 41.3125, 41.1875, 41.0625, 40.8125, 40.491074, 40.139286, 40.178574, 40.205357, 40.25, 40.375, 40.375, 40.34375, 40.34375, 40.03125, 39.65625, 39.5, 39.375, 39.3125, 39.25, 39.0625, 38.9375, 38.875, 38.9375, 39, 38.9375, 38.75, 38.5625, 38.3125, 38.125, 38, 37.8125, 37.75, 37.5, 37.3125, 37.25, 37.125, 37.125, 37.1875, 37.098213, 36.892857, 36.696426, 36.5, 36.4375, 36.3125, 36.25, 36.125, 36, 36, 36.035713, 36.0625, 35.875, 35.5625, 35.3125, 35.125, 35.125, 35.125, 35.125, 35.0625, 34.875, 34.625, 34.375, 34.125, 34, 34, 34, 33.9375, 33.964287, 34, 33.916668, 34.083332, 33.758926, 33.571426, 33.3125, 33.1875, 33.0625, 33.0625, 33.0625, 33, 33, 32.8125, 32.625, 32.5625, 32.375, 32.294643, 32.125, 32, 31.9375, 31.875, 31.875, 31.6875, 31.5, 31.375, 31.125, 31.0625, 31, 31, 31, 31, 30.875, 30.6875, 30.4375, 30.3125, 30.3125, 30.25, 30.25, 30.125, 29.9375, 29.75, 29.5, 29.3125, 29.125, 29.0625, 29.0625, 28.875, 28.8125, 28.75, 28.5625, 28.4375, 28.3125, 28.125, 28.0625, 28, 27.875, 27.8125, 27.6875, 27.625, 27.5, 27.4375, 27.4375, 27.375, 27.3125, 27.1875, 27.0625, 26.9375, 26.875, 26.75, 26.5625, 26.4375, 26.25, 26.125, 26.0625, 26, 26, 26, 25.875, 25.75, 25.5, 25.25, 25.125, 25, 24.9375, 24.875, 24.75, 24.6875, 24.5625, 24.375, 24.25, 24.0625, 24, 24, 24, 24, 24, 23.875, 23.6875, 23.5, 23.25, 23.125, 23.0625, 23, 22.8125, 22.75, 22.5625, 22.375, 22.375, 22.25, 22.169643, 21.9375, 21.875, 21.8125, 21.875, 21.75, 21.5625, 21.3125, 21.0625, 21, 21, 21, 21, 20.9375, 20.6875, 20.4375, 20.1875, 20.0625, 20.1875, 20.160713, 20.089287, 19.9375, 19.6875, 19.5625, 19.375, 19.25, 19.125, 19.0625, 19, 18.9375, 18.875, 18.8125, 18.6875, 18.6875, 18.625, 18.5, 18.4375, 18.25, 18.125, 18.0625, 18, 17.9375, 17.875, 17.625, 17.375, 17.1875, 17, 17, 17, 17, 16.9375, 16.8125, 16.6875, 16.5, 16.3125, 16.1875, 16.0625, 16, 16, 16, 16, 15.8125, 15.5625, 15.3125, 15.0625, 15, 15, 15, 15, 15, 14.8125, 14.5625
-10, -10, -10, -10, -10, -10, -10, -10, -10, -10, -10, -10, -10, -10, -10, 48.875, 48.550003, 48.339287, 48.1875, 47.9375, 48, 47.9375, 47.9375, 47.9375, 47.8125, 47.6875, 47.5625, 47.4375, 47.3125, 47.25, 47.125, 47, 46.9375, 46.875, 46.6875, 46.5625, 46.375, 46.1875, 46.125, 46.0625, 46.035713, 46, 46.107143, 46, 46.0625, 46.125, 46.035713, 45.830357, 45.651783, 45.4375, 45.375, 45.25, 45, 44.6875, 44.4375, 44.25, 44.125, 44.125, 44.0625, 44, 44, 44, 43.875, 43.75, 43.5625, 43.3125, 43.1875, 43.0625, 42.9375, 42.705357, 42.292854, 42.104168, 42.053574, 42.0625, 42.125, 42.25, 42.1875, 42.125, 41.830357, 41.5, 41.25, 41.1875, 41.25, 41.4375, 41.5, 41.375, 41.25, 41, 40.8125, 40.473213, 39.969643, 40.095238, 40.142857, 40.1875, 40.3125, 40.25, 40.28125, 40.21875, 40.03125, 39.71875, 39.5, 39.375, 39.1875, 39.0625, 38.9375, 38.875, 38.875, 38.9375, 38.9375, 38.8125, 38.5625, 38.3125, 38.125, 38, 37.9375, 37.875, 37.875, 37.669643, 37.354168, 37.196426, 37, 37, 37.125, 37.098213, 36.955357, 36.758926, 36.4375, 36.3125, 36.125, 36.0625, 36, 35.9375, 36, 36.035713, 36.0625, 35.875, 35.5625, 35.3125, 35.125, 35.125, 35.125, 35.125, 35.0625, 34.875, 34.6875, 34.4375, 34.1875, 34.0625, 34, 34, 33.875, 33.839287, 33.8125, 33.604168, 33.770832, 33.446426, 33.321426, 33.1875, 33.125, 33.0625, 33.0625, 33.0625, 33, 33, 32.875, 32.6875, 32.5625, 32.3125, 32.1875, 32.125, 32, 32, 31.8125, 31.75, 31.5, 31.3125, 31.25, 31.0625, 31.0625, 31, 30.9375, 30.9375, 30.9375, 30.75, 30.6875, 30.4375, 30.25, 30.25, 30.125, 30.125, 30.0625, 30, 29.875, 29.625, 29.4375, 29.1875, 29.0625, 29.0625, 28.9375, 28.9375, 28.8125, 28.625, 28.4375, 28.3125, 28.1875, 28.125, 28.125, 28, 27.9375, 27.8125, 27.6875, 27.5, 27.5, 27.5625, 27.5, 27.4375, 27.25, 27.0625, 26.875, 26.8125, 26.625, 26.375, 26.25, 26.0625, 25.9375, 25.875, 25.875, 25.875, 25.875, 25.75, 25.5625, 25.3125, 25.125, 25.0625, 25, 24.9375, 24.875, 24.75, 24.75, 24.6875, 24.5, 24.3125, 24.0625, 23.9375, 23.9375, 24, 24, 24, 23.875, 23.6875, 23.5, 23.25, 23.125, 23.0625, 22.9375, 22.75, 22.75, 22.5625, 22.4375, 22.4375, 22.25, 22.169643, 21.9375, 21.875, 21.8125, 21.8125, 21.625, 21.4375, 21.1875, 21, 21, 21, 21, 21, 21, 20.75, 20.5, 20.25, 20.125, 20.25, 20.223213, 20.151787, 19.9375, 19.625, 19.5, 19.25, 19.125, 19.0625, 19, 19, 18.9375, 18.875, 18.8125, 18.75, 18.8125, 18.8125, 18.75, 18.5625, 18.3125, 18.125, 18, 18, 17.9375, 17.875, 17.625, 17.375, 17.25, 17.0625, 17.0625, 17, 16.9375, 16.9375, 16.8125, 16.75, 16.5, 16.25, 16.125, 16, 16, 16, 16, 16, 15.8125, 15.5625, 15.3125, 15.0625, 15, 15, 15, 15, 14.9375, 14.75, 14.5, 14.25, 14.0625, 14, 14, 14, 14, 13.9375, 13.6875, 13.5, 13.25, 13.0625, 13.0625, 13, 13, 13, 13, 13, 13, 12.9375, 12.875, 12.875, 12.875, 12.875, 12.9375, 12.875, 12.833334, -10, -10, -10, -10, -10, -10, -10, -10, -10, -10, -10, -10, -10, -10, -10, -10, -10, -10, -10, -10, -10, -10, -10, -10, -10, -10, -10, -10, -10, -10, -10, -10, 48.875, 48.633335, 48.401787, 48.25, 48, 48, 47.9375, 47.9375, 47.9375, 47.8125, 47.75, 47.625, 47.5, 47.375, 47.25, 47.125, 47, 47, 46.875, 46.6875, 46.5625, 46.3125, 46.1875, 46.125, 46.0625, 46.035713, 46.0625, 46.232143, 46.107143, 46.0625, 46, 45.8125, 45.75, 45.580357, 45.4375, 45.375, 45.25, 45.0625, 44.75, 44.5, 44.3125, 44.125, 44.125, 44.0625, 44, 44, 44, 43.875, 43.75, 43.5625, 43.3125, 43.1875, 43.0625, 42.9375, 42.767857, 42.391071, 42.166668, 42.008926, 42, 42.0625, 42.1875, 42.1875, 42.125, 41.892857, 41.625, 41.375, 41.3125, 41.3125, 41.4375, 41.5, 41.375, 41.25, 40.9375, 40.75, 40.473213, 40.032143, 40.220238, 40.267857, 40.25, 40.25, 40.0625, 40.03125, 39.90625, 39.78125, 39.59375, 39.375, 39.25, 39.0625, 39, 39, 39, 39, 38.9375, 38.8125, 38.625, 38.375, 38.1875, 38, 37.875, 37.8125, 37.8125, 37.875, 37.625, 37.300598, 37.133926, 37, 37, 37.0625, 37.0625, 37.0625, 36.875, 36.5625, 36.3125, 36.0625, 36, 36, 36, 36.0625, 36.098213, 36.0625, 35.9375, 35.6875, 35.4375, 35.25, 35.1875, 35.125, 35.125, 35.0625, 34.875, 34.75, 34.5625, 34.3125, 34.1875, 34.0625, 34, 33.8125, 33.714287, 33.625, 33.354168, 33.520832, 33.196426, 33.133926, 33.0625, 33.0625, 33.0625, 33.0625, 33.0625, 33, 33, 32.875, 32.6875, 32.5, 32.25, 32.125, 32, 31.9375, 31.9375, 31.6875, 31.625, 31.375, 31.1875, 31.1875, 31.0625, 31.0625, 31, 30.9375, 30.875, 30.8125, 30.5625, 30.5, 30.3125, 30.125, 30.125, 30, 30, 30, 30, 29.9375, 29.6875, 29.5, 29.25, 29.0625, 29.0625, 28.9375, 28.9375, 28.8125, 28.6875, 28.5625, 28.4375, 28.3125, 28.1875, 28.125, 28, 27.9375, 27.8125, 27.6875, 27.5, 27.5625, 27.625, 27.5625, 27.5, 27.25, 27.0625, 26.8125, 26.6875, 26.4375, 26.1875, 26.125, 26, 25.875, 25.75, 25.767857, 25.825001, 25.696428, 25.633928, 25.375, 25.1875, 25.0625, 25, 25, 25, 25, 24.9375, 24.9375, 24.8125, 24.5625, 24.3125, 24.0625, 23.9375, 23.9375, 24, 24, 24, 23.8125, 23.625, 23.4375, 23.1875, 23.125, 23.0625, 22.9375, 22.75, 22.6875, 22.5, 22.375, 22.3125, 22.125, 22.0625, 21.9375, 21.875, 21.875, 21.8125, 21.625, 21.4375, 21.1875, 21, 21, 21, 20.9375, 20.9375, 20.9375, 20.75, 20.5625, 20.3125, 20.1875, 20.25, 20.223213, 20.151787, 19.9375, 19.5625, 19.4375, 19.1875, 19.0625, 19.0625, 19, 19, 19, 19, 19, 19, 18.9375, 18.875, 18.75, 18.5, 18.3125, 18.125, 18, 17.9375, 17.9375, 17.875, 17.625, 17.4375, 17.3125, 17.125, 17.125, 17.0625, 16.9375, 16.9375, 16.8125, 16.75, 16.5625, 16.3125, 16.1875, 16.0625, 16, 16, 16, 15.9375, 15.75, 15.5, 15.25, 15.0625, 15, 15, 15, 15, 14.875, 14.6875, 14.5
-10, -10, -10, -10, -10, -10, -10, -10, -10, -10, -10, -10, -10, -10, -10, 48.875, 48.716667, 48.464287, 48.3125, 48.0625, 48.0625, 48, 48, 48, 47.8125, 47.75, 47.5625, 47.4375, 47.3125, 47.1875, 47.125, 47, 47, 46.8125, 46.6875, 46.5, 46.25, 46.1875, 46.0625, 46, 46, 46.0625, 46.0625, 45.982143, 45.875, 45.8125, 45.625, 45.625, 45.5, 45.375, 45.375, 45.1875, 45, 44.6875, 44.4375, 44.25, 44.0625, 44.0625, 44, 44, 44, 44, 43.9375, 43.8125, 43.6875, 43.4375, 43.1875, 42.955357, 42.75, 42.625, 42.491074, 42.166668, 42.080357, 42, 42, 42.0625, 42.125, 42.0625, 41.955357, 41.8125, 41.5, 41.375, 41.25, 41.25, 41.375, 41.3125, 41.25, 40.9375, 40.6875, 40.535713, 40.130356, 40.282738, 40.294643, 40.125, 40, 39.75, 39.6875, 39.625, 39.625, 39.625, 39.4375, 39.3125, 39.125, 39.0625, 39.125, 39.125, 39.125, 39, 38.75, 38.5, 38.25, 38.0625, 37.875, 37.75, 37.75, 37.8125, 37.9375, 37.6875, 37.300598, 37.071426, 36.9375, 37, 37.0625, 37.0625, 37.0625, 36.8125, 36.4375, 36.151787, 35.9375, 36, 36.1875, 36.25, 36.25, 36.1875, 36.0625, 35.875, 35.6875, 35.4375, 35.1875, 35.0625, 35, 35, 35, 34.9375, 34.875, 34.75, 34.5, 34.3125, 34.125, 34, 33.8125, 33.714287, 33.625, 33.354168, 33.520832, 33.258926, 33.196426, 33.125, 33.125, 33.0625, 33.0625, 33.0625, 33, 32.9375, 32.8125, 32.5625, 32.3125, 32.125, 32.0625, 32, 32, 32, 31.75, 31.6875, 31.4375, 31.25, 31.25, 31.125, 31.125, 31.0625, 30.9375, 30.875, 30.75, 30.5, 30.4375, 30.25, 30.125, 30.125, 30, 30, 30, 30, 30, 29.75, 29.5625, 29.3125, 29.0625, 29.0625, 28.9375, 28.9375, 28.8125, 28.6875, 28.625, 28.5, 28.375, 28.25, 28.125, 27.9375, 27.8125, 27.6875, 27.5625, 27.4375, 27.5625, 27.5625, 27.5, 27.4375, 27.1875, 27.0625, 26.875, 26.8125, 26.625, 26.375, 26.25, 26.0625, 25.875, 25.75, 25.767857, 25.762501, 25.571428, 25.508928, 25.25, 25.125, 25.0625, 25, 25, 25, 25, 25, 25, 24.875, 24.625, 24.375, 24.125, 24, 24, 24, 24, 23.9375, 23.6875, 23.5, 23.3125, 23.0625, 23.026787, 23, 22.875, 22.75, 22.625, 22.375, 22.1875, 22.125, 22, 22, 22, 22, 22, 21.9375, 21.75, 21.5, 21.25, 21.0625, 21, 21, 20.9375, 20.9375, 20.875, 20.75, 20.5625, 20.3125, 20.25, 20.125, 20.125, 20.125, 19.9375, 19.6875, 19.5, 19.25, 19.0625, 19.0625, 19, 19, 19, 19, 18.9375, 18.875, 18.75, 18.625, 18.5625, 18.375, 18.25, 18.125, 18, 17.9375, 17.9375, 17.9375, 17.75, 17.5625, 17.4375, 17.1875, 17.125, 17.0625, 16.9375, 16.9375, 16.8125, 16.75, 16.5625, 16.3125, 16.1875, 16.0625, 16, 16, 16, 15.875, 15.6875, 15.4375, 15.1875, 15.0625, 15, 15, 15, 15, 14.875, 14.75, 14.5625, 14.3125, 14.1875, 14, 13.9375, 13.9375, 13.9375, 14, 13.8125, 13.625, 13.375, 13.125, 13.0625, 13, 13, 12.9375, 12.875, 12.8125, 12.75, 12.75, 12.75, 12.8125, 12.875, 12.875, 12.9375, 12.9375, 12.916667, -10, -10, -10, -10, -10, -10, -10, -10, -10, -10, -10, -10, -10, -10, -10, -10, -10, -10, -10, -10, -10, -10, -10, -10, -10, -10, -10, -10, -10, -10, -10, -10, 48.708332, 48.674999, 48.526787, 48.4375, 48.1875, 48.125, 48, 48, 48, 47.8125, 47.75, 47.5, 47.3125, 47.1875, 47.0625, 47, 46.9375, 46.875, 46.625, 46.5, 46.25, 46.0625, 46.0625, 46, 46, 46, 46.0625, 46.0625, 45.982143, 45.875, 45.8125, 45.5625, 45.5, 45.3125, 45.1875, 45.25, 45.125, 44.9375, 44.625, 44.3125, 44.125, 44, 44, 44, 44, 44, 44, 43.875, 43.6875, 43.5625, 43.3125, 43.125, 42.892857, 42.625, 42.4375, 42.241074, 41.979168, 41.955357, 41.9375, 42, 42, 42.0625, 42.0625, 42.0625, 42, 41.6875, 41.4375, 41.25, 41.1875, 41.3125, 41.3125, 41.25, 40.9375, 40.625, 40.544643, 40.205357, 40.166668, 40.3125, 40.125, 40.0625, 39.875, 39.75, 39.625, 39.6875, 39.6875, 39.5, 39.375, 39.0625, 39.089287, 39.357143, 39.357143, 39.375, 39.0625, 38.625, 38.375, 38.125, 38, 37.875, 37.75, 37.75, 37.803574, 37.729168, 37.508926, 37.113098, 36.946426, 36.875, 36.9375, 37.0625, 37.0625, 37.0625, 36.8125, 36.5, 36.276787, 36.0625, 36.1875, 36.375, 36.4375, 36.4375, 36.3125, 36.0625, 35.8125, 35.625, 35.375, 35.1875, 35.0625, 35, 35, 35, 35, 35, 34.9375, 34.6875, 34.4375, 34.1875, 34, 33.875, 33.75, 33.625, 33.4375, 33.4375, 33.375, 33.25, 33.1875, 33.0625, 33.0625, 33.125, 33.125, 33.125, 32.9375, 32.6875, 32.4375, 32.1875, 32.0625, 32.125, 32.125, 32.125, 32.125, 31.875, 31.75, 31.5625, 31.4375, 31.375, 31.25, 31.1875, 31.0625, 30.9375, 30.875, 30.75, 30.5, 30.375, 30.1875, 30.0625, 30.125, 30.0625, 30.0625, 30.0625, 29.9375, 29.9375, 29.75, 29.5, 29.3125, 29.0625, 29, 28.9375, 28.9375, 28.875, 28.75, 28.6875, 28.5, 28.3125, 28.1875, 28.0625, 27.9375, 27.8125, 27.6875, 27.5, 27.375, 27.4375, 27.375, 27.3125, 27.25, 27.0625, 27, 26.875, 26.8125, 26.6875, 26.4375, 26.3125, 26.125, 25.875, 25.75, 25.767857, 25.700001, 25.446428, 25.321428, 25.0625, 25, 25, 25, 25, 25, 25, 25, 25, 24.875, 24.625, 24.375, 24.125, 24, 24, 24, 24, 23.9375, 23.75, 23.625, 23.375, 23.125, 22.964287, 22.875, 22.8125, 22.625, 22.5, 22.25, 22.0625, 22.0625, 22, 22, 22, 22, 22, 21.9375, 21.75, 21.5, 21.25, 21.0625, 21, 21, 20.9375, 20.9375, 20.8125, 20.75, 20.5625, 20.3125, 20.25, 19.9375, 19.9375, 19.9375, 19.75, 19.625, 19.4375, 19.1875, 19.0625, 19.0625, 19.0625, 19.0625, 19.0625, 19.0625, 18.9375, 18.875, 18.75, 18.5625, 18.4375, 18.25, 18.125, 18.0625, 18, 17.9375, 17.9375, 17.9375, 17.8125, 17.625, 17.5, 17.25, 17.125, 17.0625, 16.9375, 16.9375, 16.8125, 16.75, 16.625, 16.375, 16.25, 16.125, 16, 16, 16, 15.875, 15.75, 15.5, 15.25, 15.125, 15, 15, 15, 15, 14.875, 14.8125, 14.625
-10, -10, -10, -10, -10, -10, -10, -10, -10, -10, -10, -10, -10, -10, 48, 48.583332, 48.625, 48.625, 48.5, 48.3125, 48.125, 47.875, 47.8125, 47.848213, 47.75, 47.75, 47.5, 47.3125, 47.0625, 46.9375, 46.8125, 46.75, 46.6875, 46.4375, 46.375, 46.1875, 46.0625, 46.0625, 46, 46, 46, 46.0625, 46.0625, 45.982143, 45.875, 45.75, 45.5, 45.375, 45.125, 45, 45, 44.9375, 44.8125, 44.625, 44.375, 44.1875, 44.0625, 44, 44, 44, 44, 44, 43.8125, 43.5625, 43.375, 43.125, 42.9375, 42.705357, 42.4375, 42.1875, 42.0625, 42.0625, 42.0625, 42.0625, 42.0625, 42, 42.0625, 42.0625, 42, 41.9375, 41.625, 41.375, 41.25, 41.125, 41.25, 41.25, 41.125, 40.875, 40.5, 40.5, 40.4375, 40.4375, 40.5625, 40.3125, 40.125, 39.875, 39.625, 39.5, 39.5, 39.5, 39.375, 39.25, 38.9375, 39.026787, 39.232143, 39.232143, 39.3125, 39, 38.625, 38.4375, 38.1875, 38.0625, 37.9375, 37.75, 37.678574, 37.491074, 37.416668, 37.151787, 36.839287, 36.767857, 36.8125, 36.973213, 37.0625, 37.0625, 37, 36.8125, 36.5625, 36.339287, 36.125, 36.1875, 36.4375, 36.5, 36.5, 36.375, 36, 35.6875, 35.5, 35.25, 35.125, 35.0625, 35, 35, 35, 35, 34.9375, 34.9375, 34.6875, 34.4375, 34.25, 34, 33.9375, 33.875, 33.8125, 33.75, 33.75, 33.625, 33.4375, 33.25, 33.0625, 33.0625, 33.125, 33.125, 33.0625, 32.8125, 32.4375, 32.1875, 32, 31.9375, 32.125, 32.125, 32.125, 32.0625, 31.8125, 31.75, 31.625, 31.5625, 31.5, 31.3125, 31.1875, 31.0625, 31, 30.9375, 30.8125, 30.5625, 30.3125, 30.125, 30, 30.0625, 30.0625, 30.0625, 30.0625, 29.875, 29.875, 29.75, 29.5, 29.375, 29.125, 29, 28.9375, 28.9375, 28.9375, 28.875, 28.8125, 28.5625, 28.3125, 28.125, 28, 27.9375, 27.8125, 27.6875, 27.4375, 27.375, 27.375, 27.25, 27.25, 27.125, 26.9375, 26.9375, 26.875, 26.75, 26.6875, 26.4375, 26.25, 26.125, 25.9375, 25.875, 25.892857, 25.825001, 25.571428, 25.446428, 25.25, 25.1875, 25.125, 25.0625, 25, 25, 25, 25, 25, 24.875, 24.625, 24.375, 24.125, 24, 24, 24, 24, 23.9375, 23.75, 23.625, 23.375, 23.125, 22.964287, 22.875, 22.875, 22.75, 22.5625, 22.3125, 22.0625, 22, 22, 22, 22, 22, 22, 22, 21.8125, 21.5625, 21.3125, 21.0625, 21, 21, 20.9375, 20.9375, 20.8125, 20.75, 20.5625, 20.3125, 20.1875, 19.875, 19.875, 19.875, 19.6875, 19.5625, 19.3125, 19.0625, 19.0625, 19.125, 19.1875, 19.1875, 19.125, 19.0625, 18.9375, 18.875, 18.6875, 18.4375, 18.25, 18.0625, 18, 18, 18, 17.9375, 17.9375, 17.9375, 17.8125, 17.625, 17.4375, 17.1875, 17.0625, 17.0625, 17, 17, 16.9375, 16.875, 16.75, 16.5, 16.3125, 16.125, 16, 16, 16, 15.875, 15.75, 15.5, 15.25, 15.125, 15, 15, 15, 15, 14.9375, 14.875, 14.6875, 14.4375, 14.25, 13.875, 13.75, 13.6875, 13.5625, 13.6875, 13.625, 13.4375, 13.3125, 13.125, 13, 13, 13, 12.9375, 12.875, 12.8125, 12.625, 12.5625, 12.5625, 12.625, 12.8125, 12.9375, 13.0625, 13.083333, -10, -10, -10, -10, -10, -10, -10, -10, -10, -10, -10, -10, -10, -10, -10, -10, -10, -10, -10, -10, -10, -10, -10, -10, -10, -10, -10, -10, -10, -10, -10, -10, 48, 48.333332, 48.375, 48.5, 48.5, 48.357143, 48.125, 47.875, 47.75, 47.848213, 47.8125, 47.8125, 47.5625, 47.4375, 47.107143, 46.830357, 46.705357, 46.5625, 46.5, 46.3125, 46.25, 46.125, 46.0625, 46.0625, 46, 46, 46, 46, 45.9375, 45.875, 45.875, 45.75, 45.5625, 45.375, 45.125, 45, 45, 44.9375, 44.8125, 44.625, 44.4375, 44.25, 44.125, 44.0625, 44, 44, 44, 43.9375, 43.75, 43.5, 43.3125, 43.1875, 43, 42.767857, 42.5625, 42.3125, 42.1875, 42.125, 42.0625, 42.0625, 42.0625, 42.0625, 42.125, 42.0625, 42, 41.9375, 41.625, 41.375, 41.25, 41.125, 41.25, 41.25, 41.0625, 40.8125, 40.4375, 40.4375, 40.4375, 40.4375, 40.5625, 40.3125, 40.125, 39.875, 39.625, 39.5, 39.4375, 39.4375, 39.3125, 39.1875, 38.875, 38.901787, 39.044643, 39.044643, 39.1875, 39, 38.6875, 38.5, 38.25, 38.0625, 38, 37.875, 37.741074, 37.428574, 37.291668, 37.071426, 36.830357, 36.830357, 36.8125, 36.973213, 37.0625, 37.0625, 37, 36.875, 36.6875, 36.526787, 36.3125, 36.3125, 36.5, 36.5, 36.5, 36.375, 35.9375, 35.625, 35.4375, 35.1875, 35.125, 35.0625, 35, 35, 35, 35, 34.9375, 34.9375, 34.6875, 34.4375, 34.25, 34, 34, 34, 34, 34, 34, 33.8125, 33.5625, 33.3125, 33.0625, 33.0625, 33.125, 33.0625, 32.9375, 32.625, 32.3125, 32.1875, 32.0625, 32.0625, 32.1875, 32.1875, 32.1875, 32.0625, 31.8125, 31.6875, 31.5625, 31.5625, 31.5, 31.3125, 31.1875, 31.0625, 31, 31, 30.9375, 30.6875, 30.4375, 30.1875, 30, 30.0625, 30.0625, 30.0625, 30.0625, 29.8125, 29.8125, 29.75, 29.5, 29.4375, 29.1875, 29, 29, 29, 29, 28.9375, 28.75, 28.5, 28.25, 28.0625, 28, 27.9375, 27.875, 27.8125, 27.625, 27.625, 27.5, 27.3125, 27.25, 27.0625, 26.9375, 26.875, 26.875, 26.75, 26.6875, 26.5, 26.25, 26.125, 26, 26, 26, 25.875, 25.75, 25.625, 25.5, 25.375, 25.25, 25.125, 25, 25, 24.9375, 24.9375, 24.9375, 24.875, 24.6875, 24.4375, 24.1875, 24, 24, 24, 23.9375, 23.875, 23.75, 23.6875, 23.5625, 23.3125, 23.089287, 22.9375, 22.875, 22.8125, 22.625, 22.375, 22.1875, 22.0625, 22.0625, 22.0625, 22, 22, 22, 22, 21.8125, 21.625, 21.375, 21.1875, 21.107143, 20.928572, 20.96875, 20.90625, 20.84375, 20.75, 20.5, 20.25, 20.1875, 19.9375, 19.9375, 19.9375, 19.75, 19.625, 19.375, 19.125, 19.125, 19.25, 19.3125, 19.3125, 19.1875, 19.0625, 18.9375, 18.875, 18.75, 18.5625, 18.375, 18.1875, 18.0625, 18, 18, 18, 18, 18, 17.875, 17.625, 17.375, 17.125, 17, 17, 17, 17, 17, 16.9375, 16.75, 16.5, 16.25, 16.0625, 15.9375, 15.875, 15.875, 15.8125, 15.75, 15.5625, 15.3125, 15.125, 15, 15, 15, 15, 15, 14.875, 14.625
-10, -10, -10, -10, -10, -10, -10, -10, -10, -10, -10, -10, -10, -10, 48, 48.083332, 48.125, 48.3125, 48.375, 48.294643, 48.0625, 47.8125, 47.625, 47.723213, 47.6875, 47.6875, 47.482143, 47.3125, 47.151787, 46.767857, 46.598213, 46.375, 46.25, 46.125, 46.0625, 46, 46, 46, 46, 46, 46, 46, 46, 46, 46, 45.8125, 45.5625, 45.3125, 45.0625, 45, 45, 45, 44.9375, 44.75, 44.625, 44.375, 44.1875, 44.125, 44, 44, 44, 43.9375, 43.75, 43.5, 43.25, 43.1875, 43.0625, 42.9375, 42.8125, 42.5625, 42.375, 42.25, 42.1875, 42.1875, 42.25, 42.25, 42.1875, 42.0625, 41.9375, 41.875, 41.625, 41.375, 41.25, 41.1875, 41.25, 41.25, 41, 40.6875, 40.375, 40.3125, 40.4375, 40.4375, 40.625, 40.5, 40.3125, 40.125, 39.8125, 39.625, 39.4375, 39.3125, 39.1875, 39.0625, 38.8125, 38.839287, 38.919643, 38.919643, 39.0625, 39, 38.785713, 38.517857, 38.258926, 38.0625, 38.0625, 38, 37.866074, 37.553574, 37.354168, 37.133926, 36.892857, 36.892857, 36.875, 36.973213, 37.0625, 37.0625, 37, 36.9375, 36.875, 36.75, 36.5, 36.375, 36.375, 36.3125, 36.3125, 36.25, 35.8125, 35.625, 35.5, 35.25, 35.25, 35.125, 35, 35, 35, 34.9375, 34.8125, 34.75, 34.5, 34.3125, 34.1875, 34, 34, 34, 33.9375, 33.875, 33.8125, 33.5625, 33.4375, 33.25, 33.0625, 33.125, 33.125, 33, 32.8125, 32.5, 32.25, 32.25, 32.25, 32.25, 32.25, 32.25, 32.1875, 32.0625, 31.8125, 31.5625, 31.4375, 31.375, 31.3125, 31.1875, 31.0625, 31, 31, 31, 31, 30.8125, 30.5625, 30.3125, 30.0625, 30.0625, 30.0625, 30.0625, 30.0625, 29.75, 29.6875, 29.6875, 29.4375, 29.4375, 29.25, 29, 29, 28.9375, 28.875, 28.75, 28.5, 28.375, 28.1875, 28.0625, 28.0625, 28, 28, 27.9375, 27.8125, 27.75, 27.5, 27.3125, 27.1875, 27, 26.9375, 26.8125, 26.8125, 26.6875, 26.625, 26.5, 26.25, 26.125, 26, 26, 26, 25.9375, 25.875, 25.8125, 25.75, 25.5625, 25.375, 25.1875, 25, 25, 24.9375, 24.875, 24.8125, 24.75, 24.5625, 24.375, 24.1875, 24, 24, 24, 23.875, 23.875, 23.8125, 23.75, 23.75, 23.5, 23.25, 23.0625, 22.875, 22.75, 22.5625, 22.3125, 22.1875, 22.0625, 22.0625, 22.0625, 22, 22, 22, 22, 21.8125, 21.6875, 21.4375, 21.25, 21.169643, 20.928572, 20.96875, 20.90625, 20.84375, 20.6875, 20.5, 20.3125, 20.25, 20.125, 20.0625, 20, 19.8125, 19.6875, 19.4375, 19.1875, 19.1875, 19.3125, 19.4375, 19.4375, 19.3125, 19.125, 19, 19, 18.9375, 18.75, 18.5625, 18.375, 18.1875, 18.125, 18.0625, 18, 17.9375, 17.9375, 17.75, 17.5, 17.3125, 17.0625, 17, 17, 17, 17, 17, 16.875, 16.6875, 16.375, 16.125, 16, 15.8125, 15.75, 15.6875, 15.625, 15.625, 15.5, 15.3125, 15.125, 15, 15, 15, 15, 15, 14.8125, 14.5625, 14.3125, 14.125, 14.0625, 13.982143, 13.666667, 13.339285, 13.25, 13.1875, 13.125, 13.125, 13.125, 13.0625, 13.0625, 13.0625, 13, 13, 13, 12.75, 12.5, 12.4375, 12.5, 12.785714, 13, 13.25, 13.380952, -10, -10, -10, -10, -10, -10, -10, -10, -10, -10, -10, -10, -10, -10, -10, -10, -10, -10, -10, -10, -10, -10, -10, -10, -10, -10, -10, -10, -10, -10, -10, -10, 48, 48, 48.083332, 48.1875, 48.25, 48.232143, 48, 47.8125, 47.5625, 47.598213, 47.5, 47.5625, 47.482143, 47.357143, 47.151787, 46.705357, 46.473213, 46.25, 46.125, 46.0625, 46, 46, 46, 46, 46, 46, 46, 46, 46, 46.0625, 46.0625, 45.8125, 45.517857, 45.25, 45.0625, 45.125, 45.1875, 45.1875, 45.125, 44.875, 44.6875, 44.4375, 44.1875, 44.125, 44, 44, 44, 43.9375, 43.8125, 43.5625, 43.3125, 43.25, 43, 42.875, 42.75, 42.5, 42.375, 42.25, 42.1875, 42.1875, 42.25, 42.25, 42.1875, 42.0625, 41.9375, 41.8125, 41.5625, 41.375, 41.25, 41.25, 41.25, 41.25, 40.982143, 40.517857, 40.258926, 40.125, 40.3125, 40.375, 40.5, 40.375, 40.1875, 40, 39.75, 39.625, 39.4375, 39.375, 39.25, 39.125, 38.9375, 38.875, 38.8125, 38.8125, 38.9375, 39, 38.910713, 38.705357, 38.446426, 38.1875, 38.125, 38, 37.866074, 37.625, 37.6875, 37.5625, 37.392857, 37.25893, 37, 37.035713, 37, 37.0625, 37, 37, 36.9375, 36.75, 36.5, 36.25, 36.1875, 36.125, 36.1875, 36.25, 35.919643, 35.75, 35.625, 35.3125, 35.3125, 35.125, 35, 35, 35, 34.875, 34.6875, 34.5625, 34.3125, 34.1875, 34.125, 34, 34, 34, 33.875, 33.75, 33.6875, 33.5, 33.5, 33.375, 33.1875, 33.125, 33, 32.8125, 32.625, 32.375, 32.1875, 32.3125, 32.375, 32.375, 32.3125, 32.125, 32, 31.875, 31.6875, 31.5, 31.3125, 31.1875, 31.125, 31.0625, 31, 31, 31, 31, 31, 30.875, 30.625, 30.375, 30.125, 30, 30, 30, 30, 29.8125, 29.75, 29.75, 29.5, 29.4375, 29.25, 29, 29, 28.9375, 28.8125, 28.6875, 28.4375, 28.375, 28.223213, 28.026787, 28.125, 28, 27.892857, 27.758928, 27.625, 27.5625, 27.375, 27.25, 27.125, 27, 26.9375, 26.8125, 26.8125, 26.6875, 26.625, 26.5625, 26.3125, 26.1875, 26.0625, 26, 26, 26, 26, 25.9375, 25.9375, 25.6875, 25.4375, 25.25, 25, 25, 24.9375, 24.875, 24.8125, 24.75, 24.5625, 24.375, 24.1875, 24, 24, 24, 23.875, 23.8125, 23.6875, 23.5625, 23.5625, 23.375, 23.25, 23.125, 22.9375, 22.875, 22.6875, 22.4375, 22.3125, 22.125, 22.0625, 22.0625, 22, 22, 22, 22, 21.875, 21.8125, 21.5625, 21.375, 21.232143, 20.928572, 20.96875, 20.90625, 20.84375, 20.625, 20.4375, 20.25, 20.1875, 20.1875, 20.125, 20.0625, 19.9375, 19.8125, 19.5625, 19.3125, 19.25, 19.3125, 19.375, 19.375, 19.25, 19.0625, 19, 18.9375, 18.8125, 18.625, 18.5, 18.375, 18.25, 18.1875, 18.0625, 18, 17.875, 17.875, 17.6875, 17.4375, 17.3125, 17.0625, 17, 17, 17, 17, 17, 16.875, 16.625, 16.3125, 16.0625, 15.9375, 15.8125, 15.6875, 15.5625, 15.4375, 15.375, 15.3125, 15.1875, 15.0625, 15, 15, 15, 15, 15, 14.8125, 14.5625
-10, -10, -10, -10, -10, -10, -10, -10, -10, -10, -10, -10, -10, -10, -10, 48, 48.166664, 48.25, 48.375, 48.348213, 48, 47.928574, 47.526787, 47.5625, 47.375, 47.4375, 47.419643, 47.232143, 47.089287, 46.580357, 46.348213, 46.1875, 46.0625, 46.0625, 46, 46, 45.9375, 45.9375, 45.9375, 45.9375, 46, 46, 46, 46.0625, 46.0625, 45.8125, 45.517857, 45.25, 45.0625, 45.125, 45.1875, 45.1875, 45.125, 44.875, 44.75, 44.5, 44.25, 44.1875, 44, 44, 44, 43.9375, 43.875, 43.625, 43.375, 43.3125, 43.0625, 43, 42.9375, 42.75, 42.625, 42.4375, 42.375, 42.3125, 42.3125, 42.3125, 42.1875, 42.0625, 42, 41.875, 41.625, 41.5, 41.375, 41.375, 41.375, 41.3125, 40.982143, 40.517857, 40.321426, 40.125, 40.25, 40.25, 40.25, 40.1875, 40.0625, 40, 39.8125, 39.6875, 39.5, 39.375, 39.25, 39.125, 39.0625, 39.0625, 39.0625, 39.0625, 39.0625, 39.0625, 38.973213, 38.705357, 38.446426, 38.1875, 38.0625, 37.9375, 37.875, 37.8125, 37.8125, 37.8125, 37.75, 37.553574, 37.1875, 37.0625, 36.9375, 37, 37, 37, 37, 36.8125, 36.5625, 36.3125, 36.125, 36.0625, 36.125, 36.1875, 35.982143, 35.875, 35.75, 35.4375, 35.375, 35.125, 35, 35, 35, 34.875, 34.678574, 34.333332, 34.15625, 34.03125, 34.03125, 34, 34, 34, 33.8125, 33.625, 33.5, 33.375, 33.4375, 33.375, 33.25, 33.125, 33, 32.75, 32.625, 32.375, 32.25, 32.4375, 32.4375, 32.4375, 32.3125, 32.125, 32, 31.9375, 31.8125, 31.5625, 31.3125, 31.125, 31, 31, 31, 31, 31, 31, 30.928572, 30.6875, 30.5, 30.25, 30.125, 30, 30, 30, 30, 29.8125, 29.6875, 29.625, 29.4375, 29.348213, 29.080357, 28.821428, 28.8125, 28.8125, 28.6875, 28.5625, 28.3125, 28.25, 28.160713, 28.026787, 28.125, 28, 27.892857, 27.696428, 27.5625, 27.4375, 27.25, 27.1875, 27.0625, 27, 27, 26.875, 26.875, 26.8125, 26.75, 26.6875, 26.4375, 26.25, 26.0625, 26, 25.9375, 25.9375, 25.875, 25.75, 25.75, 25.5, 25.375, 25.25, 25.0625, 25.0625, 24.9375, 24.875, 24.75, 24.6875, 24.5, 24.3125, 24.1875, 24, 24, 24, 23.875, 23.8125, 23.75, 23.6875, 23.6875, 23.5, 23.3125, 23.125, 22.9375, 22.875, 22.75, 22.5, 22.375, 22.1875, 22.0625, 22.0625, 22, 22, 21.9375, 21.9375, 21.875, 21.875, 21.75, 21.625, 21.419643, 21.053572, 21.03125, 20.90625, 20.78125, 20.5625, 20.375, 20.1875, 20.1875, 20.1875, 20.125, 20.0625, 20, 19.875, 19.625, 19.4375, 19.375, 19.4375, 19.392857, 19.321428, 19.1875, 19.0625, 19, 18.875, 18.75, 18.5625, 18.4375, 18.375, 18.25, 18.1875, 18.0625, 18, 17.875, 17.875, 17.75, 17.5, 17.375, 17.125, 17, 17, 17, 17, 17, 16.8125, 16.5625, 16.25, 16, 15.9375, 15.8125, 15.625, 15.4375, 15.25, 15.125, 15.125, 15.0625, 15, 15, 15, 15, 15, 15, 14.875, 14.625, 14.375, 14.1875, 14.1875, 14.169643, 13.916667, 13.714285, 13.5, 13.3125, 13.1875, 13.0625, 13.1875, 13.25, 13.3125, 13.3125, 13.125, 13, 12.9375, 12.875, 12.857143, 13.0625, 13.4375, 14.008928, 14.863095, 15.267858, 15.448413, 16.083334, -10, -10, -10, -10, -10, -10, -10, -10, -10, -10, -10, -10, -10, -10, -10, -10, -10, -10, -10, -10, -10, -10, -10, -10, -10, -10, -10, -10, -10, -10, -10, -10, 48, 48.166664, 48.1875, 48.25, 48.178574, 47.875, 47.741074, 47.339287, 47.375, 47.1875, 47.25, 47.357143, 47.107143, 47.044643, 46.75, 46.455357, 46.375, 46.25, 46.1875, 46.125, 46.0625, 45.9375, 45.9375, 45.9375, 45.9375, 46, 45.9375, 45.9375, 46, 46, 45.8125, 45.517857, 45.25, 45, 45, 45.0625, 45.0625, 45.0625, 44.866074, 44.5625, 44.375, 44.125, 44.125, 44, 44, 44, 43.9375, 43.875, 43.625, 43.375, 43.25, 43, 42.9375, 42.875, 42.75, 42.6875, 42.5625, 42.5625, 42.5, 42.4375, 42.375, 42.1875, 42.0625, 42, 41.875, 41.6875, 41.5625, 41.4375, 41.4375, 41.375, 41.3125, 41.044643, 40.642857, 40.508926, 40.3125, 40.375, 40.3125, 40.25, 40.1875, 40.0625, 40.0625, 39.875, 39.75, 39.5625, 39.375, 39.25, 39.125, 39.125, 39.0625, 39.0625, 39.125, 39.098213, 39.125, 39.098213, 38.767857, 38.508926, 38.25, 38.0625, 37.9375, 37.9375, 37.9375, 37.9375, 38, 37.866074, 37.491074, 37.1875, 37, 36.9375, 37, 37, 37, 37, 36.8125, 36.625, 36.366074, 36, 36, 36, 36.125, 36.044643, 35.9375, 35.8125, 35.5, 35.375, 35.125, 35.0625, 35.035713, 34.892857, 34.696426, 34.366074, 34.020832, 33.90625, 33.84375, 33.96875, 34, 34, 34.0625, 33.848213, 33.517857, 33.321426, 33.1875, 33.3125, 33.3125, 33.25, 33.125, 33, 32.8125, 32.75, 32.5, 32.3125, 32.375, 32.3125, 32.3125, 32.3125, 32.1875, 32.0625, 32.0625, 31.9375, 31.75, 31.5625, 31.3125, 31.125, 31.0625, 31, 31, 31, 31, 30.866072, 30.625, 30.4375, 30.1875, 30.125, 30, 30, 30, 29.9375, 29.75, 29.5625, 29.4375, 29.3125, 29.223213, 29.017857, 28.821428, 28.8125, 28.8125, 28.6875, 28.5, 28.25, 28.1875, 28.160713, 28.089287, 28.1875, 28.0625, 27.892857, 27.696428, 27.5, 27.375, 27.1875, 27.125, 27.0625, 27, 27, 26.9375, 26.9375, 26.9375, 26.9375, 26.875, 26.625, 26.375, 26.125, 26, 25.9375, 25.9375, 25.875, 25.6875, 25.625, 25.375, 25.25, 25.1875, 25.0625, 25.0625, 25, 24.875, 24.6875, 24.5625, 24.3125, 24.1875, 24.125, 24, 24, 24, 23.875, 23.8125, 23.75, 23.6875, 23.625, 23.4375, 23.25, 23.0625, 22.9375, 22.875, 22.75, 22.5, 22.3125, 22.125, 22, 22, 22, 22, 21.9375, 21.9375, 21.9375, 21.9375, 21.875, 21.75, 21.5, 21.25, 21.125, 21, 20.8125, 20.625, 20.5, 20.3125, 20.25, 20.1875, 20.0625, 20, 20, 19.875, 19.6875, 19.5625, 19.5625, 19.598213, 19.410713, 19.267857, 19.0625, 18.9375, 18.875, 18.6875, 18.5625, 18.375, 18.25, 18.25, 18.1875, 18.1875, 18.0625, 18, 17.875, 17.8125, 17.6875, 17.4375, 17.3125, 17.125, 17, 17, 17, 17, 17, 16.8125, 16.5625, 16.25, 16, 15.9375, 15.875, 15.6875, 15.375, 15.017857, 14.875, 14.875, 14.9375, 15, 15, 15, 15, 15, 15, 14.875, 14.625
-10, -10, -10, -10, -10, -10, -10, -10, -10, -10, -10, -10, -10, -10, -10, 48.25, 48.416664, 48.375, 48.375, 48.178574, 47.75, 47.553574, 47.151787, 47.1875, 47.0625, 47.125, 47.25, 47.107143, 46.9375, 46.8125, 46.5625, 46.5625, 46.5, 46.375, 46.25, 46.125, 45.9375, 45.9375, 45.9375, 45.875, 45.964287, 45.973213, 45.9375, 46.0625, 46, 45.875, 45.642857, 45.375, 45.0625, 44.892857, 44.9375, 44.875, 44.875, 44.741074, 44.375, 44.25, 44.0625, 44.0625, 44, 44, 44, 43.9375, 43.8125, 43.5625, 43.3125, 43.125, 42.9375, 42.875, 42.8125, 42.6875, 42.625, 42.5, 42.5, 42.5, 42.375, 42.3125, 42.125, 42, 42, 41.875, 41.75, 41.625, 41.5, 41.4375, 41.3125, 41.3125, 41.080357, 40.732143, 40.696426, 40.5, 40.5625, 40.4375, 40.25, 40.125, 40, 40, 39.875, 39.75, 39.625, 39.4375, 39.3125, 39.1875, 39.125, 39.0625, 39.125, 39.160713, 39.098213, 39.145832, 38.883926, 38.696426, 38.4375, 38.25, 38.0625, 37.9375, 37.9375, 37.9375, 37.9375, 37.9375, 37.803574, 37.428574, 37.125, 37, 36.9375, 37, 37, 37, 37, 36.875, 36.75, 36.482143, 35.916668, 35.821426, 35.75, 35.9375, 35.982143, 35.9375, 35.8125, 35.5, 35.3125, 35.0625, 35.0625, 35.035713, 34.892857, 34.758926, 34.491074, 34.145832, 34.03125, 33.90625, 33.96875, 34, 34, 34.125, 34.035713, 33.75, 33.425594, 33.258926, 33.25, 33.25, 33.1875, 33.0625, 33, 32.875, 32.875, 32.625, 32.375, 32.3125, 32.125, 32.125, 32.1875, 32.0625, 32, 32, 31.9375, 31.875, 31.75, 31.5, 31.25, 31.125, 31, 31, 31, 31, 30.866072, 30.625, 30.5, 30.3125, 30.25, 30.125, 30.0625, 30, 29.875, 29.6875, 29.5, 29.3125, 29.3125, 29.223213, 29.017857, 28.883928, 28.8125, 28.875, 28.8125, 28.625, 28.375, 28.1875, 28.098213, 28.026787, 28.125, 28.0625, 27.892857, 27.758928, 27.5, 27.4375, 27.3125, 27.1875, 27.1875, 27.0625, 26.9375, 26.9375, 26.9375, 26.9375, 27, 26.875, 26.625, 26.375, 26.125, 26, 25.9375, 25.9375, 25.875, 25.625, 25.5, 25.25, 25.125, 25.125, 25.0625, 25.0625, 24.9375, 24.8125, 24.625, 24.5, 24.3125, 24.1875, 24.125, 24, 24, 24, 23.875, 23.75, 23.6875, 23.5625, 23.4375, 23.3125, 23.125, 23, 23, 23, 22.9375, 22.75, 22.5625, 22.3125, 22.125, 22.0625, 22, 21.9375, 21.8125, 21.75, 21.6875, 21.6875, 21.6875, 21.6875, 21.5, 21.3125, 21.1875, 21, 20.875, 20.6875, 20.5625, 20.3125, 20.1875, 20.125, 20, 20, 20, 19.875, 19.6875, 19.5625, 19.5625, 19.535713, 19.285713, 19.142857, 18.875, 18.75, 18.6875, 18.5, 18.4375, 18.375, 18.3125, 18.25, 18.1875, 18.125, 18, 18, 17.9375, 17.8125, 17.6875, 17.4375, 17.25, 17.125, 17, 17, 17, 17, 17, 16.875, 16.625, 16.375, 16.1875, 16.035713, 15.964286, 15.8125, 15.419643, 15.017857, 14.875, 14.8125, 14.9375, 14.9375, 14.875, 14.875, 14.875, 14.9375, 15, 14.875, 14.625, 14.375, 14.125, 14, 14, 14, 14, 13.9375, 13.8125, 13.625, 13.4375, 13.4375, 13.375, 13.5, 13.625, 13.678572, 13.732143, 13.392858, 13.551021, 14.551021, 14.984694, 15.392858, 15.598214, 15.928572, 16.107143, 16.1875, 16.25, -10, -10, -10, -10, -10, -10, -10, -10, -10, -10, -10, -10, -10, -10, -10, -10, -10, -10, -10, -10, -10, -10, -10, -10, -10, -10, -10, -10, -10, -10, -10, -10, 48.333332, 48.458332, 48.4375, 48.5, 48.223213, 47.642857, 47.375, 46.964287, 47.0625, 47, 47.0625, 47.125, 47, 46.9375, 46.875, 46.6875, 46.625, 46.5625, 46.375, 46.25, 46.125, 45.9375, 45.9375, 45.9375, 45.875, 45.964287, 45.973213, 45.9375, 46, 45.875, 45.75, 45.5625, 45.3125, 44.96875, 44.674107, 44.65625, 44.59375, 44.625, 44.616074, 44.3125, 44.1875, 44.0625, 44.0625, 44, 43.9375, 43.9375, 43.875, 43.75, 43.5625, 43.3125, 43.125, 43, 43, 43, 42.875, 42.75, 42.5625, 42.5, 42.5, 42.4375, 42.375, 42.1875, 42.0625, 42, 41.9375, 41.875, 41.75, 41.5625, 41.375, 41.1875, 41.125, 40.973213, 40.839287, 40.875, 40.75, 40.8125, 40.625, 40.375, 40.1875, 40, 40, 39.875, 39.75, 39.625, 39.4375, 39.375, 39.25, 39.1875, 39.125, 39.125, 39.160713, 39.035713, 39.020832, 38.758926, 38.508926, 38.3125, 38.125, 37.9375, 37.875, 37.875, 37.9375, 37.9375, 37.9375, 37.803574, 37.4375, 37.25, 37.0625, 37, 37, 37, 37, 37, 36.9375, 36.875, 36.669643, 36.104168, 35.946426, 35.75, 35.8125, 35.875, 35.9375, 35.8125, 35.5625, 35.3125, 35.0625, 35.0625, 35.035713, 34.892857, 34.821426, 34.616074, 34.270832, 34.15625, 33.96875, 33.96875, 34.0625, 34.125, 34.25, 34.223213, 33.875, 33.425594, 33.196426, 33.0625, 33.0625, 33.0625, 33, 33, 32.9375, 32.9375, 32.75, 32.5, 32.3125, 32.125, 32.0625, 32.125, 32.125, 32.0625, 32.0625, 32, 31.9375, 31.875, 31.6875, 31.4375, 31.25, 31.0625, 31, 30.9375, 30.875, 30.741072, 30.5, 30.5, 30.4375, 30.375, 30.25, 30.125, 30, 29.875, 29.6875, 29.4375, 29.1875, 29.25, 29.133928, 28.848213, 28.776787, 28.6875, 28.8125, 28.875, 28.6875, 28.5, 28.25, 28.0625, 27.955357, 27.875, 27.875, 27.875, 27.875, 27.75, 27.6875, 27.5625, 27.375, 27.3125, 27.125, 26.9375, 26.9375, 26.9375, 26.9375, 26.9375, 26.75, 26.5, 26.25, 26.0625, 26, 25.9375, 25.9375, 25.875, 25.6875, 25.5625, 25.3125, 25.1875, 25.125, 25.0625, 25.0625, 24.9375, 24.8125, 24.5625, 24.375, 24.1875, 24.0625, 24, 23.9375, 23.9375, 23.9375, 23.875, 23.75, 23.75, 23.6875, 23.5625, 23.4375, 23.1875, 23, 23, 23, 22.9375, 22.8125, 22.625, 22.375, 22.1875, 22.0625, 22, 21.9375, 21.8125, 21.6875, 21.5625, 21.5, 21.5, 21.5625, 21.4375, 21.3125, 21.1875, 21, 20.9375, 20.8125, 20.6875, 20.5, 20.3125, 20.1875, 20.0625, 20, 20, 19.875, 19.6875, 19.5625, 19.5625, 19.535713, 19.285713, 19.080357, 18.75, 18.5625, 18.4375, 18.3125, 18.375, 18.4375, 18.4375, 18.375, 18.25, 18.125, 18, 18, 18, 17.875, 17.75, 17.5, 17.25, 17.125, 17, 16.9375, 16.875, 16.875, 16.875, 16.8125, 16.625, 16.375, 16.1875, 16.035713, 15.964286, 15.875, 15.4375, 14.855357, 14.875, 14.741072, 15, 15.0625, 15, 15, 14.9375, 14.9375, 15, 14.9375, 14.723214
