71.398811, 70.883926, 70.5625, 70.3125, 69.9375, 69.875, 69.8125, 69.473213, 68.684525, 68.276787, 67.732147, 67.083328, 66.910713, 66.5625, 66.46875, 66.34375, 65.84375, 65.53125, 65.0625, 64.5625, 64.125, 63.363094, 62.738098, 62.125, 61.642857, 61.125, 60.625, 59.979168, 59.291668, 58.883926, 58.5, 58.375, 58.151787, 57.517857, 56.916668, 56.383926, 55.892857, 55.4375, 54.955357, 54.6875, 54.375, 54.125, 53.767857, 53.25, 52.723213, 52.294643, 51.767857, 51.3125, 50.839283, 50.354168, 49.9375, 49.517857, 49.0625, 48.517857, 48.125, 47.398811, 46.654762, 46.330357, 45.973213, 45.580357, 45.133926, 44.580357, 44.3125, 44, 43.6875, 43.4375, 43.0625, 42.625, 42.125, 41.535713, 41, 40.375, 39.9375, 39.4375, 39, 38.5, 38.125, 37.75, 37.482143, 36.708336, 36.330357, 35.830357, 35.428574, 34.916668, 34.446426, 34.071426, 33.541668, 33.1875, 32.75, 32.25, 31.660713, 31.25, 30.8125, 30.5, 30.125, 29.642857, 29.25, 28.660713, 28.375, 27.875, 27.5, 27.0625, 26.5625, 26.125, 25.580357, 25.1875, 24.642857, 24.375, 23.875, 23.5, 23.1875, 22.8125, 22.4375, 21.726191, 21.285713, 20.8125, 20.491072, 19.916666, 19.5, 18.979166, 18.571428, 18.3125, 17.875, 17.5, 17, 16.5, 16, 15.5, 15, 14.5, 14.1875, 13.6875, 13.375, 12.830357, 12.25, 11.660713, 11.3125, 10.875, 10.5625, 10.0625, 9.5178566, 9.0625, 8.5625, 8.25, 7.7678571, 7.4285717, 6.8095236, 6.4464283, 6.125, 5.9375, 5.75, 5.6875, 5.5, 5.3125, 5.1875, 5, 5, 5, 5, 5, 5.0625, 5.125, 5.1875, 5.1875, 5.125, 5.0625, 5, 5, 5, 5, 5.1875, 5.1875, 5.1875, 5.25, 5.3125, 5.5625, 5.8125, 6, 6.0625, 6.1964283, 6.625, 7.0267859, 7.7559524, 8.2397966, 8.6428566, 9.0267859, 9.1607141, 9.0401783, 9.2366066, 9.8214283, 9.7366066, 9.96875, 9.96875, 10.09375, 10.3125, 10.625, 10.9375, 11.3125, 11.5, 11.5, 11.4375, 11.375, 11.383928, 11.645833, 11.607143, 11.392857, 11.125, 10.96875, 11.075893, 11.075893, 11.334822, 11.446428, 11.4375, 11.6875, 11.700893, 11.8125, 11.84375, 11.75, 11.875, 11.96875, 12.25, 12.739583, 13.0625, 13.5625, 14.294643, 15.226191, 15.589287, 15.915178, 16.09375, 15.96875, 15.84375, 15.75, 15.75, 15.8125, 15.875, 15.875, 16, 16.142857, 16.3125, 16.294643, 15.440475, 13.357142, 12.098639, 11.359694, 11.089286, 11.232142, 11.5625, 11.71875, 11.59375, 11.46875, 11.40625, 11.4375, 11.6875, 11.75, 11.8125, 11.8125, 11.8125, 11.660715, 10.949405, 10.732143, 10.5625, 10.535714, 10.4375, 9.8839283, 9.5446434, 9.1026783, 8.34375, 8.1473217, 7.9375, 8.2410717, 8.4821434, 8.546875, 8.625, 8.46875, 8.28125, 8.359375, 8.53125, 8.75, 8.875, 9.0178566, 9.6825399, 9.9111109, 9.5555563, 9.5267859, 9.520833, 9.71875, 10.09375, 10.325893, 10.5, 10.696428, 10.9375, 10.875, 10.839286, 10.732143, 10.517857, 10.580357, 10.5625, 10.5625, 10.651786, 10.928572, 11.203571, 11.125, 11.125, 10.9375, 10.8125, 10.6875, 10.625, 10.732143, 11.104167, 11.375, 11.5, 11.5, 11.544643, 11.401786, 11.4375, 11.53125, 11.504464, 11.160715, 10.367347, 10.010203, 9.7857141, 9.591836, 9.552083, 9.3571434, 9.21875, 9.28125, 9.25, 9.291667, -10, -10, -10, -10, -10, -10, -10, -10, -10, -10, -10, -10, -10, -10, -10, -10, -10, -10, -10, -10, -10, -10, -10, -10, -10, -10, -10, -10, -10, -10, -10, -10, -10, -10, -10, -10, -10, -10, -10, -10, -10, -10, -10, -10, 72.75, 72.75, 72.476196, 71.684525, 71.294647, 70.75, 70.5, 70.25, 69.875, 69.8125, 69.6875, 69.285713, 68.619049, 68.267853, 67.741074, 67.291664, 67.017853, 66.625, 66.46875, 66.28125, 65.84375, 65.53125, 65, 64.5625, 64.133926, 63.17857, 62.523811, 61.875, 61.455357, 60.9375, 60.4375, 59.955357, 59.345242, 58.91964, 58.455357, 58.1875, 57.919643, 57.4375, 56.854168, 56.446426, 56.0625, 55.5625, 55.142857, 54.75, 54.375, 54.1875, 53.803574, 53.166668, 52.607143, 52.125, 51.75, 51.3125, 50.839283, 50.354168, 49.9375, 49.517857, 49.125, 48.642857, 48.205357, 47.303574, 46.666664, 46.383926, 46.04464, 45.351189, 44.928574, 44.5, 44.285713, 43.892857, 43.571426, 43.28125, 42.90625, 42.53125, 42.09375, 41.580357, 41.0625, 40.392857, 39.9375, 39.375, 38.892857, 38.4375, 38, 37.625, 37.303574, 36.666668, 36.258926, 35.767857, 35.366074, 34.854168, 34.446426, 34.125, 33.8125, 33.4375, 33, 32.392857, 31.785713, 31.3125, 30.875, 30.491072, 29.979166, 29.571428, 29.1875, 28.660713, 28.375, 27.875, 27.5, 27.125, 26.625, 26.125, 25.535713, 25.125, 24.625, 24.375, 23.875, 23.5, 23.125, 22.625, 22.1875, 21.642857, 21.3125, 20.875, 20.553572, 19.979166, 19.5, 18.979166, 18.571428, 18.3125, 17.875, 17.5, 17, 16.5, 16, 15.5, 15, 14.5, 14.125, 13.625, 13.375, 12.875, 12.375, 11.785713, 11.375, 10.9375, 10.5625, 10.0625, 9.5178566, 9.0625, 8.5625, 8.3125, 7.9375, 7.5446434, 6.7886901, 6.3928566, 6.125, 6, 5.875, 5.875, 5.625, 5.4375, 5.25, 5.0625, 5.125, 5.1875, 5.1875, 5.125, 5.125, 5.0625, 5.0625, 5.0625, 5, 5.0625, 5.0625, 5.0625, 5.0625, 5, 5.125, 5.125, 5.125, 5.25, 5.375, 5.625, 5.875, 6, 6.0625, 6.2901783, 6.84375, 7.5663266, 8.0408163, 8.40625, 8.6428566, 8.8125, 8.7857141, 8.6339283, 8.7678566, 8.916667, 9.3928566, 9.65625, 9.71875, 9.84375, 10.0625, 10.3125, 10.5625, 10.875, 11, 11, 10.9375, 10.714286, 10.946428, 11.208333, 11.169643, 10.955357, 10.625, 10.46875, 10.575893, 10.638393, 10.870536, 10.973214, 10.973214, 11.125, 11.348215, 11.397322, 11.5, 11.40625, 11.625, 11.84375, 12.25, 13.072916, 13.5, 14, 14.616072, 15.494047, 15.839287, 16.133928, 16.1875, 15.9375, 15.6875, 15.4375, 15.4375, 15.5, 15.625, 15.75, 15.9375, 16.142857, 16.107143, 15.812925, 14.197279, 12.829932, 11.818453, 11.080357, 10.8125, 10.8125, 10.96875, 11.03125, 10.90625, 10.84375, 10.78125, 10.8125, 11, 11, 11.125, 11.1875, 11.25, 11.160715, 10.616072, 10.482143, 10.375, 10.473214, 10.4375, 10.071428, 9.6964283, 9.2276783, 8.6532736, 8.359375, 8.03125, 8, 8.03125, 8.078125, 8.25, 8.21875, 8.21875, 8.421875, 8.6607141, 8.875, 8.875, 8.9821424, 9.6190481, 9.7904758, 9.541667, 9.4642859, 9.375, 9.5625, 9.875, 10.107143, 10.25, 10.375, 10.4375, 10.4375, 10.375, 10.375, 10.3125, 10.3125, 10.3125, 10.1875, 10.294642, 10.714287, 10.982143, 11.125, 11.125, 10.991072, 10.604167, 10.446428, 10.535714, 10.535714, 10.642858, 10.732143, 10.8125, 10.875, 10.857143, 10.459184, 10.535714, 10.642858, 10.785714, 10.459822, 9.9464283, 9.5714283, 9.3125, 9.1428566, 9.09375
71.375, 70.9375, 70.625, 70.3125, 69.875, 69.625, 69.4375, 69.035713, 68.598213, 68.321426, 67.8125, 67.5, 67.1875, 66.75, 66.5, 66.1875, 65.75, 65.4375, 64.9375, 64.625, 64.205353, 63.011906, 62.380951, 61.75, 61.375, 60.830357, 60.375, 59.892857, 59.345242, 58.91964, 58.517857, 58.178574, 57.729168, 57.294643, 56.729168, 56.383926, 56, 55.625, 55.3125, 54.875, 54.5, 54.25, 53.794643, 52.958336, 52.42857, 51.9375, 51.5625, 51.125, 50.705357, 50.419643, 49.892857, 49.526787, 49.0625, 48.642857, 48.142857, 47.174999, 46.833336, 46.3125, 45.964283, 45.190475, 44.803574, 44.4375, 44.223213, 43.767857, 43.446426, 43.09375, 42.71875, 42.40625, 42.03125, 41.625, 41.125, 40.410713, 39.9375, 39.3125, 38.785713, 38.375, 37.875, 37.5, 37.125, 36.625, 36.1875, 35.705357, 35.303574, 34.729168, 34.383926, 34.0625, 33.75, 33.4375, 33.0625, 32.50893, 31.809523, 31.321428, 30.9375, 30.553572, 29.979166, 29.526787, 29.1875, 28.767857, 28.5, 28, 27.517857, 27.1875, 26.6875, 26.25, 25.660713, 25.1875, 24.75, 24.4375, 23.9375, 23.517857, 23.0625, 22.5625, 22.125, 21.580357, 21.3125, 20.8125, 20.5, 20.0625, 19.553572, 19.041666, 18.571428, 18.25, 17.8125, 17.4375, 17, 16.553572, 15.916667, 15.446428, 14.9375, 14.5, 14.125, 13.625, 13.375, 12.875, 12.4375, 11.955357, 11.5, 11.125, 10.6875, 10.125, 9.5357141, 9.125, 8.6875, 8.4375, 8.0625, 7.5625, 6.7261901, 6.3303566, 6.0625, 5.9375, 5.9375, 5.9375, 5.6875, 5.5, 5.25, 5.125, 5.25, 5.375, 5.4375, 5.3125, 5.25, 5.125, 5.0625, 5.125, 5.0625, 5.125, 5.1875, 5.1875, 5.25, 5.25, 5.3125, 5.25, 5.1875, 5.3125, 5.4375, 5.6875, 5.9375, 6, 6.1339283, 6.6235123, 7.2723217, 7.8705359, 8.2321434, 8.40625, 8.5, 8.5, 8.4107141, 8.2589283, 8.3839283, 8.7946434, 9.0803566, 9.34375, 9.53125, 9.71875, 9.9375, 10.1875, 10.3125, 10.5, 10.5625, 10.428572, 10.104167, 9.9464283, 10.008928, 10.333333, 10.419643, 10.392857, 10.1875, 10.15625, 10.15625, 10.28125, 10.46875, 10.5625, 10.580358, 10.455357, 10.741072, 10.834822, 11.107143, 11.09375, 11.375, 11.647322, 12.4375, 13.394345, 14, 14.5625, 15.116072, 15.886906, 16.151787, 16.3125, 16.125, 15.875, 15.625, 15.5, 15.625, 15.75, 15.9375, 16, 16.0625, 16.035713, 15.586309, 14.390873, 13.108843, 12.101191, 11.110119, 10.508928, 10.3125, 10.1875, 10.352678, 10.53125, 10.40625, 10.330357, 10.21875, 10.1875, 10.3125, 10.28125, 10.375, 10.4375, 10.571428, 10.723215, 10.303572, 10.330357, 10.25, 10.348214, 10.25, 9.9464283, 9.5089283, 9.21875, 8.9241066, 8.671875, 8.34375, 7.9375, 7.96875, 8.1004467, 8.3482141, 8.40625, 8.46875, 8.609375, 8.8169641, 8.96875, 8.90625, 8.9732141, 9.4940481, 9.7279758, 9.541667, 9.5267859, 9.5, 9.6875, 9.875, 10, 10.0625, 10.125, 10.1875, 10.1875, 10.0625, 9.9464283, 9.604167, 9.5625, 9.5, 9.4375, 9.4821424, 10.137755, 10.37245, 10.5, 10.535714, 10.489797, 10.023809, 10.008928, 9.583333, 9.625, 9.791667, 10.325893, 10.25, 10.285714, 10.158164, 9.8418369, 9.7142859, 9.8035717, 9.7372446, 9.7098217, 9.2589283, 9.0089283, 8.9375, 9, 9, 8.9375, 8.875, 8.875, 8.875, 8.916667, -10, -10, -10, -10, -10, -10, -10, -10, -10, -10, -10, -10, -10, -10, -10, -10, -10, -10, -10, -10, -10, -10, -10, -10, -10, -10, -10, -10, -10, -10, -10, -10, -10, -10, -10, -10, -10, -10, -10, -10, -10, -10, -10, -10, 72.416664, 72.466667, 72.142853, 71.681549, 71.3125, 70.9375, 70.75, 70.5, 70.116074, 69.583336, 69.241074, 68.8125, 68.455353, 68.25, 67.8125, 67.5, 67.1875, 66.6875, 66.40625, 66.09375, 65.65625, 65.40625, 65, 64.678574, 64.059525, 62.833332, 62.276787, 61.642857, 61.25, 60.767857, 60.375, 59.830357, 59.309525, 58.91964, 58.517857, 58.303574, 57.836311, 57.252975, 56.657742, 56.258926, 55.875, 55.5625, 55.3125, 54.9375, 54.5625, 54.25, 53.669643, 52.788692, 52.348213, 51.875, 51.5625, 51.0625, 50.580357, 50.232143, 49.705357, 49.446426, 48.991074, 48.517857, 48.142857, 47.174999, 46.895836, 46.330357, 45.964283, 45.190475, 44.866074, 44.5, 44.285713, 43.830357, 43.446426, 43.03125, 42.611607, 42.34375, 41.96875, 41.625, 41.1875, 40.535713, 40.116074, 39.354168, 38.785713, 38.375, 37.875, 37.5, 37.0625, 36.5625, 36.0625, 35.517857, 35.125, 34.6875, 34.375, 34.0625, 33.75, 33.4375, 33.125, 32.625, 31.833332, 31.392857, 31.0625, 30.678572, 30.104166, 29.589287, 29.25, 28.875, 28.5625, 28.0625, 27.517857, 27.25, 26.75, 26.3125, 25.67857, 25.1875, 24.75, 24.4375, 23.9375, 23.517857, 23, 22.5, 22.125, 21.625, 21.3125, 20.767857, 20.5, 20.098213, 19.571428, 18.979166, 18.508928, 18.1875, 17.75, 17.4375, 17.0625, 16.616072, 15.979167, 15.464285, 14.9375, 14.5, 14.0625, 13.5625, 13.3125, 12.8125, 12.4375, 11.955357, 11.4375, 11.017857, 10.625, 10.0625, 9.5357141, 9.1875, 8.8125, 8.5625, 8.1875, 7.6428576, 6.833333, 6.3928566, 6.125, 5.9375, 5.9375, 5.9375, 5.75, 5.5625, 5.3125, 5.25, 5.375, 5.5625, 5.6875, 5.5625, 5.375, 5.25, 5.1875, 5.25, 5.25, 5.25, 5.25, 5.25, 5.375, 5.4375, 5.5625, 5.4375, 5.3125, 5.4375, 5.5, 5.75, 6, 6, 6.2053571, 6.8943453, 7.5133929, 7.9419641, 8.125, 8.15625, 8.1875, 8.125, 8.0044641, 7.9151783, 7.96875, 8.2633934, 8.6428566, 8.96875, 9.3883934, 9.59375, 9.875, 10.0625, 10.125, 10.178572, 9.9375, 9.8035717, 9.354167, 9.1964283, 9.0408163, 9.2619047, 9.4897966, 9.6428576, 9.8125, 9.8125, 9.75, 9.9464283, 10.1875, 10.25, 10.330358, 10.080357, 10.428572, 10.553572, 10.857143, 10.9375, 11.330357, 12.095239, 12.982143, 13.988095, 14.5625, 15, 15.375, 15.958334, 16.044643, 16.0625, 15.901786, 15.928572, 15.946428, 16, 16.125, 16.1875, 16.3125, 16.3125, 16.241072, 15.833333, 15.107142, 13.732143, 12.416667, 11.696428, 10.741072, 10.091836, 9.8214283, 9.5714283, 9.7589283, 9.8125, 9.65625, 9.6584816, 9.578125, 9.546875, 9.640625, 9.59375, 9.71875, 9.8125, 9.9464283, 10.116072, 9.875, 9.875, 9.8125, 9.9107141, 9.8125, 9.6964283, 9.3839283, 9.21875, 9.0491066, 8.859375, 8.5401783, 7.9749999, 8.15625, 8.34375, 8.6294641, 8.6875, 8.75, 8.8125, 8.9732141, 9.0625, 8.9375, 8.9642859, 9.2857141, 9.5821428, 9.625, 9.6339283, 9.625, 9.75, 9.875, 10, 10, 10, 9.8928566, 9.583333, 9.6020412, 9.4030609, 8.791667, 8.4285717, 8.3571424, 8.5, 8.3571424, 8.3928576, 8.4880953, 8.583333, 8.75, 8.8690481, 9.0986395, 9.1530609, 9.1428576, 9.3973217, 9.260416, 9.6275501, 9.6428576, 9.75, 9.4553566, 9.2678576, 9.21875, 9.28125, 9.3169641, 9.1116066, 8.9464283, 8.8125, 8.8125, 8.9375, 9
71.6875, 71.3125, 70.9375, 70.580353, 70.178574, 69.583336, 69.241074, 68.8125, 68.455353, 68.25, 67.8125, 67.5, 67.1875, 66.6875, 66.40625, 66.09375, 65.65625, 65.40625, 65, 64.616074, 63.952381, 62.979164, 62.392857, 61.767857, 61.196426, 60.660713, 60.3125, 59.767857, 59.455357, 58.99107, 58.642857, 58.366074, 57.827385, 57.0625, 56.5625, 56.125, 55.75, 55.4375, 55.1875, 54.8125, 54.4375, 54.017857, 53.419643, 52.601192, 52.267857, 51.75, 51.5, 51.0625, 50.625, 50.232143, 49.598213, 49.258926, 48.741074, 48.339287, 48.080357, 47.383331, 47.136906, 46.410713, 45.92857, 45.172619, 44.857143, 44.5, 44.285713, 43.830357, 43.446426, 42.96875, 42.549107, 42.28125, 41.90625, 41.625, 41.25, 40.785713, 40.357143, 39.458336, 38.785713, 38.375, 37.875, 37.5, 37, 36.5625, 36.107143, 35.517857, 35.196426, 34.75, 34.5, 34.1875, 33.8125, 33.5, 33.1875, 32.6875, 31.895832, 31.339285, 31.026787, 30.678572, 30.104166, 29.607143, 29.25, 28.875, 28.5625, 28.0625, 27.517857, 27.1875, 26.6875, 26.25, 25.660713, 25.25, 24.8125, 24.5, 24, 23.517857, 23, 22.5, 22.1875, 21.6875, 21.375, 20.830357, 20.5, 20.098213, 19.571428, 18.916666, 18.446428, 18.125, 17.6875, 17.375, 17.026787, 16.616072, 15.979167, 15.482141, 14.9375, 14.5, 14, 13.5, 13.1875, 12.6875, 12.4375, 12, 11.4375, 10.973213, 10.5625, 10, 9.5357141, 9.21875, 8.84375, 8.59375, 8.15625, 7.5892859, 6.9166665, 6.4464283, 6.1875, 5.875, 5.875, 5.8125, 5.6875, 5.625, 5.4375, 5.5, 5.625, 5.8125, 5.9375, 5.8125, 5.625, 5.5, 5.4375, 5.5, 5.5, 5.5, 5.5, 5.5, 5.625, 5.6875, 5.75, 5.625, 5.5, 5.5625, 5.625, 5.8125, 6, 6, 6.2767859, 7.1562505, 7.5669641, 7.90625, 7.96875, 7.9375, 7.9375, 7.875, 7.8125, 7.9375, 8.0625, 8.2946434, 8.5625, 8.875, 9.2678576, 9.4375, 9.625, 9.6875, 9.6875, 9.6160717, 9.4375, 9.3660717, 8.916667, 8.8214283, 8.75, 8.8125, 9.0625, 9.3125, 9.4375, 9.5, 9.5, 9.6339283, 9.8125, 9.9375, 9.9553576, 9.7053566, 9.9464283, 10.209822, 10.669643, 10.90625, 11.517857, 12.846939, 13.918367, 14.529762, 15, 15.375, 15.625, 15.875, 16, 16.0625, 16.026787, 16.241072, 16.403061, 16.428572, 16.5, 16.428572, 16.375, 16.375, 16.241072, 15.625, 14.398809, 12.916667, 11.750001, 11.053572, 9.9591837, 9.7053566, 9.4375, 9.1875, 9.1339283, 9.125, 8.8571424, 9.0803566, 9.125, 9.1875, 9.21875, 9.15625, 9.09375, 9.03125, 9.0714283, 9.2410717, 9.125, 9.1875, 9.125, 9.1875, 9.1875, 9.3125, 9.2767859, 9.25, 9.2053566, 9.078125, 8.78125, 8.0874996, 8.46875, 8.7276783, 9.0044641, 9.0625, 9, 8.9375, 9.0357141, 9.125, 9.1875, 9.3392859, 9.5, 9.5535717, 9.625, 9.625, 9.6875, 9.8125, 9.9375, 10, 9.8928566, 9.583333, 9.3214283, 8.958333, 8.3630953, 8.0476189, 7.8690481, 7.6428571, 7.5714288, 7.6071429, 7.5816321, 7.704082, 7.7448983, 7.8571429, 8.0714283, 8.2448978, 8.5863094, 8.6964283, 8.75, 8.8348217, 8.697916, 8.354167, 8.2648811, 8.6428576, 8.8839283, 8.8660717, 8.84375, 8.90625, 8.90625, 8.84375, 8.75, 8.6875, 8.6875, 8.875, 8.9375, 8.9375, 9, 9, 9, 9, -10, -10, -10, -10, -10, -10, -10, -10, -10, -10, -10, -10, -10, -10, -10, -10, -10, -10, -10, -10, -10, -10, -10, -10, -10, -10, -10, -10, -10, -10, -10, -10, -10, -10, -10, -10, -10, -10, -10, -10, -10, -10, -10, -10, 72.809525, 72.716667, 72.5625, 72.455353, 72.0625, 71.696426, 71.020836, 70.589279, 70.116074, 69.458336, 69.053574, 68.625, 68.4375, 68.3125, 67.946426, 67.458336, 67.1875, 66.6875, 66.46875, 66.09375, 65.59375, 65.34375, 64.9375, 64.491074, 63.773811, 63.083332, 62.544643, 61.955357, 61.276787, 60.785713, 60.5, 60.053574, 59.497025, 58.955357, 58.625, 58.366074, 57.889885, 57.125, 56.625, 56.142857, 55.6875, 55.375, 55.125, 54.741074, 54.229168, 53.776783, 53.241074, 52.684525, 52.383926, 51.875, 51.589287, 51.133926, 50.458332, 50.026787, 49.410713, 49.071426, 48.553574, 48.089287, 47.8125, 47.362499, 47.208332, 46.473213, 45.919643, 45.357143, 45, 44.5625, 44.3125, 43.875, 43.5, 43, 42.517857, 42.25, 41.8125, 41.5625, 41.1875, 40.767857, 40.419643, 39.574406, 38.809525, 38.3125, 37.8125, 37.4375, 37, 36.6875, 36.285713, 35.476189, 35.133926, 34.625, 34.375, 34.125, 33.6875, 33.4375, 33.125, 32.669643, 31.895832, 31.276785, 30.928574, 30.607143, 30.080357, 29.607143, 29.25, 28.875, 28.5625, 28.0625, 27.517857, 27.125, 26.625, 26.1875, 25.642857, 25.25, 24.8125, 24.5, 24.0625, 23.580357, 23.0625, 22.517857, 22.1875, 21.6875, 21.375, 20.830357, 20.5, 20.035713, 19.517857, 19.0625, 18.5625, 18.1875, 17.642857, 17.25, 16.901787, 16.491072, 15.854167, 15.419641, 14.875, 14.5, 14, 13.5625, 13.232143, 12.642857, 12.383928, 11.9375, 11.4375, 10.910713, 10.5, 9.9375, 9.5178566, 9.15625, 8.78125, 8.53125, 8.09375, 7.5892859, 6.9166665, 6.4464283, 6.1875, 5.875, 5.875, 5.8125, 5.75, 5.75, 5.625, 5.6875, 5.75, 5.875, 6, 5.9375, 5.8125, 5.75, 5.6875, 5.75, 5.75, 5.6875, 5.6875, 5.6875, 5.8125, 5.9375, 6, 5.875, 5.75, 5.75, 5.6875, 5.8125, 5.9375, 6, 6.2767859, 7.0000005, 7.2857141, 7.5357141, 7.5625, 7.5625, 7.5, 7.5, 7.5, 7.7321429, 7.875, 8.1071434, 8.375, 8.75, 9.1428576, 9.3125, 9.375, 9.3125, 9.25, 9.1160717, 9, 8.9910717, 8.604167, 8.5714283, 8.5, 8.5625, 8.8125, 9.0625, 9.1875, 9.25, 9.25, 9.3839283, 9.5625, 9.625, 9.6696434, 9.5178566, 9.7053566, 10.174107, 10.669643, 11, 11.741072, 13.578231, 14.446428, 15.133928, 15.4375, 15.75, 15.875, 16, 16.125, 16.1875, 16.19643, 16.366072, 16.446428, 16.4375, 16.5625, 16.5, 16.5625, 16.5, 16.303572, 15.5, 12.904762, 11.928572, 11.05102, 10.232143, 9.3928576, 9.0178566, 8.8125, 8.6875, 8.5714283, 8.5892859, 8.5, 8.6160717, 8.625, 8.5803566, 8.46875, 8.34375, 8.21875, 8.09375, 7.9693875, 8.0714283, 8.1428576, 8.1785717, 8.2142859, 8.4375, 8.5089283, 8.833333, 8.9285717, 9.125, 9.1875, 9.1875, 8.9375, 8.3642855, 8.8125, 8.8928566, 9.1785717, 9.25, 9.2946434, 9.1875, 9.25, 9.3125, 9.4375, 9.59375, 9.5491066, 9.5401783, 9.53125, 9.6339283, 9.958333, 10.044643, 10.125, 10.0625, 9.7857141, 9.083333, 8.4897966, 8.0238094, 7.8112249, 7.6122446, 7.541667, 7.3125, 7.3125, 7.3125, 7.25, 7.25, 7.1875, 7.3125, 7.5, 7.6875, 8.0446434, 8.25, 8.5625, 8.7098217, 8.572916, 8.4151783, 8.0841837, 8.3571424, 8.6339283, 8.6785717, 8.625, 8.625, 8.5625, 8.5, 8.5, 8.5, 8.5446434, 8.625, 8.75
72.25, 71.821426, 70.854172, 70.505951, 70.074409, 69.333336, 68.919647, 68.5, 68.4375, 68.375, 68.089287, 67.416672, 67.125, 66.625, 66.5, 66.125, 65.625, 65.375, 64.928574, 64.220238, 63.523811, 63.125, 62.625, 62.080357, 61.35714, 60.955357, 60.625, 60.241074, 59.684525, 59.205357, 58.9375, 58.651787, 58.014885, 57.232143, 56.6875, 56.142857, 55.642857, 55.3125, 55, 54.616074, 53.997025, 53.526783, 53, 52.642857, 52.3125, 51.8125, 51.464287, 51.008926, 50.270832, 49.794643, 49.330357, 48.9375, 48.491074, 47.964287, 47.6875, 47.3125, 47.0625, 46.580357, 45.955357, 45.464287, 45.0625, 44.625, 44.3125, 43.875, 43.5, 43.0625, 42.580357, 42.3125, 41.8125, 41.5, 41.125, 40.75, 40.482143, 39.699406, 38.979168, 38.392857, 37.875, 37.4375, 37.0625, 36.875, 36.535713, 35.559525, 35.10714, 34.5625, 34.3125, 34, 33.625, 33.3125, 32.9375, 32.491074, 31.854166, 31.267857, 30.928574, 30.607143, 30.080357, 29.607143, 29.25, 28.8125, 28.5, 28, 27.5, 27.0625, 26.5625, 26.0625, 25.517857, 25.1875, 24.6875, 24.4375, 24.0625, 23.625, 23.125, 22.535713, 22.125, 21.625, 21.3125, 20.767857, 20.5, 20.035713, 19.517857, 19.0625, 18.5625, 18.1875, 17.642857, 17.1875, 16.776787, 16.3125, 15.8125, 15.410713, 14.9375, 14.553572, 13.916667, 13.4375, 13.044643, 12.517857, 12.258928, 11.8125, 11.375, 10.785713, 10.375, 9.875, 9.5, 9.09375, 8.65625, 8.40625, 8.03125, 7.6339288, 6.9791665, 6.4642859, 6.1875, 5.8125, 5.8125, 5.75, 5.75, 5.875, 5.8125, 5.875, 5.875, 5.9375, 6, 6, 5.9375, 5.9375, 5.9375, 5.9375, 5.9375, 5.875, 5.8125, 5.75, 5.75, 5.8125, 5.875, 5.875, 5.875, 5.875, 5.8125, 5.875, 5.9375, 6, 6.2053566, 6.604167, 6.7321434, 6.9107141, 6.9375, 7, 7, 7.125, 7.25, 7.6071429, 7.8125, 7.9375, 8.25, 8.625, 9.0178576, 9.125, 9.0625, 8.875, 8.6875, 8.4910717, 8.3928566, 8.645833, 8.6875, 8.84375, 8.78125, 8.78125, 8.84375, 8.875, 8.9375, 8.9375, 8.9375, 9.0714283, 9.25, 9.25, 9.3125, 9.375, 9.6339283, 10.403274, 10.883928, 11.25, 12.071428, 14, 14.785713, 15.4375, 15.5625, 15.75, 15.875, 15.9375, 16.0625, 16.1875, 16.25893, 16.428572, 16.508928, 16.4375, 16.5, 16.375, 16.375, 16.375, 16.178572, 5.5, 7.4333334, 8.5555563, 9.2380962, 9.210885, 8.6845236, 8.3035717, 8.3571424, 8.2142859, 8, 7.5892859, 7.7857141, 7.9693875, 8.0714283, 7.8303571, 7.5357141, 7.3928571, 7.25, 7.1785712, 7.2142859, 7.2857141, 7.4285712, 7.625, 7.6875, 7.75, 7.8839283, 8.270833, 8.4910717, 8.75, 8.9821434, 9.0625, 8.875, 8.4892855, 8.8125, 8.7142849, 8.9553566, 9.125, 9.3392859, 9.375, 9.5, 9.5625, 9.6875, 9.78125, 9.6741066, 9.6026783, 9.53125, 9.6339283, 10.020833, 10.107143, 10.1875, 10.125, 9.6785717, 8.3809519, 7.8163266, 7.583333, 7.4285717, 7.3125, 7.3125, 7.0625, 7.1875, 7.125, 7.125, 7.125, 7, 7.1875, 7.3125, 7.5, 7.8125, 8, 8.3125, 8.4285717, 8.291666, 8.1339283, 8.0267859, 8.3125, 8.3214283, 8.375, 8.4375, 8.4375, 8.5625, 8.5, 8.5625, 8.5, 8.4196434, 8.5178566, 8.75, 8.7946434, 9, 9, 9, 9, -10, -10, -10, -10, -10, -10, -10, -10, -10, -10, -10, -10, -10, -10, -10, -10, -10, -10, -10, -10, -10, -10, -10, -10, -10, -10, -10, -10, -10, -10, -10, -10, -10, -10, -10, -10, -10, -10, -10, -10, -10, -10, -10, -10, 73, 72.979164, 72.875, 72.395836, 72.116074, 71.633926, 70.729172, 70.443451, 70.083336, 69.678574, 69.157738, 68.6875, 68.5625, 68.375, 68.026787, 67.354172, 67.0625, 66.625, 66.5, 66.125, 65.625, 65.375, 64.866074, 64.104172, 63.5, 63.1875, 62.75, 62.25, 61.428574, 60.910713, 60.5625, 60.178574, 59.666668, 59.267857, 59.035713, 58.526787, 57.800598, 57.211311, 56.6875, 56.059525, 55.589287, 55.25, 54.9375, 54.553574, 53.934525, 53.455357, 52.854168, 52.571426, 52.1875, 51.75, 51.339287, 50.883926, 50.208332, 49.794643, 49.392857, 48.9375, 48.455357, 47.964287, 47.5625, 47.1875, 46.875, 46.4375, 45.830357, 45.401787, 44.9375, 44.5625, 44.25, 43.75, 43.4375, 43.0625, 42.625, 42.375, 41.9375, 41.5625, 41.125, 40.642857, 40.303574, 39.657738, 38.979168, 38.392857, 37.9375, 37.5, 37.125, 36.892857, 36.535713, 35.559525, 35.16964, 34.6875, 34.4375, 34.1875, 33.794643, 33.258926, 32.803574, 32.3125, 31.8125, 31.258928, 30.866074, 30.544643, 29.955357, 29.482143, 29.1875, 28.75, 28.5, 28, 27.5, 27.0625, 26.5625, 26.0625, 25.517857, 25.1875, 24.75, 24.5, 24.125, 23.642857, 23.1875, 22.598213, 22.1875, 21.6875, 21.375, 20.875, 20.5, 20, 19.5, 19.0625, 18.5625, 18.125, 17.580357, 17.0625, 16.589287, 16.1875, 15.6875, 15.392857, 15, 14.616072, 13.979167, 13.455357, 13.044643, 12.517857, 12.258928, 11.8125, 11.4375, 10.892857, 10.4375, 9.9375, 9.5, 9.09375, 8.59375, 8.34375, 7.96875, 7.6160717, 7.0416665, 6.5267859, 6.25, 5.875, 5.8125, 5.75, 5.75, 5.9375, 5.9375, 5.9375, 5.875, 5.8125, 5.75, 5.8125, 5.8125, 5.8125, 5.875, 5.875, 5.9375, 5.9375, 5.9375, 5.875, 5.875, 6, 6, 6.0625, 6.0625, 6, 5.9375, 5.9375, 5.9375, 6, 6.1964283, 6.3958335, 6.2448983, 6.3265305, 6.2857141, 6.3571429, 6.3571429, 6.6071429, 7.0625, 7.4508929, 7.78125, 7.90625, 8.21875, 8.5, 8.7232141, 8.8125, 8.6875, 8.5625, 8.4375, 8.25, 8.2678566, 8.458333, 8.6339283, 8.96875, 8.96875, 9.03125, 8.96875, 8.8928566, 8.583334, 8.5714283, 8.6071434, 8.625, 8.7142859, 8.8571434, 8.9285717, 9.1875, 9.5714283, 10.519345, 11.116072, 11.5, 12.321428, 14.25, 14.964285, 15.5, 15.5, 15.732143, 15.866072, 15.875, 15.875, 16, 16.151787, 16.178572, 16.1875, 16.0625, 16.1875, 16.125, 16.1875, 16.1875, 16, 5.3333335, 6.8523812, 7.3571429, 8.354167, 8.3139877, 7.5561223, 7.3010206, 7.0416665, 7.0833335, 7.0833335, 7.0663266, 6.875, 6.8571429, 6.7916665, 6.8775511, 6.6964288, 6.5892859, 6.5892859, 6.78125, 6.875, 7, 7.125, 7.1875, 7.1875, 7.25, 7.3839283, 7.708333, 8.0625, 8.520833, 8.7857141, 8.9375, 8.8035717, 8.639286, 8.8125, 8.6428566, 8.8303566, 9, 9.2767859, 9.40625, 9.59375, 9.71875, 9.90625, 9.96875, 9.7991066, 9.6651783, 9.53125, 9.6339283, 10.020833, 10.107143, 10.1875, 10.125, 9.5714283, 8.083333, 7.5, 7.25, 7.25, 7.25, 7.3125, 7.125, 7.3125, 7.3125, 7.3125, 7.375, 7.25, 7.375, 7.4375, 7.5625, 7.75, 7.875, 8.125, 8.25, 8.375, 8.375, 8.2767859, 8.375, 8.25, 8.1875, 8.125, 8.125, 8.1875, 8.1875, 8.4375, 8.4375, 8.3571434, 8.3928566, 8.5625
71.739799, 71.32653, 70.729172, 70.550598, 70.270836, 69.875, 69.053574, 68.607147, 68.4375, 68.3125, 68.026787, 67.354172, 67.0625, 66.625, 66.5, 66.0625, 65.5, 65.142853, 64.678574, 63.979168, 63.482143, 63.1875, 62.75, 62.25, 61.428574, 60.910713, 60.5625, 60.178574, 59.729168, 59.375, 59, 58.589287, 57.872025, 57.482143, 56.9375, 56.080357, 55.535713, 55.1875, 54.9375, 54.553574, 54.059525, 53.633926, 52.8125, 52.55357, 52.053574, 51.5625, 51.214287, 50.696426, 50.145832, 49.794643, 49.4375, 49, 48.535713, 48, 47.5, 47.125, 46.75, 46.357143, 45.723213, 45.276787, 44.75, 44.4375, 44.125, 43.6875, 43.4375, 43.0625, 42.625, 42.375, 41.9375, 41.5625, 41.0625, 40.517857, 40.125, 39.616074, 38.979168, 38.392857, 37.9375, 37.5, 37.125, 36.767857, 36.32143, 35.479164, 35.098213, 34.75, 34.5625, 34.366074, 33.836311, 33.196426, 32.678574, 32.1875, 31.6875, 31.3125, 30.964287, 30.607143, 30.017857, 29.482143, 29.1875, 28.75, 28.4375, 27.892857, 27.4375, 27, 26.5625, 26.125, 25.580357, 25.25, 24.875, 24.553572, 24.041666, 23.589285, 23.1875, 22.660713, 22.1875, 21.642857, 21.3125, 20.8125, 20.5, 20, 19.5, 19.0625, 18.5625, 18.0625, 17.517857, 17.0625, 16.5625, 16.1875, 15.6875, 15.375, 15.0625, 14.678572, 14.041667, 13.401785, 12.9375, 12.455357, 12.196428, 11.8125, 11.5, 11, 10.5, 10, 9.5, 9.0625, 8.5625, 8.3125, 7.9375, 7.6160717, 7.0416665, 6.5267859, 6.25, 5.875, 5.75, 5.75, 5.6875, 5.875, 5.9375, 5.8125, 5.75, 5.625, 5.5625, 5.6875, 5.75, 5.75, 5.8125, 5.8125, 5.8125, 5.8125, 5.8125, 5.75, 5.8125, 6, 6, 6.0625, 6.0625, 6, 5.9375, 5.9375, 5.875, 5.875, 6.0178571, 6.0625, 6, 6.0982141, 6, 6.0625, 6.0625, 6.25, 6.46875, 6.9196429, 7.3125, 7.625, 8.03125, 8.25, 8.4375, 8.5, 8.4375, 8.40625, 8.28125, 8.15625, 8.1116066, 8.208333, 8.3839283, 8.71875, 8.78125, 9.0133934, 8.96875, 8.7232141, 8.041667, 7.9464283, 7.9196429, 8.0625, 8.2142859, 8.4196434, 8.6160717, 9.0535717, 9.625, 10.538095, 11.238095, 11.625, 12.428571, 14.791667, 15.184524, 15.4375, 15.169643, 15.232143, 15.489797, 15.464286, 15.380952, 15.833333, 15.952382, 15.904762, 16, 16, 16.25, 16.21875, 16.25, 16.1875, 16, 5.375, 5.8000002, 6.5238094, 7.0575395, 7.3282313, 6.8316321, 6.5867348, 6.625, 6.6875, 6.6875, 6.6517859, 6.6875, 6.6607141, 6.3571429, 6.3928571, 6.25, 6.1875, 6.25, 6.375, 6.5625, 6.75, 6.875, 6.9375, 7, 7.0625, 7.1964283, 7.458333, 7.7767859, 8.3779755, 8.7142859, 8.9375, 8.875, 8.8392859, 8.8125, 8.6339283, 8.8303566, 9.0625, 9.4017859, 9.53125, 9.71875, 9.78125, 9.90625, 9.96875, 9.90625, 9.84375, 9.71875, 9.7589283, 10.083333, 10.107143, 10.1875, 10.125, 9.6071424, 8.083333, 7.5714283, 7.3125, 7.3125, 7.375, 7.4375, 7.3125, 7.5, 7.5625, 7.5625, 7.625, 7.5, 7.5625, 7.5625, 7.625, 7.75, 7.8125, 8, 8.0625, 8.1875, 8.3125, 8.3125, 8.375, 8.2142859, 8.1875, 8.125, 8.125, 8.1875, 8.125, 8.375, 8.4375, 8.3571434, 8.3303566, 8.5, 8.6071434, 8.875, 9, 9, 9, -10, -10, -10, -10, -10, -10, -10, -10, -10, -10, -10, -10, -10, -10, -10, -10, -10, -10, -10, -10, -10, -10, -10, -10, -10, -10, -10, -10, -10, -10, -10, -10, -10, -10, -10, -10, -10, -10, -10, -10, -10, -10, -10, 72, 72.375, 72.395836, 72.1875, 71.645836, 71.491074, 71.125, 70.770836, 70.657738, 70.25, 69.75, 68.928574, 68.544647, 68.3125, 68.25, 67.991074, 67.413689, 67.205353, 66.8125, 66.625, 66.020836, 65.517853, 65.116074, 64.633926, 63.916668, 63.464287, 63.1875, 62.741074, 62.104168, 61.35714, 60.785713, 60.4375, 60, 59.6875, 59.375, 58.875, 58.589287, 57.809525, 57.42857, 56.729164, 55.875, 55.410713, 55.1875, 54.9375, 54.625, 54.267857, 53.8125, 53, 52.625, 51.824402, 51.357143, 51, 50.5625, 50.3125, 50, 49.6875, 49.241074, 48.577381, 48, 47.5, 47.0625, 46.625, 46.232143, 45.598213, 45.258926, 44.75, 44.375, 43.955357, 43.5625, 43.3125, 43, 42.625, 42.375, 41.9375, 41.625, 41.169643, 40.535713, 40.0625, 39.5625, 39.125, 38.642857, 38.241074, 37.604168, 37.125, 36.642857, 36.142857, 35.520832, 35.160713, 34.875, 34.75, 34.446426, 33.732143, 33.071426, 32.553574, 32.1875, 31.6875, 31.375, 31, 30.625, 30.1875, 29.598213, 29.3125, 28.8125, 28.4375, 27.892857, 27.4375, 27, 26.5625, 26.1875, 25.642857, 25.375, 25, 24.616072, 24.041666, 23.526785, 23.125, 22.642857, 22.1875, 21.642857, 21.25, 20.75, 20.4375, 19.9375, 19.5, 19, 18.5, 18, 17.5, 17.125, 16.6875, 16.375, 15.875, 15.455357, 15.1875, 14.741072, 14.104167, 13.357142, 12.892857, 12.5, 12.1875, 11.767857, 11.4375, 10.9375, 10.5, 10, 9.5, 9.125, 8.625, 8.375, 7.9375, 7.5625, 7.125, 6.5803571, 6.3125, 5.875, 5.75, 5.75, 5.6875, 5.8125, 5.8125, 5.6875, 5.625, 5.5, 5.5, 5.625, 5.625, 5.625, 5.6875, 5.6875, 5.75, 5.75, 5.75, 5.6875, 5.75, 6, 6, 6.0625, 6.0625, 6, 6, 6, 5.875, 5.75, 5.8303571, 5.9375, 5.9375, 6.0625, 5.9375, 5.9375, 6, 6.125, 6.28125, 6.5625, 6.9464283, 7.4583335, 7.8973217, 8.125, 8.25, 8.25, 8.25, 8.28125, 8.21875, 8.15625, 7.9776788, 7.833333, 8.0089283, 8.3973217, 8.6383934, 8.9508934, 8.96875, 8.6160717, 7.541667, 7.3035717, 7.2321429, 7.4375, 7.4591837, 7.8482141, 7.8660717, 8.5612249, 9.583333, 10.526984, -10, -10, -10, 15.125, 15.25, 15.25, 14.825893, 14.700893, 14.202381, 14.041667, 13.888889, -10, -10, -10, -10, 15.8125, 16.1, 16.21875, 16.25, 16.25, 16, 5.5, 5.8833332, 6.4404759, 6.9389887, 7.072917, 6.59375, 6.3571429, 6.125, 6.125, 6.1875, 6.25, 6.25, 6.1875, 6.125, 6, 6, 6.0625, 6.125, 6.3125, 6.5, 6.6875, 6.875, 6.9375, 7.0714283, 7.395833, 7.4821429, 7.4375, 7.5982141, 8.2351189, 8.6428576, 8.9375, 8.9375, 8.875, 8.8125, 8.875, 9.0625, 9.3125, 9.5446434, 9.59375, 9.71875, 9.78125, 9.90625, 10, 10.0625, 10.125, 10.0625, 10, 9.9642859, 9.9375, 10, 10.0625, 9.6428566, 8.25, 7.7857141, 7.5, 7.5, 7.5, 7.5625, 7.5, 7.625, 7.75, 7.75, 7.8125, 7.75, 7.75, 7.8125, 7.875, 7.9375, 8, 8, 7.9375, 8, 8.125, 8.1875, 8.25, 8.1517859, 8.1875, 8.1875, 8.25, 8.3125, 8.1875, 8.375, 8.4375, 8.4375, 8.5803566, 8.6875
71.178574, 70.8125, 70.8125, 70.616074, 70.166664, 69.8125, 69, 68.607147, 68.25, 68.125, 67.785713, 67.455353, 67.267853, 66.866074, 66.416664, 65.842262, 65.392853, 65.053574, 64.705353, 64.142853, 63.392857, 63.044643, 62.616074, 62.077381, 61.35714, 60.723213, 60.375, 59.875, 59.5, 59.0625, 58.3125, 58.125, 57.642857, 57.446426, 56.791664, 55.875, 55.410713, 55.125, 54.875, 54.5625, 54.3125, 53.9375, 53.25, 52.92857, 51.991074, 51.55357, 51.178574, 50.604168, 50.383926, 50.0625, 49.75, 49.366074, 48.639881, 48.125, 47.625, 47.1875, 46.75, 46.3125, 45.767857, 45.330357, 44.875, 44.428574, 43.872025, 43.508926, 43.25, 42.9375, 42.5625, 42.3125, 41.9375, 41.6875, 41.294643, 40.660713, 40.0625, 39.517857, 39.0625, 38.625, 38.241074, 37.604168, 37.0625, 36.455357, 35.892857, 35.4375, 35.1875, 35, 34.875, 34.571426, 33.75, 33.133926, 32.616074, 32.3125, 31.875, 31.5, 31.0625, 30.580357, 30.1875, 29.642857, 29.375, 28.875, 28.4375, 27.892857, 27.4375, 27, 26.5625, 26.25, 25.705357, 25.4375, 25.0625, 24.616072, 23.979166, 23.464285, 23.0625, 22.625, 22.25, 21.705357, 21.25, 20.705357, 20.375, 19.875, 19.5, 19.0625, 18.5625, 18.0625, 17.517857, 17.1875, 16.75, 16.4375, 15.892857, 15.455357, 15.1875, 14.75, 14.25, 13.5, 13.017857, 12.5625, 12.1875, 11.580357, 11.25, 10.75, 10.4375, 9.9375, 9.5, 9.1875, 8.6875, 8.375, 7.8303571, 7.4375, 7, 6.5625, 6.3125, 5.9375, 5.8125, 5.8125, 5.75, 5.75, 5.6875, 5.5, 5.375, 5.3125, 5.375, 5.5625, 5.5625, 5.5, 5.5625, 5.5625, 5.625, 5.625, 5.625, 5.625, 5.8125, 6.125, 6.125, 6.125, 6.0625, 6, 6, 6, 5.875, 5.75, 5.8303571, 6.0625, 6.1875, 6.375, 6.3125, 6.25, 6.25, 6.375, 6.53125, 6.75, 7.0714283, 7.5208335, 7.8973217, 8.0625, 8.125, 8.125, 8.1875, 8.2544641, 8.2455359, 8.28125, 7.9598217, 7.625, 7.6339283, 7.9910717, 8.4017859, 8.7946434, 8.9375, 8.5714283, 7.166667, 6.7857141, 6.6071429, 6.75, 6.9017859, 7.0982141, 6.8877554, 6.9940476, -10, -10, -10, -10, -10, 15.416667, 15.369048, 15.125, 14.513393, 14.21875, 13.709184, 13.5, 13.369048, -10, -10, -10, -10, 15.5625, 15.870833, 16.03125, 16.125, 16.1875, 16, 5.625, 5.8833332, 6.2738094, 6.4598217, 6.65625, 6.53125, 6.5, 6.3125, 6.25, 6.3125, 6.375, 6.375, 6.3125, 6.1875, 6, 6, 6.0625, 6.125, 6.25, 6.4375, 6.625, 6.8125, 6.9375, 7.0714283, 7.395833, 7.4821429, 7.4375, 7.5982141, 8.1726189, 8.5044651, 8.84375, 8.90625, 8.96875, 9, 9.1875, 9.4375, 9.7321434, 9.875, 9.84375, 9.84375, 9.84375, 9.90625, 10, 10.125, 10.25, 10.25, 10.1875, 10.026786, 9.9375, 9.875, 9.875, 9.5, 8.3125, 7.8928571, 7.5625, 7.5625, 7.625, 7.75, 7.875, 7.9375, 8.0625, 8, 8, 8, 8, 8.0625, 8.0625, 8.0625, 8.0625, 8, 7.9375, 8, 8.0625, 8.0625, 8.0625, 7.9642859, 8.0625, 8.1875, 8.25, 8.25, 8.125, 8.25, 8.4375, 8.5625, 8.6875, 8.6875, 8.75, 8.9375, 9.125, 9.125, 9.166666, -10, -10, -10, -10, -10, -10, -10, -10, -10, -10, -10, -10, -10, -10, -10, -10, -10, -10, -10, -10, -10, -10, -10, -10, -10, -10, -10, -10, -10, -10, -10, -10, -10, -10, -10, -10, -10, -10, -10, -10, -10, -10, -10, -10, 72, 72, 71.75, 71.5, 71.3125, 70.9375, 70.8125, 70.428574, 69.854164, 69.446426, 68.761909, 68.357147, 68.125, 68.0625, 67.848213, 67.517853, 67.330353, 66.857147, 66.208328, 65.601189, 65.205353, 64.866074, 64.580353, 64.080353, 63.3125, 62.94643, 62.553574, 62.014881, 61.35714, 60.723213, 60.375, 59.9375, 59.5625, 59.071426, 58.166668, 58.0625, 57.625, 57.446426, 56.684525, 55.851189, 55.401787, 55.125, 54.9375, 54.616074, 54.25, 54.008926, 53.440475, 53.023811, 52.125, 51.67857, 51.357143, 50.645836, 50.392857, 50.0625, 49.75, 49.366074, 48.639881, 48.1875, 47.75, 47.366074, 46.875, 46.5, 45.892857, 45.410713, 45, 44.491074, 43.872025, 43.464287, 43.1875, 42.8125, 42.5, 42.25, 41.8125, 41.625, 41.294643, 40.705357, 40.125, 39.535713, 39.0625, 38.625, 38.178574, 37.541668, 37.0625, 36.5, 35.955357, 35.455357, 35.1875, 34.9375, 34.8125, 34.446426, 33.580357, 33.1875, 32.6875, 32.4375, 32.0625, 31.625, 31.1875, 30.598213, 30.1875, 29.642857, 29.375, 28.875, 28.4375, 27.955357, 27.5, 27, 26.517857, 26.25, 25.75, 25.4375, 24.955357, 24.491072, 23.916666, 23.5, 22.916666, 22.508928, 22.0625, 21.580357, 21.1875, 20.642857, 20.375, 19.875, 19.5, 19.0625, 18.5625, 18.125, 17.580357, 17.3125, 16.875, 16.4375, 15.848214, 15.392857, 15.0625, 14.6875, 14.25, 13.544642, 13.017857, 12.517857, 12.125, 11.517857, 11.25, 10.75, 10.4375, 9.96875, 9.53125, 9.21875, 8.71875, 8.375, 7.8303571, 7.4375, 6.9375, 6.5, 6.25, 5.875, 5.8125, 5.8125, 5.75, 5.75, 5.625, 5.5625, 5.7083335, 5.6666665, 5.6666665, 5.75, 5.6875, 5.6875, 5.6875, 5.6875, 5.75, 5.75, 5.75, 5.8125, 5.9375, 6.1875, 6.25, 6.1875, 6.125, 6.0625, 6, 6.0625, 6, 5.9375, 6.0178571, 6.1875, 6.3125, 6.5, 6.5, 6.5, 6.5, 6.625, 6.75, 6.9375, 7.1964283, 7.6458335, 7.9910717, 8.1875, 8.3125, 8.3125, 8.375, 8.3080359, 8.0580359, 8.09375, 7.7723217, 7.5625, 7.625, 7.8660717, 8.3392859, 8.7321434, 8.875, 8.5, 7.041667, 6.5357141, 6.25, 6.375, 6.4375, 6.4910717, 6.4375, 6.3877554, -10, -10, -10, -10, -10, 15.75, 15.5, 15.125, 14.40625, 13.861607, 13.40625, 13.15625, 13.041667, -10, -10, -10, -10, 15.5625, 15.808333, 15.96875, 16.0625, 16.125, 16, 5.875, 6.0333338, 6.2321429, 6.4910717, 6.6875, 6.625, 6.625, 6.3125, 6.125, 6.125, 6.25, 6.3125, 6.3125, 6.25, 6.0625, 6.0625, 6.125, 6.125, 6.125, 6.3125, 6.4375, 6.625, 6.8125, 6.9464283, 7.333333, 7.4196429, 7.375, 7.4642859, 7.7767859, 8.1383934, 8.46875, 8.65625, 8.84375, 8.9375, 9.125, 9.375, 9.6696434, 9.875, 9.9375, 9.9375, 10, 10, 10, 10.017857, 10.0625, 10.0625, 10.0625, 9.9642859, 9.9375, 9.8125, 9.8125, 9.4821434, 8.625, 8.3482141, 8.0625, 8, 8, 8, 8.0625, 8.0625, 8.125, 8.0625, 8, 8, 8, 8.0625, 8.0625, 8.0625, 8.0625, 8, 7.9375, 8, 8, 8, 8.0625, 8, 8.125, 8.3125, 8.375, 8.375, 8.25, 8.3125, 8.5, 8.6875, 8.875, 8.875
71.375, 71, 70.875, 70.428574, 69.583328, 69.196426, 68.741074, 68.375, 68.1875, 68.0625, 67.848213, 67.517853, 67.330353, 66.857147, 66.208328, 65.601189, 65.059525, 64.79464, 64.455353, 63.955357, 63.080357, 62.75893, 62.491074, 62.059525, 61.452381, 60.901787, 60.5, 60.125, 59.75, 59.25, 58.208336, 58, 57.5625, 57.36607, 56.505955, 55.964287, 55.508926, 55.041668, 54.758926, 54.366074, 53.9375, 53.8125, 53.517857, 53.059525, 52.196426, 51.80357, 51.357143, 50.645836, 50.330357, 50, 49.741074, 49.220242, 48.568451, 48.116074, 47.625, 47.303574, 46.875, 46.625, 46.125, 45.660713, 45.25, 44.678574, 43.997025, 43.526787, 43.125, 42.776787, 42.5, 42.1875, 41.767857, 41.5625, 41.232143, 40.642857, 40.017857, 39.473213, 39, 38.625, 38.241074, 37.604168, 37.125, 36.580357, 36.0625, 35.517857, 35.25, 34.875, 34.6875, 34.267857, 33.538689, 33.25, 32.75, 32.4375, 32.017857, 31.5625, 31.125, 30.598213, 30.1875, 29.642857, 29.3125, 28.8125, 28.4375, 28.0625, 27.625, 27.125, 26.535713, 26.25, 25.75, 25.375, 24.785713, 24.375, 24, 23.616072, 22.979166, 22.464285, 22, 21.5625, 21.1875, 20.642857, 20.3125, 19.767857, 19.4375, 19, 18.5625, 18.1875, 17.642857, 17.3125, 16.830357, 16.3125, 15.723214, 15.330357, 14.9375, 14.625, 14.25, 13.660714, 13.1875, 12.598213, 12.125, 11.455357, 11.1875, 10.75, 10.491072, 9.885417, 9.4776783, 9.21875, 8.78125, 8.4375, 7.8928571, 7.4375, 7, 6.5625, 6.3125, 5.9375, 5.875, 5.875, 5.875, 5.9375, 5.8125, 5.875, 6.0833335, 6.1041665, 6.0416665, 6, 5.8125, 5.75, 5.75, 5.75, 5.9375, 6, 6, 6.125, 6.1875, 6.375, 6.5, 6.4375, 6.3125, 6.1875, 6.125, 6.1875, 6.25, 6.3125, 6.375, 6.4375, 6.5625, 6.6875, 6.8125, 6.8125, 6.8125, 6.9375, 7, 7.1875, 7.4464283, 7.8333335, 8.1785717, 8.375, 8.5, 8.5625, 8.5625, 8.4017859, 8.0892859, 8.125, 7.8660717, 7.75, 7.9375, 8.1785717, 8.5892859, 8.875, 8.7946434, 8.0238094, 6.7440476, 6.2232141, 6.0625, 6.125, 6.1875, 6.1785717, 6, 6, -10, -10, -10, -10, -10, 15.75, 15.5, 15.125, 14.441963, 13.861607, 13.28125, 13.09375, 12.916667, -10, -10, -10, -10, 15.75, 15.891666, 16.0625, 16.0625, 16.125, 16.041666, 6, 6.0833335, 6.125, 6.3125, 6.5, 6.5, 6.5625, 6.375, 6.1875, 6.125, 6.1875, 6.1875, 6.1875, 6.1875, 6.125, 6.125, 6.1875, 6.1875, 6.125, 6.375, 6.4375, 6.5625, 6.6875, 6.6339283, 6.958333, 6.9821429, 6.9375, 7, 7.2321429, 7.5848217, 7.96875, 8.34375, 8.7008934, 8.875, 9.0625, 9.1875, 9.4196434, 9.625, 9.8125, 9.9375, 10.0625, 10.0625, 10, 10.017857, 10.0625, 10.125, 10.125, 10.026786, 9.9285717, 9.479167, 9.4553566, 9.1785717, 8.6488094, 8.2648811, 8.0178576, 7.9375, 8, 8.0625, 8.125, 8.1875, 8.1875, 8.0625, 7.8928571, 7.875, 7.875, 8, 8.0625, 8.0625, 8.0625, 8, 7.9375, 8, 8, 8, 8.0625, 8, 8.0625, 8.1875, 8.25, 8.25, 8.25, 8.375, 8.5625, 8.8125, 9.0625, 9.0625, 9.0625, 9.1875, 9.375, 9.6071434, 9.75, -10, -10, -10, -10, -10, -10, -10, -10, -10, -10, -10, -10, -10, -10, -10, -10, -10, -10, -10, -10, -10, -10, -10, -10, -10, -10, -10, -10, -10, -10, -10, -10, -10, -10, -10, -10, -10, -10, -10, -10, -10, -10, -10, 71.5, 71.916664, 71.9375, 71.75, 71.5625, 71.375, 70.9375, 70.78125, 70.40625, 69.738091, 69.375, 69.008926, 68.5625, 68.145836, 67.857147, 67.5625, 67.375, 67.1875, 66.732147, 66.083328, 65.642853, 65.041664, 64.758926, 64.375, 63.848213, 62.955357, 62.363094, 62.133926, 61.892857, 61.380955, 60.901787, 60.5, 60.125, 59.6875, 59.14286, 58.333336, 58.035713, 57.580357, 57.36607, 56.714283, 56.20536, 55.633926, 55.095242, 54.589287, 54.1875, 53.75, 53.625, 53.223213, 52.800594, 52.166664, 51.696426, 51.294643, 50.520836, 50.267857, 49.9375, 49.741074, 49.220242, 48.568451, 48.116074, 47.625, 47.366074, 46.9375, 46.6875, 46.1875, 45.660713, 45.3125, 44.803574, 44.229168, 43.714287, 43.25, 42.839287, 42.5, 42.1875, 41.767857, 41.5, 41.125, 40.333332, 39.767857, 39.223213, 38.75, 38.4375, 38.0625, 37.625, 37.1875, 36.598213, 36.0625, 35.517857, 35.25, 34.8125, 34.5625, 34.125, 33.580357, 33.3125, 32.803574, 32.3125, 32.017857, 31.5625, 31.1875, 30.616072, 30.125, 29.580357, 29.25, 28.75, 28.4375, 28.125, 27.678572, 27.041666, 26.482141, 26.125, 25.6875, 25.3125, 24.723213, 24.375, 24, 23.616072, 22.979166, 22.464285, 22, 21.5625, 21.25, 20.705357, 20.3125, 19.723213, 19.375, 18.9375, 18.5625, 18.25, 17.705357, 17.375, 16.830357, 16.1875, 15.553572, 15.25, 14.8125, 14.5625, 14.25, 13.705357, 13.25, 12.660713, 12.1875, 11.5625, 11.25, 10.875, 10.553572, 9.947917, 9.4955359, 9.21875, 8.78125, 8.4375, 7.8928571, 7.4375, 7.0625, 6.625, 6.375, 6.0625, 5.9375, 5.9375, 5.9375, 6, 6, 6.125, 6.5952382, 6.4166665, 6.2291665, 6.125, 5.9375, 5.9375, 5.9375, 5.9375, 6.125, 6.1875, 6.1875, 6.3125, 6.375, 6.5625, 6.7857141, 6.75, 6.625, 6.4375, 6.375, 6.4375, 6.5625, 6.6875, 6.75, 6.8125, 6.875, 6.9375, 7.0625, 7.0625, 7.0625, 7.1875, 7.3125, 7.625, 7.875, 7.9642859, 8.25, 8.375, 8.625, 8.75, 8.8125, 8.6517859, 8.2767859, 8.25, 8, 8, 8.1875, 8.375, 8.6696434, 8.9375, 8.6875, 7.6309524, 6.6011906, 6.1160717, 6, 6, 6, 6, 6, 6, -10, -10, -10, -10, -10, 15.875, 15.583334, 15.1875, 14.491072, 13.861607, 13.3125, 13.083333, 12.888889, -10, -10, -10, -10, 16.357143, 16.1875, 16.21875, 16.21875, 16.1875, 16.1875, 6, 6, 6, 6.125, 6.25, 6.3125, 6.4375, 6.3125, 6.1875, 6.0625, 6.0625, 6.0625, 6.0625, 6.125, 6.125, 6.125, 6.125, 6.125, 6, 6.1875, 6.25, 6.3125, 6.5, 6.4375, 6.5, 6.5, 6.4375, 6.5, 6.625, 6.96875, 7.34375, 7.84375, 8.3883934, 8.7321434, 8.9375, 9.09375, 9.3258934, 9.2857141, 9.71875, 9.7946434, 9.7767859, 9.8125, 9.75, 9.8303566, 9.875, 10, 10.0625, 9.9910717, 9.7410717, 9.229167, 9.0178566, 8.8125, 8.4821434, 8.1622028, 7.9241071, 7.84375, 7.90625, 8, 8.125, 8.125, 8.0625, 7.875, 7.6428571, 7.6875, 7.75, 7.875, 8, 7.9375, 7.875, 7.8125, 7.8214283, 8.145833, 8.2410717, 8.25, 8.1875, 8.0625, 8, 8.125, 8.1875, 8.25, 8.3125, 8.4375, 8.625, 8.875, 9.1875, 9.1875
71.375, 70.9375, 70.84375, 70.59375, 70.050591, 69.8125, 69.446426, 68.910713, 68.0625, 67.651787, 67.375, 67.25, 67.125, 66.741074, 66.229164, 65.714287, 65.041664, 64.633926, 64.125, 63.580357, 62.955357, 62.443455, 62.17857, 61.75, 61.309525, 60.839287, 60.4375, 59.946426, 59.455357, 58.95536, 58.333336, 57.973213, 57.517857, 57.13393, 56.589283, 56.178574, 55.70536, 55.273811, 54.60714, 54.1875, 53.6875, 53.5625, 53.071426, 52.514881, 52.071426, 51.625, 51.258926, 50.4375, 50.196426, 49.9375, 49.803574, 49.220242, 48.452377, 47.883926, 47.4375, 47.178574, 46.75, 46.5625, 46.0625, 45.642857, 45.3125, 44.8125, 44.4375, 43.892857, 43.3125, 42.794643, 42.4375, 42.125, 41.705357, 41.4375, 41, 40.208332, 39.705357, 39.205357, 38.75, 38.4375, 38.125, 37.6875, 37.25, 36.616074, 36.0625, 35.517857, 35.25, 34.75, 34.5, 34.0625, 33.5625, 33.3125, 32.866074, 32.375, 32.017857, 31.517857, 31.1875, 30.660713, 30.125, 29.464285, 29.017857, 28.5625, 28.3125, 28.0625, 27.616072, 26.934525, 26.419641, 26.0625, 25.6875, 25.3125, 24.785713, 24.4375, 24.0625, 23.633928, 22.979166, 22.464285, 21.9375, 21.5, 21.25, 20.75, 20.375, 19.785713, 19.375, 18.875, 18.5, 18.25, 17.75, 17.4375, 16.892857, 16.25, 15.660714, 15.3125, 14.8125, 14.5, 14.25, 13.75, 13.375, 12.785713, 12.3125, 11.8125, 11.4375, 11.0625, 10.616072, 10.010417, 9.4955359, 9.21875, 8.78125, 8.5, 8, 7.5, 7.1875, 6.6875, 6.4375, 6.125, 5.9375, 5.9375, 5.9375, 6.0625, 6.125, 6.3125, 6.6458335, 6.6041665, 6.3541665, 6.1875, 6, 6.0625, 6.0625, 6.0625, 6.3125, 6.4375, 6.5, 6.6875, 6.6875, 6.8125, 7.0357141, 6.9375, 6.8125, 6.625, 6.5625, 6.625, 6.6875, 6.75, 6.8125, 6.875, 6.9375, 7.0625, 7.1875, 7.25, 7.25, 7.25, 7.3125, 7.5, 7.6875, 7.8392859, 8.0625, 8.3125, 8.6875, 8.875, 9, 8.8348217, 8.46875, 8.34375, 8.21875, 8.1875, 8.40625, 8.59375, 8.71875, 8.8571434, 8.1875, 7.0952382, 6.3511906, 6.0089283, 6, 6, 6, 6, 6, 6, -10, -10, -10, -10, -10, 16, 15.666667, 15.25, 14.571428, 13.96875, 13.416667, -10, -10, -10, -10, -10, -10, 16.625, 16.5, 16.5, 16.375, 16.25, 16.25, 6, 6, 6, 6.0625, 6.125, 6.1875, 6.25, 6.1875, 6.125, 6, 6, 6, 6, 6.0625, 6.125, 6.125, 6.125, 6.125, 6, 6.1875, 6.25, 6.25, 6.4375, 6.375, 6.375, 6.375, 6.25, 6.1875, 6.3125, 6.5625, 6.875, 7.4375, 8.0982151, 8.5892859, 8.8125, 8.84375, 8.90625, 8.96875, 9.15625, 9.2946434, 9.3392859, 9.4375, 9.4375, 9.5803566, 9.625, 9.75, 9.875, 9.7946434, 9.4285717, 9.041667, 8.8303566, 8.8125, 8.6696434, 8.447917, 8.2276793, 7.96875, 7.96875, 7.9375, 8, 8, 7.9375, 7.8125, 7.6428571, 7.6875, 7.75, 7.875, 8, 7.9375, 7.875, 7.8125, 7.8214283, 8.145833, 8.3035717, 8.375, 8.3035717, 8.0625, 8, 8.0625, 8.25, 8.4375, 8.5625, 8.6875, 8.875, 9.125, 9.5446434, 9.625, 9.6875, 9.6875, 9.875, 10.357143, 10.683333, -10, -10, -10, -10, -10, -10, -10, -10, -10, -10, -10, -10, -10, -10, -10, -10, -10, -10, -10, -10, -10, -10, -10, -10, -10, -10, -10, -10, -10, -10, -10, -10, -10, -10, -10, -10, -10, -10, -10, -10, -10, -10, -10, -10, 71.916664, 71.9375, 71.75, 71.5625, 71.375, 70.9375, 70.90625, 70.71875, 70.238091, 70, 69.676582, 69.053574, 68.1875, 67.901787, 67.625, 67.446426, 67.104164, 66.741074, 66.205353, 65.714287, 64.970238, 64.363098, 63.821426, 63.330357, 62.892857, 62.479168, 62.24107, 61.875, 61.488094, 60.863098, 60.446426, 59.875, 59.184525, 58.70536, 58.291668, 57.910713, 57.455357, 56.964287, 56.580357, 56.214287, 55.559525, 55.095242, 54.35714, 54.008926, 53.6875, 53.5625, 53.142857, 52.514881, 52, 51.291668, 50.901787, 50.270832, 50.125, 49.9375, 49.803574, 49.220242, 48.452377, 47.821426, 47.3125, 47.0625, 46.6875, 46.5, 46.0625, 45.625, 45.25, 44.75, 44.375, 43.9375, 43.357143, 42.75, 42.383926, 42.0625, 41.705357, 41.4375, 40.9375, 40.145832, 39.705357, 39.25, 38.875, 38.5625, 38.1875, 37.705357, 37.25, 36.678574, 36.178574, 35.541668, 35.258926, 34.8125, 34.5625, 34.125, 33.625, 33.3125, 32.866074, 32.375, 31.955357, 31.455357, 31.125, 30.642857, 30.125, 29.464285, 28.955357, 28.5, 28.25, 27.9375, 27.553572, 26.872025, 26.401785, 26.0625, 25.6875, 25.375, 24.892857, 24.5, 24.0625, 23.580357, 23.0625, 22.517857, 22.0625, 21.5625, 21.25, 20.705357, 20.3125, 19.723213, 19.375, 18.875, 18.5, 18.25, 17.741072, 17.229166, 16.714285, 16.1875, 15.705357, 15.375, 14.875, 14.5, 14.25, 13.75, 13.375, 12.785713, 12.3125, 11.8125, 11.4375, 11.0625, 10.616072, 9.979167, 9.4642859, 9.1875, 8.75, 8.4375, 7.8928571, 7.4375, 7.125, 6.6875, 6.4375, 6.125, 5.9375, 5.9375, 5.9375, 6.125, 6.25, 6.375, 6.4375, 6.375, 6.28125, 6.21875, 6.1339283, 6.1041665, 6.2410717, 6.2410717, 6.5, 6.625, 6.6875, 6.8125, 6.8125, 6.875, 7.0357141, 7, 6.9375, 6.8125, 6.8125, 6.8125, 6.8125, 6.8125, 6.8125, 6.875, 7, 7.1875, 7.375, 7.5, 7.4375, 7.25, 7.1517859, 7.25, 7.375, 7.5892859, 7.8125, 8.125, 8.5625, 8.8125, 9, 8.90625, 8.71875, 8.59375, 8.53125, 8.375, 8.53125, 8.65625, 8.65625, 8.6428576, 7.625, 6.5238094, 6.0803571, 5.9375, 6, 6, 6, 6, 6, 6, -10, -10, -10, -10, -10, 15.875, 15.583334, 15.1875, 14.553572, 13.96875, 13.458334, -10, -10, -10, -10, -10, -10, 16.625, 16.5, 16.5625, 16.5, 16.375, 16.416666, 6, 6, 6, 6, 6, 6.125, 6.125, 6.125, 6.125, 6, 6, 6, 6, 6, 6.0625, 6.0625, 6.0625, 6.0625, 6, 6.125, 6.1875, 6.1875, 6.3125, 6.3125, 6.25, 6.25, 6.125, 6, 6.1875, 6.3125, 6.625, 7.1875, 8.0148811, 8.6517859, 9, 9.0625, 9.125, 9.0625, 9.0625, 9.1071434, 9.0267859, 9.125, 9.1875, 9.4375, 9.625, 9.8125, 9.9375, 9.7946434, 9.3035717, 8.916667, 8.6428566, 8.6875, 8.6071434, 8.385417, 8.1651793, 7.90625, 7.90625, 7.875, 8, 8, 7.9375, 7.8125, 7.6428571, 7.6875, 7.75, 7.875, 8, 7.9375, 7.875, 7.875, 7.8839283, 8.208333, 8.3660717, 8.4375, 8.4285717, 8.25, 8.25, 8.375, 8.625, 8.875, 9, 9.125, 9.458333, 9.6875, 10.169643, 10.1875
71.25, 70.8125, 70.78125, 70.65625, 70.446426, 70.178574, 69.460884, 69.241074, 68.375, 68.151787, 67.830353, 67.321426, 67, 66.703575, 66.008926, 65.5, 64.928574, 64.354172, 63.821426, 63.392857, 63.0625, 62.604168, 62.30357, 61.830357, 61.42857, 60.760418, 60.352676, 59.71875, 58.997025, 58.526787, 58.1875, 57.73214, 57.160713, 56.669643, 56.4375, 56.08036, 55.505955, 55.178574, 54.410713, 54.133926, 53.8125, 53.65625, 53.232143, 52.622025, 52.071426, 51.104168, 50.723213, 50.145832, 50.0625, 49.875, 49.75, 49.303574, 48.505951, 47.892857, 47.5, 47.1875, 46.75, 46.455357, 46, 45.5625, 45.1875, 44.642857, 44.25, 43.8125, 43.294643, 42.660713, 42.321426, 42.0625, 41.75, 41.5, 41.0625, 40.270832, 39.9375, 39.4375, 39.0625, 38.6875, 38.1875, 37.660713, 37.25, 36.785713, 36.357143, 35.583336, 35.267857, 34.8125, 34.5625, 34.1875, 33.6875, 33.375, 32.928574, 32.4375, 32.125, 31.580357, 31.1875, 30.598213, 30.125, 29.571428, 29.142857, 28.6875, 28.330357, 27.9375, 27.491072, 26.809525, 26.383928, 26.0625, 25.6875, 25.375, 24.892857, 24.5, 24.0625, 23.580357, 23.0625, 22.517857, 22.125, 21.6875, 21.375, 20.830357, 20.392857, 19.892857, 19.491072, 18.854166, 18.446428, 18.1875, 17.732143, 17.083332, 16.642857, 16.125, 15.705357, 15.375, 14.875, 14.5, 14.1875, 13.6875, 13.3125, 12.767857, 12.375, 11.875, 11.5, 11.0625, 10.5625, 10.0625, 9.5178566, 9.25, 8.75, 8.4375, 7.8928571, 7.4375, 7.0625, 6.625, 6.375, 6.125, 6, 6, 6, 6.0625, 6.125, 6.1875, 6.125, 6.0625, 6.09375, 6.2008929, 6.2589283, 6.2916665, 6.4285717, 6.4285717, 6.625, 6.75, 6.8125, 6.875, 6.875, 6.9375, 6.9732141, 6.875, 6.875, 6.8125, 6.875, 6.9375, 6.8125, 6.75, 6.75, 6.8125, 7, 7.25, 7.4375, 7.5625, 7.5, 7.25, 7.2142859, 7.3125, 7.4375, 7.6517859, 7.75, 8.0625, 8.5, 8.75, 9, 8.96875, 8.84375, 8.65625, 8.53125, 8.3125, 8.40625, 8.53125, 8.53125, 8.3928576, 6.9863939, 6.4285717, 6.0446429, 6, 6, 6, 6, 6, 6, 6, -10, -10, -10, -10, -10, 15.75, 15.5, 15.125, 14.473214, 13.861607, 13.541667, -10, -10, -10, -10, -10, -10, 16.375, 16.333334, 16.46875, 16.46875, 16.40625, 16.458334, 6.125, 6.1666665, 6.1875, 6.1875, 6.25, 6.3125, 6.25, 6.1875, 6.1875, 6.125, 6.125, 6.125, 6.0625, 6, 6, 6, 6, 6, 6, 6.0625, 6.125, 6.125, 6.1875, 6.25, 6.1875, 6.25, 6.1875, 6.0625, 6.2678571, 6.3874998, 6.4464283, 6.8214283, 7.5148811, 8.5476189, 9.0357141, 9.3125, 9.4375, 9.375, 9.3125, 9.2321434, 9.0892859, 9.125, 9.25, 9.5, 9.6875, 9.875, 9.9375, 9.7232141, 9.1750002, 9.1071434, 8.75, 8.875, 8.8125, 8.78125, 8.5848217, 8.34375, 8.15625, 8, 8.0625, 7.9375, 7.875, 7.8125, 7.75, 7.8125, 7.875, 7.9375, 8, 7.9375, 7.9375, 8, 8.0714283, 8.395833, 8.4910717, 8.5625, 8.6160717, 8.6071434, 8.6875, 8.875, 9.1875, 9.458333, 9.25, 9.333333, 10.20238, 10.357142, 10.642858, 10.285714, 10.244898, 10.020408, 9.875, 10.125, -10, -10, -10, -10, -10, -10, -10, -10, -10, -10, -10, -10, -10, -10, -10, -10, -10, -10, -10, -10, -10, -10, -10, -10, -10, -10, -10, -10, -10, -10, -10, -10, -10, -10, -10, -10, -10, -10, -10, -10, -10, -10, -10, -10, -10, 72, 71.916664, 71.6875, 71.4375, 71.1875, 70.8125, 70.75, 70.5625, 70.375, 70.1875, 69.604164, 69.303574, 68.666664, 68.544647, 68.223213, 67.404762, 67, 66.641075, 65.946426, 65.464279, 64.928574, 64.354172, 63.830353, 63.392857, 63.0625, 62.604168, 62.30357, 61.830357, 61.36607, 60.697918, 60.290176, 59.65625, 59.059525, 58.633926, 58.1875, 57.696426, 57.017857, 56.535713, 56.25, 55.901787, 55.380955, 55, 54.392857, 54.0625, 53.8125, 53.71875, 53.401787, 52.934525, 52.35714, 51.145836, 50.678574, 50.083332, 50, 49.875, 49.6875, 49.1875, 48.482143, 47.892857, 47.5, 47.1875, 46.8125, 46.580357, 46.1875, 45.8125, 45.375, 44.705357, 44.303574, 43.705357, 43.24107, 42.598213, 42.321426, 42, 41.6875, 41.4375, 41.0625, 40.625, 40.25, 39.705357, 39.25, 38.75, 38.1875, 37.598213, 37.25, 36.892857, 36.535713, 35.708336, 35.392857, 34.9375, 34.6875, 34.3125, 33.8125, 33.4375, 33.0625, 32.625, 32.25, 31.705357, 31.1875, 30.598213, 30.1875, 29.633928, 29.205357, 28.75, 28.330357, 27.875, 27.4375, 26.892857, 26.4375, 26.1875, 25.75, 25.375, 24.848213, 24.4375, 24.0625, 23.642857, 23.125, 22.535713, 22.1875, 21.75, 21.4375, 20.892857, 20.455357, 20.0625, 19.607143, 18.833332, 18.392857, 18.125, 17.732143, 17.020832, 16.535713, 16.0625, 15.6875, 15.375, 14.875, 14.5, 14.125, 13.625, 13.1875, 12.642857, 12.3125, 11.8125, 11.5, 11, 10.5, 10, 9.5, 9.1875, 8.6875, 8.375, 7.8303571, 7.4375, 7.0625, 6.625, 6.375, 6.125, 6.0625, 6.125, 6.125, 6.1875, 6.125, 6.0625, 5.9375, 5.875, 6.03125, 6.2633929, 6.4464283, 6.4166665, 6.4910717, 6.4910717, 6.625, 6.8125, 6.9375, 7, 7, 6.9375, 6.8125, 6.625, 6.625, 6.75, 6.9107141, 7, 6.875, 6.75, 6.75, 6.8125, 7, 7.25, 7.4375, 7.5625, 7.5, 7.25, 7.2142859, 7.25, 7.3125, 7.5625, 7.5625, 7.8839283, 8.458333, 8.7410717, 9, 8.96875, 8.96875, 8.84375, 8.71875, 8.4553566, 8.46875, 8.46875, 8.40625, 8.1428576, 6.708333, 6.25, 5.9375, 6, 5.9375, 5.9375, 6, 6.1071429, 6.125, 6.1666665, -10, -10, -10, -10, -10, 15.625, 15.416666, 15.0625, 14.455357, 13.955357, 13.666667, -10, -10, -10, -10, -10, -10, 16.0625, 16.0625, 16.21875, 16.21875, 16.25, 16.3125, 6.125, 6.1666665, 6.125, 6.1517859, 6.2857141, 6.3125, 6.3125, 6.25, 6.3125, 6.2946429, 6.1875, 6.1875, 6.0625, 6, 6, 6, 6, 6, 6, 6.0625, 6.1875, 6.25, 6.375, 6.5, 6.4196429, 6.2916665, 6.1964283, 6.0625, 6.3392854, 6.5333338, 6.5401783, 6.8526783, 7.3988099, 8.6904764, 9.2410717, 9.53125, 9.53125, 9.46875, 9.40625, 9.4107141, 9.5, 9.5625, 9.6875, 9.875, 9.9375, 10, 10, 9.8258934, 9.5187502, 9.5133934, 9.28125, 9.3125, 9.25, 9.1875, 8.9910717, 8.75, 8.5, 8.2410717, 8.0625, 8.0625, 8.1785717, 8.25, 8.1428566, 8.0714283, 8, 8, 7.9375, 7.875, 7.9553571, 8.1374998, 8.1428566, 8.3125, 8.28125, 8.46875, 8.7098217, 8.8258934, 9.0803566, 9.5816326, 9.6875, 10.020833, -10, -10, 10.458333, 10.520833, 10.625, 9.8928576
71.1875, 70.9375, 70.8125, 70.375, 70.151787, 69.84375, 69.385414, 69.267853, 69.017853, 68.6875, 68.330353, 67.404762, 66.9375, 66.578575, 65.883926, 65.446426, 64.991074, 64.416672, 63.924103, 63.486607, 63.098213, 62.354168, 62.017857, 61.6875, 61.294643, 60.697918, 60.352676, 59.897324, 59.354168, 58.883926, 58.330357, 57.758926, 57.080357, 56.642857, 56.25, 55.928574, 55.354168, 54.883926, 54.392857, 54.125, 53.875, 53.65625, 53.258926, 52.854168, 52.223213, 51.020836, 50.535713, 50.1875, 50.107143, 49.758926, 49.5, 49.0625, 48.535713, 48.0625, 47.580357, 47.3125, 46.9375, 46.767857, 46.4375, 46.0625, 45.5625, 44.684525, 44.178574, 43.580357, 43.17857, 42.372025, 42.151787, 41.8125, 41.5625, 41.3125, 40.9375, 40.5625, 40.178574, 39.497025, 39.071426, 38.625, 38.125, 37.589287, 37.1875, 36.9375, 36.598213, 35.895836, 35.517857, 35.0625, 34.705357, 34.375, 33.875, 33.5, 33.125, 32.625, 32.25, 31.705357, 31.125, 30.535713, 30.1875, 29.75, 29.4375, 28.9375, 28.392857, 27.830357, 27.4375, 26.9375, 26.5, 26.25, 25.75, 25.3125, 24.67857, 24.3125, 23.9375, 23.625, 23.125, 22.535713, 22.25, 21.8125, 21.5, 20.955357, 20.455357, 20.0625, 19.607143, 18.833332, 18.392857, 18.0625, 17.669643, 16.895832, 16.348213, 15.830357, 15.5, 15.25, 14.8125, 14.5, 14.0625, 13.5625, 13.125, 12.642857, 12.375, 11.875, 11.517857, 11.0625, 10.5625, 10.0625, 9.5178566, 9.125, 8.625, 8.3125, 7.7678571, 7.4375, 7.0625, 6.6875, 6.4375, 6.1875, 6.125, 6.125, 6.125, 6.1875, 6.125, 6.0625, 5.9375, 5.875, 6.09375, 6.3883929, 6.5714283, 6.5416665, 6.6160717, 6.6160717, 6.75, 6.9375, 7, 7, 7, 6.9375, 6.8125, 6.6875, 6.6875, 6.8125, 6.9732141, 7.0625, 7, 6.9375, 6.9375, 6.9375, 7.0625, 7.1875, 7.3125, 7.375, 7.3125, 7.1875, 7.2142859, 7.375, 7.4375, 7.625, 7.625, 7.8839283, 8.458333, 8.7410717, 9, 9, 9.0625, 9, 8.8125, 8.5178566, 8.5, 8.4375, 8.375, 8.1071424, 6.6666665, 6.2142859, 5.9375, 6, 5.9375, 5.9375, 6.0625, 6.2321429, 6.3125, 6.4166665, -10, -10, -10, -10, -10, 15.625, 15.416666, 15.0625, 14.419643, 13.924107, 13.59375, -10, -10, -10, -10, -10, -10, 15.833333, 15.888888, 16.03125, 16.104168, 16.171875, 16.25, 6.125, 6.1666665, 6.0625, 6.0892859, 6.2232141, 6.1875, 6.25, 6.1875, 6.25, 6.1696429, 6.0625, 6.0625, 5.9375, 6, 6.0625, 6.125, 6.125, 6.125, 6.0625, 6, 6.0625, 6.1964283, 6.5208335, 6.7410717, 6.7321429, 6.4791665, 6.2767859, 6.1875, 6.4642854, 6.7565479, 6.7901783, 7.0401783, 7.4702382, 8.770833, 9.4107141, 9.78125, 9.9151783, 10.114583, 10.138393, 10.160714, 10.25, 10.3125, 10.4375, 10.785714, 10.491072, 10.229167, 10.071428, 9.9285717, 9.8625002, 9.8571434, 9.75, 9.71875, 9.59375, 9.59375, 9.46875, 9.375, 9.125, 8.8035717, 8.4375, 8.375, 8.4910717, 8.5625, 8.4553566, 8.3214283, 8.125, 8.0625, 8, 8.0625, 8.2410717, 8.3874998, 8.4345245, 8.5714283, 8.4846935, 8.8125, 8.9375, 9.21875, 9.6636906, 10.0625, 10.34375, 10.5625, -10, -10, 10.583333, 10.5, 10.392857, 9.3928576, 9.1632662, 9.4107141, 9.3125, 9.5, -10, -10, -10, -10, -10, -10, -10, -10, -10, -10, -10, -10, -10, -10, -10, -10, -10, -10, -10, -10, -10, -10, -10, -10, -10, -10, -10, -10, -10, -10, -10, -10, -10, -10, -10, -10, -10, -10, -10, -10, -10, -10, -10, -10, -10, 72.5, 72.25, 72, 71.642853, 71.3125, 71.125, 70.875, 70.166664, 69.910713, 69.65625, 69.59375, 69.446426, 68.892853, 68.357147, 67.892853, 67.083336, 66.833336, 66.525002, 65.991074, 65.5, 65.0625, 64.6875, 64.209824, 63.629463, 63.098213, 62.229168, 61.830357, 61.4375, 61.107143, 60.71875, 60.40625, 59.96875, 59.354168, 58.883926, 58.267857, 57.696426, 57.080357, 56.6875, 56.3125, 56, 55.354168, 54.883926, 54.392857, 54.125, 53.803574, 53.322918, 52.901787, 52.6875, 52.223213, 51.282738, 50.630951, 50.258926, 50.044643, 49.696426, 49.419643, 48.892857, 48.464287, 48, 47.580357, 47.25, 46.9375, 46.799107, 46.53125, 46.28125, 45.776787, 44.726192, 44.178574, 43.517857, 43.071426, 42.354168, 42.142857, 41.8125, 41.5625, 41.25, 40.830357, 40.5, 40.116074, 39.497025, 39.008926, 38.517857, 38.125, 37.625, 36.958332, 36.6875, 36.357143, 35.916668, 35.625, 34.979168, 34.589287, 34.25, 33.8125, 33.4375, 33.017857, 32.5625, 32.1875, 31.705357, 31.1875, 30.598213, 30.25, 29.767857, 29.5, 29, 28.392857, 27.785713, 27.375, 26.875, 26.5, 26.25, 25.75, 25.25, 24.642857, 24.294643, 23.830357, 23.571428, 23.0625, 22.535713, 22.25, 21.8125, 21.5625, 21.0625, 20.517857, 20.125, 19.607143, 18.895832, 18.410713, 17.833334, 17.419643, 16.791666, 16.339285, 15.767857, 15.4375, 15.1875, 14.75, 14.5, 14, 13.5, 13.125, 12.75, 12.491072, 11.854167, 11.464286, 11.0625, 10.625, 10.125, 9.5357141, 9.0625, 8.5625, 8.25, 7.75, 7.4375, 7.0625, 6.75, 6.5, 6.25, 6.1875, 6.125, 6.125, 6.125, 6.0625, 6, 5.9375, 5.9375, 6.1875, 6.4196429, 6.5625, 6.5625, 6.5, 6.5625, 6.6875, 6.9375, 7, 7, 7, 6.9375, 6.8125, 6.6875, 6.6875, 6.8125, 6.9732141, 7.0625, 6.9375, 6.875, 6.875, 6.875, 7, 7.0625, 7.1875, 7.25, 7.25, 7.25, 7.375, 7.5625, 7.625, 7.75, 7.6875, 7.8839283, 8.458333, 8.7410717, 9, 9, 9.0625, 9, 8.8125, 8.5178566, 8.5, 8.4375, 8.375, 8.1428566, 6.75, 6.2857141, 6, 6, 5.9375, 5.9375, 6.0625, 6.1696429, 6.1875, 6.3095236, -10, -10, -10, -10, -10, 15.625, 15.416666, 15.0625, 14.388393, 13.892857, 13.520833, 13.125, 13, -10, -10, -10, -10, -10, -10, 15.96875, 15.979167, 16.046875, 16.083334, 6.125, 6.1666665, 6.0625, 6.0892859, 6.2232141, 6.125, 6.25, 6.1875, 6.25, 6.1696429, 6, 6.03125, 5.96875, 6.09375, 6.21875, 6.25, 6.1875, 6.1875, 6.125, 6.0625, 6.1458335, 6.2619042, 6.6944447, 6.9880958, 7.2214289, 6.6388888, 6.2767859, 6.2708335, 6.5803571, 7.1523809, 7.2276783, 7.4776783, 7.6785712, 8.895833, 9.4732141, 9.875, 10.080357, 10.604166, 10.714286, 10.785714, 10.875, 10.875, 11, 11.1875, 11.053572, 10.675595, 10.217261, 10.0625, 10.094643, 10.232143, 10.25, 10.21875, 10.03125, 9.96875, 9.84375, 9.75, 9.5625, 9.3035717, 8.9375, 8.9375, 9.0267859, 8.9553566, 8.7767859, 8.5714283, 8.4375, 8.5, 8.5357141, 8.625, 8.8035717, 8.8249998, 8.8720245, 9.3571424, 9.3086729, 9.25, 9.3125, 9.6383934, 10.330358, 10.678572, 10.933036, 11.09375, -10, -10, 10.857142, 10.75, 10.520408, 9.75
71.428574, 71.125, 70.875, 70.104164, 69.848213, 69.549103, 69.53125, 69.3125, 68.559525, 68, 67.5625, 67.145836, 66.875, 66.5, 66.0625, 65.589287, 65.1875, 64.8125, 64.379463, 63.71875, 63.223213, 62.291668, 61.892857, 61.4375, 61.142857, 60.75, 60.4375, 60, 59.145836, 58.705353, 58.142857, 57.75, 57.25, 56.875, 56.5, 56.1875, 55.541668, 55.0625, 54.434525, 54.133926, 53.732147, 53.104168, 52.776787, 52.625, 52.294643, 51.345238, 50.666668, 50.258926, 49.982143, 49.696426, 49.401787, 48.785713, 48.410713, 47.9375, 47.517857, 47.125, 46.8125, 46.71875, 46.46875, 46.34375, 45.89286, 44.750004, 44.25, 43.580357, 43.196426, 42.479168, 42.205357, 41.8125, 41.5625, 41.196426, 40.476189, 40.169643, 39.741074, 39.247025, 38.821426, 38.330357, 37.883926, 37.375, 36.770832, 36.5, 36.241074, 36, 35.616074, 34.934525, 34.526787, 34.1875, 33.8125, 33.375, 32.910713, 32.5, 32.125, 31.705357, 31.1875, 30.598213, 30.1875, 29.642857, 29.3125, 28.8125, 28.3125, 27.723213, 27.375, 26.875, 26.5, 26.25, 25.75, 25.3125, 24.75, 24.148809, 23.651785, 23.383928, 22.9375, 22.517857, 22.1875, 21.6875, 21.4375, 20.9375, 20.5, 20.0625, 19.553572, 19.041666, 18.526785, 17.895834, 17.383928, 16.9375, 16.455357, 15.955357, 15.5625, 15.25, 14.8125, 14.5, 14.0625, 13.5625, 13.25, 12.875, 12.491072, 11.809525, 11.401786, 11.0625, 10.6875, 10.25, 9.6607141, 9.0625, 8.5178566, 8.125, 7.625, 7.375, 7, 6.8125, 6.5446429, 6.2142859, 6.1875, 6.0625, 6.125, 6.125, 6.0625, 6, 6, 6.0625, 6.3125, 6.5, 6.625, 6.625, 6.5, 6.5625, 6.6875, 6.875, 7, 7, 7, 6.9375, 6.875, 6.8125, 6.8125, 6.9375, 7.0357141, 7.0625, 6.9375, 6.875, 6.875, 6.875, 7, 7, 7.125, 7.25, 7.25, 7.3125, 7.4375, 7.5625, 7.625, 7.75, 7.6875, 7.8839283, 8.458333, 8.7410717, 9, 9, 9.0625, 9.0625, 8.9375, 8.6428566, 8.625, 8.5625, 8.4375, 8.2142849, 6.7083335, 6.2142859, 5.9375, 5.9375, 5.9375, 5.9375, 6.0625, 6.1696429, 6.125, 6.2738094, 6.0999999, -10, -10, -10, -10, 15.5, 15.333333, 15, 14.450893, 14, 13.604167, 13.125, 13, -10, -10, -10, -10, -10, -10, 15.875, 15.885417, 15.953125, 16, 6, 6, 5.875, 5.9017859, 5.9732141, 5.9375, 6.1875, 6.25, 6.3541665, 6.1428571, 5.9166665, 5.9583335, 5.9583335, 6.125, 6.2916665, 6.3333335, 6.1875, 6.1875, 6.1666665, 6.1458335, 6.2708335, -10, -10, -10, -10, -10, 6.2142859, 6.291667, 6.7589283, 7.7312927, 8.1173468, 8.5, 8.6530609, 9.4821424, 9.8928576, 10.3125, 10.392857, 10.947916, 11.089286, 11.223214, 11.375, 11.375, 11.366072, 11.291667, 11.133928, 10.800595, 10.574404, 10.571428, 10.732143, 10.75, 10.8125, 10.65625, 10.46875, 10.40625, 10.28125, 10.1875, 10.09375, 9.8348217, 9.6785717, 9.5714283, 9.4017859, 9.2678566, 9.0267859, 8.8839283, 8.8125, 9, 9.5051022, 9.5714283, 9.6428576, 9.5428572, 9.5578232, 9.9285717, 10.022959, 9.9375, 10.0625, 10.096939, 11.260203, 11.366072, 11.495536, 11.653275, 12.705357, 13.169643, 12.416667, 12.416667, 12.5, 12.458333, 12.601192, 12.970238, 13.166667, 13.486111, -10, -10, -10, -10, -10, -10, -10, -10, -10, -10, -10, -10, -10, -10, -10, -10, -10, -10, -10, -10, -10, -10, -10, -10, -10, -10, -10, -10, -10, -10, -10, -10, -10, -10, -10, -10, -10, -10, -10, -10, -10, -10, -10, -10, -10, 72.75, 72.499992, 72.3125, 71.955353, 71.553574, 71.25, 71, 70.229164, 69.910713, 69.575897, 69.53125, 69.25, 68.452377, 67.8125, 67.357147, 67.1875, 66.875, 66.5, 66, 65.5, 65.0625, 64.75, 64.415176, 63.71875, 63.294643, 62.517857, 61.938774, 61.294643, 60.955357, 60.625, 60.375, 60, 59.083336, 58.598213, 58.080357, 57.678574, 57.25, 56.875, 56.5, 56.25, 55.666668, 55.20536, 54.309525, 54.0625, 53.58036, 52.943455, 52.714287, 52.4375, 52.223213, 51.303574, 50.630955, 50.258926, 49.982143, 49.696426, 49.401787, 48.848213, 48.517853, 47.9375, 47.642857, 47.169643, 46.729168, 46.540176, 46.28125, 46.111607, 45.39286, 44.357143, 43.821426, 43.4375, 43.125, 42.479168, 42.205357, 41.8125, 41.625, 41.241074, 40.297619, 39.910713, 39.491074, 39.104168, 38.758926, 38.267857, 37.776787, 37.3125, 36.708332, 36.4375, 36.1875, 36.0625, 35.616074, 34.934525, 34.419643, 34.125, 33.75, 33.3125, 32.74107, 32.3125, 31.875, 31.517857, 31.125, 30.642857, 30.25, 29.705357, 29.25, 28.705357, 28.25, 27.660713, 27.375, 26.875, 26.5, 26.1875, 25.6875, 25.3125, 24.794643, 24.211309, 23.651785, 23.321428, 22.9375, 22.5625, 22.25, 21.75, 21.4375, 20.9375, 20.4375, 19.892857, 19.4375, 19.125, 18.642857, 17.958334, 17.339285, 16.9375, 16.5, 16.080357, 15.6875, 15.3125, 14.875, 14.5, 14.125, 13.625, 13.375, 13, 12.491072, 11.764881, 11.339286, 11, 10.6875, 10.3125, 9.7232141, 9.125, 8.5357141, 8.0625, 7.5625, 7.3125, 6.9375, 6.8125, 6.5446429, 6.2142859, 6.125, 5.9375, 6, 6, 6, 6, 6, 6.125, 6.375, 6.5625, 6.6875, 6.625, 6.5, 6.5, 6.625, 6.8125, 6.9375, 7, 6.9375, 6.875, 6.875, 6.875, 6.9375, 7, 7, 7, 6.875, 6.875, 6.875, 6.875, 7, 7, 7.125, 7.25, 7.3125, 7.4375, 7.5625, 7.6875, 7.75, 7.875, 7.875, 8.125, 8.5, 8.75, 9, 9, 9, 9, 8.9375, 8.75, 8.75, 8.75, 8.625, 8.4017849, 7.1130953, 6.3511906, 6.0089283, 5.9375, 6, 6, 6.0625, 6.0625, 6, 6.1696429, 6.1777778, -10, -10, -10, -10, 15.375, 15.25, 14.9375, 14.419643, 13.90625, 13.479167, -10, -10, -10, -10, -10, -10, -10, -10, 15.958333, 16.166668, 16.192709, 16.208334, 6, 6, 5.875, 5.875, 5.875, 5.875, 6.1964283, 6.4375, 6.4791665, -10, -10, -10, -10, -10, -10, -10, 6.25, 6.25, 20.625, 6.1944447, 6.2777781, -10, -10, -10, -10, -10, 7.0918365, 7.2857146, 7.7321429, 9.7202377, 10.607142, 10.958333, 11, 11.25, 11.446429, 10.955357, 10.788691, 11.260416, 11.308036, 11.53125, 11.65625, 11.65625, 11.678572, 11.541667, 11.446428, 11.175595, 11.011904, 11.040178, 11.138393, 11.15625, 11.21875, 11.09375, 10.96875, 10.90625, 10.78125, 10.6875, 10.59375, 10.40625, 10.21875, 10.09375, 10.004464, 9.6454077, 9.4923468, 9.4107141, 9.625, 9.8125, 10.505102, 10.515306, 10.157738, 10.017857, 10.041667, 10.375, 10.598214, 10.71875, 11.017858, 11.642858, 11.988095, 12.163266, 12.120536, 12.260416, 13.053571, 13.446429, 13.214286, 13.238096, 13.357142, 13.5
71.553574, 71.125, 70.875, 70.291664, 69.883926, 69.544647, 69.375, 68.9375, 68.184525, 67.875, 67.4375, 67.3125, 66.9375, 66.4375, 65.892853, 65.4375, 64.9375, 64.6875, 64.321426, 63.625, 63.258926, 62.455357, 61.530613, 61.138393, 60.736607, 60.4375, 60.25, 59.875, 59.020836, 58.535713, 58, 57.57143, 57.1875, 56.8125, 56.5, 56.25, 55.729168, 55.39286, 54.604168, 54.3125, 53.714287, 53.023811, 52.821426, 52.5, 52.285713, 51.095238, 50.452381, 50.071426, 49.875, 49.875, 49.544643, 48.744045, 48.392853, 47.75, 47.6875, 47.214287, 46.622025, 46.290176, 45.893749, 45.819939, 44.89286, 44.119049, 43.696426, 43.4375, 43.232143, 42.729168, 42.383926, 41.9375, 41.75, 41.348213, 40.315475, 39.848213, 39.4375, 39.1875, 38.8125, 38.330357, 37.714287, 37.25893, 36.770832, 36.4375, 36.25, 36, 35.553574, 34.872025, 34.401787, 34.0625, 33.6875, 33.1875, 32.55357, 32.1875, 31.75, 31.5, 31.125, 30.642857, 30.25, 29.767857, 29.303572, 28.622025, 28.258928, 27.705357, 27.4375, 26.9375, 26.5, 26.1875, 25.6875, 25.375, 24.901787, 24.273809, 23.714285, 23.321428, 23, 22.625, 22.25, 21.705357, 21.375, 20.875, 20.4375, 19.892857, 19.4375, 19.1875, 18.705357, 18.020834, 17.357141, 16.9375, 16.5625, 16.25, 15.8125, 15.375, 14.830357, 14.4375, 14.125, 13.6875, 13.4375, 13, 12.428572, 11.702381, 11.321428, 10.9375, 10.625, 10.25, 9.7053566, 9.125, 8.5357141, 8, 7.5, 7.25, 6.875, 6.7410717, 6.2738094, 5.9821429, 5.9375, 5.875, 6, 6, 6, 6, 6, 6.125, 6.375, 6.5625, 6.6875, 6.625, 6.4375, 6.4375, 6.5625, 6.75, 6.9375, 7, 6.875, 6.75, 6.75, 6.75, 6.875, 7, 7, 7, 6.875, 6.875, 6.875, 6.875, 7, 7, 7.125, 7.25, 7.375, 7.5, 7.625, 7.75, 7.75, 7.8125, 7.8125, 8.0625, 8.4821434, 8.75, 9, 9, 9, 9, 9, 8.875, 8.875, 8.875, 8.75, 8.5178566, 7.4761906, 6.5714283, 6.1964283, 6, 6.0625, 6, 6, 5.9375, 5.8125, 5.9821429, 6.2166672, -10, -10, -10, -10, 15.125, 15.083333, 14.8125, 14.5, 14.1875, 13.935417, -10, -10, -10, -10, -10, -10, -10, -10, -10, 16.375, 16.416668, 16.416668, 6, 6, 5.9375, 5.9375, 5.875, 5.875, 6.1339283, 6.4375, 6.5625, -10, -10, -10, -10, -10, -10, -10, 22, 21.666666, 20.972221, 17.936508, 18.638889, -10, -10, -10, -10, -10, 10.5, 10.666667, 10.895833, 11.618054, 11.681122, 11.946428, 12, 12.147959, 12.214286, 12.020408, 11.342261, 11.489583, 11.558036, 11.90625, 11.96875, 11.924107, 11.803572, 11.541667, 11.517857, 11.580357, 11.640476, 11.580357, 11.616072, 11.5625, 11.5625, 11.4375, 11.375, 11.25, 11.0625, 10.979167, 10.625, 10.541667, 10.78125, 10.65625, 10.551339, 10.538264, 10.526786, 10.520833, 10.321428, 10.5, 11.202381, 11.107143, 10.622025, 10.446428, 10.375, 10.5625, 10.919643, 11.4375, 12.010203, 12.469389, 12.590774, 12.753572, 12.660714, 12.861607, 13.165178, 13.522322, 13.84375, 13.9375, 14.125, 14.375, 14.5625, 14.84375, 15.21875, 15.489583, 15.722222, -10, -10, -10, -10, -10, -10, -10, -10, -10, -10, -10, -10, -10, -10, -10, -10, -10, -10, -10, -10, -10, -10, -10, -10, -10, -10, -10, -10, -10, -10, -10, -10, -10, -10, -10, -10, -10, -10, -10, -10, -10, -10, -10, -10, 72.25, 72.166664, 72, 71.75, 71.491074, 71.035713, 70.767853, 70.446426, 70, 69.607147, 69.3125, 68.803574, 68.309525, 68.017853, 67.5625, 67.3125, 66.875, 66.3125, 65.767853, 65.375, 64.875, 64.5625, 64.107147, 63.607143, 63.258926, 62.372025, 61.448982, 61.075893, 60.736607, 60.4375, 60.25, 59.875, 59.229168, 58.714287, 58.25, 57.803574, 57.267857, 56.875, 56.5, 56.3125, 56.0625, 55.758926, 54.925594, 54.270836, 53.607147, 53.107143, 52.928574, 52.416668, 52.035713, 50.791668, 50.348213, 50.071426, 50.087502, 49.866074, 49.473213, 48.726189, 48.321426, 47.6875, 47.5625, 47.089287, 46.497025, 46.071426, 45.737499, 45.583332, 44.571426, 44.023808, 43.696426, 43.5, 43.294643, 42.747025, 42.383926, 41.90625, 41.71875, 41.316963, 40.328869, 39.785713, 39.375, 39.125, 38.75, 38.330357, 37.714287, 37.267857, 37, 36.580357, 36.3125, 35.9375, 35.4375, 34.955357, 34.517857, 34.125, 33.642857, 33.25, 32.696426, 32.196426, 31.741072, 31.375, 30.9375, 30.455357, 30.0625, 29.6875, 29.178572, 28.559525, 28.258928, 27.75, 27.5, 27, 26.5, 26.1875, 25.6875, 25.4375, 24.9375, 24.229166, 23.714285, 23.3125, 23.0625, 22.6875, 22.3125, 21.767857, 21.375, 20.875, 20.4375, 19.892857, 19.4375, 19.1875, 18.75, 18.3125, 17.678572, 17.1875, 16.642857, 16.375, 15.875, 15.375, 14.785714, 14.375, 14.0625, 13.6875, 13.4375, 12.9375, 12.375, 11.785713, 11.375, 10.9375, 10.5625, 10.1875, 9.6875, 9.1875, 8.5982141, 8.125, 7.625, 7.3125, 7, 6.7410717, 6.2113094, 5.8125, 5.75, 5.75, 5.9375, 6, 6, 6, 6, 6.125, 6.3839283, 6.6999998, 6.6964283, 6.7291665, 6.5250001, 6.3541665, 6.625, 6.6785717, 6.9375, 7, 6.8125, 6.625, 6.625, 6.625, 6.8125, 7, 7, 7, 6.875, 6.875, 6.875, 6.875, 7, 7, 7.0625, 7.125, 7.3125, 7.4107141, 7.4642859, 7.6875, 7.8035717, 7.9821429, 8, 8.25, 8.5446434, 8.75, 9, 9, 9, 9, 9, 8.9375, 8.9375, 8.9375, 8.875, 8.6339283, 7.8392859, 6.7083335, 6.2678571, 6, 6.0625, 6, 6, 6, 5.9375, 6.1517859, 6.3000002, -10, -10, -10, -10, 15, 15, 14.854167, 14.71875, 14.59375, 14.508334, -10, -10, -10, -10, -10, -10, -10, -10, -10, 16.625, 16.666668, 16.666668, 6, 6, 5.9375, 5.9375, 5.875, 5.875, 6.0714283, 6.4375, 6.5833335, -10, -10, -10, -10, -10, -10, -10, 22, 21.777777, 21.229166, 12.928573, 15.5, -10, 12.4, 12.2, -10, -10, 12.142858, 12.238096, 12.380102, 12.839286, 12.752232, 12.953125, 12.96875, 13.035714, 13, 12.767857, 12.199405, 11.822917, 11.867559, 12.28125, 12.34375, 12.361607, 12.178572, 11.854167, 11.892857, 12.133928, 12.494642, 12.477678, 12.415178, 12.21875, 12.15625, 12, 11.9375, 11.839286, 11.607143, 11.429167, -10, -10, 11.40625, 11.14375, 10.908482, 11.028061, 10.910714, 10.734375, 10.75, 11.0625, 11.845239, 11.901786, 11.175171, 11.081633, 11, 11.214286, 11.62245, 12.4375, 12.758928, 13.107143, 13.174107, 13.396428, 13.272109, 13.551021, 13.831633, 14.272322, 14.46875, 14.5, 14.6875, 14.96875
71.412498, 71.119049, 70.589287, 70.392853, 69.875, 69.589287, 69.3125, 68.8125, 68.517853, 68.125, 67.625, 67.3125, 66.8125, 66.3125, 65.767853, 65.3125, 64.767853, 64.4375, 63.9375, 63.517857, 63.071426, 61.976192, 61.214287, 60.763393, 60.59375, 60.4375, 60.375, 60.017857, 59.395832, 58.892857, 58.4375, 57.991074, 57.348213, 56.9375, 56.5625, 56.375, 56.125, 55.830357, 54.925594, 54.199406, 53.553574, 53.169643, 52.866074, 52.354168, 51.892857, 50.916668, 50.49107, 50.258926, 50.257145, 49.82143, 49.36607, 48.708332, 48.3125, 47.75, 47.65625, 47.245537, 46.653275, 46.102676, 45.701786, 45.458332, 44.392857, 43.999996, 43.6875, 43.5, 43.232143, 42.639881, 42.321426, 41.84375, 41.65625, 41.245537, 40.370537, 39.928574, 39.5, 39.1875, 38.705357, 38.330357, 37.892857, 37.5625, 37.1875, 36.660713, 36.25, 35.8125, 35.4375, 35.0625, 34.642857, 34.25, 33.705357, 33.1875, 32.80357, 32.24107, 31.657738, 31.258928, 30.8125, 30.4375, 30.125, 29.75, 29.241072, 28.577381, 28.258928, 27.8125, 27.5625, 27.0625, 26.517857, 26.125, 25.625, 25.375, 24.875, 24.4375, 23.892857, 23.4375, 23.1875, 22.75, 22.4375, 21.892857, 21.375, 20.830357, 20.375, 19.830357, 19.4375, 19.125, 18.6875, 18.3125, 17.723213, 17.25, 16.705357, 16.3125, 15.767857, 15.3125, 14.723214, 14.375, 14, 13.625, 13.375, 12.875, 12.4375, 11.892857, 11.4375, 11, 10.625, 10.241072, 9.604167, 9.1964283, 8.6428566, 8.25, 7.8125, 7.4375, 7.125, 6.6964288, 6.1041665, 5.7857141, 5.6875, 5.75, 5.9375, 6, 5.9375, 5.9375, 5.9375, 6, 6.3214283, 6.6374998, 6.6339283, 6.7916665, 6.7125001, 6.5416665, 6.8125, 6.8035717, 6.9375, 7, 6.75, 6.5625, 6.5625, 6.5625, 6.8125, 7, 7, 7, 6.875, 6.875, 6.875, 6.875, 7, 7, 7, 6.9375, 7.125, 7.2232141, 7.2767859, 7.625, 7.8035717, 8.0892859, 8.125, 8.375, 8.6071434, 8.75, 9, 9, 9, 9, 9, 9, 9, 9, 9, 8.75, 8.2857141, 6.916667, 6.4017859, 6.0625, 6.0625, 6, 6, 6, 6, 6.25, 6.4375, -10, -10, -10, -10, -10, 15, 14.958334, 14.9375, 15, 15.271429, -10, -10, -10, -10, -10, -10, -10, -10, -10, 16.875, 16.916668, 16.888889, 6, 6, 5.9375, 5.9375, 5.875, 5.875, 6.0089283, 6.375, 6.5000005, -10, -10, -10, -10, -10, -10, -10, 21.875, 21.666666, 21.5625, 13.795919, 15.309524, -10, 12.849999, 12.716667, 13.604166, 13.982143, 13.5, 13.604167, 13.640625, 13.671875, 13.609375, 13.821428, 13.65625, 13.691964, 13.5625, 13.267857, 12.894557, 12.291667, 12.305059, 12.65625, 12.65625, 12.611607, 12.5, 12.4375, 12.5625, 12.821428, 13.075, 13.040178, 12.977678, 12.84375, 12.84375, 12.71875, 12.59375, 12.464286, 12.107143, 11.710417, -10, -10, 11.9375, 11.758333, 11.595982, 11.555803, 11.421875, 11.421875, 11.40625, 11.65625, 12.251489, 12.576531, 12.527779, 12.630952, 12.666667, 12.833333, 13.113095, 13.357142, 13.510203, 13.5625, 13.642857, 13.896428, 14.492063, 14.821429, 14.958333, 14.78125, 15, 15.09375, 15.28125, 15.5625, 15.892858, 16.035715, 16.125, 16.25, 16.333334, -10, -10, -10, -10, -10, -10, -10, -10, -10, -10, -10, -10, -10, -10, -10, -10, -10, -10, -10, -10, -10, -10, -10, -10, -10, -10, -10, -10, -10, -10, -10, -10, -10, -10, -10, -10, -10, -10, -10, -10, -10, -10, -10, -10, 72.25, 72.333336, 72.125, 71.821426, 71.245834, 70.877975, 70.339287, 70.205353, 69.75, 69.5, 69.25, 68.75, 68.5, 68.0625, 67.625, 67.294647, 66.705353, 66.1875, 65.642853, 65.1875, 64.642853, 64.3125, 63.767857, 63.5, 63.0625, 62.020836, 61.589287, 61.21875, 61.03125, 60.758926, 60.474998, 60.25893, 59.625, 59, 58.482143, 58, 57.473213, 57.0625, 56.75, 56.5, 56.1875, 55.758926, 55.068455, 54.333332, 53.767857, 53.455357, 53.116074, 52.523811, 51.666668, 50.880951, 50.446426, 50.258926, 50.132145, 49.63393, 49.11607, 48.395832, 47.955357, 47.5, 47.28125, 46.950893, 46.424107, 45.90625, 45.576786, 45.377975, 44.642857, 44.285717, 44, 43.6875, 43.357143, 42.702381, 42.321426, 41.90625, 41.65625, 41.200893, 40.441963, 40, 39.5625, 39.25, 38.767857, 38.455357, 38.125, 37.75, 37.25, 36.61607, 36.1875, 35.6875, 35.375, 35, 34.625, 34.25, 33.69643, 33.174999, 33.017857, 32.419643, 31.741072, 31.267857, 30.75, 30.375, 30.0625, 29.6875, 29.241072, 28.577381, 28.258928, 27.875, 27.625, 27.125, 26.535713, 26.1875, 25.6875, 25.375, 24.830357, 24.375, 23.830357, 23.4375, 23.1875, 22.75, 22.4375, 21.892857, 21.375, 20.892857, 20.5, 20, 19.446428, 19.017857, 18.5625, 18.25, 17.767857, 17.3125, 16.767857, 16.25, 15.660713, 15.25, 14.660714, 14.375, 13.9375, 13.625, 13.375, 12.875, 12.517857, 12.0625, 11.5625, 11.125, 10.642857, 10.241072, 9.604167, 9.2589283, 8.78125, 8.40625, 7.9732141, 7.3958335, 7.0625, 6.5714288, 5.9791665, 5.6607141, 5.625, 5.6875, 5.9375, 6, 5.9375, 5.9375, 6, 6, 6.3214283, 6.6374998, 6.5714283, 6.8541665, 6.8375001, 6.7291665, 7, 6.9285717, 7, 7, 6.8125, 6.75, 6.78125, 6.78125, 6.96875, 7.03125, 7, 7, 6.875, 6.875, 6.875, 6.875, 7, 7, 6.9375, 6.8125, 6.9375, 6.9732141, 7.0267859, 7.4375, 7.6785717, 8.0892859, 8.25, 8.5, 8.7321434, 8.8125, 8.9375, 8.875, 8.875, 8.875, 8.9375, 9, 9, 9, 9, 8.7053566, 7.9642859, 6.8154764, 6.3303566, 6.0625, 6.0625, 6, 6, 6, 6, 6.1875, 6.354167, 7.1999998, -10, -10, -10, -10, 15, 15.020834, 15.125, 15.375, 15.55, -10, -10, -10, -10, -10, -10, -10, 17, 17, 16.9375, 16.958334, 6, 6, 6, 6, 6, 5.9375, 5.9375, 5.9375, 6.1875, 6.3333335, -10, -10, -10, -10, -10, -10, -10, 21.875, 21.75, 21.75, 12.916667, 14.754167, 13.547619, 13.316071, 13.216072, 14.069444, 14.321429, 14.125, 14.1875, 14.234375, 14.265625, 14.473214, 14.508928, 14.28125, 14.254464, 14.0625, 13.8125, 13.459822, 13.010417, 12.930059, 13.169643, 13.2, 13.035714, 13, 12.9375, 13.125, 13.464286, 13.860714, 13.727678, 13.620536, 13.607142, 13.535714, 13.28125, 13.15625, 13.089286, 12.794643, 12.397917, -10, -10, 12.53125, 12.320833, 12.111607, 11.993303, 11.828125, 11.828125, 11.84375, 12.09375, 12.626489, 12.763393, 12.857142, 13.030612, 13.404762, 13.586736, 13.775511, 13.8125, 13.821428, 14, 14.205357, 14.566072, 14.779761, 15.040178, 15.321428, 15.464286, 15.732142, 15.928572, 16.260204, 16.773809
71.308334, 71.002975, 70.464287, 70.330353, 69.875, 69.446426, 69.080353, 68.625, 68.375, 67.9375, 67.5625, 67.169647, 66.580353, 66.125, 65.625, 65.1875, 64.642853, 64.25, 63.660713, 63.4375, 63.0625, 62.395836, 61.98214, 61.25, 61, 60.602676, 60.381248, 60.25893, 59.6875, 59.178574, 58.586311, 58.107143, 57.598213, 57.25, 56.9375, 56.651787, 56.020832, 55.4375, 54.693455, 54.083332, 53.696426, 53.5625, 53.366074, 52.791668, 51.666668, 51.071426, 50.5625, 50.383926, 50.132145, 49.50893, 48.973213, 48.4375, 47.955357, 47.5, 47.09375, 46.71875, 46.28125, 45.78125, 45.526787, 45.044643, 44.642857, 44.232143, 44, 43.625, 43.25, 42.723213, 42.375, 41.96875, 41.53125, 40.986607, 40.361607, 39.9375, 39.5625, 39.3125, 38.830357, 38.517857, 38.25, 37.8125, 37.25, 36.57143, 36.125, 35.625, 35.375, 35, 34.625, 34.3125, 33.75, 33.091667, 32.964283, 32.357143, 31.741072, 31.267857, 30.75, 30.375, 30.0625, 29.625, 29.1875, 28.723213, 28.366072, 27.854166, 27.571428, 27.0625, 26.535713, 26.1875, 25.6875, 25.3125, 24.723213, 24.3125, 23.767857, 23.4375, 23.1875, 22.75, 22.5, 22, 21.4375, 20.955357, 20.4375, 19.892857, 19.383928, 18.892857, 18.5, 18.25, 17.8125, 17.375, 16.785713, 16.1875, 15.598213, 15.25, 14.767857, 14.5, 14, 13.580357, 13.3125, 12.8125, 12.517857, 12.125, 11.625, 11.1875, 10.660714, 10.303572, 9.666667, 9.3526783, 8.875, 8.5, 8.0625, 7.3333335, 7.0625, 6.5178571, 6.125, 5.7321429, 5.6875, 5.75, 6, 6.0625, 6, 6, 6.1875, 6.2857141, 6.5714283, 6.8249998, 6.6964283, 6.9791665, 7.0250001, 6.9166665, 7.125, 6.9910717, 7, 7.0625, 7, 7.0625, 7.15625, 7.09375, 7.15625, 7.09375, 7, 7, 6.875, 6.875, 6.875, 6.875, 7, 7, 6.875, 6.6875, 6.75, 6.7767859, 7.2142859, 7.645833, 7.8839283, 8.3571434, 8.53125, 8.84375, 8.96875, 8.96875, 8.9375, 8.8125, 8.8125, 8.8125, 8.9375, 9, 9, 9, 9, 8.6607141, 7.6428566, 6.6309524, 6.1428566, 6, 6.0625, 6.125, 6.1875, 6.25, 6.1875, 6.25, 6.354167, -10, -10, -10, -10, -10, 15.25, 15.250001, 15.3125, 15.5, 15.583333, -10, -10, -10, -10, -10, -10, 16.833332, 16.833334, 16.833334, 16.8125, 16.75, 6.3333335, 6.1500001, 5.9166665, 5.8928571, 5.875, 5.9375, 6, 6, 6.25, 6.3333335, -10, -10, -10, -10, -10, -10, -10, 21.833334, 21.833334, 21.833334, 13.250001, 14.695238, 13.865079, 14.118368, 14.189796, 14.302083, 14.553572, 14.75, 14.875, 14.96875, 15, 15, 14.96875, 14.84375, 14.71875, 14.5625, 14.40625, 14.241072, 13.805059, 13.322917, 13.348214, 13.45, 13.428572, 13.5, 13.5, 13.696428, 14.226191, 14.494047, 14.322917, 14.120536, 13.90625, 13.84375, 13.78125, 13.65625, 13.589286, 13.357143, 13.150001, -10, -10, 13.1875, 13.039583, 12.783482, 12.665178, 12.5625, 12.5, 12.53125, 12.65625, 12.834822, 13.013393, 13.232143, 13.729167, 14.166667, 14.357143, 14.4375, 14.375, 14.375, 14.5625, 14.75, 15.116072, 15.520833, 15.756697, 15.890625, 16.078125, 16.328125, 16.5625, 16.946428, 17.648809, 17.841837, 17.75, 17.75, 17.5625, 17.5, -10, -10, -10, -10, -10, -10, -10, -10, -10, -10, -10, -10, -10, -10, -10, -10, -10, -10, -10, -10, -10, -10, -10, -10, -10, -10, -10, -10, -10, -10, -10, -10, -10, -10, -10, -10, -10, -10, -10, -10, -10, -10, -10, -10, 72.25, 72.333336, 72.1875, 71.821426, 71.147621, 70.904762, 70.508926, 70.446426, 70, 69.464279, 69.080353, 68.6875, 68.428574, 67.854164, 67.508926, 67.098213, 66.372025, 65.946426, 65.5, 65.125, 64.642853, 64.28125, 63.736607, 63.40625, 63.09375, 62.604168, 62.196426, 61.1875, 60.794643, 60.352676, 60.131248, 60.13393, 59.6875, 59.285713, 58.565475, 58, 57.505356, 57.333332, 56.955357, 56.76786, 55.913689, 55.321426, 54.559525, 54.25, 53.9375, 53.75, 53.5, 53.089287, 52.023811, 51.339287, 50.75, 50.4375, 50.044643, 49.517857, 49.0625, 48.5625, 48.017857, 47.517857, 47.09375, 46.71875, 46.21875, 45.71875, 45.339287, 44.8125, 44.5625, 44.098213, 43.875, 43.5, 43.125, 42.705357, 42.375, 41.9375, 41.5, 40.955357, 40.267857, 39.830357, 39.4375, 39.1875, 38.767857, 38.5, 38.25, 37.8125, 37.3125, 36.678574, 36.25, 35.75, 35.4375, 35, 34.5625, 34.25, 33.669643, 32.930954, 32.86607, 32.410713, 31.875, 31.410713, 30.9375, 30.5625, 30.3125, 29.8125, 29.375, 28.848213, 28.428572, 27.916666, 27.571428, 27.0625, 26.535713, 26.1875, 25.6875, 25.25, 24.616072, 24.3125, 23.8125, 23.5, 23.25, 22.75, 22.5, 22, 21.375, 20.848213, 20.375, 19.830357, 19.383928, 18.830357, 18.4375, 18.125, 17.6875, 17.375, 16.830357, 16.1875, 15.553572, 15.25, 14.803572, 14.4375, 14.0625, 13.642857, 13.428572, 12.791667, 12.464286, 12.0625, 11.625, 11.25, 10.723214, 10.366072, 9.6845236, 9.3214283, 8.84375, 8.46875, 8.03125, 7.3333335, 7.0625, 6.5089288, 5.9791665, 5.7321429, 5.71875, 5.90625, 6.21875, 6.28125, 6.28125, 6.34375, 6.59375, 6.6919641, 6.875, 6.9375, 6.875, 7.0625, 7.125, 7.125, 7.125, 7.0625, 7, 6.9910717, 6.8625002, 7.1160717, 7.2098217, 7.21875, 7.21875, 7.09375, 6.9375, 6.9375, 6.875, 6.875, 6.9375, 6.9375, 7, 7, 6.875, 6.6875, 6.6875, 6.7410717, 7.3214283, 7.833333, 7.8928571, 8.1428566, 8.2991066, 8.739583, 8.9598217, 9.03125, 8.9375, 8.8125, 8.75, 8.6875, 8.8125, 8.875, 8.9375, 9, 9, 8.6160717, 7.3214283, 6.5297618, 6.0714283, 6.0625, 6.0982141, 6.125, 6.2946429, 6.25, 6.25, 6.1875, 6.2708335, -10, -10, -10, -10, -10, 15.5, 15.375001, 15.375, 15.4375, 15.416666, -10, -10, -10, -10, -10, 16.083334, 16.688889, 16.65625, 16.71875, 16.59375, 16.5, 6.1428571, 5.9833336, 5.7916665, 5.8303571, 5.875, 5.9375, 6, 6, 6.25, 6.3333335, -10, -10, -10, -10, -10, -10, -10, -10, 21.833334, 21.533335, 14.04762, 15.191667, 14.148809, 14.660715, 14.866072, 15.11875, 15.053572, 15.142857, 15.21875, 15.375, 15.46875, 15.4375, 15.4375, 15.3125, 15.1875, 15.09375, 14.90625, 14.964286, 14.693878, 13.90625, 13.723214, 13.7625, 13.741072, 13.9375, 13.9375, 14.071428, 14.494047, 14.889881, 14.6875, 14.380953, 14.133928, 14, 13.96875, 13.96875, 13.96875, 13.84375, 13.65625, 14.375, 14.4375, 13.6875, 13.79762, 13.515625, 13.5, 13.678572, 13.4375, 13.46875, 13.285714, 13.29762, 13.20238, 13.544643, 13.916667, 14.479167, 14.732143, 14.875, 14.9375, 14.9375, 15.125, 15.375, 15.669643, 15.875, 16.0625, 16.1875, 16.46875, 16.8125, 17.125, 17.571428, 18.052084
71.110123, 70.758926, 70.5625, 70.4375, 70, 69.464279, 69.080353, 68.6875, 68.397324, 67.822914, 67.477676, 67, 66.101189, 65.642853, 65.25, 65.0625, 64.6875, 64.34375, 63.799107, 63.40625, 63.15625, 62.9375, 62.5625, 61.508926, 60.752975, 60.102676, 59.818748, 59.848217, 59.604168, 59.369045, 58.511902, 57.9375, 57.487499, 57.270832, 56.830357, 56.64286, 55.788689, 55.258926, 54.767857, 54.5, 54.125, 53.830357, 53.5625, 53.089287, 52.023811, 51.339287, 50.8125, 50.5, 50.125, 49.75, 49.375, 48.866074, 48.122025, 47.517857, 46.9375, 46.455357, 46, 45.5625, 45.3125, 44.794643, 44.455357, 44.026787, 43.8125, 43.5, 43.125, 42.705357, 42.375, 41.9375, 41.5, 40.955357, 40.392857, 39.892857, 39.5, 39.25, 38.875, 38.5625, 38.25, 37.75, 37.3125, 36.785713, 36.4375, 36, 35.625, 35.125, 34.625, 34.1875, 33.5625, 32.930954, 32.74107, 32.366074, 31.895834, 31.464285, 31, 30.5625, 30.25, 29.75, 29.375, 28.892857, 28.491072, 27.916666, 27.508928, 27, 26.517857, 26.25, 25.75, 25.25, 24.571428, 24.25, 23.75, 23.4375, 23.151787, 22.6875, 22.4375, 22, 21.4375, 20.955357, 20.4375, 19.892857, 19.383928, 18.830357, 18.375, 17.955357, 17.5625, 17.25, 16.767857, 16.25, 15.660714, 15.25, 14.758928, 14.375, 14.0625, 13.705357, 13.428572, 12.747025, 12.401786, 12, 11.625, 11.25, 10.660714, 10.25, 9.6607141, 9.28125, 8.8125, 8.4375, 7.9375, 7.2708335, 7, 6.2827382, 5.8005953, 5.6071429, 5.65625, 5.96875, 6.34375, 6.40625, 6.46875, 6.53125, 6.84375, 7.0401783, 7.125, 7.125, 6.9375, 7, 7, 7, 7, 7, 7, 6.9285717, 6.8625002, 7.1160717, 7.2098217, 7.28125, 7.21875, 7.09375, 6.9375, 6.9375, 6.9375, 6.9375, 7, 7, 7, 7, 6.875, 6.75, 6.8125, 6.9285717, 7.5089283, 7.833333, 7.6696429, 7.7857141, 8.1026783, 8.6592255, 8.9598217, 9.03125, 8.875, 8.75, 8.6875, 8.625, 8.75, 8.8125, 8.875, 9, 8.8928566, 8.1785717, 6.8571429, 6.3839283, 6.0625, 6.125, 6.1607141, 6.125, 6.2946429, 6.25, 6.25, 6.125, 6.0833335, -10, -10, -10, -10, -10, 15.75, 15.500001, 15.447917, 15.375, 15.277778, -10, -10, -10, -10, -10, 15.888889, 16.516666, 16.441963, 16.53125, 16.40625, 16.25, 5.5714288, 5.8166671, 5.6666665, 5.7678571, 5.875, 5.9375, 6, 6, 6.25, 6.3333335, -10, -10, -10, -10, -10, -10, -10, -10, 22, 21.400002, 16.5, 15.697619, 14.854167, 15.348215, 15.678572, 16.025, 15.668367, 15.734694, 15.714286, 16.03125, 16, 15.84375, 15.78125, 15.65625, 15.5625, 15.53125, 15.375, 15.15625, 14.794643, 14.1875, 14.035714, 14.1375, 14.241072, 14.4375, 14.5, 14.633928, 15.056547, 15.452381, 15.1875, 14.880953, 14.633928, 14, 14, 14.083333, 14.125, 14.125, 14.166667, 14.375, 14.625, 14.3125, 14.28125, 14.265625, 14.270833, 13.958333, 14.1, 14.1, 15.125, 15.055554, 14.763889, 14.586736, 14.541667, 14.979167, 15.169643, 15.25, 15.607142, 15.785714, 15.964286, 16, 16.232143, 16.375, 16.5625, 16.6875, 16.96875, 17.34375, 17.65625, 18.102678, 18.552084, 18.674107, 18.6875, 18.625, 18.53125, 18.549999, -10, -10, -10, -10, -10, -10, -10, -10, -10, -10, -10, -10, -10, -10, -10, -10, -10, -10, -10, -10, -10, -10, -10, -10, -10, -10, -10, -10, -10, -10, -10, -10, -10, -10, -10, -10, -10, -10, -10, -10, -10, -10, -10, 71.833336, 71.916664, 71.9375, 71.732147, 71.291664, 71.04464, 70.75, 70.625, 70.5, 70, 69.464279, 69.080353, 68.6875, 68.459824, 67.930061, 67.433037, 66.89286, 65.874992, 65.464279, 65.125, 65.0625, 64.78125, 64.40625, 63.799107, 63.299107, 63, 62.8125, 62.4375, 61.113098, 60.386902, 59.84375, 59.754463, 59.49107, 59.3125, 59.306545, 58.529762, 58.125, 57.612499, 57.270832, 56.723213, 56.51786, 55.726189, 55.375, 55, 54.6875, 54.041668, 53.651783, 53.25, 52.857143, 52.107143, 51.5, 51.0625, 50.75, 50.5, 50.125, 49.8125, 49.303574, 48.541668, 47.910713, 47.3125, 46.767857, 46.3125, 45.8125, 45.4375, 44.794643, 44.348213, 43.946426, 43.75, 43.5625, 43.1875, 42.830357, 42.5625, 42.053574, 41.479168, 40.964287, 40.4375, 40.017857, 39.625, 39.3125, 38.875, 38.5, 38.125, 37.625, 37.3125, 36.892857, 36.553574, 35.979168, 35.571426, 35.125, 34.6875, 34.1875, 33.526787, 32.880955, 32.508926, 32.1875, 31.8125, 31.392857, 30.9375, 30.5, 30.1875, 29.75, 29.4375, 29, 28.553572, 27.979166, 27.508928, 27.0625, 26.625, 26.3125, 25.8125, 25.3125, 24.67857, 24.3125, 23.8125, 23.375, 23.053574, 22.625, 22.375, 22, 21.4375, 20.892857, 20.375, 19.830357, 19.4375, 18.9375, 18.4375, 17.955357, 17.5, 17.125, 16.642857, 16.25, 15.705357, 15.3125, 14.946428, 14.535714, 14.205357, 13.767857, 13.397322, 12.715775, 12.290178, 11.84375, 11.5, 11.1875, 10.705357, 10.25, 9.6160717, 9.15625, 8.65625, 8.28125, 7.7142859, 7.1428571, 6.8125, 6.0952382, 5.6130953, 5.4196429, 5.53125, 5.96875, 6.4508929, 6.59375, 6.71875, 6.78125, 7.03125, 7.2276783, 7.25, 7.1875, 7, 7, 7, 7, 7, 7, 7, 6.9285717, 6.8625002, 7.0535717, 7.1160717, 7.1875, 7.125, 7.0625, 6.9375, 6.9375, 6.9375, 6.9375, 7, 7, 7, 7, 6.9375, 6.875, 6.9375, 7.0535717, 7.5714283, 7.770833, 7.5446429, 7.5357141, 7.7901783, 8.4092255, 8.8169641, 8.96875, 8.9375, 8.875, 8.8125, 8.75, 8.8125, 8.8125, 8.875, 9, 8.75, 7.7023807, 6.6428571, 6.2142859, 6.0625, 6.125, 6.1607141, 6.125, 6.2946429, 6.25, 6.25, 6.125, 6.1547618, -10, -10, -10, -10, -10, 15.875, 15.583334, 15.5, -10, -10, -10, -10, -10, -10, -10, 15.666667, 16.1, 16.066963, 16.21875, 16.15625, 16, 5.5714288, 5.8166671, 5.6666665, 5.7678571, 5.875, 5.9375, 6, 6, 6.25, 6.3333335, -10, -10, -10, -10, -10, -10, -10, -10, 21.75, 20.950001, 17.428572, 16.455782, 15.6875, 15.982143, 16.571428, 16.957142, 17.077381, 17.178572, 17.020834, 16.65625, 16.5625, 16.34375, 16.21875, 16.03125, 15.875, 15.709822, 15.354167, 15.133928, 14.825893, 14.40625, 14.303572, 14.3125, 14.535714, 14.6875, 14.857143, 15.008928, 15.413691, 15.666666, 15.5, 15.238095, 15.224489, -10, -10, -10, -10, -10, -10, -10, 14.625, 14.625, 14.625, 14.625, 14.652778, -10, -10, -10, 15.821428, 15.714286, 15.476191, 15.489797, 15.354167, 15.5625, 15.75, 15.875, 16.125, 16.3125, 16.5, 16.6875, 16.75, 16.9375, 17.15625, 17.388393, 17.6875, 18, 18.28125, 18.65625, 18.90625
71.133926, 70.9375, 70.8125, 70.741074, 70.020836, 69.571426, 69.25, 68.8125, 68.584824, 67.992561, 67.433037, 66.89286, 65.666664, 65.285713, 65, 65, 64.84375, 64.522324, 63.822918, 63.308037, 62.9375, 62.75, 62.4375, 61.309525, 60.565475, 60.0625, 59.785713, 59.42857, 59.1875, 59.065475, 58.488098, 58.1875, 57.603573, 57.0625, 56.482143, 56.303574, 55.892857, 55.633926, 55.3125, 54.875, 53.958336, 53.473213, 53, 52.651787, 52.169643, 51.535713, 51.1875, 50.875, 50.75, 50.4375, 50.1875, 49.678574, 48.916668, 48.285713, 47.6875, 47.142857, 46.625, 46.080357, 45.6875, 44.961311, 44.348213, 43.946426, 43.75, 43.625, 43.3125, 43.017857, 42.75, 42.232143, 41.583336, 41.142857, 40.5625, 40.205357, 39.8125, 39.4375, 39.0625, 38.625, 38.125, 37.580357, 37.3125, 37, 36.669643, 36.041668, 35.633926, 35.1875, 34.8125, 34.25, 33.598213, 32.880955, 32.508926, 32.125, 31.75, 31.267857, 30.8125, 30.4375, 30.125, 29.75, 29.4375, 28.9375, 28.5, 28.125, 27.616072, 27.041666, 26.5, 26.125, 25.6875, 25.25, 24.723213, 24.375, 23.875, 23.375, 23.053574, 22.625, 22.3125, 21.892857, 21.375, 20.892857, 20.491072, 19.854166, 19.446428, 19, 18.5, 18.017857, 17.5625, 17.1875, 16.75, 16.375, 15.892857, 15.4375, 15.133928, 14.705358, 14.214286, 13.803572, 13.334822, 12.653275, 12.165178, 11.65625, 11.375, 11.125, 10.75, 10.25, 9.5714283, 9.0625, 8.5625, 8.1875, 7.625, 7.2053571, 6.7410717, 5.8869042, 5.3720236, 5.2053571, 5.40625, 5.90625, 6.4955359, 6.65625, 6.84375, 6.90625, 7.03125, 7.1919641, 7.1875, 7.125, 7, 7, 7, 7, 7, 7, 6.96875, 6.7723217, 6.6437502, 6.7723217, 6.8035717, 7, 7, 7, 6.9375, 7, 7.0625, 7.0625, 7.125, 7.0625, 7, 7, 7, 7, 7.0625, 7.125, 7.1964283, 7.3125, 7.1517859, 7.1428571, 7.3839283, 7.9404759, 8.4107141, 8.7321434, 8.875, 8.9375, 8.875, 8.8125, 8.8125, 8.8125, 8.875, 9, 8.75, 7.7023807, 6.6428571, 6.2142859, 6.0625, 6.125, 6.0982141, 6, 6.1071429, 6, 6.0625, 6, 6.1339283, 6.666667, -10, -10, -10, -10, 15.625, 15.416667, 15.375, -10, -10, -10, -10, -10, -10, -10, 15.197917, 15.714582, 15.816964, 16.03125, 16.09375, 16, 5.5, 5.666667, 5.75, 5.875, 6, 6, 6, 6.0625, 6.3125, 6.416667, -10, -10, -10, -10, -10, -10, -10, -10, 21.625, 20.6, 18.208334, 17.142857, 16.714285, 16.794643, 17.125, 17.4625, 17.602041, 17.653061, 17.410715, 17.03125, 16.875, 16.65625, 16.59375, 16.40625, 16.25, 15.991072, 15.572917, 15.188775, 14.882653, 14.95625, 14.982143, 14.875, 15.0625, 15.0625, 15.294643, 15.729166, 15.872023, 15.999999, 15.904761, 15.666667, 15.571428, -10, -10, -10, -10, -10, -10, -10, -10, -10, -10, -10, -10, -10, -10, -10, 16.1875, 16.208334, 16.010418, 15.96875, 15.78125, 15.90625, 16.0625, 16.3125, 16.625, 16.75, 16.9375, 17.125, 17.125, 17.3125, 17.546875, 17.895088, 18.279018, 18.609375, 18.875, 19.196428, 19.53125, 19.625, 19.625, 19.291666, 19.416666, 19.591667, -10, -10, -10, -10, -10, -10, -10, -10, -10, -10, -10, -10, -10, -10, -10, -10, -10, -10, -10, -10, -10, -10, -10, -10, -10, -10, -10, -10, -10, -10, -10, -10, -10, -10, -10, -10, -10, -10, -10, -10, -10, -10, -10, -10, 72.041664, 72.020836, 71.919647, 71.505951, 71.16964, 71, 70.732147, 70.553574, 69.886909, 69.39286, 69.1875, 68.6875, 68.53125, 68.075897, 67.486603, 67.089287, 66.035713, 65.535713, 65.25, 65.071426, 64.697914, 64.428574, 63.729168, 63.339287, 62.90625, 62.5625, 62.1875, 61.372025, 60.645832, 60.25, 59.910713, 59.42857, 59.125, 58.895832, 58.446426, 58.25, 57.741074, 57.041668, 56.482143, 56.1875, 55.9375, 55.6875, 55.4375, 54.9375, 53.958336, 53.42857, 53, 52.6875, 52.25, 51.705357, 51.258926, 50.892857, 50.75, 50.5, 50.3125, 49.928574, 49.354168, 48.821426, 48.104168, 47.517857, 47, 46.517857, 46.080357, 45.236309, 44.702381, 44.080353, 43.946426, 43.8125, 43.5625, 43.267857, 43, 42.473213, 41.625, 41.214287, 40.6875, 40.4375, 40.0625, 39.625, 39.25, 38.75, 38.125, 37.464287, 37.080357, 36.8125, 36.544643, 35.979168, 35.633926, 35.25, 34.875, 34.375, 33.785713, 32.833336, 32.392857, 31.9375, 31.5625, 31.125, 30.625, 30.3125, 29.9375, 29.625, 29.375, 28.875, 28.5, 28.1875, 27.669643, 26.958332, 26.375, 25.9375, 25.5625, 25.125, 24.705357, 24.375, 23.875, 23.375, 23.053574, 22.625, 22.25, 21.785713, 21.375, 21, 20.607143, 19.833332, 19.392857, 18.9375, 18.5, 18.017857, 17.5625, 17.1875, 16.75, 16.4375, 16.0625, 15.625, 15.348213, 14.788691, 14.142858, 13.678572, 13.15625, 12.611607, 12.09375, 11.59375, 11.3125, 11, 10.6875, 10.1875, 9.5535717, 9.03125, 8.53125, 8.09375, 7.53125, 7.1428571, 6.6785717, 5.895833, 5.5803566, 5.375, 5.5, 5.875, 6.3392859, 6.4375, 6.5625, 6.625, 6.75, 7.0357141, 7.15625, 7.15625, 7.03125, 6.90625, 6.875, 6.875, 6.9375, 7, 6.96875, 6.84375, 6.84375, 6.84375, 6.875, 7, 7, 7, 6.9375, 6.9375, 6.96875, 6.96875, 7.03125, 7.03125, 7, 7, 7, 6.9375, 7, 7.0625, 7.0625, 7.0625, 6.9642859, 7, 7.2410717, 7.6071429, 8.0446434, 8.4196434, 8.7321434, 8.875, 8.9375, 8.875, 8.875, 8.875, 8.875, 9, 8.6428566, 7.3095236, 6.5, 6.1071429, 6.0625, 6.0625, 6.0625, 6, 6, 6, 6, 6, 6.1964283, 6.5555558, -10, -10, -10, -10, 15.5, 15.25, 15.291667, -10, -10, -10, 13.5, 13.666667, 14.160714, 14.4375, 15, 15.427083, 15.660714, 15.875, 16.03125, 16, 5.75, 5.8333335, 5.875, 5.9375, 6, 6, 6, 6.125, 6.375, 6.5208335, -10, -10, -10, -10, -10, -10, -10, -10, 21.041666, 20.142857, 18.220238, 17.486607, 17.21875, 17.53125, 17.8125, 18.0625, 18.116072, 17.916666, 17.705357, 17.4375, 17.21875, 16.90625, 16.71875, 16.53125, 16.375, 16.116072, 15.635417, 15.454082, 15.372025, 15.08125, 15.294643, 15.375, 15.625, 15.6875, 16.044643, 16.541666, 16.729166, 16.666666, 16.633928, 16.357143, 16.380953, -10, -10, -10, -10, -10, -10, -10, -10, -10, -10, -10, -10, -10, -10, -10, 16.333334, 16.333334, 16.53125, 16.552084, 16.46875, 16.46875, 16.59375, 16.875, 17.241072, 17.473213, 17.625, 17.642857, 17.625, 17.8125, 18.169643, 18.598213, 18.982143, 19.3125, 19.5625, 19.821428, 20.339285
