11.0625, 11, 11, 10.8125, 10.5625, 10.3125, 10.0625, 10, 10, 10, 10, 9.875, 9.625, 9.375, 9.125, 9, 9, 9, 9, 9, 8.75, 8.5, 8.25, 8, 8, 8, 8, 8, 7.875, 7.6875, 7.4375, 7.25, 7.1875, 7.125, 7.125, 7.0625, 7.0625, 7.0625, 7.0625, 7.0625, 7.0625, 7.1875, 7.25, 7.3125, 7.375, 7.3125, 7.3125, 7.25, 7.125, 7.0625, 7, 7.0625, 7.125, 7.1875, 7.25, 7.25, 7.3125, 7.3125, 7.3125, 7.3125, 7.1875, 7.125, 7.0625, 7, 7.0625, 7.125, 7.125, 7.125, 7.125, 7.0625, 7.0625, 7.125, 7.125, 7.25, 7.375, 7.375, 7.3125, 7.25, 7.1875, 7.25, 7.3125, 7.375, 7.4375, 7.3125, 7.25, 7.1875, 7.125, 7.1875, 7.1875, 7.1875, 7.25, 7.1875, 7.1875, 7.1875, 7.0625, 7.0625, 7.09375, 7.09375, 7.09375, 7.09375, 7.0625, 7.0625, 7.0625, 7.25, 7.4791665, 7.5555553, -10, -10, -10, -10, -10, -10, -10, 21, 21, 20.741072, 20.104166, 19.285713, 18.660713, 18.3125, 17.875, 17.714287, 17.794643, 17.825893, 17.890625, 17.720982, 17.803572, 17.839287, 18, 18.375, 18.4375, 18.5, 18.3125, 18.0625, 18.080357, 18.333334, 18.357143, 18.3125, 17.955357, 17.616072, 17.424999, 17.482143, 17.4375, 17.5625, 17.625, 17.803572, 18.403273, 19.034227, 19.241072, 19.1875, 19.080357, 19.056547, 18.758928, 18.776787, 18.5, 18.910713, 19.377977, 19.607143, 19.8125, 19.9375, 20, 20, 20, 19.9375, 19.9375, 20.0625, 20.035713, 20.026787, 20.125, 20.0625, 20.290178, 20.088095, 20.229593, 20.75625, 20.398809, 20.424107, 20.334822, 20.104166, 20.208334, 20.479166, 20.416666, 20.354166, 20.4375, 20.410713, 20.375, 20.25, 20.0625, 19.9375, 19.8125, 19.8125, 19.75, -10, -10, -10, -10, -10, -10, 30.5, 30.749998, 31.107143, 31.78125, 32.370537, 32.78125, 33.0625, 33.25, 33.616074, 34.294643, 34.674107, 34.9375, 34.9375, 34.964287, 35.035713, 34.875, 34.901787, 34.9375, 35.044643, 35.1875, 35.25, 35.3125, 35.375, 35.3125, 35.4375, 35.625, 35.901787, 35.982143, 35.729168, 35.625, 35.5, 35.321426, 35.455357, 35.473213, 35.583332, -10, -10, -10, 8, 8.5555553, 8.666667, 8.875, 9.083333, 9.0625, 9.125, 9.1875, 9.28125, 9.53125, 9.71875, 9.90625, 10, 10, 10.0625, 10.1875, 10.3, -10, -10, -10, -10, -10, -10, -10, 21.875, 22, 22, 22.111113, 22.375, 22.4375, 22.5, 22.4375, 22.526787, 22.794643, 22.928572, 23.125, 23.25, 23.25, 23.5, 23.6875, 23.8125, 24, 24, 23.785713, 23.020832, 22.767857, 22.5, 22.4375, 22.4375, 22.4375, 22.5625, 22.71875, 22.78125, 22.84375, 22.678572, 22.25, 22.416666, 22.654762, 22.858332, 22.410713, 22.142857, 22, 12.8125, 12.9375, 13.133928, 13.2125, 13, 12.964286, 12.875, 12.9375, 13.125, 13.1875, 13.3125, 13.5, 13.625, 13.8125, 13.9375, 14.0625, 14.0625, 14.0625, 14.0625, 14, 14, 14, 14, 14, 14.0625, 14.125, 14.3125, 14.4375, 14.375, 14.40625, 14.34375, 14.46875, 14.71875, 14.875, 15, 15.0625, 15.1875, 15.1875, 15.1875, 15.125, 15, 14.848214, 14.714286, 14.919643, 14.964286, 15.1875, 15.3125, 15.5, 15.666667, -10, -10, -10, -10, -10, -10, -10, -10, -10, -10, -10, -10, -10, -10, 12.708333, 12.533334, 12.6875, 12.669643, 12.5625, 12.4375, 12.1875, 12.0625, 11.9375, 11.9375, 11.9375, 11.875, 11.6875, 11.5625, 11.3125, 11.125, 11.125, 11, 11, 10.875, 10.625, 10.375, 10.125, 10, 10, 9.9375, 9.9375, 9.8125, 9.5625, 9.375, 9.125, 9, 9, 9, 9, 9, 8.75, 8.5, 8.25, 8, 8, 8, 8, 7.9375, 7.75, 7.5, 7.25, 7.0625, 7, 7, 7, 7, 7, 7, 7, 7, 7.0625, 7.125, 7.125, 7.125, 7.125, 7.0625, 7.0625, 7.0625, 7, 7, 7, 7, 7, 7, 7, 7, 7.0625, 7.0625, 7.0625, 7.0625, 7, 7, 7, 7, 7, 7, 7, 7, 7, 7, 7, 7, 7.0625, 7.125, 7.25, 7.3125, 7.25, 7.1875, 7.0625, 7.0625, 7.0625, 7.125, 7.1875, 7.125, 7.125, 7.0625, 7, 7, 7, 7, 7.0625, 7.0625, 7.0625, 7.0625, 7, 7, 7, 7, 7, 7, 7, 7, 7, 7.125, 7.375, 7.5, -10, -10, -10, -10, -10, -10, -10, 21, 21, 20.732143, 19.958332, 19.142857, 18.535713, 18.25, 17.875, 17.839287, 17.848215, 17.586309, 17.517857, 17.330357, 17.4375, 17.5625, 17.8125, 18.125, 18.28125, 18.40625, 18.28125, 18.03125, 17.839285, 17.985119, 17.919643, 18.035715, 17.642857, 17.366072, 17.237499, 17.419643, 17.3125, 17.375, 17.5, 17.678572, 18.269344, 18.784227, 18.991072, 18.875, 18.830357, 18.869047, 18.571428, 18.589287, 18.4375, 18.535713, 18.940477, 19.107143, 19.375, 19.5, 19.5625, 19.5625, 19.5, 19.4375, 19.4375, 19.5625, 19.566963, 19.620537, 19.78125, 19.78125, 19.96875, 20.044643, 19.943878, 20.252041, 19.979166, 19.861607, 19.75, 19.78125, 19.96875, 20.15625, 20.107143, 19.979166, 20.008928, 19.973213, 19.8125, 19.714287, 19.633928, 19.5, 19.5, 19.4375, 19.375, -10, -10, -10, -10, -10, -10, 30.375, 30.583332, 30.9375, 31.709822, 32.352676, 32.84375, 33.125, 33.3125, 33.678574, 34.294643, 34.674107, 34.9375, 35.008926, 35.297619, 35.306545, 34.979168, 35.005955, 35.208332, 35.401787, 35.5, 35.330357, 35.25, 35.1875, 35.1875, 35.3125, 35.5, 35.776787, 35.794643, 35.729168, 35.696426, 35.5, 35.392857, 35.4375, 35.535713, 35.60714, -10, -10, -10, 8.583333, 8.791666, 8.8125, 8.875, 9, 9, 9.0625, 9.0625, 9.15625, 9.40625, 9.59375, 9.84375, 10.0625, 10.083333, 10.083333, 10.25, 10.8, -10, -10, -10, -10, -10, 21.5, 21.708332, 21.916666, 22, 22, 22.083334, 22.125, 22.1875, 22.3125, 22.3125, 22.464287, 22.732143, 22.866072, 23.125, 23.3125, 23.4375, 23.6875, 23.8125, 23.875, 24, 24, 23.794643, 23.083332, 22.660715, 22.375, 22.1875, 22.1875, 22.1875, 22.3125, 22.46875, 22.53125, 22.59375, 22.428572, 22.1875, 22.3125, 22.491072, 22.643749, 22.273809, 22.095238, 22, 12.833333, 12.916667, 13.178571, 14.421428, 13, 12.964286, 12.875, 12.9375, 13.1875, 13.3125, 13.4375, 13.625, 13.6875, 13.8125, 13.9375, 14, 14, 14, 14, 14, 14, 14, 14, 14, 14, 14.0625, 14.25, 14.375, 14.4375, 14.40625, 14.34375, 14.46875, 14.65625, 14.9375, 15.0625, 15.125
11.125, 10.9375, 10.875, 10.6875, 10.4375, 10.25, 10.0625, 10, 10, 9.9375, 9.875, 9.75, 9.5, 9.3125, 9.125, 9, 9, 8.9375, 8.875, 8.8125, 8.5625, 8.375, 8.1875, 8, 8, 8, 8, 7.9375, 7.75, 7.5, 7.25, 7.0625, 7, 7, 7, 7, 7, 7, 7, 7, 7.0625, 7.125, 7.125, 7.125, 7.0625, 7, 7, 7, 7, 7, 7, 7, 7, 7, 7, 7, 7, 7, 7, 7, 7, 7, 7, 7, 7, 7, 7, 7, 7, 7, 7, 7, 7, 7, 7.0625, 7.0625, 7.0625, 7.0625, 7, 7, 7, 7, 7, 7, 7, 7, 7, 7, 7, 7, 7, 7, 7, 7, 7, 7, 7, 7, 7, 7, 7, 7, 7, 7.0625, 7.25, 7.4444447, -10, -10, -10, -10, -10, -10, -10, 21, 21, 20.723215, 19.812498, 19.142857, 18.571428, 18.104166, 17.758928, 17.714287, 17.714287, 17.190475, 17.059523, 17.122023, 17.25, 17.4375, 17.625, 17.75, 17.84375, 17.96875, 17.96875, 17.78125, 17.526785, 17.502977, 17.357143, 16.833334, 17.142857, 16.991072, 16.924999, 17.169643, 17.0625, 17.125, 17.25, 17.491072, 18.072916, 18.388393, 18.5625, 18.4375, 18.455357, 18.587797, 18.290178, 18.183037, 18.196428, 18.188776, 18.333334, 18.553572, 18.8125, 19, 19, 19.026787, 19.107143, 19.116072, 19.1875, 19.3125, 19.316963, 19.370537, 19.53125, 19.46875, 19.59375, 19.473213, 19.482143, 19.934822, 19.741072, 19.727678, 19.625, 19.65625, 19.84375, 20.03125, 19.982143, 19.666666, 19.508928, 19.375, 19.1875, 19.214287, 19.258928, 19.203125, 19.296875, 19.296875, 19.3125, -10, -10, -10, -10, -10, -10, 30.25, 30.416666, 30.6875, 31.410715, 32.321426, 32.901787, 33.21875, 33.40625, 33.834824, 34.433037, 34.767857, 35, 35.008926, 35.297619, 35.306545, 34.979168, 35.005955, 35.279762, 35.735119, 35.833332, 35.497025, 35.321426, 35.125, 35.09375, 35.09375, 35.15625, 35.388393, 35.598213, 35.625, 35.511902, 35.366074, 35.267857, 35.375, 35.535713, 35.559521, 34.785713, 10, 10, 8.6875, 8.791666, 8.8125, 8.875, 9, 9, 9.0625, 9.0625, 9.21875, 9.46875, 9.635417, 9.875, 10.083333, 10.111111, -10, -10, 11.485715, -10, -10, -10, 21, 21.416668, 21.583334, 21.805555, 21.9375, 22, 22, 22, 22.0625, 22.125, 22.3125, 22.5, 22.6875, 22.875, 22.9375, 23.125, 23.3125, 23.5, 23.75, 23.875, 23.9375, 24, 24, 23.732143, 22.958332, 22.369049, 21.854166, 21.75, 21.6875, 21.75, 21.875, 21.96875, 22.03125, 22.09375, 22.0625, 22.0625, 22.125, 22.1875, 22.21875, 22.080357, 22.008928, 22, 21.875, 21.625, 21.375, 19.619999, 21, 12.964286, 12.875, 12.9375, 13.125, 13.3125, 13.4375, 13.5625, 13.6875, 13.75, 13.875, 14, 14, 14, 14, 13.9375, 13.875, 13.875, 13.9375, 14.035714, 14.0625, 14.125, 14.25, 14.375, 14.5, 14.46875, 14.40625, 14.53125, 14.65625, 14.9375, 15.0625, 15.125, 15.1875, 15.125, 15.125, 15.0625, 14.9375, 14.785714, 14.651786, 14.919643, 15.151786, 15.3125, 15.5, 15.625, 15.666667, -10, -10, -10, -10, -10, -10, -10, -10, -10, -10, -10, -10, -10, -10, 12.833333, 12.616667, 12.75, 12.794643, 12.75, 12.625, 12.375, 12.125, 12, 12, 12, 11.9375, 11.6875, 11.5625, 11.3125, 11.125, 11.125, 10.875, 10.75, 10.5625, 10.3125, 10.1875, 10.0625, 10, 10, 9.9375, 9.875, 9.75, 9.5, 9.3125, 9.125, 9, 9, 8.9375, 8.8125, 8.6875, 8.4375, 8.25, 8.125, 8, 8, 8, 8, 7.9375, 7.8125, 7.5625, 7.3125, 7.125, 7, 7, 7, 7, 7, 7, 7, 7, 7, 7, 7, 7, 7, 7, 7, 7, 7, 7, 7, 7, 7, 7, 7, 7, 7, 7, 7, 7, 7, 7, 7, 7, 7, 7, 7, 7, 7, 7, 7, 7, 7, 7, 7, 7, 7, 7, 7, 7, 7, 7, 7, 7, 7, 7, 7, 7, 7, 7, 7, 7, 7, 7, 7, 7, 7, 7, 7, 7, 7, 7, 7, 7, 7.125, -10, -10, -10, -10, -10, -10, -10, 21, 21, 21, 20.714285, 19.666666, 19.142857, 18.607143, 17.958332, 17.642857, 17.5, 17.357143, 16.585033, 16.22279, 16.622023, 16.8125, 17.241072, 17.544643, 17.5625, 17.71875, 17.84375, 17.90625, 17.84375, 17.526785, 17.065477, 16.479593, 16.270407, 16.663691, 16.741072, 16.875, 17.0625, 17.0625, 17.0625, 17.1875, 17.3125, 17.59375, 17.90625, 18.15625, 18.21875, 18.214287, 18.254463, 18.03125, 17.861607, 17.607143, 17.535715, 17.75, 17.875, 18.0625, 18.3125, 18.375, 18.526787, 18.700893, 18.772322, 18.90625, 18.96875, 19.03125, 19.09375, 19.15625, 19.21875, 19.34375, 19.348213, 19.375, 19.584822, 19.491072, 19.40625, 19.3125, 19.28125, 19.40625, 19.59375, 19.607143, 19.354166, 19.196428, 19.0625, 18.9375, 18.964287, 19.071428, 19.03125, 19.09375, 19.15625, 19.1875, 19.5, -10, -10, -10, -10, -10, 30.125, 30.25, 30.4375, 31.080359, 32.214287, 32.857143, 33.3125, 33.625, 34.125, 34.526787, 34.8125, 35, 35.008926, 35.297619, 35.369045, 35.104168, 35.130955, 35.476189, 35.997616, 35.904762, 35.630955, 35.383926, 35.1875, 35.15625, 35.09375, 35.09375, 35.15625, 35.366074, 35.458332, 35.306545, 35.178574, 35.017857, 35.205357, 35.473213, 35.476189, 34.940475, 34.785713, 34.666664, 8.9375, 8.958333, 8.9375, 8.9375, 9, 9.0625, 9.1875, 9.1875, 9.354167, 9.5, 9.6388893, -10, -10, -10, -10, -10, 11.733334, -10, 20.5, 20.708332, 21, 21.361113, 21.5625, 21.791666, 21.9375, 22, 22, 21.9375, 22, 22.0625, 22.25, 22.5, 22.6875, 22.8125, 22.875, 23.0625, 23.1875, 23.5, 23.75, 23.875, 24, 24, 24, 23.732143, 22.958332, 22.297619, 21.604166, 21.5, 21.375, 21.4375, 21.5, 21.53125, 21.46875, 21.53125, 21.5625, 21.625, 21.75, 21.75, 21.78125, 21.75, 21.75, 21.75, 21.5, 21.333334, 20.040815, 20.014286, 21, 13, 12.9375, 13, 13.125, 13.375, 13.5, 13.625, 13.75, 13.75, 13.875, 14, 14, 14, 14, 13.866072, 13.625, 13.6875, 13.866072, 14.071428, 14.125, 14.1875, 14.25, 14.375, 14.5, 14.46875, 14.477678, 14.71875, 14.78125, 15.0625, 15.0625, 15.125
10.991072, 10.541667, 10.321428, 10.1875, 10.125, 10.160714, 10.125, 10.0625, 10, 9.9375, 9.875, 9.6875, 9.4375, 9.25, 9.0625, 9, 9, 8.9375, 8.8125, 8.625, 8.375, 8.1875, 8.0625, 8, 8, 8, 8, 7.9375, 7.875, 7.625, 7.375, 7.1875, 7, 7, 7, 7, 7, 7, 7, 7, 7, 7, 7, 7, 7, 7, 7, 7, 7, 7, 7, 7, 7, 7, 7, 7, 7, 7, 7, 7, 7, 7, 7, 7, 7, 7, 7, 7, 7, 7, 7, 7, 7, 7, 7, 7, 7, 7, 7, 7, 7, 7, 7, 7, 7, 7, 7, 7, 7, 7, 7, 7, 7, 7, 7, 7, 7, 7, 7, 7, 7, 7, 7, 7, 7.0833335, -10, -10, -10, -10, -10, -10, -10, 21, 21, 21, 20.714285, 19.666666, 19.214287, 18.669643, 17.958332, 17.535715, 17.3125, 17.044643, 16.324404, 15.869048, 16.059523, 16.25, 16.741072, 17.044643, 17.125, 17.34375, 17.450893, 17.518749, 17.647322, 17.383928, 16.857143, 16.4375, 16.038691, 16.270834, 16.366072, 16.6875, 16.875, 16.9375, 16.9375, 16.9375, 17.080357, 17.458334, 17.669643, 17.875, 17.875, 17.75, 17.71875, 17.59375, 17.40625, 17.107143, 17.1875, 17.125, 17.1875, 17.3125, 17.5625, 17.6875, 17.901787, 18.200893, 18.459822, 18.691963, 18.78125, 18.84375, 18.78125, 18.78125, 18.90625, 19.0625, 19.160713, 19.25, 19.366072, 19.241072, 19.1875, 19.09375, 19.09375, 19.15625, 19.28125, 19.294643, 19.041666, 18.946428, 18.8125, 18.75, 18.839287, 19.008928, 19.03125, 19.15625, 19.28125, 19.375, 19.666666, -10, -10, -10, -10, -10, 30, 30.083334, 30.25, 30.857141, 32.142857, 33.107143, 33.322918, 33.558037, 34.075893, 34.486607, 34.8125, 35, 35.071426, 35.333332, 35.333332, 35.166668, 35.166668, 35.476189, 35.890476, 35.717262, 35.380955, 35.071426, 34.9375, 34.96875, 35.03125, 35.21875, 35.28125, 35.491074, 35.458332, 35.181545, 35.053574, 34.892857, 35.080357, 35.3125, 35.267857, 35.017857, 34.857143, 34.694443, 9.25, 9.0625, 8.9375, 8.84375, 8.8571434, 9.145833, 9.3035717, 9.375, 9.3055563, -10, -10, -10, -10, -10, -10, -10, 20, 20.291668, 20.5, 20.722221, 21, 21.208334, 21.401787, 21.732143, 21.928572, 22, 22, 21.875, 21.875, 21.875, 22, 22.25, 22.4375, 22.633928, 22.825001, 22.892857, 23.0625, 23.25, 23.5625, 23.75, 23.9375, 24, 24, 23.696428, 22.791666, 22.083334, 21.291666, 21.125, 20.9375, 20.9375, 20.875, 20.875, 20.8125, 20.875, 21, 21, 21.0625, 21.0625, 21.1875, 21.25, 21.3125, 21.375, 21.25, 21.1875, 21.125, 21.0625, 21, 13, 13, 13, 13.0625, 13.3125, 13.4375, 13.5625, 13.75, 13.75, 13.875, 14, 14, 14, 14, 13.803572, 13.5625, 13.625, 13.803572, 14.133928, 14.160714, 14.017857, 14.041667, 14.333333, 14.553572, 14.6875, 14.669643, 14.705357, 14.633928, 14.875, 15, 15.098214, 15.0625, 15, 14.9375, 14.9375, 14.9375, 15, 15.0625, 15.1875, 15.4375, 15.5625, 15.75, 15.875, 15.916667, -10, -10, -10, -10, -10, -10, -10, -10, -10, -10, -10, -10, -10, -10, 13, 13, 13, 13, 12.8125, 12.5625, 12.3125, 11.9375, 11.75, 11.6875, 11.625, 11.625, 11.5, 11.3125, 11.125, 11, 10.928572, 10.541667, 10.258928, 10.0625, 10.0625, 10.098214, 10.125, 10.125, 10, 10, 9.875, 9.6875, 9.4375, 9.1875, 9.0625, 9, 9, 8.9375, 8.8125, 8.5625, 8.3125, 8.125, 8, 8, 8, 8, 8, 8, 7.9375, 7.6875, 7.4375, 7.1875, 7, 7, 7, 7, 7, 7, 7, 7, 7, 7, 7, 7, 6.9375, 6.875, 6.875, 6.875, 6.9375, 7, 7, 7, 7, 7, 7, 7, 7, 7, 7, 7, 7, 7, 7, 7, 7, 7, 7, 7, 7, 7, 7, 7, 7, 6.9375, 6.9375, 6.9375, 6.875, 6.875, 6.875, 6.875, 6.9375, 7, 7, 7, 6.9375, 6.875, 6.875, 6.875, 6.9375, 7, 7, 7, 7, 7, 7, 7, 7, 7, 7, 7, 7, 7, 7, 7, -10, -10, -10, -10, -10, -10, -10, -10, 21, 21, 21, 20.714285, 19.666666, 19.285715, 18.732143, 17.958332, 17.428572, 17.0625, 16.741072, 16.157738, 15.663691, 15.872023, 16, 16.428572, 16.732143, 16.8125, 16.919643, 16.773811, 16.817858, 17.053572, 17.098213, 16.705357, 16.375, 15.976191, 16.145834, 16.241072, 16.5, 16.625, 16.75, 16.8125, 16.8125, 16.892857, 17.145834, 17.232143, 17.375, 17.4375, 17.3125, 17.21875, 16.96875, 16.65625, 16.53125, 16.4375, 16.5, 16.625, 16.8125, 17, 17.125, 17.339287, 17.638393, 17.959822, 18.129463, 18.15625, 18.205357, 18.270834, 18.303572, 18.5, 18.6875, 18.848213, 19, 19.053572, 18.928572, 18.875, 18.75, 18.75, 18.6875, 18.6875, 18.6875, 18.5625, 18.5, 18.4375, 18.4375, 18.5625, 18.75, 18.90625, 19.09375, 19.40625, 19.59375, 19.75, -10, -10, -10, -10, -10, 30.125, 30.125, -10, -10, -10, 33.357143, 33.59375, 33.808037, 34.325893, 34.691963, 34.9375, 35.0625, 35, 35, 35, 35.0625, 35.125, 35.267857, 35.720833, 35.529762, 35.300594, 35.008926, 34.875, 34.84375, 34.90625, 35.15625, 35.21875, 35.428574, 35.270832, 34.895832, 34.803574, 34.75, 35.017857, 35.25, 35.223213, 35.080357, 34.892857, 34.708332, 34.666668, 8.6875, 8.625, 8.65625, 8.7946434, 9.1958332, 9.4047623, 9.5, -10, -10, -10, -10, -10, -10, 20, 20, 20, 20.236113, 20.4375, 20.651041, 20.984375, 21.140625, 21.386162, 21.732143, 21.866072, 22, 22, 21.8125, 21.8125, 21.8125, 21.875, 22.1875, 22.375, 22.633928, 22.887501, 22.892857, 23, 23.0625, 23.375, 23.625, 23.875, 24, 24, 23.616072, 22.395832, 21.726191, 20.916666, 20.8125, 20.5625, 20.5, 20.375, 20.375, 20.3125, 20.375, 20.5, 20.5, 20.5625, 20.5625, 20.75, 20.8125, 20.875, 21, 20.875, 20.9375, 21, 21, 21, 13, 13, 13, 13, 13.1875, 13.375, 13.5625, 13.8125, 13.875, 13.9375, 14, 14, 14, 14, 13.803572, 13.5625, 13.625, 13.803572, 14.196428, 14.285714, 14.142857, 14.104167, 14.333333, 14.428572, 14.625, 14.732143, 14.803572, 14.758928, 14.875, 14.9375, 15.035714
10.928572, 10.604167, 10.383928, 10.25, 10.3125, 10.348214, 10.3125, 10.25, 10.0625, 10, 9.9375, 9.8125, 9.5625, 9.3125, 9.125, 9, 9, 9, 8.9375, 8.6875, 8.5, 8.25, 8.0625, 8.0625, 8, 8, 8, 8, 7.9375, 7.75, 7.5, 7.25, 7.0625, 7, 7, 7, 7, 7, 7, 7, 7, 7, 7, 7, 6.9375, 6.8125, 6.8125, 6.75, 6.75, 6.8125, 6.8125, 6.9375, 7.0357141, 7.0625, 7.0625, 7, 7, 7, 7, 7, 7, 7, 7, 7, 7, 7, 7, 7, 7, 7, 7, 7, 6.9375, 6.8125, 6.75, 6.75, 6.75, 6.8125, 6.875, 6.875, 6.9375, 7, 7, 6.9375, 6.8125, 6.75, 6.75, 6.8125, 6.9375, 6.9375, 6.875, 6.8125, 6.75, 6.75, 6.8125, 6.875, 6.9375, 7, 7, 7, 7, 7, 7, 7, -10, -10, -10, -10, -10, -10, -10, -10, 21, 21, 21, 20.714285, 19.666666, 19.285715, 18.741072, 18.113094, 17.315477, 16.883928, 16.5625, 16.241072, 15.747024, 15.674107, 15.65625, 16.022322, 16.325893, 16.4375, 16.544643, 16.062925, 16.006123, 16.311224, 16.723213, 16.625, 16.375, 16.038691, 16.145834, 16.116072, 16.3125, 16.375, 16.5625, 16.75, 16.919643, 16.955357, 17.145834, 17.107143, 17.053572, 16.9375, 16.8125, 16.6875, 16.5, 16.25, 16.125, 16, 16, 16, 16.125, 16.3125, 16.5625, 16.84375, 17.09375, 17.40625, 17.504463, 17.375, 17.448978, 17.708334, 17.866072, 18.125, 18.3125, 18.5625, 18.8125, 18.75, 18.625, 18.5625, 18.4375, 18.375, 18.3125, 18.3125, 18.241072, 18.0625, 18.0625, 18, 18.125, 18.25, 18.5, 18.727678, 19.177084, 19.522322, 19.71875, 19.833334, -10, -10, -10, -10, -10, 30.25, 30.25, -10, -10, -10, 33.642857, 33.864582, 34.058037, 34.575893, 34.959824, 35.1875, 35.3125, 35.25, 35.1875, 35.125, 35.09375, 35.03125, 35.102676, 35.356251, 35.30357, 35.258926, 35.125, 35, 35, 35.1875, 35.375, 35.375, 35.3125, 35.0625, 34.90625, 34.78125, 34.78125, 35.049107, 35.223213, 35.25, 35.25, 35, 34.9375, 34.861111, 8.583333, 8.375, 8.40625, 8.7261906, 9.2611113, -10, -10, -10, -10, -10, -10, -10, 20, 20, 20, 20, 20.177084, 20.3125, 20.515625, 20.828125, 20.921875, 21.229912, 21.607143, 21.741072, 21.90625, 21.90625, 21.71875, 21.78125, 21.8125, 21.8125, 22.125, 22.3125, 22.633928, 22.950001, 22.955357, 23.0625, 23, 23.3125, 23.5625, 23.8125, 24, 24, 23.607143, 22.166666, 21.571428, 20.9375, 20.741072, 20.291666, 20.142857, 20, 20.0625, 20.0625, 20.125, 20.1875, 20.125, 20.1875, 20.1875, 20.375, 20.4375, 20.4375, 20.4375, 20.375, 20.5625, 20.794643, 20.9375, 13, 13, 13, 13, 13.0625, 13.1875, 13.375, 13.625, 13.8125, 13.9375, 14, 14, 14, 14.0625, 14.0625, 13.928572, 13.75, 13.75, 13.928572, 14.285714, 14.410714, 14.267857, 14.166667, 14.333333, 14.303572, 14.5625, 14.794643, 14.866072, 14.883928, 14.9375, 14.9375, 15.035714, 15.0625, 15.0625, 15, 15.0625, 15.0625, 15.125, 15.1875, 15.3125, 15.4375, 15.625, 15.8125, 15.875, 16, -10, -10, -10, -10, -10, -10, -10, -10, -10, -10, -10, -10, -10, -10, 13, 13, 13, 12.875, 12.625, 12.375, 12.125, 11.8125, 11.625, 11.5625, 11.375, 11.375, 11.375, 11.1875, 11.125, 11.0625, 10.928572, 10.666667, 10.508928, 10.375, 10.4375, 10.410714, 10.3125, 10.3125, 10.125, 10.0625, 10, 9.8125, 9.5625, 9.3125, 9.125, 9, 9, 9, 9, 8.8125, 8.625, 8.375, 8.125, 8.0625, 8, 8, 8, 8, 7.9375, 7.75, 7.5, 7.25, 7.0625, 7, 7, 7, 7, 7, 7, 7, 7, 7, 7, 7, 6.9375, 6.8125, 6.8125, 6.75, 6.75, 6.8125, 6.8125, 6.9375, 7.0982141, 7.125, 7.125, 7.0625, 7, 7, 7, 7, 7, 7, 7, 7, 7, 7, 7, 7, 7, 7, 6.9375, 6.875, 6.75, 6.5625, 6.5, 6.5, 6.5, 6.5625, 6.625, 6.625, 6.75, 6.875, 6.875, 6.8125, 6.625, 6.5, 6.5625, 6.625, 6.75, 6.75, 6.625, 6.5625, 6.5, 6.5, 6.5625, 6.6875, 6.8125, 6.9375, 7, 7, 7, 7, 7, 7, -10, -10, -10, -10, -10, -10, -10, -10, 21, 21, 21, 20.714285, 19.666666, 19.285715, 18.75, 18.232143, 17.119047, 16.633928, 16.25, 16.0625, 15.830357, 15.78125, 15.71875, 15.84375, 15.96875, 16.0625, 16.107143, 15.83631, 15.755358, 15.991072, 16.223213, 16.5, 16.446428, 16.145834, 16.0625, 15.9375, 16.125, 16.160713, 16.276787, 16.5, 16.607143, 16.705357, 16.833334, 16.794643, 16.741072, 16.5625, 16.4375, 16.205357, 16, 15.75, 15.625, 15.5, 15.5, 15.5, 15.625, 15.75, 15.9375, 16.15625, 16.3125, 16.5625, 16.660713, 16.78125, 17, 17.208334, 17.491072, 17.75, 18.008928, 18.325001, 18.455357, 18.5, 18.25, 18.1875, 18, 17.875, 17.8125, 17.75, 17.616072, 17.375, 17.214285, 17.285715, 17.75, 18, 18.3125, 18.665178, 19.284227, 19.647322, 19.90625, 20, -10, -10, -10, -10, -10, 30.333334, 30.625, -10, -10, -10, 33.8125, 34.011902, 34.464287, 35, 35.366074, 35.5, 35.5625, 35.5625, 35.473213, 35.339287, 35.28125, 35.09375, 35.125, 35.25, 35.325893, 35.28125, 35.1875, 35, 35.0625, 35.21875, 35.34375, 35.34375, 35.21875, 35.0625, 34.90625, 34.84375, 34.90625, 35.15625, 35.348213, 35.40625, 35.34375, 35.15625, 35.09375, 35.083336, 35.666664, 8.166667, 8.15625, -10, -10, -10, -10, -10, -10, 19, 19.549999, 19.732143, 20, 20, 20, 20, 20.09375, 20.1875, 20.399553, 20.828125, 20.859375, 21.167412, 21.419643, 21.491072, 21.71875, 21.78125, 21.71875, 21.84375, 21.875, 21.875, 22.1875, 22.375, 22.758928, 23.012501, 22.955357, 23.125, 22.973213, 23.3125, 23.5625, 23.75, 24, 24, 23.571428, 22, 21.428572, 20.830357, 20.324406, 19.854166, 19.705357, 19.6875, 19.8125, 19.9375, 19.9375, 20, 19.9375, 19.9375, 19.9375, 20.0625, 20.1875, 20.1875, 20.1875, 20.151787, 20.375, 20.714287, 20.875, 21, 13, 13, 13, 13.0625, 13.125, 13.25, 13.5, 13.6875, 13.875, 14, 14, 14, 14.0625, 14.0625, 14, 14.0625, 14, 14.125, 14.4375, 14.473214, 14.330357, 14.229167, 14.333333, 14.366072, 14.6875, 14.910714, 14.866072, 14.883928, 14.875, 14.9375, 15.035714
11, 11, 10.9375, 10.75, 10.625, 10.4375, 10.25, 10.25, 10.125, 10.0625, 10, 9.875, 9.625, 9.375, 9.1875, 9, 9, 9, 9, 8.8125, 8.625, 8.375, 8.125, 8.0625, 8, 8, 8, 8, 7.875, 7.6875, 7.4375, 7.1875, 7.0625, 7, 6.9375, 6.9375, 6.9375, 6.9375, 7, 6.9375, 6.9375, 7, 7.0357141, 7.0625, 7, 6.8125, 6.8125, 6.75, 6.75, 6.8125, 6.8125, 6.9375, 7.0982141, 7.125, 7.125, 7.0625, 7, 7, 7, 7, 7, 7, 7, 7, 7, 7, 7, 7, 7, 7, 6.9375, 6.875, 6.6875, 6.4375, 6.3125, 6.25, 6.25, 6.3125, 6.375, 6.375, 6.5, 6.625, 6.625, 6.5625, 6.375, 6.25, 6.3125, 6.375, 6.5, 6.5, 6.375, 6.3125, 6.25, 6.25, 6.3125, 6.5, 6.625, 6.75, 6.8125, 6.75, 6.75, 6.75, 6.75, 6.8214283, -10, -10, -10, -10, -10, -10, -10, -10, 21, 21, 21, 20.723215, 19.821428, 19.172619, 18.633928, 18.169643, 17.154762, 16.488094, 16.133928, 16, 15.9375, 15.90625, 15.84375, 15.90625, 15.96875, 16, 15.982143, 15.729167, 15.705357, 15.8125, 15.973214, 16.125, 16.125, 16.0625, 16.0625, 16, 16, 15.910714, 15.964286, 16.1875, 16.419643, 16.5625, 16.4375, 16.3125, 16.241072, 16.125, 16.0625, 15.830357, 15.5625, 15.3125, 15.25, 15.1875, 15.25, 15.25, 15.3125, 15.375, 15.5, 15.71875, 15.875, 15.928572, 16.0625, 16.09375, 16.330357, 16.791668, 17.169643, 17.4375, 17.633928, 17.887501, 17.955357, 18.0625, 17.8125, 17.776787, 17.625, 17.258928, 17.196428, 17.0625, 16.775511, 16.6875, 16.75, 16.875, 17.1875, 17.5625, 18, 18.59375, 19.400297, 19.808035, 20.052084, -10, -10, -10, -10, -10, -10, -10, 30.833334, 32, 32.857143, 33.238094, 33.75, 34.202377, 34.6875, 35.142857, 35.4375, 35.5, 35.633926, 35.895832, 35.901787, 35.776787, 35.65625, 35.40625, 35.3125, 35.464287, 35.683037, 35.709824, 35.678574, 35.3125, 35.375, 35.40625, 35.46875, 35.46875, 35.34375, 35.25, 35.15625, 35.09375, 35.09375, 35.28125, 35.473213, 35.53125, 35.53125, 35.46875, 35.5, 35.510418, 35.902775, 36.0625, 8.083333, -10, -10, -10, -10, -10, 19.5, 19.333334, 19.699999, 19.904762, 20.125, 20.15625, 20.1875, 20.15625, 20.125, 20.125, 20.319197, 20.828125, 20.921875, 21.265625, 21.375, 21.4375, 21.59375, 21.71875, 21.65625, 21.78125, 21.875, 21.875, 22.25, 22.5, 22.875, 23.0625, 23.0625, 23.125, 23.035713, 23.3125, 23.5625, 23.75, 24, 24, 23.571428, 21.916666, 21.285713, 20.642857, 20.074406, 19.604166, 19.455357, 19.5, 19.6875, 19.875, 19.9375, 20, 20, 20, 20.0625, 20.1875, 20.3125, 20.303572, 19.979166, 19.919643, 20.125, 20.571428, 20.8125, 21, 14.020408, 13.571428, 13.380953, 13.229167, 13.133928, 13.125, 13.375, 13.5625, 13.8125, 14, 14, 14, 14.0625, 14.0625, 14.0625, 14.125, 14.0625, 14.1875, 14.4375, 14.5, 14.5, 14.375, 14.3125, 14.3125, 14.5625, 14.875, 14.973214, 15.0625, 15.0625, 15, 15, 15, 15, 15.125, 15.3125, 15.375, 15.4375, 15.4375, 15.4375, 15.4375, 15.5, 15.5625, 15.5625, 15.666667, -10, -10, -10, -10, -10, -10, -10, -10, -10, -10, -10, -10, -10, -10, 13, 13, 13, 12.75, 12.5, 12.25, 12, 11.9375, 11.875, 11.875, 11.75, 11.6875, 11.5625, 11.3125, 11.1875, 11.0625, 11, 11, 11, 10.8125, 10.625, 10.4375, 10.1875, 10.1875, 10.125, 10.0625, 10.0625, 9.9375, 9.6875, 9.4375, 9.1875, 9, 9, 9, 9, 8.875, 8.6875, 8.4375, 8.1875, 8.0625, 8, 8, 8, 8, 7.875, 7.6875, 7.4375, 7.1875, 7.0625, 7, 7, 6.9732141, 6.8303571, 6.8541665, 6.9499998, 6.8303571, 6.9375, 6.9375, 7.0357141, 7.0625, 7.0625, 6.9375, 6.9375, 6.875, 6.8125, 6.8125, 6.8125, 6.9375, 7.0982141, 7.125, 7.125, 7.0625, 7, 7, 7, 7, 7, 7, 7, 7, 7, 7, 7.0625, 7.0625, 7.0625, 7.0625, 6.9375, 6.875, 6.6875, 6.4375, 6.25, 6.125, 6.125, 6.1875, 6.25, 6.25, 6.3125, 6.375, 6.375, 6.3125, 6.1875, 6.125, 6.1875, 6.25, 6.3125, 6.25, 6.125, 6.0625, 6, 6, 6.0625, 6.25, 6.375, 6.5, 6.5625, 6.5, 6.5, 6.5, 6.5, 6.6339283, 6.666667, -10, -10, -10, -10, -10, -10, -10, 21, 21, 21, 20.732143, 19.967262, 19.172619, 18.589285, 18.169643, 17.190477, 16.40476, 16.080357, 16, 16, 15.96875, 15.90625, 15.90625, 15.90625, 15.875, 15.875, 15.8125, 15.75, 15.75, 15.8125, 15.9375, 16, 16.0625, 16.0625, 16, 16, 15.848214, 15.839286, 16.0625, 16.267857, 16.4375, 16.3125, 16.125, 16.053572, 15.875, 15.8125, 15.580357, 15.375, 15.125, 15.125, 15.0625, 15.0625, 15.0625, 15.0625, 15.1875, 15.3125, 15.53125, 15.625, 15.6875, 15.6875, 15.71875, 15.9375, 16.208334, 16.491072, 16.6875, 16.821428, 17.075001, 17.142857, 17.25, 17.0625, 17.026787, 17.142857, 16.571428, 16.571428, 16.285715, 16.428572, 16.25, 16.4375, 16.625, 17.0625, 17.5, 17.9375, 18.625, 19.476191, 19.839285, 20.083334, -10, -10, -10, -10, -10, -10, -10, -10, -10, 33.238094, 33.603176, 33.875, 34.306545, 34.875, 35.236607, 35.46875, 35.53125, 35.67857, 36.229164, 36.33036, 36.214287, 35.96875, 35.59375, 35.375, 35.401787, 35.620537, 35.71875, 35.928574, 35.625, 35.75, 35.71875, 35.71875, 35.71875, 35.59375, 35.5, 35.40625, 35.40625, 35.40625, 35.59375, 35.848213, 35.84375, 35.84375, 35.84375, 35.90625, 35.96875, 36.052082, 36.125, 36.0625, -10, -10, -10, -10, 20, 19.666666, 19.5, 19.775, 19.991072, 20.25, 20.3125, 20.375, 20.3125, 20.21875, 20.15625, 20.272322, 20.625, 20.71875, 21.03125, 21.125, 21.3125, 21.46875, 21.65625, 21.78125, 21.96875, 22.125, 22.1875, 22.4375, 22.625, 22.875, 23, 23, 23.0625, 23.035713, 23.3125, 23.5625, 23.75, 24, 24, 23.607143, 21.916666, 21.142857, 20.348213, 19.699406, 19.229166, 19.142857, 19.25, 19.5, 19.75, 19.875, 20, 19.9375, 19.9375, 20.0625, 20.232143, 20.4375, 20.419643, 19.854166, 19.794643, 19.9375, 20.446428, 20.75, 21, 17.761904, 15.666667, 14.84127, 13.657739, 13.383928, 13.3125, 13.4375, 13.625, 13.8125, 14, 14, 14, 14.0625, 14.0625, 14.0625, 14.125, 14.0625, 14.1875, 14.375, 14.375, 14.4375, 14.3125, 14.25, 14.375, 14.5625, 14.8125, 14.9375, 15, 15, 15, 15
10.75, 10.75, 10.8125, 10.6875, 10.5, 10.3125, 10.0625, 10.0625, 10.0625, 10.0625, 10.0625, 9.875, 9.625, 9.375, 9.125, 9, 9, 9, 9, 8.9375, 8.6875, 8.4375, 8.1875, 8, 8, 8, 7.9375, 7.9375, 7.75, 7.5, 7.3125, 7.0625, 7, 7, 7, 6.9732141, 6.8303571, 6.8541665, 6.9499998, 6.8928571, 7.0625, 7.0625, 7.1607141, 7.125, 7.0625, 7, 7, 7, 7, 7, 7, 7, 7.0625, 7.0625, 7.0625, 7.0625, 7, 7, 7, 7, 7, 7, 7, 7, 7, 7, 7.0625, 7.0625, 7.0625, 7.0625, 6.9375, 6.875, 6.75, 6.5625, 6.375, 6.1875, 6.0625, 6, 6, 6, 6.0625, 6.125, 6.125, 6.125, 6.0625, 6, 6.0625, 6.0625, 6.0625, 6.0625, 6, 6, 6, 6, 6, 6.125, 6.1875, 6.25, 6.3125, 6.25, 6.25, 6.25, 6.3125, 6.4672618, 6.666667, -10, -10, -10, -10, -10, -10, -10, 21, 21, 21, 20.732143, 19.967262, 19.172619, 18.589285, 18.223213, 17.482143, 16.499998, 16.151785, 16, 15.9375, 15.9375, 15.9375, 15.9375, 16, 16, 16, 16, 15.875, 15.8125, 15.8125, 15.8125, 15.9375, 15.9375, 15.875, 15.875, 15.875, 15.785714, 15.776786, 15.9375, 15.973214, 16.0625, 15.830357, 15.625, 15.625, 15.625, 15.5625, 15.392857, 15.1875, 15, 15.0625, 15.0625, 15.0625, 15.0625, 15.0625, 15.1875, 15.3125, 15.4375, 15.4375, 15.375, 15.3125, 15.3125, 15.5, 15.770834, 15.775511, 16.125, 16.040815, 16.185715, 16.455357, 16.214285, 16.071428, 16.030613, 15.708333, 15.821428, 15.821428, 15.75, 15.75, 15.8125, 16.125, 16.482143, 16.9375, 17.4375, 17.9375, 18.732143, 19.601191, 19.910713, 20.145834, -10, -10, -10, -10, -10, -10, -10, -10, -10, 33.238094, 33.702381, 33.958332, 34.410713, 35.107143, 35.361607, 35.46875, 35.486607, 35.761902, 36.336308, 36.51786, 36.482143, 36.4375, 36.1875, 36.03125, 35.933037, 35.908165, 36.035713, 36.348213, 35.916668, 36.017857, 35.90625, 36.03125, 36.03125, 35.90625, 35.8125, 35.75, 35.875, 35.9375, 36.125, 36.3125, 36.28125, 36.28125, 36.34375, 36.34375, 36.375, 36.40625, 36.21875, 36.125, 36.3125, 36.416664, 20, 20, 20, 19.75, 19.833334, 19.9375, 20.1875, 20.4375, 20.5625, 20.625, 20.5625, 20.46875, 20.40625, 20.428572, 20.65625, 20.6875, 20.875, 20.9375, 21.1875, 21.375, 21.625, 21.8125, 22.0625, 22.25, 22.375, 22.625, 22.75, 22.875, 22.9375, 22.9375, 23.0625, 23.160713, 23.4375, 23.6875, 23.8125, 24, 23.785713, 23.108843, 21.442175, 20.401785, 19.785713, 19.270834, 19.0625, 19, 19.125, 19.375, 19.5625, 19.75, 19.9375, 19.875, 19.9375, 20.0625, 20.169643, 20.375, 20.294643, 19.791666, 19.794643, 19.9375, 20.464287, 20.729166, 21, 17.817461, 15.690476, 14.869048, 13.916667, 13.613095, 13.5, 13.5625, 13.6875, 13.875, 14, 14, 14, 14, 14, 14, 14.0625, 14.0625, 14.125, 14.25, 14.1875, 14.25, 14.1875, 14.1875, 14.4375, 14.625, 14.875, 15, 15, 15, 15, 15, 15.0625, 15.125, 15.3125, 15.5, 15.5625, 15.5625, 15.5, 15.375, 15.25, 15.1875, 15.125, 15.125, 15.166667, -10, -10, -10, -10, -10, -10, -10, -10, -10, -10, -10, -10, -10, -10, 12.625, 12.75, 12.8125, 12.6875, 12.5625, 12.3125, 12.0625, 12, 12, 12, 12, 11.8125, 11.5625, 11.25, 10.866072, 10.479167, 10.416667, 10.583333, 10.741072, 10.6875, 10.5, 10.3125, 10.0625, 10, 10, 10, 10, 9.8125, 9.625, 9.375, 9.125, 9.0625, 9, 9, 9, 8.9375, 8.6875, 8.4375, 8.1875, 8, 8, 8, 7.875, 7.875, 7.6875, 7.4375, 7.3125, 7.0625, 7, 7, 7, 6.9732141, 6.8303571, 6.8541665, 6.9499998, 6.8928571, 7.0625, 7.0625, 7.1607141, 7.125, 7.0625, 7, 7, 7, 7, 7, 7, 7, 7, 7.0625, 7.0625, 7.0625, 7.0625, 7, 7, 7, 7, 7, 7, 7.0625, 7.0625, 7.0625, 7.125, 7.0625, 7, 7, 6.9375, 6.9375, 6.9375, 6.8125, 6.5625, 6.3125, 6.125, 6, 6, 6, 6, 6, 6, 6, 6, 6, 6, 6, 6, 6, 6, 6, 6, 6, 6, 6.0625, 6.0625, 6.0625, 6.0625, 6, 6, 6, 6.125, 6.3005953, -10, -10, -10, -10, -10, -10, -10, 21, 21, 21, 21, 20.696428, 19.883928, 19.101191, 18.526785, 18.25, 17.678572, 16.642857, 16.276785, 15.9375, 15.875, 15.875, 15.875, 15.9375, 16, 16, 16, 16, 15.875, 15.8125, 15.8125, 15.8125, 15.875, 15.8125, 15.6875, 15.6875, 15.6875, 15.6875, 15.8125, 16, 16.071428, 15.955357, 15.723213, 15.4375, 15.4375, 15.5, 15.5, 15.5, 15.375, 15.25, 15.25, 15.25, 15.1875, 15.125, 15.125, 15.1875, 15.3125, 15.4375, 15.4375, 15.4375, 15.3125, 15.1875, 15.267857, 15.395834, 15.553572, 15.8125, 15.8125, 15.875, 16, 15.875, 15.8125, 15.776786, 15.428572, 15.446428, 15.446428, 15.4375, 15.5625, 15.75, 16.169643, 16.544643, 17, 17.4375, 17.9375, 18.669643, 19.494049, 19.848213, 20.083334, 20, -10, -10, -10, -10, -10, -10, -10, -10, -10, 34.041664, 34.395832, 34.839287, 35.294643, 35.46875, 35.46875, 35.549107, 35.949402, 36.523808, 36.696426, 36.830357, 36.821426, 36.71875, 36.53125, 36.370537, 36.57653, 36.435371, 36.428574, 36.041668, 36.205357, 36.1875, 36.375, 36.4375, 36.375, 36.25, 36.1875, 36.330357, 36.5, 36.6875, 36.9375, 36.875, 36.767857, 36.758926, 36.6875, 36.6875, 36.625, 36.375, 36.1875, 36.25, 36.361111, 36.5, 20, 20, 20, 20.03125, 20.15625, 20.40625, 20.65625, 20.8125, 20.875, 20.8125, 20.65625, 20.59375, 20.544643, 20.59375, 20.6875, 20.8125, 20.9375, 21.1875, 21.375, 21.625, 21.8125, 22.0625, 22.3125, 22.5, 22.75, 22.875, 22.9375, 23, 23, 23.0625, 23.125, 23.375, 23.625, 23.8125, 23.857143, 23.085712, 21.079367, 19.888887, 19.5, 19.330357, 19.1875, 19.0625, 19, 19, 19.1875, 19.3125, 19.5625, 19.8125, 19.8125, 19.9375, 20.0625, 20.107143, 20.25, 20.107143, 19.604166, 19.705357, 19.75, 20.169643, 20.394558, 13.666667, 15.777778, 14.297619, 13.809525, 13.809524, 13.696429, 13.678572, 13.75, 13.8125, 13.9375, 14, 14, 14, 14, 14, 14, 14, 14, 14, 14.0625, 14.0625, 14.1875, 14.1875, 14.3125, 14.5625, 14.6875, 14.9375, 15, 14.9375, 14.9375, 14.9375, 14.9375
10.416667, 10.583333, 10.678572, 10.625, 10.4375, 10.25, 10.0625, 10, 10, 10, 10, 9.75, 9.5625, 9.3125, 9.0625, 9.0625, 9, 9, 9, 9, 8.75, 8.5, 8.25, 8, 8, 8, 7.875, 7.8125, 7.6875, 7.4375, 7.3125, 7.125, 7, 7, 7.0625, 7.0357141, 6.8928571, 6.9166665, 6.9499998, 6.9553571, 7.125, 7.0625, 7.125, 7.0625, 7, 7, 7, 7, 7, 7, 7, 7, 6.9375, 7.0267859, 7.0982141, 7.0625, 7.125, 7, 7, 7, 7, 7, 7, 7.0625, 7.0625, 7.0625, 7.125, 7.0625, 6.9285717, 6.75, 6.75, 6.7946429, 6.9375, 6.9375, 6.6875, 6.4375, 6.1875, 6, 6, 6, 6, 6, 6, 6, 6, 6, 6, 6, 6, 6, 6, 6, 6, 6, 6, 6, 6, 6, 6, 6, 6, 6, 6.125, 6.229167, -10, -10, -10, -10, -10, -10, -10, -10, 21, 21, 21, 20.6875, 19.729166, 19.214285, 18.642857, 18.375, 17.75, 16.642857, 16.276785, 15.9375, 15.8125, 15.8125, 15.8125, 15.875, 16, 16, 16, 16, 15.875, 15.8125, 15.8125, 15.8125, 15.8125, 15.75, 15.5625, 15.5625, 15.6875, 15.75, 15.9375, 16.0625, 16.008928, 15.767857, 15.598213, 15.4375, 15.5, 15.625, 15.625, 15.625, 15.5625, 15.5, 15.5, 15.4375, 15.3125, 15.1875, 15.125, 15.1875, 15.3125, 15.375, 15.3125, 15.25, 15.125, 15.0625, 15.125, 15.0625, 15.125, 15.375, 15.4375, 15.5625, 15.75, 15.625, 15.5625, 15.4375, 15.1875, 15.196428, 15.325, 15.330357, 15.5625, 15.75, 16.232143, 16.607143, 17.0625, 17.375, 18, 18.654762, 19.420637, 19.8125, 20, 20, -10, -10, -10, -10, -10, -10, -10, -10, -10, 34.458332, 34.791664, 35.107143, 35.544643, 35.71875, 35.71875, 35.861607, 36.315475, 36.690475, 36.732143, 36.955357, 37.05357, 37.09375, 37.03125, 36.84375, 36.741074, 36.37925, 36.57143, 36.333336, 36.556122, 36.8125, 36.90625, 36.9375, 36.8125, 36.75, 36.71875, 36.892857, 37.142857, 37.261902, 37.794643, 37.8125, 37.642857, 37.508926, 37.142857, 37.107143, 37.209824, 36.677082, 36.366074, 36.25, 36.333332, 36.444443, 20, 20, 20, 20.03125, 20.208334, 20.458334, 20.708334, 20.71875, 20.770834, 20.78125, 20.75, 20.75, 20.6875, 20.59375, 20.6875, 20.75, 20.875, 21.0625, 21.3125, 21.5625, 21.875, 22.25, 22.5, 22.75, 22.9375, 23, 23, 23, 23, 23.125, 23.25, 23.5, 23.75, 23.875, 23.714287, 22.09796, 20.333332, 19.258503, 18.867346, 18.955357, 19, 19, 19, 19, 19.125, 19.1875, 19.375, 19.625, 19.625, 19.8125, 19.9375, 19.919643, 20.0625, 19.928572, 19.625, 19.776787, 19.919643, 19.9375, 18.921429, 15.666667, 14.646258, 13.82653, 13.598639, 13.77551, 13.875, 13.928572, 13.9375, 13.9375, 14, 14, 14, 14, 14, 14, 14, 14, 14, 14, 14, 14, 14.1875, 14.25, 14.4375, 14.625, 14.6875, 14.8125, 14.8125, 14.75, 14.6875, 14.75, 14.8125, 15, 15.125, 15.125, 15.125, 15.125, 15.0625, 15.0625, 15.125, 15.1875, 15.1875, 15.25, 15.25, 15.166667, -10, -10, -10, -10, -10, -10, -10, -10, -10, -10, -10, -10, -10, -10, 12.375, 12.583334, 12.625, 12.625, 12.625, 12.375, 12.1875, 12, 12, 12, 12, 11.75, 11.5, 11.1875, 10.803572, 10.479167, 10.416667, 10.583333, 10.678572, 10.625, 10.4375, 10.25, 10.0625, 10, 10, 10, 10, 9.8125, 9.625, 9.375, 9.125, 9.0625, 9, 9, 9, 8.9375, 8.6875, 8.4375, 8.1875, 8, 8, 8, 7.875, 7.8125, 7.6875, 7.4375, 7.3125, 7.125, 7, 7, 7, 7, 7, 7, 7, 7.0625, 7.125, 7.125, 7.125, 7.0625, 7, 7, 7, 7, 7, 7, 7, 7, 6.9375, 7.0267859, 7.0982141, 7.0625, 7.125, 7, 7, 7, 7, 7, 7, 7.0625, 7.0625, 7.0625, 7.0625, 7, 6.8035717, 6.5625, 6.625, 6.6696429, 6.875, 7, 6.75, 6.5, 6.25, 6, 6, 6, 6, 6, 6, 6, 6, 6, 6, 6, 6, 6, 6, 6, 6, 6, 6, 6, 6, 6, 6, 6, 6, 6, 6.125, 6.166667, -10, -10, -10, -10, -10, -10, -10, -10, 21, 21, 21, 20.678572, 19.583332, 19.214285, 18.6875, 18.4375, 17.821428, 16.642857, 16.276785, 15.9375, 15.75, 15.75, 15.75, 15.8125, 16, 16, 16, 16, 15.875, 15.875, 15.875, 15.875, 15.8125, 15.6875, 15.5, 15.5, 15.6875, 15.8125, 16, 16.0625, 15.973214, 15.705357, 15.535713, 15.5, 15.5625, 15.6875, 15.75, 15.75, 15.75, 15.6875, 15.5625, 15.4375, 15.25, 15.125, 15.0625, 15.0625, 15.125, 15.125, 15.125, 15.125, 15.0625, 15.0625, 15.125, 15.0625, 15.125, 15.375, 15.5, 15.625, 15.8125, 15.678572, 15.4375, 15.375, 15.125, 15.205357, 15.45, 15.392857, 15.625, 15.8125, 16.294643, 16.669643, 17.0625, 17.25, -10, -10, -10, 20.125, 20, -10, -10, -10, -10, -10, -10, -10, -10, -10, -10, 34.541668, 34.947914, 35.357143, 35.747768, 35.953125, 35.921875, 36.095982, 36.645832, 36.964287, 36.991074, 37.267857, 37.42857, 37.53125, 37.65625, 37.504463, 37.428574, 37.574829, 37.489796, 37.425171, 37.663265, 37.5625, 37.65625, 37.5625, 37.4375, 37.4375, 37.504463, 37.642857, 37.955357, 38.736111, 38.959187, 39.07143, 38.877552, 38.653057, 38.833332, 38.693451, 37.90625, 37.293152, 36.897324, 36.616074, 36.416668, 36.476192, 20, 20, 20, 20.03125, -10, -10, -10, 20.5625, 20.583334, 20.625, 20.625, 20.71875, 20.75, 20.75, 20.875, 20.875, 20.9375, 21.0625, 21.3125, 21.5625, 21.8125, 22.1875, 22.4375, 22.6875, 22.9375, 23, 23, 23, 23, 23.1875, 23.4375, 23.723213, 23.9375, 24, 23.714287, 21.780952, 19.845238, 18.892857, 18.53125, 18.71875, 18.90625, 19, 19, 19, 19.0625, 19.0625, 19.1875, 19.375, 19.4375, 19.625, 19.758928, 19.8125, 19.875, 19.875, 19.75, 19.964287, 20.169643, 19.848213, 17.626984, 14.959184, 13.976191, 13.389881, 13.238095, 13.464285, 13.625, 13.741072, 13.875, 13.875, 14, 14, 14, 14, 14, 14, 14, 14, 14, 14, 14, 14, 14.1875, 14.25, 14.4375, 14.5625, 14.5625, 14.625, 14.5625, 14.5, 14.5, 14.625, 14.75
10.666667, 10.833333, 10.866072, 10.6875, 10.4375, 10.1875, 10, 10, 10, 10, 10, 9.875, 9.6875, 9.4375, 9.1875, 9.0625, 9, 9, 9, 8.875, 8.625, 8.375, 8.125, 8, 8, 8, 7.9375, 7.875, 7.8125, 7.5625, 7.375, 7.1875, 7, 7, 7, 7, 7, 7, 7, 7, 7, 7, 7, 7, 7, 7, 7, 7, 7, 7, 7, 7, 6.9375, 7.0267859, 7.0982141, 7.0625, 7.125, 7, 7, 7, 7, 7, 7, 7.0625, 7.0625, 7.0625, 7.0625, 6.9375, 6.7410717, 6.5625, 6.7321429, 6.7946429, 7, 7.0625, 6.8125, 6.5625, 6.3125, 6.0625, 6, 6, 6, 6, 6, 6, 6, 6, 6, 6, 6, 6, 6, 6, 6, 6, 6, 6, 6, 6, 6, 6, 6, 6, 6.0625, 6.0833335, -10, -10, -10, -10, -10, -10, -10, -10, 21, 21, 21, 20.678572, 19.583332, 19.17857, 18.65625, 18.40625, 17.785713, 16.642857, 16.276785, 15.875, 15.6875, 15.6875, 15.6875, 15.8125, 16, 16, 15.9375, 15.9375, 15.8125, 15.8125, 15.875, 15.8125, 15.71875, 15.65625, 15.53125, 15.59375, 15.8125, 15.875, 16, 16, 15.910714, 15.705357, 15.642857, 15.6875, 15.875, 16, 16.125, 16.1875, 16.1875, 16.1875, 16.0625, 15.875, 15.5625, 15.267857, 15.1875, 15.0625, 15.0625, 15.0625, 15, 15.0625, 15.0625, 15.0625, 15.125, 15.0625, 15.125, 15.375, 15.5625, 15.6875, 15.8125, 15.678572, 15.375, 15.3125, 15.1875, 15.392857, 15.771429, 15.736607, 15.96875, 16.09375, 16.482143, 16.75, 17.125, 17.208334, -10, -10, -10, 20.166666, -10, -10, -10, -10, -10, -10, -10, -10, -10, -10, 35.25, 35.041668, 35.427082, 35.794643, 36.046875, 36.234375, 36.140625, 36.310268, 36.895832, 37.285713, 37.366074, 37.625, 37.67857, 37.78125, 37.90625, 37.790176, 37.616074, 38.003399, 37.938774, 38.234692, 38.642857, 38.714287, 38.591835, 38.196426, 38, 38.25, 38.362244, 38.438774, 38.806122, 39.273808, 39.795918, 39.92857, 39.795918, 39.540813, 39.357143, 39.183674, 38.839287, 38.143707, 37.549107, 37.209824, 36.791668, 36.601192, 36.75, 36.708336, 20, 20.041666, -10, -10, -10, 20.3125, 20.333334, 20.375, 20.4375, 20.59375, 20.75, 20.875, 21, 21, 21.0625, 21.1875, 21.4375, 21.6875, 21.875, 22.1875, 22.4375, 22.6875, 22.9375, 23, 23, 23, 23, 23.125, 23.375, 23.660713, 23.875, 24, 23.714287, 22.526531, 20.335035, 19.408163, 18.75, 18.790178, 18.78125, 18.875, 19, 19.125, 19.125, 19.125, 19.125, 19.1875, 19.25, 19.40625, 19.602678, 19.78125, 19.90625, 20, 19.9375, 20.151787, 20.336309, 19.630953, 17.253969, 15.285714, 14.017858, 13.4375, 13.258928, 13.205357, 13.395833, 13.616072, 13.8125, 13.875, 14, 14, 13.9375, 13.9375, 13.9375, 13.9375, 14, 14, 14, 13.9375, 13.9375, 13.9375, 14.125, 14.25, 14.375, 14.4375, 14.375, 14.375, 14.3125, 14.3125, 14.375, 14.5625, 14.75, 14.9375, 15, 14.9375, 14.875, 14.8125, 14.8125, 14.875, 15, 15.1875, 15.1875, 15.3125, 15.375, 15.333334, -10, -10, -10, -10, -10, -10, -10, -10, -10, -10, -10, -10, -10, -10, 12.75, 12.833334, 12.8125, 12.8125, 12.6875, 12.4375, 12.25, 12, 12, 12, 12, 11.75, 11.5, 11.25, 11, 11, 11, 11, 10.875, 10.625, 10.375, 10.125, 10, 10, 10, 10, 10, 9.9375, 9.6875, 9.4375, 9.1875, 9, 9, 9, 9, 8.875, 8.625, 8.375, 8.125, 8, 8, 8, 7.9375, 7.8125, 7.6875, 7.4375, 7.25, 7.125, 7, 7, 7, 7, 7, 7, 7, 7, 7, 7, 7, 7, 7, 7, 7, 6.9375, 6.9375, 6.9375, 6.9375, 7, 6.9375, 6.9642859, 7.0357141, 7, 7.0625, 7, 7, 7, 7, 7, 7, 7, 7, 7, 7, 6.875, 6.6785717, 6.5, 6.7321429, 6.8571429, 6.8928571, 6.9553571, 6.75, 6.5625, 6.375, 6.125, 6, 6, 6, 6, 6, 6, 6, 6, 6, 6, 6, 6, 6, 6, 6, 6, 6, 6, 6, 6, 6, 6, 6, 6, 6, 6, -10, -10, -10, -10, -10, -10, -10, -10, 21, 21, 20.928572, 20.452381, 19.571428, 19.11607, 18.65625, 18.40625, 17.892857, 16.666666, 16.285715, 15.9375, 15.8125, 15.8125, 15.8125, 15.875, 16, 15.9375, 15.8125, 15.8125, 15.6875, 15.75, 15.8125, 15.6875, 15.59375, 15.53125, 15.53125, 15.65625, 15.875, 15.9375, 16, 15.9375, 15.875, 15.8125, 15.75, 15.8125, 16, 16.125, 16.3125, 16.4375, 16.4375, 16.4375, 16.4375, 16.1875, 15.729166, 15.455357, 15.3125, 15.25, 15.1875, 15.125, 15, 15, 15, 15, 15, 15, 15, 15.1875, 15.375, 15.5, 15.625, 15.491072, 15.1875, 15.125, 15, 15.267857, 15.708929, 15.736607, 16.0625, 16.1875, 16.53125, 16.78125, 17.125, 17.166668, -10, -10, -10, -10, -10, -10, -10, -10, -10, -10, -10, -10, -10, -10, 35.333332, 35.416668, 35.802082, 36.125, 36.296875, 36.359375, 36.265625, 36.435268, 36.994045, 37.348213, 37.464287, 37.59375, 37.700893, 37.84375, 38.03125, 37.946426, 37.84375, 38.200893, 38.15625, 38.55357, 39.0625, 39.0625, 38.986607, 38.696426, 38.5, 38.625, 38.754463, 38.8125, 39.080357, 39.458332, 39.82143, 40, 40.0625, 40.116074, 40.098213, 39.973213, 39.6875, 38.985119, 38.785713, 38.282654, 37.586311, 37.19643, 37.111111, 36.900791, 37.25, 37.416664, -10, -10, -10, 20.0625, 20.114584, 20.21875, 20.40625, 20.625, 20.8125, 20.9375, 21, 21, 21, 21.0625, 21.267857, 21.645834, 21.866072, 22.25, 22.5, 22.75, 23, 23, 23, 23, 23, 23.125, 23.375, 23.660713, 23.875, 24, 23.857143, 23.326529, 22.464285, 21.076191, 19.455359, 18.727678, 18.65625, 18.75, 19, 19.25, 19.25, 19.25, 19.125, 19.125, 19.1875, 19.28125, 19.477678, 19.71875, 19.84375, 20, 19.9375, 20.068453, 20.461309, -10, -10, -10, 14.053572, 13.666667, 13.508928, 13.375, 13.3125, 13.4375, 13.625, 13.75, 13.9375, 14, 13.9375, 13.9375, 13.9375, 13.9375, 13.9375, 13.875, 13.8125, 13.758928, 14.020833, 14.044643, 14.1875, 14.25, 14.1875, 14.125, 14.0625, 14, 14, 14.125, 14.1875, 14.375, 14.5625
11.0625, 11, 10.9375, 10.6875, 10.4375, 10.1875, 10, 9.9375, 9.875, 9.8125, 9.8125, 9.8125, 9.625, 9.4375, 9.1875, 9, 9, 9, 8.9375, 8.75, 8.5, 8.25, 8.0625, 8, 8, 8, 7.875, 7.75, 7.5625, 7.3125, 7.1875, 7.0625, 7, 7, 7, 7, 7, 7, 7, 7, 7, 7, 7, 7, 7, 7, 7, 6.875, 6.8125, 6.75, 6.6875, 6.8125, 6.875, 6.9375, 7, 7, 7, 7, 7, 7, 6.9375, 6.9375, 6.9375, 6.9375, 7, 7, 7, 6.8125, 6.625, 6.5625, 6.7321429, 6.8125, 6.7678571, 6.7678571, 6.625, 6.5, 6.375, 6.1875, 6, 6, 6, 6, 6, 6, 6, 6, 5.9375, 5.9375, 5.9375, 5.9375, 6, 6, 5.9375, 5.9375, 5.9375, 5.9375, 6, 6, 6, 6, 6, 6, 6, 6.0625, -10, -10, -10, -10, -10, -10, -10, -10, 21, 21, 20.857143, 20.190475, 19.476191, 18.982143, 18.59375, 18.28125, 17.705357, 16.642857, 16.276785, 15.9375, 15.875, 15.875, 15.9375, 16.0625, 16.1875, 16.125, 15.875, 15.8125, 15.723214, 15.75, 15.875, 15.625, 15.53125, 15.46875, 15.53125, 15.71875, 15.875, 15.9375, 15.875, 15.875, 15.96875, 16.03125, 16.09375, 16.15625, 16.3125, 16.375, 16.5625, 16.6875, 16.6875, 16.6875, 16.6875, 16.5, 16.041666, 15.705357, 15.455357, 15.3125, 15.1875, 15.125, 15, 15.0625, 15.0625, 15.0625, 15.0625, 15, 15, 15.125, 15.25, 15.3125, 15.375, 15.241072, 14.96875, 14.9375, 14.8125, 15.008928, 15.352678, 15.46875, 15.8125, 16.270834, 16.584822, 16.84375, 17.125, 17.222223, -10, -10, -10, -10, -10, -10, -10, -10, -10, -10, -10, -10, 35.25, 35.5, 35.4375, 35.666668, 35.96875, 36.25, 36.359375, 36.359375, 36.337051, 36.7061, 37.163689, 37.473213, 37.625, 37.71875, 37.879463, 37.96875, 38.21875, 38.133926, 38.09375, 38.513393, 38.40625, 38.80357, 39.3125, 39.4375, 39.526787, 39.290176, 39.15625, 39.15625, 39.223213, 39.1875, 39.3125, 39.5, 39.839287, 40, 40.1875, 40.366074, 40.410713, 40.410713, 40.258926, 40.07143, 39.790813, 39.216072, 39.074829, 38.174606, 37.683334, 37.175594, 37.357143, 37.444443, 37.708336, 20, 20, 20, 20.102678, 20.34375, 20.46875, 20.71875, 20.875, 21.0625, 21.125, 21.125, 21.0625, 21.125, 21.392857, 21.877975, 22.116072, 22.4375, 22.625, 22.8125, 23, 23, 23, 23, 23, 23.0625, 23.3125, 23.598213, 23.8125, 24, 24, 23.785713, 23.091837, 20.605442, 19.504463, 18.852678, 18.71875, 18.75, 19, 19.1875, 19.125, 19.125, 19.0625, 19.169643, 19.25, 19.28125, 19.352678, 19.59375, 19.78125, 20.035713, 20, 19.954166, 20.254166, -10, -10, -10, 13.928572, 13.5, 13.258928, 13.089286, 13.0625, 13.223214, 13.5, 13.6875, 13.875, 14, 13.9375, 13.9375, 13.9375, 14, 14, 13.875, 13.776786, 13.758928, 14.127976, 14.232143, 14.375, 14.375, 14.25, 14.1875, 14.125, 14.125, 14.1875, 14.3125, 14.375, 14.4375, 14.5625, 14.6875, 14.75, 14.875, 14.9375, 14.875, 14.9375, 14.9375, 15, 15.125, 15.1875, 15.375, 15.5, 15.583334, -10, -10, -10, -10, -10, -10, -10, -10, -10, -10, -10, -10, -10, -10, 13, 13, 13, 12.9375, 12.6875, 12.4375, 12.1875, 12, 12, 12, 12, 11.875, 11.625, 11.4375, 11.1875, 11.0625, 11.0625, 11, 10.9375, 10.6875, 10.4375, 10.1875, 10, 9.9375, 9.8125, 9.75, 9.75, 9.6875, 9.5625, 9.375, 9.125, 9, 9, 9, 8.875, 8.6875, 8.4375, 8.1875, 8.0625, 8, 8, 8, 7.875, 7.75, 7.625, 7.4375, 7.3125, 7.1875, 7.0625, 7, 7, 7, 7, 7, 7, 7, 7, 7, 7, 7.0625, 7.0625, 7.0625, 7.0625, 6.875, 6.8125, 6.75, 6.6875, 6.8125, 6.875, 6.9375, 7, 7, 7, 7, 7, 7, 6.875, 6.875, 6.875, 6.875, 7, 7, 7, 6.75, 6.5625, 6.5, 6.6071429, 6.6875, 6.5803571, 6.5803571, 6.5, 6.4375, 6.375, 6.1875, 6, 6, 6, 6, 6, 6, 6, 6, 5.9375, 5.9375, 5.9375, 5.9375, 6, 6, 5.9375, 5.9375, 5.9375, 5.9375, 6, 6, 6, 6, 6, 5.9375, 5.9375, 5.9791665, 6.3333335, -10, -10, -10, -10, -10, -10, -10, 21, 21, 20.785713, 20.011904, 19.497025, 18.910713, 18.549107, 18.15625, 17.517857, 16.619047, 16.267857, 15.9375, 15.9375, 15.9375, 16.0625, 16.1875, 16.3125, 16.3125, 16.125, 16.1875, 16.142857, 15.979166, 16.008928, 15.6875, 15.59375, 15.53125, 15.59375, 15.78125, 15.875, 15.9375, 15.875, 15.875, 15.96875, 16.09375, 16.28125, 16.40625, 16.625, 16.6875, 16.8125, 17.008928, 17.270834, 17.357143, 17.383928, 16.895834, 16.363094, 15.892857, 15.580357, 15.375, 15.1875, 15.125, 15, 15.0625, 15.0625, 15.0625, 15.0625, 15, 15, 15.0625, 15.125, 15.125, 15.166667, 15.083333, 14.958333, 14.916667, 14.833333, 15.125, 15.227678, 15.3125, 15.53125, 16.029762, 16.543156, 16.90625, 17.208334, -10, -10, -10, -10, -10, -10, -10, -10, -10, -10, -10, -10, -10, 35.416668, 35.722225, 35.84375, 36.0625, 36.25, 36.419643, 36.760418, 36.697918, 36.581844, 36.877975, 37.194939, 37.459824, 37.65625, 37.8125, 38.004463, 38.09375, 38.28125, 38.223213, 38.28125, 38.65625, 38.65625, 38.973213, 39.4375, 39.6875, 39.870537, 39.758926, 39.625, 39.5, 39.5, 39.375, 39.145832, 39.270832, 39.565475, 39.803574, 40.0625, 40.303574, 40.348213, 40.446426, 40.770832, 40.580357, 40.632652, 40.221428, 40.051022, 39.694447, 38.658504, 37.758926, 37.642857, 37.645832, 37.805557, 38, 20, 20, 20.186012, 20.46875, 20.65625, 20.90625, 21, 21.125, 21.125, 21.125, 21.0625, 21.0625, 21.339285, 22.023809, 22.294643, 22.625, 22.75, 22.875, 23, 23, 23, 23, 23, 23, 23.1875, 23.4375, 23.6875, 23.9375, 24, 24, 23.526787, 21.081633, 19.839285, 18.946428, 18.75, 18.75, 19, 19.1875, 19.125, 19.1875, 19.1875, 19.357143, 19.4375, 19.40625, 19.40625, 19.46875, 19.71875, 19.910713, 19.9375, 19.891666, 20.191666, -10, -10, -10, 14, 13.583333, 13.5, 13.375, 13.276786, 13.348214, 13.4375, 13.625, 13.75, 13.9375, 13.9375, 13.9375, 13.9375, 14, 14, 13.875, 13.776786, 13.821428, 14.190476, 14.294643, 14.4375, 14.4375, 14.375, 14.375, 14.375, 14.375, 14.4375, 14.5625, 14.5, 14.4375, 14.4375
11.0625, 10.9375, 10.875, 10.625, 10.375, 10.1875, 10, 9.9375, 9.8125, 9.75, 9.75, 9.625, 9.5, 9.3125, 9.0625, 9, 9, 9, 8.875, 8.75, 8.5, 8.25, 8.125, 8, 8, 8, 7.875, 7.75, 7.625, 7.5, 7.375, 7.25, 7.125, 7, 7, 7, 7, 7, 7, 7, 7, 7, 7, 7.125, 7.125, 7.125, 7.125, 6.875, 6.875, 6.875, 6.875, 7.0625, 7.125, 7.1875, 7.25, 7.1875, 7.125, 7.0625, 7, 7, 6.8125, 6.75, 6.75, 6.75, 6.9375, 7, 7, 6.8125, 6.5625, 6.375, 6.3125, 6.3125, 6.2053571, 6.2678571, 6.1875, 6.125, 6.125, 6, 5.9375, 5.9375, 5.9375, 5.9375, 5.9375, 6, 6, 6, 5.9375, 5.9375, 5.9375, 5.9375, 6, 6, 5.9375, 5.875, 5.875, 5.875, 5.9375, 6, 6, 6, 6, 5.875, 5.9017859, 6.0291662, -10, -10, -10, -10, -10, -10, -10, -10, 21, 21, 20.785713, 20.011904, 19.455357, 18.839287, 18.486607, 18.03125, 17.366072, 16.595238, 16.258928, 16, 16.0625, 16.0625, 16.25, 16.285713, 16.205357, 16.270834, 16.4375, 16.724489, 16.580357, 16.247023, 16.133928, 15.8125, 15.75, 15.6875, 15.75, 15.875, 15.875, 15.9375, 15.875, 15.875, 15.96875, 16.15625, 16.40625, 16.53125, 16.6875, 16.803572, 17.104166, 17.321428, 17.645834, 17.607143, 17.5625, 16.808334, 16.133928, 15.75, 15.392857, 15.3125, 15.125, 15.0625, 15, 15.0625, 15.0625, 15.09375, 15.125, 15.125, 15.1875, 15.1875, 15.1875, 15.166667, -10, -10, -10, -10, -10, 15.1875, 15.15625, 15.21875, 15.4375, 15.998512, 16.543156, 16.885416, 17.194445, -10, -10, -10, -10, -10, -10, -10, -10, -10, -10, -10, -10, -10, 35.4375, 35.729168, 35.84375, 36.0625, 36.258926, 36.627975, 37.104168, 37.077381, 36.880951, 37.1875, 37.444939, 37.638393, 37.84375, 37.919643, 37.89732, 38.010418, 38.302082, 38.366074, 38.53125, 38.65625, 38.71875, 38.973213, 39.375, 39.6875, 39.977676, 39.96875, 40.03125, 39.96875, 40.03125, 39.9375, 39.380951, 39.380951, 39.645832, 39.803574, 40.0625, 40.366074, 40.598213, 40.821426, 41.145832, 41.044643, 40.883926, 40.474998, 40.294643, 39.839287, 39.013691, 38.321426, 38.017857, 37.9375, 37.916668, 38, 38, 20, 20.311012, 20.635416, 20.78125, 21.03125, 21.0625, 21.125, 21.125, 21.125, 21, 20.875, 21.11607, 21.880953, 22.223215, 22.625, 22.75, 22.875, 23, 23, 23.0625, 23.125, 23.1875, 23.1875, 23.3125, 23.5, 23.6875, 23.9375, 24, 24, 23.32143, 20.75, 19.714285, 18.875, 18.75, 18.75, 18.875, 19, 19, 19.125, 19.25, 19.544643, 19.6875, 19.5625, 19.5, 19.5, 19.6875, 19.910713, 19.9375, 19.829166, 20.15, 20.875, 20.333332, 15.222222, 14, 13.4375, 13.4375, 13.520833, 13.392858, 13.366072, 13.3125, 13.4375, 13.5625, 13.8125, 13.9375, 13.9375, 13.9375, 14, 13.9375, 13.875, 13.776786, 13.883928, 14.252976, 14.357143, 14.5, 14.5, 14.5, 14.5625, 14.625, 14.625, 14.6875, 14.75, 14.625, 14.4375, 14.401786, 14.535714, 14.625, 14.875, 14.9375, 14.9375, 15.0625, 15.0625, 15.125, 15.25, 15.3125, 15.5625, 15.75, 15.833334, -10, -10, -10, -10, -10, -10, -10, -10, -10, -10, -10, -10, -10, 12, 12.833333, 12.875, 12.9375, 12.875, 12.625, 12.375, 12.125, 12, 12, 12, 12, 11.875, 11.5625, 11.339286, 11.125, 11, 11, 10.8125, 10.75, 10.5, 10.3125, 10.1875, 10, 9.9375, 9.8125, 9.75, 9.75, 9.5625, 9.4375, 9.25, 9, 9, 9, 9, 8.875, 8.75, 8.5, 8.25, 8.125, 8, 8, 8, 7.9375, 7.8125, 7.75, 7.6875, 7.5, 7.375, 7.25, 7.0357141, 6.8928571, 6.8928571, 6.8125, 6.875, 6.9375, 6.9375, 7, 7.0625, 7.125, 7.3125, 7.375, 7.3125, 7.25, 7.0625, 7.0625, 7.125, 7.1875, 7.3125, 7.375, 7.4375, 7.5, 7.4375, 7.3125, 7.1875, 7.125, 7.125, 7, 6.9375, 6.875, 6.8125, 6.9375, 7, 7, 6.875, 6.625, 6.375, 6.1875, 6.0625, 6.0625, 6.125, 6.0625, 6, 6, 5.9375, 5.9375, 5.9375, 5.9375, 5.9375, 5.9375, 6, 6, 6, 5.9375, 5.9375, 5.9375, 5.9375, 6, 6, 5.9375, 5.8125, 5.8125, 5.8125, 5.875, 6, 6, 6, 5.9375, 5.8125, 5.9017859, 6.0791664, -10, -10, -10, -10, -10, -10, -10, -10, 21.083334, 21.0625, 20.857143, 20.273809, 19.467262, 18.830357, 18.424107, 17.90625, 17.25, 16.571428, 16.25, 16, 16, 16, 16.25, 16.258928, 16.098213, 16.333334, 16.895834, 17.029762, 16.747025, 16.238094, 16.071428, 15.875, 15.9375, 15.9375, 15.875, 15.875, 15.8125, 15.8125, 15.8125, 15.9375, 16.03125, 16.21875, 16.46875, 16.53125, 16.696428, 17.011906, 17.345238, 17.571428, 17.895834, 17.785715, 17.416666, 16.629763, 16.029762, 15.625, 15.267857, 15.125, 15, 15, 15.0625, 15.1875, 15.1875, 15.21875, 15.25, 15.25, 15.375, 15.4375, 15.4375, 15.416667, -10, -10, -10, -10, -10, 15.5, 15.46875, 15.46875, 15.53125, 16.029762, 16.470238, 16.888887, -10, -10, -10, -10, -10, -10, -10, -10, -10, -10, -10, -10, 34.333336, 34.880951, 35.544643, 35.995834, 36.040176, 36.375, 36.491074, 36.815475, 37.476192, 37.44558, 37.077381, 37.625, 37.944939, 38.14732, 38.209824, 38.138393, 37.95982, 38.010418, 38.302082, 38.522324, 38.8125, 39.071426, 39.262501, 39.330357, 39.625, 39.875, 40.227676, 40.34375, 40.46875, 40.46875, 40.59375, 40.5625, 40.404758, 40.404758, 40.270832, 40.303574, 40.4375, 40.4375, 40.5, 40.696426, 41.020832, 41.169643, 41.098213, 40.767857, 40.508926, 40.089287, 39.305359, 38.75, 38.330357, 38.1875, 38.0625, 38, 38, 38, 20.279762, 20.583332, 20.6875, 20.9375, 21, 21.09375, 21.1875, 21.25, 21.1875, 21.1875, 21.410713, 21.985121, 22.294643, 22.5625, 22.6875, 22.8125, 22.9375, 23, 23.0625, 23.0625, 23.125, 23.125, 23.3125, 23.5625, 23.75, 24, 24, 24, 23.357143, 20.833332, 19.857143, 19.0625, 18.875, 18.875, 18.875, 18.9375, 19, 19.1875, 19.4375, 19.732143, 19.8125, 19.625, 19.5625, 19.5625, 19.75, 20.035713, 20.1875, 20.1, 20.3375, 20.833334, 20.388887, 15.645834, 14.416667, 13.470833, 13.455357, 13.395833, 13.392858, 13.428572, 13.375, 13.5, 13.625, 13.8125, 13.9375, 13.9375, 13.9375, 14, 14, 14, 13.964286, 14.0625, 14.169643, 14.3125, 14.4375, 14.5625, 14.75, 14.875, 15, 15, 15, 15, 14.875, 14.6875, 14.651786
10.875, 10.6875, 10.5625, 10.3125, 10.1875, 10.125, 10, 10, 9.9375, 9.9375, 9.9375, 9.75, 9.5625, 9.3125, 9.0625, 9, 9, 9, 8.9375, 8.875, 8.625, 8.375, 8.1875, 8, 8, 7.9375, 7.9375, 7.875, 7.875, 7.9375, 7.6875, 7.5625, 7.3571429, 6.9285717, 6.7142859, 6.7053571, 6.625, 6.6875, 6.8125, 6.8125, 6.9375, 7.125, 7.25, 7.5, 7.625, 7.5625, 7.5, 7.375, 7.4375, 7.5625, 7.6875, 7.75, 7.75, 7.75, 7.6875, 7.625, 7.5, 7.3125, 7.3125, 7.3125, 7.25, 7.25, 7.125, 7, 7, 7, 7, 6.9375, 6.6875, 6.4375, 6.1875, 6, 6, 6.0625, 6, 5.9375, 5.9375, 5.875, 5.9375, 5.9375, 5.9375, 5.9375, 5.9375, 6, 6, 6, 6, 6, 6, 6, 6, 6, 6, 5.8125, 5.75, 5.6875, 5.625, 5.75, 5.75, 5.8125, 5.75, 5.6875, 5.9017859, 6.0666666, -10, -10, -10, -10, -10, -10, -10, 21.5, 21.083334, 21.0625, 20.928572, 20.5, 19.395834, 18.75, 18.299107, 17.84375, 17.25, 16.571428, 16.25, 16, 16, 16, 16.25, 16.321428, 16.136053, 16.619047, 17.428572, 17.696428, 17.139456, 16.522108, 16.321428, 16.080357, 16.125, 16.0625, 16, 15.875, 15.75, 15.6875, 15.75, 16, 16.112499, 16.25, 16.416666, 16.729166, 16.946428, 17.154762, 17.595238, 17.758928, 18.177084, 18, 17.354166, 16.469049, 15.842261, 15.5, 15.25, 15.125, 15, 15.0625, 15.1875, 15.375, 15.410714, 15.299107, 15.330357, 15.375, 15.5, 15.5625, 15.5625, 15.510417, -10, -10, -10, -10, -10, 15.875, 15.75, 15.65625, 15.59375, 15.779761, 16.388889, -10, -10, -10, -10, -10, -10, -10, -10, -10, 30.25, 30.666666, 30.75, 31.571428, 34.333336, 34.880951, 35.908165, 36.579166, 36.602676, 36.875, 36.959824, 37.221725, 37.635418, 37.622025, 37.589287, 37.970238, 38.475338, 38.39732, 38.47768, 38.450893, 38.111607, 38.090775, 38.302082, 38.522324, 38.8125, 39.142857, 39.462502, 39.497025, 39.991074, 40.116074, 40.46875, 40.625, 40.75, 40.8125, 40.96875, 41, 41.119045, 41.159859, 41.078228, 40.803574, 40.8125, 40.732143, 40.517857, 40.651787, 40.895832, 41.169643, 41.133926, 40.660713, 40.330357, 39.839287, 39.122025, 38.892857, 38.5625, 38.5, 38.3125, 38.125, 38.0625, 38, 20.277779, 20.395832, 20.583334, 20.734375, 20.859375, 20.921875, 21.0625, 21.25, 21.3125, 21.303572, 21.273216, 21.806549, 22.035715, 22.3125, 22.5, 22.6875, 22.875, 23, 23.0625, 23.0625, 23.125, 23.1875, 23.375, 23.625, 23.8125, 24, 24, 24, 23.392859, 20.916666, 19.928572, 19.125, 18.875, 18.875, 18.875, 19.0625, 19.25, 19.5, 19.75, 19.875, 19.9375, 19.75, 19.6875, 19.6875, 19.75, 19.9375, 20.25, 20.375, 20.625, 20.875, 20.541666, 18.555555, 17.357141, 13.7375, 13.633928, 13.395833, 13.428572, 13.392857, 13.3125, 13.375, 13.5625, 13.75, 13.9375, 13.9375, 13.9375, 13.9375, 13.9375, 14, 14, 14.0625, 14.0625, 14.125, 14.1875, 14.375, 14.625, 14.8125, 15, 15, 15, 15, 14.9375, 14.8125, 14.776786, 14.848214, 14.875, 15, 15, 14.9375, 15, 15, 15, 15.125, 15.125, 15.25, 15.4375, 15.5, -10, -10, -10, -10, -10, -10, -10, -10, -10, -10, -10, -10, -10, -10, 12.708333, 12.708333, 12.6875, 12.5625, 12.375, 12.1875, 12.0625, 12, 12, 12, 12, 11.75, 11.4375, 11.151786, 10.9375, 10.9375, 10.875, 10.625, 10.4375, 10.1875, 10.0625, 10.0625, 10, 10, 10, 10, 10, 9.8125, 9.5625, 9.3125, 9.0625, 9, 8.9375, 8.875, 8.875, 8.875, 8.6875, 8.5, 8.25, 8, 8, 7.875, 7.875, 7.8125, 7.75, 7.8125, 7.5625, 7.4375, 7.2946429, 6.9285717, 6.7142859, 6.7053571, 6.6875, 6.8125, 6.9375, 6.9375, 7, 7.1875, 7.375, 7.625, 7.75, 7.6875, 7.625, 7.5625, 7.6875, 7.8125, 7.9375, 8, 8, 7.9375, 7.8125, 7.6875, 7.4375, 7.25, 7.25, 7.3125, 7.4375, 7.5625, 7.5625, 7.4196429, 7.1666665, 7.0714283, 7, 7, 6.8125, 6.625, 6.4375, 6.1875, 6.125, 6.0625, 5.9375, 5.875, 5.875, 5.875, 5.875, 5.8125, 5.8125, 5.8125, 5.875, 6, 6, 6, 6, 6, 6, 6, 6, 6, 6, 5.75, 5.6875, 5.625, 5.5625, 5.75, 5.6875, 5.6875, 5.5625, 5.5, 5.7857141, 6.1499996, -10, -10, -10, -10, -10, -10, -10, -10, 21.083334, 21.0625, 21, 20.6875, 19.645834, 18.928572, 18.5, 18.107143, 17.62245, 17.142857, 16.948978, 16.803572, 16.795918, 16.666666, 16.761906, 16.842262, 17.246031, 18.027777, 18.309525, 17.928572, 17.67687, 17.265306, 16.928572, 16.520407, 16.416666, 16.241072, 16, 15.875, 15.928572, 15.900001, 15.857143, 16.178572, 16.1625, -10, -10, 16.722221, 17.438776, 17.576872, 17.970238, 17.973213, 18.09375, 17.892857, 16.991072, 16.367859, 15.770833, 15.5625, 15.375, 15.25, 15.125, 15.1875, 15.3125, 15.5625, 15.660714, 15.549107, 15.549107, 15.5625, 15.625, 15.625, 15.65625, 15.572917, 15.375, 15.5, 15.5, 15.6875, 15.8125, 15.84375, 15.71875, 15.59375, 15.5625, 15.944444, -10, -10, -10, -10, -10, -10, -10, -10, 30.5, 30.5, 30.25, -10, -10, -10, -10, -10, 37.32143, 37.316669, 37.295918, 37.57143, 37.334824, 37.489582, 37.611607, 37.788689, 37.976192, 38.407738, 38.681545, 38.67857, 38.69643, 38.642857, 38.299107, 38.278275, 38.458332, 38.709824, 39, 39.330357, 39.681252, 39.747025, 40.241074, 40.303574, 40.625, 40.78125, 40.90625, 41.09375, 41.28125, 41.4375, 41.6875, 41.723213, 41.526787, 41.267857, 41.1875, 41.044643, 40.830357, 40.892857, 40.8125, 41.0625, 41.071426, 40.69643, 40.285713, 39.803574, 39.157738, 38.892857, 38.6875, 38.625, 38.5625, 38.3125, 38.1875, 38.0625, 38, 20.361109, 20.614584, 20.713541, 20.875, 20.90625, 21.0625, 21.392857, 21.491072, 21.491072, 21.389286, 21.660715, 21.794643, 22.0625, 22.25, 22.4375, 22.6875, 22.875, 23, 23.0625, 23.125, 23.1875, 23.3125, 23.5625, 23.75, 23.9375, 24, 24, 23.392859, 20.916666, 19.928572, 19.125, 18.875, 18.875, 18.9375, 19.1875, 19.375, 19.625, 19.8125, 19.875, 20, 19.8125, 19.75, 19.75, 19.75, 19.9375, 20.25, 20.375, 20.625, 20.875, 20.791666, 19.571428, 18.734694, 13.414286, 13.071428, 12.931547, 13.380953, 13.455357, 13.5, 13.464286, 13.5625, 13.6875, 13.875, 13.875, 13.9375, 13.9375, 13.9375, 14, 14, 14, 14, 14.0625, 14.125, 14.375, 14.5625, 14.6875, 14.8125, 14.8125, 14.875, 14.9375, 15, 14.9375, 14.964286
10.875, 10.6875, 10.5, 10.25, 10.125, 10.0625, 10, 10, 10, 10, 9.9375, 9.75, 9.5, 9.25, 9.0625, 9, 8.875, 8.75, 8.6875, 8.625, 8.5, 8.375, 8.1875, 8, 8, 7.8125, 7.8125, 7.75, 7.625, 7.6875, 7.4375, 7.3125, 7.2321429, 6.9285717, 6.7142859, 6.7053571, 6.6875, 6.8125, 6.9375, 6.9375, 7, 7.1875, 7.4375, 7.625, 7.75, 7.75, 7.6875, 7.6875, 7.75, 7.75, 7.75, 7.75, 7.75, 7.6875, 7.625, 7.625, 7.5, 7.375, 7.4375, 7.5, 7.6875, 7.875, 7.8125, 7.6071429, 7.2291665, 7.0714283, 7, 7, 6.875, 6.75, 6.625, 6.4375, 6.375, 6.3125, 6.25, 6.1875, 6.0625, 5.9642859, 5.875, 5.8125, 5.875, 5.875, 5.9375, 6, 6, 6, 6, 6, 6, 6, 6, 6, 6, 5.8125, 5.75, 5.6875, 5.625, 5.75, 5.6875, 5.625, 5.4375, 5.375, 5.5714283, 6.1333332, -10, -10, -10, -10, -10, -10, -10, -10, 21.083334, 21.0625, 21, 20.696428, 19.958334, 19.765306, 19.708334, 19.5, 19.285715, 19.297619, 19.380953, 19.541666, 19.523809, 19.222221, 19.027779, 17.88492, 18.150793, 18.888887, 18.705782, 18.479593, 18.248016, 17.994047, 18.346939, 18.636904, 17.083332, 16.846939, 16.553572, 16.410715, 16.579082, 17.445, 16.551022, 16.918367, 16.9, -10, -10, -10, 19.547619, 19.417459, 18.428572, 18.223213, 18.138393, 17.964285, 17.119047, 16.734695, 16.270834, 15.955357, 15.830357, 15.85, 15.446428, 15.4375, 15.4375, 15.75, 15.848214, 15.767857, 15.736607, 15.65625, 15.59375, 15.53125, 15.5625, 15.46875, 15.361111, 15.5, 15.5, 15.6875, 15.875, 15.84375, 15.65625, 15.53125, 15.479167, -10, -10, -10, -10, -10, -10, -10, -10, -10, 30.833334, 30.5, -10, -10, -10, -10, -10, -10, 37.846943, 37.725002, 37.665176, 37.96875, 37.799107, 37.549107, 37.528275, 37.836308, 38.261906, 38.741074, 38.848213, 38.821426, 38.75893, 38.785713, 38.65625, 38.674107, 38.75, 38.96875, 39.25, 39.580357, 39.931252, 39.997025, 40.491074, 40.553574, 40.875, 41, 41.125, 41.3125, 41.5, 41.75, 42, 42.035713, 41.901787, 41.642857, 41.5625, 41.419643, 41.080357, 41.017857, 40.875, 41.0625, 41.133926, 40.75893, 40.410713, 39.991074, 39.345238, 39.071426, 38.75, 38.6875, 38.642857, 38.5625, 38.258926, 38.133926, 38, 38, 20.569445, 20.963541, 21.125, 21.15625, 21.3125, 21.642857, 21.741072, 21.803572, 21.737499, 21.866072, 21.928572, 22.0625, 22.125, 22.3125, 22.5625, 22.8125, 22.9375, 22.9375, 22.9375, 23, 23.125, 23.4375, 23.6875, 23.9375, 24.0625, 24.0625, 23.428572, 20.833332, 19.857143, 19.125, 19, 19, 19.0625, 19.25, 19.375, 19.625, 19.8125, 19.875, 19.9375, 19.75, 19.705357, 19.895834, 19.919643, 20.0625, 20.25, 20.375, 20.625, 20.875, 20.875, 20.75, 20.234694, 13.214286, 13.306122, 12.879464, 13.483631, 13.6875, 13.8125, 13.839286, 13.8125, 13.8125, 13.9375, 13.9375, 14, 14, 14, 14, 14, 14, 14, 14.125, 14.25, 14.5, 14.625, 14.625, 14.625, 14.5625, 14.6875, 14.8125, 14.9375, 15, 15, 14.9375, 14.8125, 14.651786, 14.5625, 14.5, 14.625, 14.75, 14.875, 15, 15.0625, 15.0625, 15.25, 15.333333, -10, -10, -10, -10, -10, -10, -10, -10, -10, -10, -10, -10, -10, -10, 12.875, 12.75, 12.5625, 12.375, 12.1875, 12.125, 12.125, 12.0625, 12, 11.75, 11.6875, 11.5, 11.375, 11.1875, 11.0625, 11, 10.9375, 10.75, 10.5625, 10.3125, 10.1875, 10.125, 10.0625, 10.0625, 10, 10, 9.9375, 9.8125, 9.5625, 9.3125, 9.125, 9, 8.875, 8.75, 8.6875, 8.625, 8.5625, 8.4375, 8.25, 8.0625, 8, 7.8125, 7.75, 7.6875, 7.5, 7.5, 7.3125, 7.1875, 7.1071429, 6.8928571, 6.8214283, 6.8125, 6.875, 6.9375, 7, 7, 7, 7.125, 7.3125, 7.4375, 7.5, 7.5625, 7.5625, 7.5625, 7.625, 7.5625, 7.5, 7.5, 7.5, 7.4375, 7.375, 7.375, 7.375, 7.375, 7.4375, 7.5, 7.5625, 7.6875, 7.6875, 7.5446429, 7.2291665, 7.0714283, 7, 7, 6.9375, 6.875, 6.8125, 6.6875, 6.625, 6.5625, 6.5, 6.4375, 6.3125, 6.1517859, 6, 5.875, 5.875, 5.875, 5.9375, 5.9375, 5.875, 5.875, 5.875, 5.9375, 6, 6, 6, 6, 6, 5.875, 5.8125, 5.75, 5.6875, 5.75, 5.6875, 5.5625, 5.4375, 5.3125, 5.4047623, -10, -10, -10, -10, -10, -10, -10, -10, -10, 21, 21, 20.9375, 20.642857, 20.125, 19.918367, 19.761904, 19.583334, 19.363096, 19.369047, 19.526785, 19.729166, 19.794641, 19.579365, 19.511906, 19.41865, 19.777777, 20.047619, 19.942179, 19.680271, 19.403061, 19.416666, 19.454082, 19.479593, 19.105158, 18.952381, 18.791666, 18.916666, 19.160715, 19.466667, 19.279762, 19.125, 18.48, -10, -10, -10, 20.285715, 19.976871, 19.690475, 18.723213, 18.638393, 18.535715, 18.791666, 18.511904, 16.931974, 16.663265, 16.556122, 16.925001, 16.188776, 16.142857, 16.071428, 16.392857, 16.561224, 16.484694, 16.448978, 16.321428, 16.178572, 16.035715, 16.071428, 15.862245, 15.666666, -10, -10, -10, 15.875, 15.791667, 15.541667, 15.53125, 15.305556, -10, -10, -10, -10, -10, -10, -10, -10, 31.583332, 31.041666, -10, -10, -10, -10, -10, -10, -10, 38.25, 38.25, 38.25, 38.375, 38.191963, 37.924107, 37.903275, 38.336308, 38.752975, 38.991074, 38.9375, 38.8125, 38.892857, 39.035713, 39.0625, 39.142857, 39.21875, 39.375, 39.5625, 39.821426, 40.106251, 40.291668, 40.741074, 40.866074, 41.125, 41.25, 41.375, 41.625, 41.8125, 42.0625, 42.375, 42.410713, 42.205357, 41.830357, 41.75, 41.607143, 41.392857, 41.392857, 41.25, 41.3125, 41.348213, 40.99107, 40.589287, 40.1875, 39.657738, 39.25, 38.875, 38.75, 38.642857, 38.625, 38.258926, 38.133926, 38, 38, 38, 21.338541, 21.25, 21.25, 21.333334, 22.017857, 22.032738, 21.991072, 21.862499, 21.928572, 21.928572, 22.0625, 22.0625, 22.1875, 22.4375, 22.6875, 22.875, 23, 23, 23.0625, 23.125, 23.375, 23.625, 23.875, 24.0625, 24.0625, 23.357141, 20.666666, 19.714287, 19, 19, 19, 19.0625, 19.1875, 19.25, 19.375, 19.526787, 19.732143, 19.794643, 19.776787, 19.875, 20.065477, 20.107143, 20.125, 20.1875, 20.375, 20.625, 20.875, 21, 20.9375, 20.642857, 13.1625, 13.605443, 13.066964, 13.608631, 13.8125, 13.875, 13.839286, 13.8125, 13.8125, 13.9375, 13.9375, 14, 14, 14, 14, 14, 14, 14, 14.0625, 14.1875, 14.4375, 14.5, 14.5, 14.4375, 14.3125, 14.375, 14.4375, 14.5625, 14.625, 14.6875
11, 10.8125, 10.6875, 10.5, 10.375, 10.3125, 10.1875, 10.125, 10, 10, 9.9375, 9.75, 9.5, 9.25, 9.0625, 9, 8.875, 8.75, 8.6875, 8.625, 8.625, 8.5625, 8.375, 8.1875, 8.0625, 7.875, 7.75, 7.625, 7.375, 7.25, 7.125, 7, 7, 7, 7, 7, 7.0625, 7.125, 7.125, 7.125, 7.0625, 7.0625, 7.1875, 7.25, 7.25, 7.3125, 7.3125, 7.3125, 7.375, 7.3125, 7.25, 7.1875, 7.125, 7.0625, 7.0625, 7.125, 7.25, 7.375, 7.4375, 7.5, 7.5, 7.5, 7.5, 7.4196429, 7.1666665, 7.1339283, 7.125, 7.125, 7.0625, 6.9642859, 6.9375, 6.875, 6.875, 6.8125, 6.8125, 6.75, 6.625, 6.4642859, 6.25, 6.0625, 6, 5.9375, 5.9375, 5.9375, 5.875, 5.875, 5.875, 5.9375, 6, 6, 6, 6, 6, 5.9375, 5.9375, 5.9375, 5.9375, 6, 5.9375, 5.75, 5.625, 5.375, 5.3214283, -10, -10, -10, -10, -10, -10, -10, -10, -10, 21, 21, 20.875, 20.625, 20.375, 20, 19.556122, 19.25, 18.755953, 18.410713, 18.523809, 18.645834, 18.886904, 19.075396, 19.729168, 19.619047, 19.875, 20.125, 20.132654, 19.989796, 19.678572, 19.196428, 19.449406, 19.623215, 19.230158, 19.023809, 18.708334, 18.833334, 19.077381, 19.425001, 19.238096, 19, 17.4, -10, -10, -10, 20.178572, 19.942858, 19.448978, 18.862244, 18.734694, 19.034014, 19.265306, 19.173471, 18.757936, 18.678572, 18.678572, 18.858334, 18.547619, 18.416666, 18.333334, 18.5, 18.672619, 18.654762, 18.4625, 18.508928, 18.425596, 18.4375, 18.458334, 18.178572, 17.116667, -10, -10, -10, -10, -10, -10, 15.625, -10, -10, -10, -10, -10, -10, -10, -10, 32, 31.722221, 31.541666, -10, -10, -10, -10, -10, -10, -10, 38.25, 38.3125, 38.375, 38.5625, 38.473213, 38.267857, 38.309525, 38.791664, 39.044643, 39.1875, 39.125, 39, 39, 39.098213, 39.25, 39.4375, 39.59375, 39.75, 39.875, 40, 40.21875, 40.5, 40.75, 40.96875, 41.15625, 41.28125, 41.46875, 41.75, 42, 42.3125, 42.5625, 42.625, 42.491074, 42.142857, 42.125, 42.0625, 42.035713, 41.892857, 41.696426, 41.5625, 41.5625, 41.348213, 40.94643, 40.508926, 40.303574, 39.964287, 39.32653, 39.0625, 38.74107, 38.6875, 38.321426, 38.196426, 38.0625, 38, 38, 21.729166, -10, -10, -10, 22.017857, 22.011904, 22.0625, 22.098213, 22.0625, 22.0625, 22.0625, 22, 22.0625, 22.3125, 22.5625, 22.8125, 23, 23, 23, 23, 23.25, 23.5, 23.8125, 24.0625, 24.0625, 23.357141, 20.666666, 19.714287, 19, 19, 19, 19.0625, 19.125, 19.125, 19.1875, 19.339287, 19.607143, 19.732143, 19.776787, 19.9375, 20.127977, 20.169643, 20.1875, 20.125, 20.3125, 20.5625, 20.75, 20.9375, 20.916666, 20.057142, 12.8125, 13.226191, 13.102678, 13.572917, 13.875, 13.9375, 13.964286, 13.9375, 13.875, 13.9375, 13.9375, 14, 14, 14, 14, 14, 14, 14, 14.0625, 14.1875, 14.4375, 14.4375, 14.375, 14.25, 14.0625, 14.125, 14.125, 14.1875, 14.1875, 14.25, 14.4375, 14.383928, 14.241072, 14.25, 14.25, 14.5625, 14.75, 14.9375, 15, 15.125, 15.25, 15.5625, 15.8, -10, -10, -10, -10, -10, -10, -10, -10, -10, -10, -10, -10, -10, -10, 13, 12.916667, 12.8125, 12.6875, 12.4375, 12.375, 12.25, 12.125, 12.0625, 11.625, 11.375, 11.080357, 11, 10.9375, 10.9375, 10.9375, 10.9375, 10.8125, 10.8125, 10.6875, 10.625, 10.5625, 10.4375, 10.3125, 10.125, 10, 9.8125, 9.625, 9.375, 9.1875, 9.0625, 9, 8.9375, 8.875, 8.8125, 8.6875, 8.5625, 8.4017859, 8.3125, 8.2232141, 8.125, 8, 7.8125, 7.6875, 7.4375, 7.25, 7.125, 7, 7, 7, 7, 7, 7, 7, 7, 7, 7, 7, 7.0625, 7.0625, 7.0625, 7.125, 7.125, 7.1875, 7.25, 7.25, 7.1875, 7.0625, 6.875, 6.75, 6.8125, 6.875, 7.2053571, 7.4732141, 7.5, 7.5625, 7.375, 7.25, 7.125, 7.0625, 7, 7.0625, 7.1875, 7.1875, 7.125, 7.0267859, 6.9375, 7, 7.0625, 7.125, 7.25, 7.125, 7, 6.7767859, 6.5625, 6.4375, 6.375, 6.3125, 6.1875, 6.0625, 5.9375, 5.875, 5.875, 5.9375, 6, 6, 6, 6, 6, 6, 6, 6, 6, 6, 6, 5.875, 5.8125, 5.5625, 5.4166665, -10, -10, -10, -10, -10, -10, -10, -10, -10, 21, 21, 20.875, 20.625, 20.25, 19.767857, 19.455357, 18.892857, 18.525511, 18.056122, 18, 18.107143, 18.392857, 18.719387, 19.202381, 19.714285, 20.071428, 20.303572, 20.25, 20.0625, 19.6875, 19.196428, 18.97279, 18.890818, 17.934525, 17.601191, 17.104166, 17.020834, 16.9375, 16.979166, 17, 16.857141, 16.5, -10, -10, -10, 18.166666, 18.25, 18.386904, 18.428572, 18.75, 19.092262, 19.502977, 19.473213, 19.292517, 19.295918, 19.275511, 19.247618, 18.964285, 18.611111, 18.464285, 18.589285, 18.894842, 18.940477, 18.771427, 18.852892, 19.010715, 19.075001, 19.053572, 18.764286, 18.208334, -10, -10, -10, -10, -10, -10, -10, -10, -10, -10, -10, -10, -10, -10, -10, 32, 31.791666, 31.791666, -10, -10, -10, -10, 37.75, 37.833336, 37.875, 38.125, 38.229168, 38.375, 38.625, 38.723213, 38.642857, 38.604168, 38.922619, 39.223213, 39.428574, 39.4375, 39.25, 39.1875, 39.1875, 39.375, 39.625, 39.8125, 39.9375, 40.071426, 40.3125, 40.5, 40.75, 40.875, 41.102676, 41.40625, 41.53125, 41.84375, 42.0625, 42.3125, 42.625, 42.75, 42.8125, 42.803574, 42.625, 42.625, 42.6875, 42.660713, 42.517857, 42.383926, 42.1875, 42, 41.5625, 41.241074, 40.75, 40.625, 40.339287, 40.095238, 39.25, 38.77232, 38.65625, 38.290176, 38.165176, 38.0625, 38, 38, 22, -10, -10, -10, 22.125, 22.083332, 22.1875, 22.223213, 22.1875, 22.1875, 22.0625, 22, 22.125, 22.375, 22.625, 22.875, 23, 23, 23, 23, 23.25, 23.5, 23.8125, 24.0625, 24.0625, 23.42857, 20.916666, 19.928572, 19.142857, 19.0625, 19, 19, 19, 19, 19.0625, 19.276787, 19.607143, 19.732143, 19.839287, 20, 20.190477, 20.232143, 20.1875, 20.0625, 20.25, 20.4375, 20.625, 20.875, 20.833332, 16.133333, 13.0625, 13.476191, 13.28125, 13.40625, 13.6875, 13.8125, 13.9375, 14.0625, 14, 14, 14, 14, 14, 14, 14, 14, 14, 14, 14.0625, 14.125, 14.375, 14.375, 14.3125, 14.3125, 14.0625, 14.125, 14.0625, 14, 14, 14
11, 10.875, 10.875, 10.75, 10.6875, 10.625, 10.5, 10.25, 10, 9.8125, 9.625, 9.5625, 9.4375, 9.3125, 9.1875, 9.0625, 9, 9, 9, 8.875, 8.6875, 8.5267859, 8.375, 8.2857141, 8.1875, 8.0625, 7.875, 7.75, 7.5, 7.25, 7.125, 7, 7, 7, 7, 7, 7, 7, 7, 7, 7, 7, 7, 7, 7, 7, 7, 7.125, 7.25, 7.3125, 7.3125, 7.125, 6.875, 6.75, 6.6875, 6.6875, 6.8928571, 7.1607141, 7.3125, 7.4107141, 7.25, 7.125, 7, 7, 7, 7, 7.125, 7.125, 7.0625, 7.0267859, 6.9375, 7, 7.0625, 7.125, 7.25, 7.1875, 7.1875, 7.0625, 6.875, 6.75, 6.625, 6.5625, 6.4375, 6.25, 6.0625, 5.9375, 5.875, 5.9375, 6, 6, 6, 6, 6, 6, 6, 6, 6, 6, 5.9375, 5.875, 5.875, 5.625, 5.6041665, -10, -10, -10, -10, -10, -10, -10, -10, -10, 21, 21, 20.875, 20.625, 20.125, 19.473213, 19.080357, 18.625, 18.241072, 17.830357, 17.71875, 17.78125, 18.03125, 18.254463, 18.677084, 19.035713, 19.654762, 19.910715, 19.9375, 19.75, 19.375, 18.776785, 18.008503, 17.742857, 16.908163, 16.515306, 15.994898, 15.892858, 15.785714, 15.857142, 15.857142, 15.734694, 15.428572, 15.25, 15.5, 15.875, 17.142857, 17.214285, 17.392857, 17.693878, 18.642857, 19.163691, 19.419643, 19.473213, 19.464287, 19.5, 19.419643, 19.229166, 18.785715, 18.04365, 17.567459, 17.577379, 18.051588, 18.27976, 18.592855, 18.928572, -10, -10, 19.666666, -10, -10, -10, -10, -10, -10, -10, -10, -10, -10, -10, -10, -10, -10, -10, -10, -10, 32.125, 32.083332, 32.166664, 32.875, -10, -10, -10, 37.166668, 37.666668, 37.82143, 38.0625, 38.125, 38.308037, 38.638393, 38.794643, 38.964287, 39.044643, 39.26786, 39.544643, 39.616074, 39.651787, 39.535713, 39.4375, 39.5, 39.625, 39.75, 39.875, 39.9375, 40.071426, 40.4375, 40.5625, 40.8125, 40.90625, 41.133926, 41.5625, 41.6875, 41.995537, 42.294643, 42.553574, 42.8125, 42.9375, 43, 42.991074, 42.875, 42.875, 43.17857, 43.098213, 43.017857, 42.946426, 42.8125, 42.5, 41.833332, 41.544643, 41.0625, 41.0625, 40.848213, 40.383926, 39.8125, 39.209179, 38.892857, 38.552082, 38.236607, 38.0625, 38, 38, 38, -10, -10, -10, 22, 21.999998, 22.125, 22.098213, 22.0625, 22.0625, 21.9375, 22, 22.125, 22.4375, 22.723213, 22.9375, 23.0625, 23, 23, 23.0625, 23.3125, 23.5625, 23.8125, 24, 24, 23.535713, 21.607143, 20.25, 19.392857, 19.125, 19, 19, 19, 19, 19.0625, 19.276787, 19.544643, 19.75893, 20, 20.107143, 20.169643, 20.125, 20.0625, 20, 20.25, 20.375, 20.580357, 20.924999, 20.777777, 13.355556, 12.9375, 13.145833, 13.25, 13.3125, 13.5625, 13.6875, 13.8125, 14, 14.0625, 14.0625, 14, 13.964286, 14, 14.107143, 14.1875, 14.178572, 14.05, 14.107143, 14, 14.0625, 14.1875, 14.25, 14.3125, 14.4375, 14.3125, 14.3125, 14.1875, 14, 13.875, 13.8125, 14, 14.102678, 14.214286, 14.4375, 14.5, 14.78125, 14.9375, 15.098214, 15.125, 15.125, 15.294642, 15.732143, 15.950001, -10, -10, -10, -10, -10, -10, -10, -10, -10, -10, -10, -10, -10, -10, 13, 12.916667, 12.9375, 12.8125, 12.5625, 12.4375, 12.1875, 12.0625, 12.0625, 11.8125, 11.4375, 10.663691, 10.580357, 10.607143, 10.75, 11, 11, 10.9375, 11, 10.9375, 10.8125, 10.6875, 10.5, 10.1875, 10, 9.8125, 9.625, 9.5625, 9.5, 9.375, 9.1875, 9.0267859, 8.9375, 8.9375, 9, 8.875, 8.625, 8.4642859, 8.3125, 8.2232141, 8.1875, 8.0625, 7.9375, 7.8125, 7.5625, 7.3125, 7.125, 7, 7, 7, 7, 7, 7, 7, 7, 7, 7, 7, 7, 7, 7, 7, 7.0625, 7.25, 7.375, 7.4375, 7.375, 7.125, 6.875, 6.75, 6.6875, 6.625, 6.7053571, 6.9107141, 7.125, 7.3928571, 7.375, 7.3125, 7.125, 7.0625, 6.9375, 6.9375, 7.125, 7.2321429, 7.1875, 7.1517859, 7, 7, 7.0625, 7.125, 7.25, 7.1875, 7.125, 7.0625, 6.875, 6.8125, 6.8125, 6.75, 6.6875, 6.5, 6.3125, 6.125, 6, 6, 6, 6, 6, 6, 6, 6, 6, 6, 5.9375, 5.875, 5.75, 5.6875, 5.6875, 5.5, 5.583333, 5.5, -10, -10, -10, -10, -10, -10, -10, -10, 21, 21, 20.9375, 20.6875, 20.1875, 19.55357, 19.1875, 18.6875, 18.375, 18.080357, 17.9375, 18, 18.125, 18.15625, 18.21875, 18.482143, 18.967262, 19.223215, 19.375, 19.1875, 18.875, 18.308035, 17.632441, 17.101019, 16.4375, 15.950893, 15.370536, 15.15625, 15, 15, 15, 15, 15.0625, 15.25, 15.5, 15.833333, 16.375, 16.592262, 16.9375, 17.303572, 18.178572, 18.663691, 18.919643, 19, 19.0625, 19.0625, 19.044643, 18.729166, 18.357143, 17.965986, 17.537415, 17.292517, 17.615646, 17.727892, 18.316668, 18.342855, -10, -10, -10, -10, -10, -10, -10, -10, -10, -10, -10, -10, -10, -10, -10, -10, -10, -10, -10, -10, 32.375, 32.5, 32.6875, 33.488094, 34.92857, 35.375, 35.75, 36.785713, 37.4375, 37.651787, 37.875, 37.90625, 38.026787, 38.294643, 38.419643, 38.620537, 38.794643, 39.288689, 39.660713, 39.678574, 39.741074, 39.758926, 39.625, 39.8125, 39.75, 39.75, 39.8125, 39.8125, 40.008926, 40.375, 40.5, 40.8125, 41.013393, 41.321426, 41.821426, 42.145832, 42.41518, 42.607143, 42.803574, 43, 43.09375, 43.15625, 43.15625, 43.1875, 43.1875, 43.4375, 43.535713, 43.361607, 43.321426, 43.125, 42.8125, 42.270832, 41.982143, 41.5625, 41.5625, 41.419643, 41.0625, 40.375, 40.4375, 39.979168, 39.052082, 38.611607, 38.3125, 38.125, 38.0625, 38, -10, -10, -10, 21.46875, 21.645832, 21.875, 21.973213, 22.03125, 22.0625, 21.9375, 22, 22.125, 22.4375, 22.691963, 22.84375, 22.96875, 22.90625, 23, 23.3125, 23.5, 23.75, 23.875, 24, 24, 23.571428, 22.031746, 20.392857, 19.517857, 19.1875, 19, 19, 19, 19, 19.125, 19.3125, 19.508928, 19.985119, 20.142857, 20.125, 20.125, 20, 20, 20, 20.1875, 20.321428, 20.726191, 21.075001, 13.25, 13.516667, 13.125, 13.1875, 13.1875, 13.258928, 13.575, 13.642857, 13.875, 13.9375, 14.125, 14.098214, 13.892857, 13.785714, 13.8125, 13.982143, 14.0625, 14.142858, 14.121428, 14.138393, 14.09375, 14.09375, 14.125, 14.25, 14.375, 14.5, 14.4375, 14.5, 14.4375, 14.3125, 14.1875, 14
11, 11, 11.0625, 10.9375, 10.75, 10.5625, 10.375, 10.125, 10, 9.8125, 9.625, 9.625, 9.5625, 9.375, 9.0803566, 8.9017859, 8.8125, 8.875, 8.9375, 8.8125, 8.5625, 8.3392859, 8.25, 8.1607141, 8.125, 8, 7.875, 7.8125, 7.625, 7.5, 7.3125, 7.125, 7.0625, 7, 7, 7, 7, 7, 7, 6.9375, 6.9642859, 7.1071429, 7.1071429, 7.125, 7.0625, 7, 7.125, 7.2857141, 7.2678571, 7.2589283, 7.1875, 7.0625, 6.9375, 6.875, 6.8125, 6.625, 6.5178571, 6.5982141, 6.6875, 7.0178571, 7.125, 7.1875, 7.125, 7.0625, 6.9375, 6.875, 7.0625, 7.1696429, 7.1875, 7.1875, 6.9375, 6.9375, 6.9375, 7.0625, 7.1875, 7.0535717, 6.8125, 6.75, 6.5625, 6.625, 6.75, 6.8125, 6.875, 6.6875, 6.4375, 6.1875, 6, 6, 6, 6, 5.9375, 5.875, 5.8125, 5.8125, 5.875, 5.875, 5.8125, 5.6875, 5.5, 5.4375, 5.4375, 5.3125, 5.4791665, 5.4444447, -10, -10, -10, -10, -10, -10, -10, -10, 21, 21, 21, 20.75, 20.25, 19.5, 19.017857, 18.5625, 18.25, 18.0625, 17.8125, 17.8125, 17.9375, 17.879463, 17.84375, 17.9375, 18.279762, 18.535715, 18.75, 18.6875, 18.5625, 18.236607, 17.486607, 16.950893, 16.270834, 15.59375, 15.183036, 14.96875, 14.9375, 14.96875, 15, 15, 15.0625, 15.1875, 15.4375, 15.75, 16.0625, 16.592262, 16.919643, 17.241072, 17.955357, 18.151785, 18.5625, 18.5625, 18.6875, 18.625, 18.544643, 18.229166, 18.0625, 17.720238, 17.496599, 17.068451, 17.288691, 17.380951, -10, -10, -10, -10, -10, -10, -10, -10, -10, -10, -10, -10, -10, -10, -10, -10, -10, -10, -10, -10, -10, -10, 32.8125, 33.041668, 33.28125, 34.132652, 35.119049, 35.416668, 35.666668, 36.3125, 36.875, 37.33036, 37.732143, 37.78125, 37.901787, 38.107143, 38.169643, 38.370537, 38.61607, 39.309525, 39.714287, 39.741074, 39.830357, 40.05357, 39.982143, 40.125, 39.9375, 39.8125, 39.8125, 39.883926, 40.258926, 40.6875, 40.9375, 41.294643, 41.450893, 41.665176, 42.040176, 42.239582, 42.50893, 42.732143, 42.991074, 43.21875, 43.28125, 43.28125, 43.21875, 43.28125, 43.3125, 43.5625, 43.75, 43.790176, 43.900002, 43.553574, 43.241074, 42.583332, 42.366074, 42.09375, 41.90625, 41.65625, 41.205357, 40.541668, 40.39732, 40, 39.409225, 38.85268, 38.410713, 38.1875, 38.09375, 38, 20, 20.5, 21.049999, 21.522322, 21.729166, 21.875, 21.9375, 21.96875, 22, 21.9375, 22, 22.125, 22.4375, 22.691963, 22.84375, 22.96875, 22.90625, 23, 23.3125, 23.5, 23.75, 23.875, 24, 24, 23.571428, 21.632654, 20.464285, 19.580357, 19.25, 19, 19, 19, 19, 19.1875, 19.3125, 19.508928, 19.985119, 20.080357, 20.125, 20.125, 20, 20, 20, 20.1875, 20.383928, 20.958334, 21.304165, 14.380952, 13.3125, 13.25, 13.3125, 13.28125, 13.383928, 13.7625, 13.767857, 14, 13.9375, 14.125, 14.098214, 13.892857, 13.785714, 13.8125, 13.982143, 14.125, 14.267858, 14.246428, 14.263393, 14.15625, 14.09375, 14, 14.125, 14.25, 14.375, 14.4375, 14.5, 14.5, 14.5, 14.5, 14.3125, 14.25, 14.28125, 14.4375, 14.625, 14.6875, 14.78125, 14.875, 15.160714, 15.3125, 15.3125, 15.482142, 15.732143, 15.816668, -10, -10, -10, -10, -10, -10, -10, -10, -10, -10, -10, -10, -10, -10, 13, 12.916667, 12.9375, 12.75, 12.5, 12.3125, 12.0625, 12, 12, 11.9375, 11.6875, 11.020834, 10.892857, 10.794643, 10.875, 11.0625, 11.0625, 11.0625, 11, 10.8125, 10.5625, 10.3125, 10.125, 9.9375, 9.875, 9.8125, 9.75, 9.8125, 9.75, 9.4375, 9.0446424, 8.9017859, 8.8125, 8.7678566, 8.7589283, 8.625, 8.5, 8.375, 8.25, 8.125, 8.0625, 7.9375, 7.9375, 7.9375, 7.875, 7.8035717, 7.4166665, 7.1964283, 7.0625, 7, 7, 7, 7, 7, 7, 6.9375, 7.0267859, 7.1696429, 7.1071429, 7.0892859, 7.0625, 7.0357141, 7.1875, 7.2857141, 7.1428571, 7.0714283, 6.9375, 6.8125, 6.8125, 6.875, 6.875, 6.8125, 6.5625, 6.4375, 6.5, 6.7678571, 7, 7.125, 7.125, 7.0625, 6.9375, 6.875, 7, 7.1071429, 7.125, 7.125, 6.875, 6.78125, 6.75, 6.8125, 7, 6.9910717, 6.78125, 6.71875, 6.46875, 6.4375, 6.5, 6.5625, 6.6875, 6.5625, 6.375, 6.1875, 6, 6, 5.9375, 5.9375, 5.9375, 5.875, 5.7053571, 5.6339283, 5.625, 5.625, 5.625, 5.5625, 5.4375, 5.4375, 5.4375, 5.375, 5.625, 5.6666665, -10, -10, -10, -10, -10, -10, -10, -10, 21, 21, 21, 20.75, 20.258928, 19.315475, 18.776785, 18.375, 18.0625, 17.9375, 17.75, 17.607143, 17.5625, 17.473213, 17.4375, 17.571428, 17.547619, 17.704082, 17.928572, 18.125, 18.125, 17.986607, 17.34375, 16.888393, 16.217262, 15.4125, 15.169642, 14.90625, 15, 15, 15, 15, 15.0625, 15.196428, 15.645834, 15.857143, 16.0625, 16.547619, 16.857143, 17.053572, 17.660713, 17.714285, 18.0625, 18, 18.0625, 17.9375, 17.875, 17.8125, 17.875, 17.928572, 17.711309, 17.434523, 17.330357, 17.285713, -10, -10, -10, -10, -10, -10, -10, -10, -10, -10, -10, -10, -10, -10, -10, -10, -10, -10, -10, -10, -10, -10, 33.3125, 33.625, 33.90625, 34.616074, 35.214287, 35.5625, 35.90625, 36.21875, 36.864582, 37.36161, 37.794643, 37.84375, 37.901787, 38.125, 38.232143, 38.308037, 38.67857, 39.452377, 39.785713, 39.875, 40.017857, 40.30357, 40.232143, 40.3125, 40.03125, 39.90625, 39.9375, 40.008926, 40.34375, 40.65625, 41.116074, 41.589287, 41.888393, 42.09375, 42.290176, 42.489582, 42.63393, 42.857143, 43.116074, 43.34375, 43.40625, 43.46875, 43.34375, 43.34375, 43.5, 43.75, 44.0625, 44.227676, 44.400002, 43.882656, 43.803574, 43.226189, 42.928574, 42.65625, 42.4375, 42.1875, 41.736607, 41.072918, 40.86607, 40.53125, 39.886906, 39.029762, 38.517857, 38.1875, 38.09375, 38, 38, 20.333334, 20.833334, 21.355656, 21.657738, 21.8125, 21.875, 21.90625, 21.9375, 21.9375, 22.0625, 22.1875, 22.4375, 22.691963, 22.78125, 22.90625, 22.96875, 23.0625, 23.375, 23.5625, 23.75, 23.9375, 24.125, 24.125, 23.678572, 21.585035, 20.392857, 19.5625, 19.25, 19, 19, 19, 19.0625, 19.25, 19.375, 19.571428, 19.985119, 20.080357, 20.125, 20.125, 19.9375, 19.8125, 19.791666, 20.083334, 20.392857, 21, 20.476192, 13.25, 13.34375, 13.3125, 13.4375, 13.46875, 13.602678, 13.95, 13.892857, 14, 13.8125, 13.9375, 13.910714, 13.767857, 13.723214, 13.8125, 13.982143, 14.125, 14.330358, 14.371428, 14.388393, 14.28125, 14.09375, 13.8125, 13.955357, 14.270833, 14.428572, 14.625, 14.625, 14.5625, 14.625, 14.625, 14.5
10.9375, 10.9375, 10.875, 10.75, 10.5625, 10.3125, 10.1875, 10.0625, 10.0625, 10.0625, 10, 10, 9.875, 9.5625, 9.1696424, 9.0892859, 9.0625, 9.0178566, 9.0089283, 8.7857141, 8.7142859, 8.6785717, 8.354167, 8.1339283, 8, 7.9375, 8, 8.020833, 7.9166665, 7.9047623, 7.4722219, 7.1964283, 7.0625, 7, 7, 7, 7.375, 7.375, 7, 6.9166665, 7.0357146, 7.2261906, 6.9821429, 7.0059524, 7.0625, 7.0714283, 7.25, 7.2857141, 6.9553571, 6.8214283, 6.625, 6.5, 6.5625, 6.6875, 6.8125, 6.8125, 6.6875, 6.5, 6.4375, 6.6696429, 6.875, 7.0625, 7.125, 7.0625, 6.9375, 6.9375, 7.0625, 7.1696429, 7.1875, 7.125, 6.8125, 6.65625, 6.5625, 6.5625, 6.8214283, 6.9910717, 6.71875, 6.6116071, 6.28125, 6.25, 6.3125, 6.375, 6.5, 6.375, 6.25, 6.125, 6, 6, 5.875, 5.875, 5.875, 5.75, 5.5803571, 5.5267854, 5.7083335, 5.7321429, 5.75, 5.625, 5.5, 5.5, 5.5, 5.5, 5.75, 5.8333335, -10, -10, -10, -10, -10, -10, -10, -10, -10, 21, 21, 20.75, 20.258928, 19.244047, 18.535713, 18.080357, 17.75, 17.5, 17.375, 17.232143, 17.25, 17.348213, 17.3125, 17.4375, 17.294643, 17.276787, 17.5, 17.5, 17.625, 17.59375, 17.28125, 16.90625, 16.279762, 15.400001, 15.383928, 15.075893, 15.1875, 15.0625, 15, 15, 15.0625, 15.212053, 15.692709, 15.904018, 16.109375, 16.641369, 16.982143, 17.133928, 17.473213, 17.383928, 17.625, 17.5625, 17.5, 17.375, 17.375, 17.375, 17.625, 17.875, 17.982143, 17.791666, 17.571428, 17.25, -10, -10, -10, -10, -10, -10, -10, -10, -10, -10, -10, -10, -10, -10, -10, -10, -10, -10, -10, -10, -10, -10, 33.583332, 34.083332, 34.322918, 34.866074, 35.428574, 35.895832, 36.209824, 36.53125, 36.90625, 37.370537, 37.857143, 37.96875, 38.0625, 38.205357, 38.3125, 38.34375, 38.633926, 39.398808, 39.723213, 39.9375, 40.053574, 40.267857, 40.232143, 40.25, 40.09375, 40.15625, 40.285713, 40.321426, 40.486607, 40.59375, 41.098213, 41.901787, 42.3125, 42.5625, 42.633926, 42.833332, 42.919643, 43, 43.1875, 43.40625, 43.53125, 43.65625, 43.59375, 43.59375, 43.8125, 44.0625, 44.4375, 44.727676, 45.135715, 45.035717, 44.698978, 44.226189, 43.678574, 43.388393, 42.9375, 42.5625, 42.066963, 41.322918, 40.821426, 40.424107, 40.116074, 39.324406, 38.892857, 38.4375, 38.21875, 38.0625, 38, 20.333334, 21.125, 21.480656, 21.741072, 21.875, 21.9375, 21.96875, 22, 22, 22.125, 22.25, 22.357143, 22.456249, 22.647322, 22.772322, 23.03125, 23.1875, 23.5, 23.6875, 23.8125, 24, 24.25, 24.25, 23.678572, 21.25, 20.142857, 19.375, 19.25, 19.035713, 18.964287, 19, 19.0625, 19.3125, 19.4375, 19.696428, 20.020834, 20.044643, 20.125, 20.0625, 19.866072, 19.5625, 19.541666, 19.770834, 20.267857, 20.964287, 18.35619, 13.904762, 13.855655, 13.5625, 13.5625, 13.53125, 13.665178, 13.95, 13.830357, 13.875, 13.625, 13.6875, 13.723214, 13.705357, 13.758928, 13.8125, 13.875, 13.9375, 14.214286, 14.446428, 14.388393, 14.28125, 14.03125, 13.8125, 14.017857, 14.333333, 14.491072, 14.625, 14.625, 14.5, 14.625, 14.6875, 14.625, 14.75, 14.75, 14.8125, 14.875, 14.875, 14.875, 14.9375, 15.25, 15.4375, 15.5625, 15.75, 15.75, 15.833334, -10, -10, -10, -10, -10, -10, -10, -10, -10, -10, -10, -10, -10, -10, 13, 13, 13, 12.75, 12.5, 12.25, 12, 12, 12, 12, 11.875, 11.6875, 11.5, 11.25, 11.125, 11.0625, 10.9375, 10.875, 10.8125, 10.6875, 10.5, 10.3125, 10.1875, 10.0625, 10.0625, 10.0625, 10, 10, 9.875, 9.5625, 9.2321424, 9.1875, 9.125, 9.0803566, 9.0089283, 9.1428576, 9.166666, 8.7380953, 8.3888893, 8.1785707, 8, 7.9375, 8, 8.1111107, -10, -10, -10, 7.1964283, 7.0833335, 17.5, 18.023809, 18.380953, 7.5, 7.5, 18.4375, 18.479168, 18.625, 18.833332, 6.9761906, 7.0079365, 7.0833335, 7.0952377, 7.25, 7.2142854, 6.7738094, 6.4464283, 6.3125, 6.25, 6.4166665, 6.5833335, 6.75, 6.8333335, 6.8125, 6.625, 6.5, 6.5625, 6.6875, 6.875, 7, 7, 7, 7, 7.0625, 7.0625, 7.0625, 7, 6.75, 6.59375, 6.4375, 6.375, 6.5714283, 6.7410717, 6.53125, 6.4241071, 6.15625, 6.125, 6.125, 6.1875, 6.25, 6.1875, 6.125, 6.0625, 6, 6, 5.875, 5.875, 5.875, 5.75, 5.5803571, 5.5267854, 5.7083335, 5.7321429, 5.75, 5.625, 5.5625, 5.65625, 5.78125, 5.84375, 6.0625, 6, -10, -10, -10, -10, -10, -10, -10, -10, -10, 21, 21, 20.75, 20.267857, 19.059525, 18.285713, 17.705357, 17.375, 17.0625, 16.9375, 16.794643, 16.875, 17.098213, 17.1875, 17.3125, 17.169643, 17.089287, 17.1875, 17.1875, 17.25, 17.1875, 16.9375, 16.625, 16.092262, 15.275001, 15.321428, 15.075893, 15.28125, 15.1875, 15.125, 15, 14.9375, 15.118303, 15.598959, 15.872768, 16.140625, 16.632441, 16.857143, 16.96875, 17.09375, 16.977678, 17.03125, 16.90625, 16.84375, 16.71875, 16.84375, 17, 17.1875, 17.4375, 17.5625, 17.5625, 17.428572, 17.166668, 16.875, 16.4375, 16.3125, 16.083334, -10, -10, -10, -10, -10, -10, -10, -10, -10, -10, -10, -10, -10, -10, -10, -10, -10, -10, -10, 34.375, 34.552086, 34.9375, 35.654762, 36.136906, 36.459824, 36.78125, 37.09375, 37.522324, 37.982143, 38.0625, 38.25, 38.455357, 38.6875, 38.8125, 39.071426, 39.565475, 39.794643, 40, 40.089287, 40.232143, 40.263393, 40.28125, 40.3125, 40.5, 40.598213, 40.571426, 40.72768, 41.011902, 41.632652, 42.651787, 42.924107, 43.03125, 42.90625, 42.78125, 42.8125, 42.875, 43.0625, 43.28125, 43.375, 43.5, 43.571426, 43.864582, 44.25, 44.5, 44.84375, 45.227676, 45.431252, 45.4949, 45.489799, 45.294216, 44.526787, 44.013393, 43.474998, 42.8125, 42.316963, 41.572918, 41.026787, 40.611607, 40.241074, 39.511906, 39.142857, 38.741074, 38.322918, 38.133926, 38, 38, 21.375, 21.678572, 21.866072, 22, 22, 22, 22, 22, 22.1875, 22.3125, 22.357143, 22.487499, 22.678572, 22.803572, 23.125, 23.1875, 23.3125, 23.5625, 23.6875, 24, 24.25, 24.25, 23.714287, 21.25, 20.142857, 19.375, 19.1875, 19.098213, 19.151787, 19.285713, 19.375, 19.625, 19.625, 19.75, 19.8125, 19.8125, 19.9375, 20, 19.866072, 19.5625, 19.541666, 19.708334, 20.113094, 20.84127, 19.432379, 14.633334, 13.855655, 13.5625, 13.625, 13.65625, 13.78125, 14, 13.9375, 13.875, 13.6875, 13.625, 13.6875, 13.8125, 13.9375, 14, 14, 14.0625, 14.3125, 14.5, 14.544643, 14.375, 14.125, 13.875, 14.017857, 14.333333, 14.553572, 14.75, 14.75, 14.5625, 14.625, 14.6875, 14.6875
10.9375, 10.875, 10.8125, 10.75, 10.5625, 10.375, 10.25, 10.0625, 10.0625, 10.0625, 10, 10, 9.9375, 9.6875, 9.4642859, 9.375, 9.25, 9.1428566, 9.1339283, 9.145833, 9.1111107, -10, -10, -10, 8, 8, -10, -10, -10, -10, -10, 7.0952377, 16.75, 17.416666, 17.932541, 18.349207, 18.5625, 18.5625, 18.458334, 18.527779, 18.666666, 18.888887, 19.0625, 18.857143, 18.083332, 17.767857, 17.666666, 17.166666, 16.666666, 6.7249999, 6.5, 6.125, -10, -10, -10, -10, 6.9166665, 6.75, 6.6666665, 6.6666665, 6.75, 6.9166665, 7.125, 7.0833335, 7.0625, 7.0625, 7, 7, 7, 7, 6.875, 6.65625, 6.4375, 6.25, 6.3214283, 6.5625, 6.53125, 6.4241071, 6.21875, 6.125, 6.0625, 6, 5.9375, 5.875, 5.875, 5.9375, 6, 6, 5.875, 5.875, 5.9375, 5.875, 5.7053571, 5.5892854, 5.7083335, 5.7321429, 5.75, 5.6875, 5.6875, 5.71875, 5.84375, 5.96875, 6.0833335, -10, -10, -10, -10, -10, -10, -10, -10, -10, -10, 21, 21, 20.741072, 20.038691, 18.916666, 18.142857, 17.455357, 17.080357, 16.75, 16.6875, 16.607143, 16.625, 16.8125, 16.875, 17, 16.919643, 16.776787, 16.75, 16.6875, 16.6875, 16.625, 16.5, 16.25, 15.883928, 15.337501, 15.383928, 15.200893, 15.34375, 15.15625, 15, 14.8125, 14.6875, 14.868303, 15.357887, 15.8311, 16.069197, 16.299107, 16.5, 16.59375, 16.78125, 16.65625, 16.53125, 16.34375, 16.15625, 16.09375, 16.28125, 16.535713, 16.75, 17.0625, 17.1875, 17.28125, 17.209822, 16.895834, 16.5, 16.083334, 16, 15.833333, -10, -10, -10, -10, -10, -10, -10, -10, -10, -10, -10, -10, -10, -10, -10, -10, -10, -10, -10, 34.458332, 34.625, 34.96875, 35.748512, 36.404762, 36.803574, 37.21875, 37.53125, 37.78125, 38.1875, 38.25, 38.5, 38.74107, 38.901787, 39.0625, 39.1875, 39.55357, 39.866074, 40.0625, 40.1875, 40.125, 40.21875, 40.28125, 40.4375, 40.8125, 40.883926, 40.75, 40.97768, 41.605442, 42.163265, 42.732143, 42.986607, 43.09375, 43.09375, 43.03125, 43, 43.0625, 43.125, 43.25, 43.3125, 43.446426, 43.842262, 44.127975, 44.5, 44.705357, 45.177082, 45.584824, 45.78125, 45.84375, 45.839287, 45.663689, 45.2449, 44.544643, 43.997322, 43.135418, 42.674107, 42.084824, 41.372025, 40.901787, 40.446426, 39.833332, 39.544643, 39.116074, 38.604168, 38.276787, 38.0625, 38, 21.225, 21.5, 21.616072, 21.75, 21.821428, 22.083334, 22.178572, 22.1875, 22.3125, 22.375, 22.294643, 22.424999, 22.616072, 22.741072, 23.125, 23.1875, 23.375, 23.625, 23.75, 24.0625, 24.25, 24.25, 23.714287, 21.25, 20.142857, 19.3125, 19.017857, 18.910713, 18.964287, 19.160713, 19.375, 19.6875, 19.6875, 19.8125, 19.8125, 19.8125, 19.9375, 20, 19.881697, 19.609375, 19.588541, 19.661459, 19.925594, -10, -10, 13.904762, 13.876489, 13.5625, 13.5625, 13.6875, 13.78125, 13.9375, 13.9375, 13.8125, 13.6875, 13.625, 13.6875, 13.75, 13.875, 13.9375, 13.9375, 14, 14.1875, 14.4375, 14.482143, 14.375, 14.1875, 13.9375, 14.142857, 14.458333, 14.678572, 14.8125, 14.75, 14.5625, 14.625, 14.6875, 14.75, 15, 15, 15, 15, 15, 15, 15.0625, 15.1875, 15.3125, 15.375, 15.5625, 15.6875, 15.750001, -10, -10, -10, -10, -10, -10, -10, -10, -10, -10, -10, -10, -10, -10, 13, 13, 12.9375, 12.6875, 12.4375, 12.1875, 12, 12, 12, 12, 11.875, 11.6875, 11.5, 11.25, 11.125, 11.0625, 10.9375, 10.875, 10.875, 10.875, 10.6875, 10.5, 10.3125, 10.0625, 10.0625, 10.0625, 10, 10, 10, 9.8125, 9.625, 9.4375, 9.25, 9.25, 9.3125, 9.5277777, -10, -10, -10, -10, 8, 8, -10, -10, -10, -10, -10, 17.666668, 16.966667, 17.455357, 17.886906, 18.369049, 18.625, 18.708334, 18.53125, 18.520834, 18.625, 18.791666, 19.041666, 18.857143, 17.777777, 17.369047, 16.385715, 13.902778, 13.029762, 7.5428572, 7.166667, 6.7714286, -10, -10, -10, -10, -10, -10, -10, -10, -10, -10, 7.1666665, 7.3333335, 7.0833335, 7.3125, 7.25, 7.1875, 7.125, 7.0625, 6.9375, 6.6875, 6.4375, 6.1875, 6.0714283, 6.25, 6.1875, 6.1428571, 6.0625, 6.0625, 6.0625, 5.9375, 5.8125, 5.75, 5.75, 5.875, 6, 6, 5.9375, 5.9375, 5.9375, 5.875, 5.75, 5.6428571, 5.7708335, 5.7946429, 5.75, 5.625, 5.625, 5.59375, 5.78125, 5.96875, 6.0208335, -10, -10, -10, -10, -10, -10, -10, -10, -10, -10, 21, 21, 20.732143, 19.967262, 19.136904, 18.142857, 17.3125, 16.785713, 16.375, 16.25, 16.25, 16.375, 16.5625, 16.625, 16.6875, 16.607143, 16.464287, 16.4375, 16.375, 16.375, 16.3125, 16.25, 16.0625, 15.75, 15.3625, 15.303572, 15.169643, 15.25, 15.0625, 14.875, 14.6875, 14.5625, 14.734375, 15.024553, 15.473958, 15.694197, 15.96875, 16.125, 16.28125, 16.46875, 16.40625, 16.28125, 16.09375, 15.84375, 15.78125, 15.90625, 16.098213, 16.3125, 16.5625, 16.6875, 16.84375, 16.834822, 16.59375, 16.46875, 16.15625, 16.09375, 15.875, -10, -10, -10, -10, -10, -10, -10, -10, -10, -10, -10, -10, -10, -10, -10, -10, -10, -10, -10, 34.28125, 34.53125, 34.9375, 35.779762, 36.511906, 36.834824, 37.25, 37.5, 37.75, 38.196426, 38.520832, 38.866074, 39.098213, 39.089287, 39.25, 39.3125, 39.571426, 39.875, 40, 40.0625, 40, 40.15625, 40.34375, 40.59375, 40.96875, 41.071426, 41, 41.32143, 41.998299, 42.316322, 42.75, 42.924107, 43.03125, 43.15625, 43.09375, 43.125, 43.25, 43.1875, 43.25, 43.330357, 43.592262, 44.083336, 44.440475, 44.75, 44.955357, 45.364582, 45.709824, 45.84375, 45.96875, 46.151787, 46.127975, 45.589287, 45.098217, 44.287498, 43.407738, 42.892857, 42.095238, 41.443451, 40.964287, 40.625, 40.3125, 40.0625, 39.678574, 39.032738, 38.443455, 38.133926, 38, 21.375, 21.416666, 21.4375, 21.5, 21.642857, 22.166668, 22.321428, 22.34375, 22.34375, 22.28125, 22.232143, 22.362499, 22.616072, 22.803572, 23.0625, 23.125, 23.3125, 23.5, 23.6875, 23.9375, 24.0625, 24.125, 23.571428, 21.125, 20.071428, 19.25, 18.955357, 18.910713, 18.964287, 19.160713, 19.375, 19.6875, 19.625, 19.6875, 19.6875, 19.6875, 19.875, 20, 19.959822, 19.84375, 19.84375, 19.71875, 19.854166, -10, -10, 14.04762, 14.011906, 13.625, 13.5, 13.5625, 13.625, 13.75, 13.75, 13.6875, 13.625, 13.6875, 13.8125, 13.8125, 13.875, 13.875, 13.875, 14, 14.125, 14.375, 14.419643, 14.3125, 14.25, 14.0625, 14.25, 14.375, 14.5625, 14.6875, 14.6875, 14.625, 14.6875, 14.75, 14.8125
