-10, -10, -10, -10, -10, -10, -10, -10, -10, -10, -10, -10, -10, -10, -10, -10, -10, -10, -10, -10, 36, 36, 35.9375, 35.678574, 35.205357, 35.0625, 34.6875, 34.5, 34.3125, 34.0625, 33.9375, 33.8125, 33.75, 33.5, 33.375, 33.4375, 33.4375, 33.4375, 33.375, 33.25, 33.125, 33.125, 33.125, 33.0625, 33, 33, 33, 33, 33, 33, 33, 33, 33, 33, 32.9375, 32.6875, 32.5625, 32.5, 32.5, 32.5625, 32.4375, 32.25, 32.0625, 32, 32, 32, 32, 32, 32, 32, 32, 32, 32, 32, 32, 32, 31.9375, 31.8125, 31.6875, 31.5625, 31.5, 31.5625, 31.4375, 31.3125, 31.1875, 31, 31, 31.0625, 31, 31, 31, 30.9375, 31.0625, 31.035713, 30.892857, 30.696428, 30.4375, 30.375, 30.25, 30.3125, 30.3125, 30.3125, 30.375, 30.583334, 30.805555, 31.125, 31.291668, -10, -10, -10, -10, -10, -10, -10, -10, -10, -10, -10, -10, -10, -10, -10, -10, -10, -10, -10, -10, -10, -10, -10, -10, -10, -10, -10, -10, -10, -10, -10, -10, -10, -10, -10, -10, 83.166672, 83.333328, 83.65625, 83.822914, 83.78125, 83.6875, 83.5, 83.1875, 82.9375, 82.75, 82.758926, 82.928574, 82.991074, 82.684525, 82.130951, 81.767853, 81.4375, 81.3125, 81.0625, 80.377975, 79.845238, 79.166664, 78.785713, 77.875, 76.958328, 76.220238, 75.291672, 74.116074, 73.276787, 72.392853, 71.184525, 70.339287, 69.1875, 68, 67.136902, 66.4375, 65.869049, 65.101189, 64.175591, 63.583336, 61.999996, 61.071426, 60.196426, 59.651787, 58.815475, 57.702385, 56.392857, 55.372025, 54.410713, 53.491074, 52.660713, 50.726189, 49.630951, 49.142857, 49, 49, 25.25, 25.666666, 25.8125, 25.875, 25.875, 25.75, 25.5625, 25.3125, 25.1875, 25.0625, 25, 25, 25, 25, 25, 25, 25, 25, 24.9375, 24.875, 24.875, 24.875, 24.875, 24.9375, 24.9375, 24.9375, 24.75, 24.625, 24.5, 24.25, 24.25, 24.1875, 24.0625, 24.0625, 24.0625, 24, 24.0625, 24.0625, 24.0625, 24.0625, 24, 24, 23.9375, 23.9375, 23.9375, 23.9375, 24, 24, 23.875, 23.6875, 23.4375, 23.375, 23.3125, 23.25, 23.25, 23.0625, 23, 23, 23, 23, 23, 23, 23, 23, 23, 22.9375, 22.9375, 22.9375, 22.9375, 22.9375, 22.803572, 22.5625, 22.5625, 22.544643, 22.4375, 22.3125, 22.125, 22, 22, 22, 22, 22, 22, 22.0625, 22.125, 22.125, 22.125, 22.0625, 22, 21.8125, 21.6875, 21.5625, 21.3125, 21.25, 21.125, 21, 21, 21, 21, 21.0625, 21.0625, 21.0625, 21.0625, 21, 21, 21, 21, 21, 21, 21, 21, 20.9375, 20.75, 20.5625, 20.3125, 20.125, 20.125, 20.125, 20.25, 20.4375, 20.4375, 20.375, 20.25, 20.0625, 20, 20, 20, 20, 20, 19.875, 19.75, 19.75, 19.625, 19.625, 19.5, 19.25, 19.125, 19.125, 19.125, 19.125, 19.125, 19, 19, 19, 19, 19, 19, 19, 18.9375, 18.9375, 18.9375, 18.9375, 19, 19, 18.8125, 18.6875, 18.5, 18.3125, 18.25, 18.125, 18.0625, 18, 18, 18, 18, 18, 18, 18, 18, 18, 18, -10, -10, -10, -10, -10, -10, -10, -10, -10, -10, -10, -10, -10, -10, -10, -10, -10, -10, -10, -10, -10, -10, -10, -10, -10, -10, 36, 36, 35.875, 35.59375, 35.174107, 34.96875, 34.71875, 34.482143, 34.25, 34.0625, 33.9375, 33.9375, 33.9375, 33.75, 33.625, 33.6875, 33.6875, 33.6875, 33.5625, 33.375, 33.125, 33.0625, 33.0625, 33, 33, 33, 33, 33.0625, 33.035713, 32.892857, 32.892857, 32.875, 32.9375, 33, 33, 32.75, 32.5625, 32.4375, 32.3125, 32.375, 32.3125, 32.1875, 32.0625, 32, 32, 32, 32, 32, 32, 32, 32, 32, 32, 32, 32, 31.9375, 31.875, 31.6875, 31.5625, 31.5625, 31.5625, 31.75, 31.6875, 31.5625, 31.375, 31.125, 31.0625, 31.0625, 31, 31, 31, 30.9375, 31.0625, 30.973213, 30.767857, 30.571428, 30.3125, 30.25, 30.1875, 30.3125, 30.375, 30.5, 30.5625, 30.625, 30.791666, 31, 31.111113, 31, -10, -10, -10, -10, -10, -10, -10, -10, -10, -10, -10, -10, -10, -10, -10, -10, -10, -10, -10, -10, -10, -10, -10, -10, -10, -10, -10, -10, -10, -10, -10, -10, -10, -10, 83, 83.19445, 83.388885, 83.59375, 83.751488, 83.53125, 83.4375, 83.1875, 82.9375, 82.75, 82.6875, 82.794647, 82.928574, 82.803574, 82.291664, 81.800591, 81.446426, 81.25, 81.125, 80.803574, 79.9375, 79.428574, 78.5, 78.071426, 77.309525, 76.458328, 75.657738, 74.613098, 73.375, 72.526787, 71.714287, 70.613098, 69.830353, 68.729172, 67.340141, 66.708336, 66.0625, 65.660713, 64.767853, 63.738094, 62.845242, 61.499996, 60.398811, 59.571426, 58.973213, 58.132656, 56.918369, 55.809521, 54.729168, 54.122448, 53.0625, 52.139881, 50.579365, 49.515869, 48.952381, 48.833332, 49, 25.5, 25.6875, 25.6875, 25.6875, 25.6875, 25.625, 25.4375, 25.25, 25.125, 25, 25, 25, 25, 25, 25, 25, 25, 25, 24.9375, 24.875, 24.875, 24.875, 24.9375, 25, 25, 24.9375, 24.6875, 24.5, 24.3125, 24.1875, 24.25, 24.3125, 24.3125, 24.25, 24.1875, 24.0625, 24.0625, 24.0625, 24.0625, 24.0625, 24, 24, 23.9375, 23.9375, 23.9375, 23.9375, 24, 24, 23.875, 23.75, 23.5625, 23.4375, 23.375, 23.25, 23.1875, 23.0625, 23, 23, 23, 23, 23, 23, 23, 23, 23, 23, 23, 23, 22.9375, 22.8125, 22.6875, 22.5625, 22.5, 22.4375, 22.3125, 22.1875, 22.0625, 22, 22, 22, 22, 22, 22, 22.0625, 22.125, 22.1875, 22.1875, 22.125, 22.0625, 21.875, 21.75, 21.625, 21.4375, 21.3125, 21.1875, 21.0625, 21.0625, 21.0625, 21.0625, 21.0625, 21, 21, 21, 21, 21, 21, 21, 21, 21, 21, 21, 21, 20.8125, 20.625, 20.375, 20.125, 20.125, 20.125, 20.125, 20.276787, 20.348213, 20.25, 20.25, 20.0625, 20, 20, 20, 20, 20, 19.9375, 19.875, 19.8125, 19.625, 19.5, 19.375, 19.25, 19.1875, 19.1875, 19.125, 19.0625, 19.0625, 19, 19, 19, 19, 19.0625, 19.125, 19.125, 19.0625, 19, 18.9375, 18.9375, 19, 19, 18.8125, 18.6875, 18.5, 18.375, 18.375, 18.25, 18.1875, 18.0625, 18, 18, 18
-10, -10, -10, -10, -10, -10, -10, -10, -10, -10, -10, -10, -10, -10, -10, -10, -10, -10, -10, -10, 36, 36, 35.875, 35.59375, 35.174107, 34.96875, 34.78125, 34.607143, 34.375, 34.1875, 34, 33.9375, 33.9375, 33.75, 33.6875, 33.75, 33.75, 33.8125, 33.625, 33.375, 33.1875, 33.0625, 33.0625, 33.0625, 33, 33.0625, 33.125, 33.25, 33.214287, 32.809525, 32.785713, 32.75, 32.875, 33, 33, 32.75, 32.5, 32.3125, 32.1875, 32.25, 32.25, 32.1875, 32.0625, 32, 32, 32, 32, 32, 32, 32, 32, 32, 32, 32, 32, 31.9375, 31.875, 31.625, 31.4375, 31.4375, 31.5, 31.6875, 31.6875, 31.5625, 31.3125, 31.125, 31.0625, 31.0625, 31.0625, 31.0625, 31.0625, 31, 31, 30.875, 30.8125, 30.6875, 30.5, 30.4375, 30.375, 30.5, 30.5, 30.5625, 30.5625, 30.5625, 30.75, 30.875, 31, 31, -10, -10, -10, -10, -10, -10, -10, -10, -10, -10, -10, -10, -10, -10, -10, -10, -10, -10, -10, -10, -10, -10, -10, -10, -10, -10, -10, -10, -10, -10, -10, -10, -10, 83, 82.94445, 83.083336, 83.166664, 83.34375, 83.491074, 83.28125, 83.25, 83.0625, 82.875, 82.75, 82.6875, 82.732147, 82.678574, 82.321426, 81.827377, 81.583931, 81.196426, 81.133926, 80.9375, 80.625, 79.645828, 78.970238, 77.729164, 77.14286, 76.275513, 75.529755, 74.883926, 73.904762, 72.9375, 72.074402, 70.870743, 70.154762, 69.383926, 68.291672, 66.928574, 66.208336, 65.3125, 64.946426, 64.309525, 63.309525, 61.952381, 60.958332, 59.708336, 59.142857, 58.508926, 57.553574, 56.339287, 55.172619, 54.157738, 53.224491, 52.53125, 51.675594, 50.372025, 49.458332, 48.964287, 48.777775, 26, 25.625, 25.6875, 25.6875, 25.625, 25.625, 25.5625, 25.375, 25.25, 25.125, 25, 25.0625, 25.0625, 25.0625, 25.0625, 25, 25, 25, 25, 24.9375, 24.875, 24.875, 24.875, 24.9375, 25, 25, 24.875, 24.625, 24.5, 24.375, 24.375, 24.4375, 24.4375, 24.375, 24.25, 24.1875, 24.0625, 24.0625, 24.0625, 24.0625, 24.0625, 24, 24, 23.9375, 23.9375, 23.9375, 23.9375, 24, 24, 23.9375, 23.875, 23.75, 23.5625, 23.375, 23.1875, 23.0625, 23, 23, 23, 23, 23, 23, 23, 23, 23, 23, 23, 23, 23, 22.875, 22.6875, 22.5, 22.375, 22.375, 22.3125, 22.25, 22.125, 22, 22, 22, 22, 22, 22, 22, 22, 22.0625, 22.125, 22.125, 22.125, 22, 21.8125, 21.625, 21.5, 21.4375, 21.3125, 21.25, 21.125, 21.125, 21.125, 21.125, 21.125, 21, 21, 21, 21, 21, 21, 21, 21, 21, 21, 21, 20.9375, 20.6875, 20.5, 20.25, 20.0625, 20.0625, 20, 19.9375, 20.026787, 20.160713, 20.125, 20.1875, 20.0625, 20, 20, 20, 20, 20, 20, 19.9375, 19.8125, 19.625, 19.375, 19.3125, 19.25, 19.1875, 19.25, 19.125, 19.0625, 19.0625, 19, 19, 19, 19, 19.0625, 19.125, 19.125, 19.0625, 19, 18.9375, 18.9375, 18.9375, 18.9375, 18.8125, 18.6875, 18.625, 18.5625, 18.5625, 18.5, 18.375, 18.125, 17.964287, 17.9375, 17.9375, 18, 18, 18, 18, 18, 18, -10, -10, -10, -10, -10, -10, -10, -10, -10, -10, -10, -10, -10, -10, -10, -10, -10, -10, -10, -10, -10, -10, -10, -10, -10, -10, 36.125, 36.083332, 35.9375, 35.59375, 35.174107, 34.96875, 34.78125, 34.607143, 34.375, 34.1875, 34, 33.875, 33.875, 33.6875, 33.6875, 33.8125, 33.8125, 33.875, 33.625, 33.375, 33.125, 32.9375, 32.955357, 33.0625, 33, 33.125, 33.125, 33.25, 33.214287, 32.809525, 32.785713, 32.75, 32.875, 33, 33, 32.75, 32.5, 32.25, 32.0625, 32.125, 32.125, 32.125, 32.0625, 32, 32, 32, 32, 32, 32, 32, 32, 32, 32, 32, 32, 31.875, 31.8125, 31.5625, 31.3125, 31.3125, 31.375, 31.5, 31.5625, 31.5, 31.25, 31.125, 31.0625, 31.0625, 31.0625, 31.0625, 31.0625, 31, 31, 30.875, 30.8125, 30.75, 30.625, 30.625, 30.5625, 30.5625, 30.5, 30.4375, 30.375, 30.375, 30.666666, 30.75, 30.888887, -10, -10, -10, -10, -10, -10, -10, -10, -10, -10, -10, -10, -10, -10, -10, -10, -10, -10, -10, -10, -10, -10, -10, -10, -10, -10, -10, -10, -10, -10, -10, -10, -10, -10, 83, 82.927086, 82.989586, 82.96875, 83.09375, 83.209824, 83, 83, 82.8125, 82.6875, 82.625, 82.59375, 82.638397, 82.459824, 82.102676, 81.639877, 81.441071, 80.988091, 80.892853, 80.678574, 80.166664, 79.083328, 78.354164, 77.205353, 76.571426, 75.704086, 75.113091, 74.003403, 73.204086, 72.330353, 71.333328, 70.244041, 69.392853, 68.580353, 67.809525, 66.5, 65.770836, 64.892853, 64.336739, 63.345581, 62.517857, 61.25, 60.1875, 59.029762, 58.476189, 57.613098, 56.705353, 55.860115, 54.839283, 53.99107, 53.061226, 52.010418, 51.205353, 50.205353, 49.413689, 49.026787, 26, 26, 25.833334, 25.854166, 25.8125, 25.6875, 25.6875, 25.625, 25.4375, 25.3125, 25.125, 25, 25.0625, 25.0625, 25.0625, 25.0625, 25, 25, 25, 25, 24.9375, 24.875, 24.875, 24.875, 24.9375, 25, 24.9375, 24.75, 24.5625, 24.5, 24.4375, 24.5, 24.5, 24.4375, 24.375, 24.25, 24.1875, 24.0625, 24.0625, 24.0625, 24.0625, 24.0625, 24, 24, 23.9375, 23.9375, 23.9375, 23.9375, 24, 24, 23.9375, 23.8125, 23.75, 23.5625, 23.375, 23.25, 23.0625, 23, 23, 23, 23, 23, 23, 23, 23, 23, 23, 23, 23, 23, 22.875, 22.6875, 22.4375, 22.25, 22.25, 22.1875, 22.1875, 22.125, 22, 22, 22, 22, 22, 22, 22, 22, 22, 22, 22, 22, 21.9375, 21.875, 21.6875, 21.5, 21.4375, 21.25, 21.1875, 21.125, 21.125, 21.125, 21.125, 21.125, 21, 21, 21, 21, 21, 21, 21, 21, 21, 21, 21, 20.875, 20.625, 20.5, 20.3125, 20.1875, 20.1875, 20.0625, 19.9375, 20.026787, 20.160713, 20.125, 20.1875, 20.0625, 20, 20, 20, 20, 20, 20, 19.9375, 19.8125, 19.625, 19.375, 19.3125, 19.25, 19.1875, 19.1875, 19.0625, 19, 19, 19, 19, 19, 19, 19.0625, 19.125, 19.125, 19.125, 19.0625, 19, 19, 18.875, 18.875, 18.8125, 18.625, 18.625, 18.625, 18.5625, 18.5625, 18.4375, 18.0625, 17.839287, 17.75, 17.75
-10, -10, -10, -10, -10, -10, -10, -10, -10, -10, -10, -10, -10, -10, -10, -10, -10, -10, -10, -10, 36.25, 36.166664, 36.0625, 35.71875, 35.40625, 35.15625, 34.84375, 34.607143, 34.3125, 34.125, 34, 33.9375, 33.9375, 33.8125, 33.8125, 33.875, 33.8125, 33.8125, 33.5625, 33.3125, 33.125, 32.875, 32.892857, 33, 32.875, 33.0625, 33.0625, 33.1875, 33.214287, 32.809525, 32.785713, 32.75, 32.875, 33, 33, 32.75, 32.5, 32.25, 32.0625, 32.0625, 32.0625, 32.0625, 32, 32, 32, 32, 32, 32, 32, 32, 32, 32, 32, 32, 31.9375, 31.75, 31.75, 31.5625, 31.375, 31.4375, 31.375, 31.375, 31.4375, 31.375, 31.25, 31.1875, 31.125, 31.0625, 31, 31, 31, 31, 31, 30.875, 30.8125, 30.75, 30.6875, 30.75, 30.75, 30.8125, 30.8125, 30.791666, 30.333334, 30.333334, -10, -10, -10, -10, -10, -10, -10, -10, -10, -10, -10, -10, -10, -10, -10, -10, -10, -10, -10, -10, -10, -10, -10, -10, -10, -10, -10, -10, -10, -10, -10, -10, -10, -10, -10, 82.625, 82.666672, 82.875, 82.802086, 82.6875, 82.558037, 82.65625, 82.816971, 82.75, 82.8125, 82.5625, 82.392853, 82.4375, 82.46875, 82.46875, 82.209824, 81.724106, 81.580353, 81.307144, 80.880951, 80.705353, 80.357147, 79.408165, 78.595238, 77.854164, 76.705353, 76, 75.330353, 74.404762, 73.372025, 72.303574, 71.526779, 70.726189, 69.744041, 68.928574, 68.080353, 67.297623, 66.208336, 65.229172, 64.267853, 63.669643, 62.588097, 61.530613, 60.476189, 59.729168, 58.623512, 58.163689, 57.416668, 56.633926, 55.642857, 54.55357, 53.642857, 52.982143, 51.938988, 50.711308, 49.633926, 49.080357, 48.892857, 48.908726, 49.5, 49.708336, 25.916666, 25.833334, 25.666666, 25.4375, 25.375, 25.3125, 25.3125, 25.25, 25.1875, 25.1875, 25.125, 25.0625, 25.0625, 25, 25, 25, 25, 25, 25, 25, 25, 25, 25, 24.9375, 24.75, 24.625, 24.5625, 24.4375, 24.5, 24.4375, 24.3125, 24.3125, 24.1875, 24.125, 24.0625, 24, 24, 24, 24, 24, 24, 23.9375, 23.875, 23.875, 23.875, 23.9375, 23.9375, 23.8125, 23.6875, 23.625, 23.5625, 23.4375, 23.3125, 23.125, 23, 23, 23, 23, 23, 23, 23, 23, 23, 23, 23, 23, 23.0625, 22.9375, 22.8125, 22.5625, 22.3125, 22.375, 22.25, 22.25, 22.1875, 22, 22, 22, 22, 22, 22, 22, 22, 22, 22, 22, 22, 21.875, 21.8125, 21.6875, 21.5, 21.5, 21.3125, 21.1875, 21.125, 21.125, 21.125, 21.125, 21.125, 21, 21, 21, 21, 20.9375, 20.9375, 20.9375, 20.9375, 21, 21, 21, 20.8125, 20.5625, 20.375, 20.1875, 20.125, 20.125, 20.0625, 19.9375, 19.964287, 20.035713, 20, 20.0625, 20, 20, 20, 20, 20, 20, 19.9375, 19.875, 19.6875, 19.4375, 19.25, 19.25, 19.25, 19.25, 19.25, 19.0625, 19, 19, 19, 19, 19, 19, 19.0625, 19.125, 19.125, 19.125, 19.0625, 19, 19, 18.8125, 18.8125, 18.75, 18.5, 18.5, 18.4375, 18.375, 18.4375, 18.375, 18.125, 17.964287, 17.875, 17.875, 17.9375, 17.9375, 18, 18, 18, 18, -10, -10, -10, -10, -10, -10, -10, -10, -10, -10, -10, -10, -10, -10, -10, -10, -10, -10, -10, -10, -10, -10, -10, -10, -10, -10, 36.5, 36.333332, 36.25, 35.9375, 35.625, 35.3125, 34.830357, 34.5625, 34.3125, 34.125, 34.0625, 33.875, 33.8125, 33.6875, 33.6875, 33.75, 33.6875, 33.625, 33.375, 33.1875, 33.125, 32.9375, 32.955357, 33.0625, 32.875, 33.0625, 33.0625, 33.125, 33.178574, 32.916668, 32.892857, 32.8125, 32.875, 32.9375, 32.9375, 32.75, 32.5, 32.25, 32.0625, 32.0625, 32.0625, 32.0625, 32, 32, 32, 32, 32, 32, 32, 32, 32, 32, 32, 32, 31.9375, 31.8125, 31.8125, 31.6875, 31.5625, 31.5625, 31.5, 31.375, 31.375, 31.25, 31.125, 31.125, 31.125, 31.125, 31.0625, 31.0625, 31, 31, 31, 30.875, 30.8125, 30.75, 30.6875, 30.8125, 30.875, 30.916666, 30.916666, 30.805555, -10, -10, -10, -10, -10, -10, -10, -10, -10, -10, -10, -10, -10, -10, -10, -10, -10, -10, -10, -10, -10, -10, -10, -10, -10, -10, -10, -10, -10, -10, -10, -10, -10, -10, -10, -10, -10, 82.625, 82.666672, 82.833336, 82.736115, 82.125, 82.016373, 82.09375, 82.388397, 82.625, 82.75, 82.625, 82.321426, 82.104164, 82.111603, 82.09375, 81.879463, 81.461609, 81.544647, 81.244644, 80.880951, 80.517853, 79.940483, 78.605446, 77.928574, 77.229164, 76.372025, 75.492859, 74.928574, 73.726189, 72.747025, 71.632652, 70.913689, 70.154762, 69.172615, 68.136902, 67.339279, 66.64286, 65.583336, 64.489792, 63.642857, 63.044643, 62.135712, 60.734688, 60, 59.354168, 58.510414, 57.809525, 57.023811, 56.205357, 55.273811, 54.17857, 53.435715, 53.119049, 51.918652, 50.53175, 49.416668, 49.011902, 49, 49.196426, 49.5, 49.694447, 49.75, 49.857143, 49.333336, 25.5, 25.571428, 25.6875, 25.75, 25.607143, 25.854166, 25.479166, 25.267857, 25.0625, 25.0625, 25, 25, 25, 25, 25, 25, 25, 25, 25, 25, 24.9375, 24.8125, 24.75, 24.75, 24.6875, 24.6875, 24.5, 24.25, 24.125, 24, 24, 24, 24, 24, 24, 24, 24, 24, 23.9375, 23.875, 23.875, 23.875, 23.9375, 23.9375, 23.75, 23.5625, 23.4375, 23.375, 23.3125, 23.25, 23.125, 23, 23, 23, 23, 23, 23, 23, 23, 22.9375, 22.9375, 22.9375, 22.9375, 23.0625, 23, 22.875, 22.625, 22.375, 22.4375, 22.3125, 22.3125, 22.25, 22, 22, 22, 22, 22, 22, 22, 22, 22, 22, 22, 22, 21.875, 21.8125, 21.75, 21.5625, 21.5625, 21.4375, 21.25, 21.1875, 21.125, 21.0625, 21.0625, 21.0625, 21, 21, 21, 21, 20.875, 20.8125, 20.8125, 20.8125, 20.9375, 21, 21, 20.8125, 20.625, 20.4375, 20.25, 20.1875, 20.125, 20.0625, 20, 20, 20, 20, 20, 20, 20, 20, 20, 20, 20, 19.9375, 19.8125, 19.625, 19.375, 19.1875, 19.1875, 19.1875, 19.25, 19.3125, 19.1875, 19.125, 19.0625, 19, 19, 19, 19, 19, 19, 19, 19, 19, 19, 19, 18.8125, 18.75, 18.6875, 18.4375, 18.4375, 18.375, 18.25, 18.3125, 18.25, 18.0625, 17.964287, 17.875, 17.875
-10, -10, -10, -10, -10, -10, -10, -10, -10, -10, -10, -10, -10, -10, -10, -10, -10, -10, -10, -10, 36.625, 36.416664, 36.3125, 35.9375, 35.625, 35.25, 34.705357, 34.375, 34.125, 34, 34, 33.8125, 33.6875, 33.5625, 33.5, 33.5625, 33.5, 33.375, 33.1875, 33.0625, 33, 32.875, 32.892857, 33, 32.875, 33, 32.9375, 32.9375, 33, 33, 33, 32.875, 32.8125, 32.8125, 32.8125, 32.6875, 32.5, 32.25, 32, 32, 32, 32, 32, 32, 32, 32, 32, 32, 32, 32, 32, 32, 32, 32, 31.9375, 31.8125, 31.8125, 31.75, 31.6875, 31.75, 31.6875, 31.5, 31.4375, 31.25, 31.125, 31.125, 31.1875, 31.160713, 31.026787, 31.0625, 30.9375, 31, 31, 31.008928, 31.208332, 31.104168, 30.875, 30.75, 30.833334, 30.888887, -10, -10, -10, -10, -10, -10, -10, -10, -10, -10, -10, -10, -10, -10, -10, -10, -10, -10, -10, -10, -10, -10, -10, -10, -10, -10, -10, -10, -10, -10, -10, -10, -10, -10, -10, -10, -10, -10, -10, -10, -10, -10, -10, 81.75, 81.766373, 81.90625, 82.263397, 82.65625, 82.75, 82.517853, 82.214279, 81.889877, 81.82589, 81.90625, 81.691963, 81.443748, 81.464287, 80.982147, 80.622025, 80.029762, 79.148811, 78.029762, 77.366074, 76.758926, 75.913696, 74.992859, 73.638885, 72.891159, 72.166672, 71.125, 70.172615, 69.464287, 68.714279, 67.708328, 66.755951, 66.071426, 65.059525, 64.199409, 63.455357, 62.830357, 61.885712, 60.642853, 59.708332, 59.133926, 58.522324, 57.466667, 56.440475, 55.830357, 55.174606, 53.971428, 53.485714, -10, -10, -10, -10, -10, -10, -10, 49.125, 49.354168, 49.333332, 49.404766, 49.138889, 48.450001, 26.1, 25.916666, 26.15, 26.5625, 26.261904, 25.583332, 25.330357, 25.0625, 25, 25, 25.0625, 25.0625, 25.0625, 25.0625, 25, 25, 25, 25, 25, 24.9375, 24.875, 24.875, 24.875, 24.8125, 24.75, 24.5, 24.25, 24.125, 24, 24, 24, 24, 24, 24, 24, 24, 24, 23.9375, 23.875, 23.875, 23.875, 23.9375, 23.9375, 23.75, 23.5, 23.3125, 23.25, 23.1875, 23.1875, 23.125, 23, 23, 23.0625, 23.0625, 23.0625, 23.0625, 23, 23, 22.9375, 22.9375, 22.9375, 22.9375, 23.0625, 23.0625, 22.9375, 22.6875, 22.375, 22.375, 22.25, 22.25, 22.25, 22, 22, 22, 22, 22, 22, 22, 22, 22, 22, 22, 22, 21.9375, 21.9375, 21.9375, 21.75, 21.6875, 21.5625, 21.3125, 21.25, 21.125, 21, 21, 21, 21, 21, 21, 21.0625, 20.9375, 20.875, 20.875, 20.8125, 20.9375, 21, 21, 20.875, 20.75, 20.625, 20.5, 20.4375, 20.3125, 20.1875, 20.125, 20.0625, 20.0625, 20.0625, 20, 20, 20, 20, 20, 20, 20, 19.9375, 19.875, 19.6875, 19.4375, 19.25, 19.125, 19.125, 19.1875, 19.25, 19.1875, 19.125, 19.0625, 19, 19, 19, 19, 19, 19, 19, 19, 19, 19, 18.9375, 18.8125, 18.6875, 18.5625, 18.375, 18.25, 18.1875, 18.0625, 18.0625, 18.0625, 17.9375, 17.9375, 17.875, 17.875, 17.9375, 17.9375, 18, 18, 18, 18, -10, -10, -10, -10, -10, -10, -10, -10, -10, -10, -10, -10, -10, -10, -10, -10, -10, -10, -10, -10, -10, -10, -10, -10, -10, -10, 36.5, 36.333332, 36.1875, 35.8125, 35.5, 35.125, 34.642857, 34.375, 34.125, 34, 34, 33.875, 33.6875, 33.5625, 33.4375, 33.375, 33.3125, 33.1875, 33.0625, 33, 33.0625, 33, 33, 33, 32.875, 32.9375, 32.9375, 32.9375, 33, 33, 33, 32.8125, 32.6875, 32.625, 32.625, 32.5625, 32.4375, 32.3125, 32.0625, 32.0625, 32.0625, 32, 32.0625, 32.0625, 32.0625, 32.0625, 32, 32, 32, 32, 32, 32, 32, 32, 31.9375, 31.875, 31.875, 31.875, 31.875, 31.9375, 31.875, 31.625, 31.5, 31.25, 31.125, 31.125, 31.125, 31.098213, 30.964287, 31, 30.9375, 31, 31.0625, 31.196428, 31.508333, 31.138891, 30.833334, -10, -10, -10, -10, -10, -10, -10, -10, -10, -10, -10, -10, -10, -10, -10, -10, -10, -10, -10, -10, -10, -10, -10, -10, -10, -10, -10, -10, -10, -10, -10, -10, -10, -10, -10, -10, -10, -10, -10, -10, -10, -10, -10, -10, -10, -10, 81.59375, 81.755959, 81.875, 82.138397, 82.352676, 82.571426, 82.3125, 82.142853, 81.827377, 81.73214, 81.8125, 81.660713, 81.403564, 81.193451, 80.696426, 80.383926, 79.625, 78.720238, 77.675598, 77.008926, 76.446426, 75.354172, 74.421432, 73.149658, 72.154762, 71.440475, 70.446426, 69.517853, 68.964287, 68.330353, 67.458328, 66.476189, 65.928574, 64.916664, 63.970238, 63.169643, 62.401787, 61.619049, 60.351189, 59.458332, 58.883926, 58.34375, 57.347618, 56.148811, 55.33469, -10, -10, -10, -10, -10, -10, -10, -10, -10, -10, 49, 48.9375, 49, 49.116074, 49.041668, 48.776188, 49, -10, -10, -10, 26.354166, 25.75, 25.455357, 25.125, 25, 25, 25.0625, 25.0625, 25.0625, 25.0625, 25, 25, 25, 25, 25, 25, 25, 25, 25, 24.9375, 24.8125, 24.5625, 24.3125, 24.125, 24, 24, 24, 24, 24, 24, 23.9375, 23.875, 23.8125, 23.6875, 23.6875, 23.75, 23.8125, 23.9375, 23.9375, 23.75, 23.5, 23.25, 23.125, 23.0625, 23.0625, 23.0625, 23, 23, 23.0625, 23.0625, 23.0625, 23.0625, 23, 23, 22.9375, 22.9375, 22.9375, 22.9375, 23.0625, 23, 22.8125, 22.5625, 22.3125, 22.3125, 22.25, 22.25, 22.1875, 22, 22, 22, 22, 22, 22, 22, 22, 22, 22, 22, 22, 21.9375, 21.9375, 21.9375, 21.8125, 21.8125, 21.6875, 21.4375, 21.3125, 21.125, 21.0625, 21.0625, 21.0625, 21.0625, 21, 21, 21.0625, 20.9375, 20.875, 20.875, 20.8125, 20.9375, 21, 20.9375, 20.875, 20.8125, 20.6875, 20.625, 20.491072, 20.1875, 20.125, 20.125, 20.125, 20.125, 20.125, 20, 20, 20, 20, 20, 20, 20, 19.9375, 19.875, 19.6875, 19.5, 19.3125, 19.1875, 19.1875, 19.1875, 19.3125, 19.25, 19.1875, 19.125, 19, 19, 19, 19, 19, 19, 19, 19, 19, 19, 18.875, 18.75, 18.625, 18.5, 18.375, 18.25, 18.125, 18, 18, 18, 18, 18.0625, 18.0625, 18.0625
-10, -10, -10, -10, -10, -10, -10, -10, -10, -10, -10, -10, -10, -10, -10, -10, -10, -10, -10, 36, 36.375, 36.25, 36.0625, 35.75, 35.4375, 35, 34.580357, 34.3125, 34.0625, 34, 34, 33.875, 33.625, 33.4375, 33.1875, 33, 33, 32.9375, 32.9375, 33, 33.0625, 33.0625, 33.0625, 33.0625, 33, 33, 33, 33, 33, 33, 33, 32.75, 32.5625, 32.5, 32.5, 32.5, 32.4375, 32.3125, 32.125, 32.125, 32.125, 32.0625, 32.0625, 32.0625, 32.0625, 32.0625, 32, 32, 32, 32, 32, 32, 32, 32, 32, 32, 32, 32, 32, 31.9375, 31.875, 31.625, 31.5, 31.3125, 31.125, 31.125, 31.0625, 31.035713, 31.026787, 31.125, 31.09375, 31.15625, 31.21875, 31.321428, 31.677778, -10, -10, -10, -10, -10, -10, -10, -10, -10, -10, -10, -10, -10, -10, -10, -10, -10, -10, -10, -10, -10, -10, -10, -10, -10, -10, -10, -10, -10, -10, -10, -10, -10, -10, -10, -10, -10, -10, -10, -10, -10, -10, -10, -10, -10, -10, -10, -10, 81.6875, 81.947922, 82.03125, 82.09375, 82.058029, 81.85714, 82.0625, 82.125, 81.889877, 81.85714, 81.875, 81.660713, 81.270233, 80.907738, 80.446426, 80.0625, 79.020836, 78.041672, 77.217262, 76.642853, 76.133926, 75.113098, 73.986908, 72.839287, 71.571426, 70.964287, 70.258926, 69.258926, 68.607147, 68.008926, 67.172615, 66.113098, 65.75, 64.869049, 64.083336, 63.348213, 62.589287, 61.597618, 60.113094, 59.215477, 58.845234, 58.333332, 57.130157, 55.698414, 55.05714, -10, -10, -10, -10, -10, -10, -10, -10, -10, -10, -10, 48.5, 48.5625, 48.678574, 48.697918, 48.863392, 49.166668, -10, -10, -10, 26.555555, 25.875, 25.542856, 25.125, 25, 24.9375, 25.0625, 25.0625, 25.0625, 25.0625, 25, 25, 25, 25, 25, 25, 25, 25, 25, 25, 24.875, 24.625, 24.375, 24.125, 24, 24, 24, 24, 24, 24, 23.9375, 23.875, 23.8125, 23.75, 23.8125, 23.875, 23.9375, 23.9375, 23.9375, 23.8125, 23.5625, 23.375, 23.125, 23, 23, 23, 23, 23, 23.0625, 23.0625, 23.0625, 23.0625, 23, 23, 22.875, 22.875, 22.875, 22.875, 22.9375, 22.8125, 22.5625, 22.3125, 22.1875, 22.1875, 22.1875, 22.1875, 22.125, 22, 22, 22, 22, 22, 22, 22, 22, 22, 22, 22, 22, 22, 21.9375, 21.875, 21.75, 21.6875, 21.625, 21.4375, 21.3125, 21.125, 21.0625, 21.0625, 21.0625, 21.0625, 21, 21, 21.0625, 21, 20.9375, 20.9375, 20.875, 20.9375, 21, 20.875, 20.8125, 20.75, 20.625, 20.625, 20.491072, 20.1875, 20.125, 20.1875, 20.1875, 20.1875, 20.1875, 20, 20, 20, 20, 20, 20, 20, 20, 19.9375, 19.8125, 19.6875, 19.5, 19.375, 19.375, 19.375, 19.5, 19.4375, 19.3125, 19.1875, 19, 19, 19, 19, 19, 19, 19, 19, 19, 19, 18.875, 18.8125, 18.6875, 18.5625, 18.5, 18.3125, 18.1875, 18.0625, 18, 18, 17.9375, 17.9375, 17.9375, 17.9375, 18, 18, 18, 18, 17.9375, 17.916666, -10, -10, -10, -10, -10, -10, -10, -10, -10, -10, -10, -10, -10, -10, -10, -10, -10, -10, -10, -10, -10, -10, -10, -10, -10, 35.916668, 36.083332, 36.052082, 35.875, 35.5625, 35.392857, 35.087502, 34.616074, 34.357143, 34.0625, 34, 34, 33.9375, 33.6875, 33.5, 33.169643, 32.767857, 32.767857, 32.75, 32.9375, 33.125, 33.125, 33.125, 33.0625, 33, 33, 33, 33, 33, 33, 33, 33, 32.75, 32.5, 32.4375, 32.4375, 32.5, 32.5, 32.375, 32.25, 32.1875, 32.1875, 32.125, 32.0625, 32.0625, 32.0625, 32.0625, 32, 32, 32, 32, 32, 32, 32, 32, 32, 32, 32, 32, 32, 31.875, 31.75, 31.5, 31.3125, 31.1875, 31.0625, 31.0625, 31, 30.973213, 31.026787, 31.1875, 31.21875, 31.322916, 31.291666, 31.511904, -10, -10, -10, -10, -10, -10, -10, -10, -10, -10, -10, -10, -10, -10, -10, -10, -10, -10, -10, -10, -10, -10, -10, -10, -10, -10, -10, -10, -10, -10, -10, -10, -10, -10, -10, -10, -10, -10, -10, -10, -10, -10, -10, -10, -10, -10, -10, -10, 82.625, 82.080353, 81.864586, 81.834824, 81.71875, 81.620529, 81.633926, 81.8125, 81.946426, 82.035713, 81.964287, 82, 81.803574, 81.398811, 80.633926, 80.053574, 79.455353, 78.458336, 77.520836, 76.830353, 76.285713, 75.758926, 74.738098, 73.918159, 72.910713, 71.3125, 70.651787, 69.866074, 68.967262, 68.457138, 67.916664, 67.285713, 66.05555, 65.571426, 64.935715, 63.988091, 63.223213, 62.363945, 61.133331, 59.925594, 59.058334, -10, -10, -10, -10, -10, -10, -10, -10, -10, -10, -10, -10, -10, -10, -10, -10, 48.083332, 48.125, 48.3125, 48.6875, 49.044643, 49.28125, -10, -10, -10, -10, 25.833332, 25.65, 25.303572, 25, 24.9375, 25, 25.0625, 25.0625, 25.0625, 25, 25, 25, 25, 25, 25, 24.9375, 24.9375, 24.9375, 24.9375, 24.8125, 24.5625, 24.3125, 24.0625, 24, 24, 24, 24, 24, 24, 23.9375, 23.875, 23.8125, 23.75, 23.8125, 23.875, 23.9375, 23.875, 23.8125, 23.6875, 23.4375, 23.3125, 23.125, 23, 23, 23, 23, 23, 23.0625, 23.0625, 23.0625, 23.0625, 23, 23, 22.9375, 22.9375, 22.9375, 22.9375, 22.875, 22.6875, 22.4375, 22.1875, 22.125, 22.125, 22.125, 22.125, 22.0625, 22, 22, 22, 22, 22, 22, 22, 22, 22, 22, 22, 21.9375, 21.875, 21.75, 21.625, 21.5625, 21.5625, 21.5, 21.375, 21.25, 21.0625, 21.0625, 21.0625, 21.0625, 21.0625, 21, 21, 21.0625, 21.0625, 21.0625, 21.0625, 21, 21, 21, 20.875, 20.75, 20.625, 20.5, 20.5, 20.428572, 20.1875, 20.125, 20.25, 20.3125, 20.3125, 20.3125, 20.0625, 20, 20, 20, 20, 20, 20, 20, 20, 19.9375, 19.875, 19.75, 19.625, 19.5625, 19.5, 19.5625, 19.4375, 19.3125, 19.1875, 19, 19, 19, 19, 18.9375, 18.9375, 18.9375, 18.9375, 19, 19, 18.875, 18.8125, 18.75, 18.6875, 18.6875, 18.5, 18.3125, 18.125, 18, 18.0625, 18.0625, 18.0625, 18.0625, 18
-10, -10, -10, -10, -10, -10, -10, -10, -10, -10, -10, -10, -10, -10, -10, -10, -10, -10, -10, 35.8125, 35.875, 35.90625, 35.8125, 35.625, 35.517857, 35.266071, 34.657738, 34.36607, 34.0625, 34, 34, 34, 33.8125, 33.6875, 33.357143, 32.892857, 32.830357, 32.75, 33, 33.25, 33.25, 33.25, 33.125, 33, 33, 33.0625, 33.0625, 33, 32.964287, 32.9375, 32.875, 32.6875, 32.4375, 32.375, 32.375, 32.5, 32.5625, 32.4375, 32.375, 32.25, 32.1875, 32.125, 32.0625, 32.0625, 32.0625, 32.0625, 32, 32, 32, 32, 32, 32, 32, 32, 32, 32, 32, 32, 32, 31.8125, 31.625, 31.375, 31.1875, 31.125, 31.0625, 31.0625, 30.9375, 30.9375, 31.0625, 31.25, 31.316963, 31.272917, -10, -10, -10, -10, -10, -10, -10, -10, -10, -10, -10, -10, -10, -10, -10, -10, -10, -10, -10, -10, -10, -10, -10, -10, -10, -10, -10, -10, -10, -10, -10, -10, -10, -10, -10, -10, -10, -10, -10, -10, -10, -10, -10, 82, 82, 82, -10, -10, -10, 83, 82.638885, 82.392853, 82.052086, 81.897324, 81.75, 81.526779, 81.571426, 81.919647, 81.991074, 82.1875, 82.125, 82.0625, 81.928574, 81.461311, 80.758926, 80.096939, 79.591835, 78.714287, 78.10714, 77.486397, 75.598213, 75.1875, 74.467262, 73.855659, 73.029762, 71.104164, 70.482147, 69.794647, 69.074402, 68.564285, -10, -10, -10, 65.523811, 65.057137, 63.984131, 63.214283, 61.847618, 60.84444, 59.472218, 58.799999, -10, -10, -10, -10, -10, -10, -10, -10, -10, -10, -10, -10, -10, -10, -10, -10, 48, 48.083332, 48.3125, 48.71875, 49.263393, 49.604168, 49.833332, -10, -10, -10, 25.666666, 25.608334, 25.303572, 25.0625, 25, 24.9375, 25, 25, 24.9375, 24.9375, 24.9375, 24.9375, 25, 25, 25, 24.9375, 24.9375, 24.9375, 24.9375, 24.75, 24.5625, 24.3125, 24.0625, 24.0625, 24, 24, 24, 24, 24, 23.9375, 23.875, 23.8125, 23.75, 23.8125, 23.8125, 23.8125, 23.6875, 23.5625, 23.5, 23.375, 23.375, 23.25, 23.125, 23.0625, 23, 23, 23, 23, 23, 23, 23, 23, 23, 22.9375, 22.9375, 22.9375, 22.9375, 22.875, 22.6875, 22.4375, 22.1875, 22.125, 22.0625, 22.0625, 22.0625, 22, 22, 22, 22, 22, 22, 22, 22, 22, 22, 22, 21.9375, 21.8125, 21.6875, 21.5, 21.375, 21.375, 21.4375, 21.4375, 21.375, 21.25, 21.0625, 21.0625, 21.0625, 21.0625, 21.0625, 21, 21, 21, 21, 21, 21, 21, 21, 21, 20.875, 20.6875, 20.5625, 20.4375, 20.375, 20.303572, 20.0625, 20, 20.1875, 20.3125, 20.3125, 20.3125, 20.0625, 20, 20, 20, 20, 20, 20, 20, 20, 20, 20, 19.9375, 19.875, 19.8125, 19.75, 19.8125, 19.6875, 19.5, 19.3125, 19.0625, 19, 19, 19, 18.9375, 18.9375, 18.9375, 18.9375, 19, 19, 18.9375, 18.875, 18.875, 18.875, 18.875, 18.6875, 18.4375, 18.1875, 18, 18.0625, 18.125, 18.125, 18.125, 18.0625, 18, 18, 18, 18, 17.9375, 17.916666, -10, -10, -10, -10, -10, -10, -10, -10, -10, -10, -10, -10, -10, -10, -10, -10, -10, -10, -10, -10, -10, -10, -10, -10, -10, 35.6875, 35.708332, 35.78125, 35.75, 35.607143, 35.455357, 35.203571, 34.532738, 34.30357, 34, 34, 34, 34, 33.875, 33.75, 33.419643, 32.955357, 32.830357, 32.75, 33.0625, 33.3125, 33.3125, 33.3125, 33.125, 33, 33, 33.0625, 33.0625, 33, 32.964287, 32.9375, 32.8125, 32.625, 32.375, 32.3125, 32.25, 32.375, 32.4375, 32.25, 32.3125, 32.1875, 32.125, 32.125, 32, 32, 32, 32, 32, 32, 32, 32, 32, 32, 32, 32, 32, 32, 32, 32, 32, 31.75, 31.5, 31.25, 31.0625, 31.0625, 31.0625, 31.0625, 31, 31, 31.1875, 31.375, 31.316963, 31.222916, -10, -10, -10, -10, -10, -10, -10, -10, -10, -10, -10, -10, -10, -10, -10, -10, -10, -10, -10, -10, -10, -10, -10, -10, -10, -10, -10, -10, -10, -10, -10, -10, -10, -10, -10, -10, -10, -10, -10, -10, -10, -10, -10, 82, 82, 82, -10, -10, -10, 83, 82.729164, 82.642853, 82.147324, 81.884827, 81.928574, 81.883926, 82.008926, 82.1875, 82.125, 82.1875, 82.125, 82.0625, 81.866074, 81.407738, 80.967262, 81.029762, 81.023811, 80.805557, 80.708336, 80.464287, 74.770401, 74.6875, 74.321426, 73.739586, 72.958336, 71.354164, 70.6875, 70.008926, 69.491074, 68.657143, -10, -10, -10, -10, -10, -10, -10, -10, -10, -10, -10, -10, -10, -10, -10, -10, -10, -10, -10, -10, -10, -10, -10, -10, -10, -10, -10, 48, 48.083332, 48.3125, 48.614582, 49.208332, 49.583332, 49.833332, -10, -10, -10, 25.5, 25.566668, 25.366072, 25.25, 25.1875, 25.0625, 25.0625, 24.9375, 24.875, 24.875, 24.875, 24.9375, 25, 25, 25, 24.9375, 24.9375, 24.9375, 24.9375, 24.8125, 24.6875, 24.4375, 24.1875, 24.125, 24, 24, 24, 24, 24, 24, 24, 24, 23.9375, 23.875, 23.75, 23.625, 23.4375, 23.375, 23.4375, 23.375, 23.4375, 23.3125, 23.1875, 23.125, 23.0625, 23.0625, 23, 23.0625, 23.0625, 23.0625, 23.0625, 23, 23, 22.9375, 22.9375, 22.9375, 22.9375, 22.8125, 22.625, 22.375, 22.125, 22.0625, 22, 22, 22, 22, 22, 22, 22, 22, 22, 22, 22, 22, 22, 22, 21.875, 21.6875, 21.5, 21.25, 21.125, 21.1875, 21.3125, 21.375, 21.375, 21.25, 21.0625, 21, 21, 21, 21, 21, 21, 21, 21, 21, 21, 21, 21, 21, 20.9375, 20.75, 20.625, 20.5, 20.3125, 20.25, 20.125, 20, 20.1875, 20.25, 20.25, 20.25, 20.0625, 20, 20, 20, 20, 20, 20, 20, 20, 19.9375, 19.875, 19.875, 19.875, 19.875, 19.9375, 19.9375, 19.75, 19.5625, 19.3125, 19.0625, 19, 19, 19, 18.9375, 18.9375, 18.9375, 18.9375, 19, 19, 19, 18.9375, 18.9375, 18.9375, 18.9375, 18.75, 18.5, 18.25, 18, 18.0625, 18.125, 18.125, 18.125, 18.0625
-10, -10, -10, -10, -10, -10, -10, -10, -10, -10, -10, -10, -10, -10, -10, -10, -10, -10, -10, 35.583332, 35.833332, 35.864582, 35.8125, 35.607143, 35.455357, 35.266071, 34.586311, 34.24107, 34, 33.9375, 34, 34, 33.875, 33.75, 33.482143, 33.080357, 32.955357, 32.875, 33.125, 33.3125, 33.3125, 33.3125, 33.125, 33, 33, 33.0625, 33.0625, 33, 32.964287, 32.9375, 32.8125, 32.6875, 32.5, 32.4375, 32.3125, 32.375, 32.375, 32.1875, 32.25, 32.125, 32.0625, 32.0625, 32, 32, 32, 32, 32, 32, 32, 32, 32, 32, 32, 32, 32, 32, 32, 32, 32, 31.75, 31.5, 31.25, 31, 31, 31, 31, 31.0625, 31.125, 31.375, 31.6875, 31.577381, 31.191666, -10, -10, -10, -10, -10, -10, -10, -10, -10, -10, -10, -10, -10, -10, -10, -10, -10, -10, -10, -10, -10, -10, -10, -10, -10, -10, -10, -10, -10, -10, -10, -10, -10, -10, -10, -10, -10, -10, -10, -10, -10, -10, -10, 82.25, 82.166664, 82.125, -10, -10, -10, 82.875, 82.854164, 82.767853, 82.241074, 81.978577, 82.275513, 82.116074, 82.258926, 82.4375, 82.3125, 82.3125, 82.1875, 82.0625, 81.875, 81.616074, 81.270836, 81.418373, 81.67347, 81.714287, 81.75, 81.306114, 74.972786, 74.612244, 74.333336, 73.708336, 73, 71.472221, 70.520409, 69.904762, 69.511909, -10, -10, -10, -10, -10, -10, -10, -10, -10, -10, -10, -10, -10, -10, -10, -10, -10, -10, -10, -10, -10, -10, -10, -10, -10, -10, -10, -10, 48, 48.083332, 48.25, 48.611111, -10, -10, -10, -10, -10, -10, 25.5, 25.583334, 25.491072, 25.3125, 25.25, 25.0625, 25.0625, 24.9375, 24.875, 24.875, 24.875, 24.9375, 25, 25, 25, 24.9375, 24.9375, 24.9375, 24.9375, 24.875, 24.8125, 24.5625, 24.3125, 24.1875, 24, 24, 24, 24, 24, 24, 24, 24, 23.9375, 23.875, 23.75, 23.625, 23.4375, 23.375, 23.4375, 23.4375, 23.5, 23.375, 23.25, 23.125, 23.0625, 23.0625, 23, 23.0625, 23.0625, 23.0625, 23.0625, 23, 23, 23, 23, 22.9375, 22.875, 22.6875, 22.5, 22.375, 22.1875, 22.125, 22.0625, 22, 22, 22, 22, 22, 22, 22, 22, 22, 22, 22, 22, 22, 21.875, 21.6875, 21.4375, 21.1875, 21.0625, 21.1875, 21.4375, 21.5, 21.5, 21.3125, 21.0625, 21, 21, 21, 21, 21.0625, 21.0625, 21.0625, 21.0625, 21, 21, 21, 21, 21, 21, 20.875, 20.8125, 20.75, 20.5, 20.375, 20.1875, 20, 20.125, 20.1875, 20.1875, 20.1875, 20.0625, 20, 20, 20, 20, 20, 20, 20, 20, 19.9375, 19.875, 19.875, 19.875, 19.8125, 19.8125, 19.8125, 19.6875, 19.625, 19.4375, 19.1875, 19.0625, 19, 19, 18.9375, 18.9375, 18.9375, 18.9375, 19, 19, 19, 18.9375, 18.9375, 18.9375, 18.90625, 18.71875, 18.46875, 18.21875, 18, 18.0625, 18.125, 18.125, 18.125, 18.0625, 18, 18, 18, 18, 18, 18, -10, -10, -10, -10, -10, -10, -10, -10, -10, -10, -10, -10, -10, -10, -10, -10, -10, -10, -10, -10, -10, -10, -10, -10, -10, -10, 36, 35.979164, 35.875, 35.607143, 35.375, 35.053574, 34.532738, 34.196426, 34, 33.9375, 34, 34, 33.875, 33.6875, 33.4375, 33.1875, 33.0625, 33, 33.125, 33.1875, 33.1875, 33.1875, 33.0625, 33, 33, 33.0625, 33.0625, 33, 32.964287, 32.9375, 32.8125, 32.75, 32.625, 32.5625, 32.4375, 32.375, 32.3125, 32.1875, 32.1875, 32.1875, 32.125, 32.0625, 32.0625, 32, 32, 32, 32, 32, 32, 32, 32, 32, 32, 32, 32, 32, 32, 32, 32, 31.8125, 31.5625, 31.3125, 31.0625, 31, 31, 31, 31.125, 31.3125, 31.669643, 32.0625, 32.139881, 31.409525, 32.089287, 31.714285, 32.200001, -10, -10, -10, -10, -10, -10, -10, -10, -10, -10, -10, -10, -10, -10, -10, -10, -10, -10, -10, -10, -10, -10, -10, -10, -10, -10, -10, -10, -10, -10, -10, -10, -10, -10, -10, -10, -10, -10, -10, -10, 82.333336, 82.222221, 82.1875, 82.208328, 82.0625, 82.25, 82.75, 82.791664, 82.875, 82.741074, 82.550003, 82.678574, 82.678574, 82.625, 82.625, 82.4375, 82.3125, 82.25, 82.125, 81.910713, 81.580353, 81.580353, 81.6875, 82.142853, 82.3125, 82.4375, 81.964279, 76.444435, 75.523804, 74.541672, -10, -10, -10, 69.770409, 69.809525, 69.678574, -10, -10, -10, -10, -10, -10, -10, -10, -10, -10, -10, -10, -10, -10, -10, -10, -10, -10, -10, -10, -10, -10, -10, -10, -10, -10, -10, -10, 48, 48.083332, 48.1875, -10, -10, -10, -10, -10, -10, -10, 25.25, 25.333334, 25.3125, 25.3125, 25.25, 25.125, 25.0625, 24.9375, 24.875, 24.875, 24.875, 24.9375, 25, 25, 25, 25, 25, 25, 25, 24.9375, 24.9375, 24.6875, 24.4375, 24.25, 24, 24, 24.0625, 24.035713, 23.964287, 24, 23.9375, 24, 23.9375, 23.875, 23.75, 23.625, 23.4375, 23.375, 23.5, 23.5625, 23.625, 23.5, 23.3125, 23.125, 23.0625, 23.0625, 23, 23.0625, 23.0625, 23.0625, 23.0625, 23, 23, 23, 23, 22.9375, 22.875, 22.75, 22.625, 22.5, 22.3125, 22.25, 22.1875, 22.125, 22.125, 22.0625, 22, 22, 22, 22, 22, 22, 22, 22, 22, 22, 21.875, 21.75, 21.5625, 21.375, 21.3125, 21.4375, 21.625, 21.625, 21.5625, 21.3125, 21.0625, 21, 21, 21, 21, 21.0625, 21.0625, 21.0625, 21.0625, 21, 21, 20.9375, 20.9375, 20.9375, 20.9375, 20.9375, 20.875, 20.8125, 20.5625, 20.375, 20.1875, 20, 20.0625, 20.0625, 20.0625, 20.0625, 20, 20, 20, 20, 20, 20, 20, 20, 20, 19.875, 19.75, 19.6875, 19.625, 19.625, 19.625, 19.625, 19.5625, 19.5625, 19.5, 19.3125, 19.1875, 19.0625, 19, 19, 19, 19, 19, 19, 19, 19, 18.9375, 18.875, 18.875, 18.84375, 18.65625, 18.46875, 18.21875, 18, 18, 18, 18, 18, 18
-10, -10, -10, -10, -10, -10, -10, -10, -10, -10, -10, -10, -10, -10, -10, -10, -10, -10, -10, -10, 36.208332, 36.125, 35.9375, 35.607143, 35.25, 34.875, 34.553574, 34.3125, 34.125, 34.0625, 34.0625, 34, 33.8125, 33.5625, 33.375, 33.125, 33.0625, 33.0625, 33.0625, 33.0625, 33.0625, 33.0625, 33, 33, 33, 33, 33, 33, 33, 33, 32.875, 32.75, 32.6875, 32.625, 32.5, 32.375, 32.1875, 32.0625, 32.0625, 32.125, 32.125, 32.0625, 32.0625, 32, 32, 32, 32, 32, 32, 32, 32, 32, 32, 32, 32, 31.9375, 31.9375, 31.9375, 31.9375, 31.875, 31.625, 31.375, 31.125, 31, 31, 31, 31.125, 31.375, 31.857143, 32.357143, 32.833336, 32.716667, 32.089287, -10, -10, -10, -10, -10, -10, -10, -10, -10, -10, -10, -10, -10, -10, -10, -10, -10, -10, -10, -10, -10, -10, -10, -10, -10, -10, -10, -10, -10, -10, -10, -10, -10, -10, -10, -10, -10, -10, -10, -10, -10, -10, -10, -10, 82.3125, 82.361107, 82.291664, 82.416664, 82.8125, 82.9375, 83.0625, 82.991074, 82.800003, 82.866074, 82.803574, 82.6875, 82.625, 82.4375, 82.25, 82.1875, 82.125, 82.035713, 81.830353, 81.821426, 81.666664, 82.035721, 82.25, 82.410713, 81.702377, 76.666664, 75.448975, 74.805565, -10, -10, -10, 69.449997, 69.746033, 69.666664, -10, -10, -10, -10, -10, -10, -10, -10, -10, -10, -10, -10, -10, -10, -10, -10, -10, -10, -10, -10, -10, -10, -10, -10, -10, -10, -10, -10, 48, 48, 48.0625, -10, -10, -10, -10, -10, -10, -10, 25.375, 25.416666, 25.375, 25.375, 25.25, 25.125, 25.0625, 24.9375, 24.9375, 24.9375, 24.9375, 25, 25, 25, 25, 25, 25, 25, 25, 24.9375, 24.9375, 24.6875, 24.4375, 24.25, 24, 24, 24.125, 24.098213, 24.026787, 24.0625, 23.9375, 24, 23.9375, 23.875, 23.8125, 23.6875, 23.5, 23.4375, 23.4375, 23.5, 23.5625, 23.5, 23.4375, 23.3125, 23.25, 23.1875, 23.0625, 23.0625, 23.0625, 23.0625, 23.0625, 23, 23, 23, 23, 22.9375, 22.875, 22.75, 22.5625, 22.4375, 22.3125, 22.3125, 22.375, 22.3125, 22.25, 22.125, 22, 22, 22, 22, 22, 22, 22, 22, 22, 22, 21.875, 21.75, 21.5625, 21.4375, 21.4375, 21.5625, 21.75, 21.6875, 21.5625, 21.3125, 21.0625, 21, 21, 21, 21, 21.0625, 21.0625, 21.0625, 21.0625, 21, 21, 20.9375, 20.9375, 20.9375, 20.875, 20.875, 20.75, 20.625, 20.4375, 20.3125, 20.25, 20.107143, 20, 20, 19.9375, 20, 20, 20, 20, 20, 20, 20, 20, 20, 20, 19.8125, 19.625, 19.5, 19.375, 19.375, 19.375, 19.375, 19.3125, 19.4375, 19.5, 19.375, 19.3125, 19.125, 19, 19, 19, 18.9375, 18.875, 18.875, 18.875, 18.9375, 18.9375, 18.875, 18.875, 18.84375, 18.71875, 18.59375, 18.34375, 18.125, 18.0625, 18, 18, 18, 18, 18, 18, 18, 18, 18, 18, -10, -10, -10, -10, -10, -10, -10, -10, -10, -10, -10, -10, -10, -10, -10, -10, -10, -10, -10, -10, -10, -10, -10, -10, -10, -10, 36.5, 36.299999, 35.955357, 35.642857, 35.3125, 34.9375, 34.532738, 34.25, 34.0625, 34.0625, 34.0625, 34, 33.8125, 33.625, 33.5, 33.25, 33.1875, 33.1875, 33.0625, 33.0625, 33.0625, 33, 33, 33, 33, 33, 33, 33, 33, 33, 32.9375, 32.8125, 32.75, 32.75, 32.6875, 32.625, 32.5, 32.3125, 32.1875, 32.1875, 32.125, 32.0625, 32.0625, 32, 32, 32, 32, 32, 32, 32, 32, 32, 32, 32, 31.9375, 31.8125, 31.75, 31.75, 31.8125, 31.875, 31.6875, 31.4375, 31.1875, 31, 31, 31, 31.125, 31.375, 31.866072, 32.627975, 33.032738, 32.875, -10, -10, -10, -10, -10, -10, -10, -10, -10, -10, -10, -10, -10, -10, -10, -10, -10, -10, -10, -10, -10, -10, -10, -10, -10, -10, -10, -10, -10, -10, -10, -10, -10, -10, -10, -10, -10, -10, -10, -10, -10, -10, -10, -10, -10, 82.3125, 82.354164, 82.34375, 82.5, 82.8125, 82.9375, 83.0625, 83.0625, 83, 82.9375, 82.875, 82.75, 82.75, 82.625, 82.4375, 82.3125, 82.25, 82.223213, 82.142853, 82.089279, 81.479164, 81.708328, 81.625, 81.636055, 80.707481, 76.499992, 75.367851, -10, -10, -10, -10, -10, -10, -10, -10, -10, -10, -10, -10, -10, -10, -10, -10, -10, -10, -10, -10, -10, -10, -10, -10, -10, -10, -10, -10, -10, -10, -10, -10, -10, -10, -10, 48, 48, 48, -10, -10, -10, -10, -10, -10, -10, 25.375, 25.333332, 25.25, 25.1875, 25.0625, 25, 25, 25, 25, 25, 25, 25, 25, 25, 25, 25, 25, 25, 25, 24.875, 24.8125, 24.5625, 24.3125, 24.1875, 24, 24, 24.125, 24.098213, 24.026787, 24.0625, 23.9375, 24, 24, 24, 24, 23.875, 23.625, 23.4375, 23.3125, 23.375, 23.5, 23.5625, 23.5, 23.375, 23.25, 23.125, 23.0625, 23, 23, 23, 23, 22.9375, 22.9375, 22.9375, 22.9375, 22.9375, 22.8125, 22.6875, 22.5, 22.375, 22.3125, 22.375, 22.5, 22.4375, 22.375, 22.1875, 22, 22, 22.0625, 22.0625, 22.0625, 22.0625, 22, 22, 22, 22, 21.9375, 21.875, 21.6875, 21.625, 21.625, 21.625, 21.75, 21.625, 21.4375, 21.3125, 21.125, 21.0625, 21.0625, 21, 21, 21.0625, 21.0625, 21.0625, 21.0625, 21, 21, 20.9375, 20.9375, 20.9375, 20.875, 20.8125, 20.625, 20.4375, 20.25, 20.25, 20.3125, 20.294643, 20.1875, 20.125, 20, 20, 20, 20, 20, 20, 20, 20, 20, 20, 20, 19.8125, 19.6875, 19.5, 19.3125, 19.3125, 19.1875, 19.1875, 19.1875, 19.3125, 19.4375, 19.375, 19.3125, 19.125, 19, 19, 19, 18.9375, 18.875, 18.875, 18.875, 18.9375, 19, 18.9375, 18.9375, 18.84375, 18.71875, 18.65625, 18.40625, 18.25, 18.125, 18, 18, 18, 18
-10, -10, -10, -10, -10, -10, -10, -10, -10, -10, -10, -10, -10, -10, -10, -10, -10, -10, -10, -10, 36.375, 36.133335, 35.830357, 35.580357, 35.3125, 34.9375, 34.3125, 34.178574, 33.9375, 34.0625, 34.0625, 34, 33.875, 33.75, 33.625, 33.375, 33.25, 33.1875, 33.0625, 33.0625, 33.0625, 33, 33, 33, 33, 33, 33, 33, 33, 33, 32.9375, 32.8125, 32.6875, 32.6875, 32.6875, 32.6875, 32.6875, 32.5, 32.3125, 32.25, 32.125, 32.0625, 32.0625, 32, 32, 32, 32, 32, 32, 32, 32, 32, 31.9375, 31.875, 31.75, 31.5625, 31.5625, 31.5625, 31.6875, 31.8125, 31.625, 31.4375, 31.1875, 31.0625, 31.0625, 31.0625, 31.0625, 31.166666, 31.821428, 32.587299, 33.154762, 33.333332, -10, -10, -10, -10, -10, -10, -10, -10, -10, -10, -10, -10, -10, -10, -10, -10, -10, -10, -10, -10, -10, -10, -10, -10, -10, -10, -10, -10, -10, -10, -10, -10, -10, -10, -10, -10, -10, -10, -10, -10, -10, -10, -10, -10, -10, 82.25, 82.416664, 82.53125, 82.6875, 82.9375, 83, 83.0625, 83.0625, 83, 82.9375, 82.9375, 82.875, 82.875, 82.8125, 82.625, 82.5, 82.5, 82.473213, 82.455353, 82.401779, 81.541664, 81.017853, 80.454086, 79.192467, 78.119049, 75.693886, 74.996429, -10, -10, -10, -10, -10, -10, -10, -10, -10, -10, -10, -10, -10, -10, -10, -10, -10, -10, -10, -10, -10, -10, -10, -10, -10, -10, -10, -10, -10, -10, -10, -10, -10, -10, -10, 48, 48.083332, 48.1875, 48.599998, -10, -10, -10, -10, -10, -10, 25.125, 25.166666, 25.125, 25.1875, 25.1875, 25.125, 25.125, 25.0625, 25, 25, 25, 25, 25, 25, 25, 25, 25, 25, 25, 24.8125, 24.6875, 24.4375, 24.1875, 24.125, 24, 24, 24.125, 24.098213, 24.026787, 24.0625, 23.9375, 24, 24, 24, 23.9375, 23.75, 23.5, 23.25, 23.1875, 23.25, 23.375, 23.5, 23.4375, 23.375, 23.25, 23.125, 23.0625, 23, 23, 23, 23, 22.9375, 22.9375, 22.9375, 22.9375, 23, 22.875, 22.75, 22.5625, 22.3125, 22.25, 22.375, 22.5625, 22.5625, 22.5, 22.25, 22, 22, 22.0625, 22.0625, 22.0625, 22.0625, 22, 22, 22, 22, 21.9375, 21.875, 21.6875, 21.6875, 21.75, 21.6875, 21.75, 21.5625, 21.3125, 21.3125, 21.25, 21.1875, 21.1875, 21.0625, 21, 21, 21, 21, 21, 21, 21, 20.9375, 20.9375, 20.9375, 20.875, 20.8125, 20.625, 20.375, 20.1875, 20.1875, 20.3125, 20.357143, 20.25, 20.1875, 20, 20, 20, 20, 20, 20, 20, 20, 20, 20, 20, 19.75, 19.625, 19.4375, 19.25, 19.3125, 19.1875, 19.125, 19.0625, 19.125, 19.25, 19.25, 19.25, 19.125, 19, 19, 19, 18.9375, 18.875, 18.875, 18.875, 18.9375, 19, 18.9375, 18.875, 18.8125, 18.75, 18.6875, 18.5, 18.3125, 18.125, 18, 18, 18, 18, 18, 18, 18, 18, 18, 18, -10, -10, -10, -10, -10, -10, -10, -10, -10, -10, -10, -10, -10, -10, -10, -10, -10, -10, -10, -10, -10, -10, -10, -10, -10, -10, 36.25, 36.049999, 35.767857, 35.642857, 35.375, 35, 34.330357, 34.178574, 33.9375, 34.0625, 34.0625, 34, 33.9375, 33.8125, 33.6875, 33.4375, 33.25, 33.1875, 33.0625, 33.0625, 33.0625, 33, 33, 33, 33, 33, 33, 33, 33, 33, 32.9375, 32.8125, 32.625, 32.5625, 32.5, 32.5, 32.625, 32.4375, 32.3125, 32.1875, 32, 32, 32, 32, 32, 32, 32, 32, 32, 32, 32, 31.9375, 31.875, 31.8125, 31.625, 31.4375, 31.375, 31.3125, 31.4375, 31.5625, 31.4375, 31.3125, 31.125, 31.0625, 31.0625, 31.0625, 30.9375, 30.895832, -10, -10, -10, -10, -10, -10, -10, -10, -10, -10, -10, -10, -10, -10, -10, -10, -10, -10, -10, -10, -10, -10, -10, -10, -10, -10, -10, -10, -10, -10, -10, -10, -10, -10, -10, -10, -10, -10, -10, -10, -10, -10, -10, -10, -10, -10, -10, 82.25, 82.333328, 82.375, 82.625, 82.75, 82.875, 83.0625, 83.0625, 83.0625, 83.0625, 83, 82.875, 82.875, 82.875, 82.8125, 82.875, 82.75, 82.625, 82.6875, 82.625, 82.6875, 82.508926, 81.452377, 80.309525, 79.43367, 78.343544, 77.397957, 75.59523, 74.875, -10, -10, -10, -10, -10, -10, -10, -10, -10, -10, -10, -10, -10, -10, -10, -10, -10, -10, -10, -10, -10, -10, -10, -10, -10, -10, -10, -10, -10, -10, -10, -10, -10, -10, -10, 48, 48.111111, 48.6875, 49.066666, -10, -10, -10, -10, -10, -10, 25.166666, 25.166666, 25.125, 25.1875, 25.1875, 25.125, 25.125, 25.0625, 25, 25, 24.9375, 24.9375, 24.9375, 24.9375, 25, 25, 25, 25, 25, 24.8125, 24.625, 24.375, 24.125, 24.0625, 24, 24, 24.0625, 24.0625, 24.0625, 24.0625, 24, 24, 24, 23.9375, 23.8125, 23.625, 23.375, 23.25, 23.25, 23.25, 23.375, 23.5, 23.5, 23.5, 23.375, 23.1875, 23.0625, 23, 23, 23, 23, 22.9375, 22.9375, 22.9375, 22.9375, 23, 22.8125, 22.625, 22.4375, 22.25, 22.3125, 22.5, 22.6875, 22.625, 22.5, 22.25, 22, 22, 22.0625, 22.0625, 22.0625, 22.0625, 22, 22, 22, 22, 21.9375, 21.875, 21.625, 21.625, 21.6875, 21.625, 21.75, 21.5625, 21.3125, 21.3125, 21.25, 21.1875, 21.1875, 21.0625, 21, 21, 21, 21, 21, 21, 21, 21, 21, 21, 20.9375, 20.8125, 20.6875, 20.4375, 20.25, 20.25, 20.375, 20.419643, 20.3125, 20.25, 20, 20, 20, 20, 20, 20, 19.9375, 19.875, 19.875, 19.875, 19.9375, 19.75, 19.6875, 19.5, 19.3125, 19.3125, 19.125, 19.0625, 19, 19.0625, 19.125, 19.125, 19.125, 19.0625, 19, 19, 19, 18.9375, 18.875, 18.875, 18.875, 18.9375, 19, 19, 18.9375, 18.875, 18.8125, 18.6875, 18.5, 18.3125, 18.125, 18, 18, 18, 18
-10, -10, -10, -10, -10, -10, -10, -10, -10, -10, -10, -10, -10, -10, -10, -10, -10, -10, -10, -10, 36.125, 35.966667, 35.642857, 35.580357, 35.4375, 35.125, 34.455357, 34.133926, 33.875, 33.9375, 34, 34, 34, 33.875, 33.6875, 33.4375, 33.1875, 33.125, 33.0625, 33.0625, 33.0625, 33, 33, 33.0625, 33.0625, 33.0625, 33.0625, 33, 33, 33, 33, 32.9375, 32.75, 32.625, 32.5, 32.4375, 32.5625, 32.5, 32.4375, 32.3125, 32.125, 32.0625, 32, 32, 32, 32, 32, 32, 32, 32, 31.9375, 31.8125, 31.75, 31.6875, 31.5, 31.375, 31.25, 31.125, 31.25, 31.375, 31.375, 31.3125, 31.1875, 31.125, 31.0625, 31.0625, 30.9375, 30.833332, -10, -10, -10, -10, -10, -10, -10, -10, -10, -10, -10, -10, -10, -10, -10, -10, -10, -10, -10, -10, -10, -10, -10, -10, -10, -10, -10, -10, -10, -10, -10, -10, -10, -10, -10, -10, -10, -10, -10, -10, -10, -10, -10, -10, -10, -10, -10, 82.5, 82.55555, 82.464287, 82.708336, 82.75, 83, 83.125, 83.1875, 83.1875, 83.125, 83.0625, 82.875, 82.875, 82.875, 82.75, 82.8125, 82.75, 82.6875, 82.8125, 82.75, 82.6875, 82.517853, 81.571426, 79.958328, 79.178574, 77.961311, 76.979164, 75.84523, 75.375, -10, -10, -10, -10, -10, -10, -10, -10, -10, -10, -10, -10, -10, -10, -10, -10, -10, -10, -10, -10, -10, -10, -10, -10, -10, -10, -10, -10, -10, -10, -10, -10, -10, -10, -10, -10, -10, 49.099998, 49.279999, -10, -10, -10, -10, -10, -10, -10, 25, 25, 25.083334, 25.125, 25.125, 25.125, 25.0625, 25, 25, 24.9375, 24.9375, 24.9375, 24.9375, 25, 25, 25, 25, 25, 24.875, 24.625, 24.375, 24.125, 24, 24, 24, 24, 24, 24, 24, 24, 24, 24, 23.9375, 23.8125, 23.6875, 23.5, 23.4375, 23.5, 23.375, 23.375, 23.375, 23.25, 23.25, 23.1875, 23.0625, 23, 23, 23, 23, 23, 22.9375, 22.9375, 22.9375, 22.9375, 23, 22.8125, 22.5625, 22.4375, 22.25, 22.3125, 22.5625, 22.6875, 22.625, 22.5, 22.25, 22, 22, 22.0625, 22.0625, 22.0625, 22.0625, 22, 22, 21.9375, 21.875, 21.875, 21.875, 21.75, 21.8125, 21.8125, 21.6875, 21.75, 21.5, 21.25, 21.25, 21.1875, 21.1875, 21.1875, 21.0625, 21, 21, 21, 21, 21, 21, 21, 21, 21, 21, 21, 20.9375, 20.875, 20.625, 20.375, 20.25, 20.25, 20.375, 20.4375, 20.375, 20.1875, 20.0625, 20, 20, 20, 20, 19.875, 19.75, 19.75, 19.75, 19.875, 19.8125, 19.8125, 19.625, 19.4375, 19.375, 19.125, 19.125, 19.125, 19.125, 19.125, 19.0625, 19, 19, 19, 19, 19, 19, 19, 19, 19, 19, 19, 19, 18.9375, 18.84375, 18.71875, 18.53125, 18.34375, 18.1875, 18.0625, 18, 18, 18, 18, 18, 18, 18, 18, 18, 18, -10, -10, -10, -10, -10, -10, -10, -10, -10, -10, -10, -10, -10, -10, -10, -10, -10, -10, -10, -10, -10, -10, -10, -10, -10, 36, 36, 35.916668, 35.6875, 35.625, 35.5, 35.1875, 34.663689, 34.258926, 34, 33.9375, 34, 34, 34, 33.8125, 33.5625, 33.3125, 33.0625, 33, 33, 33, 33, 33, 33, 33.125, 33.125, 33.125, 33.125, 33, 33, 33, 33, 33, 32.875, 32.75, 32.625, 32.4375, 32.4375, 32.4375, 32.4375, 32.375, 32.25, 32.1875, 32.0625, 32.0625, 32.0625, 32, 32, 32, 32, 32, 31.9375, 31.8125, 31.75, 31.6875, 31.5, 31.375, 31.25, 31.0625, 31.125, 31.1875, 31.1875, 31.1875, 31.125, 31.125, 31.0625, 31, 30.8125, 30.708332, -10, -10, -10, -10, -10, -10, -10, -10, -10, -10, -10, -10, -10, -10, -10, -10, -10, -10, -10, -10, -10, -10, -10, -10, -10, -10, -10, -10, -10, -10, -10, -10, -10, -10, -10, -10, -10, -10, -10, -10, -10, -10, -10, -10, -10, -10, 82, 82.375, 82.541664, 82.651787, 82.875, 82.9375, 83.1875, 83.3125, 83.4375, 83.4375, 83.3125, 83.1875, 83, 82.910713, 82.767853, 82.571426, 82.5625, 82.625, 82.75, 83.044647, 82.982147, 82.666664, 82.446426, 81.883926, 80.285713, 79.5, 78.651787, 77.633926, 76.75, 76.132141, 76.75, -10, -10, -10, -10, -10, -10, -10, -10, -10, -10, -10, -10, -10, -10, -10, -10, -10, -10, -10, -10, -10, -10, -10, -10, -10, -10, -10, -10, -10, -10, -10, -10, -10, -10, -10, -10, -10, -10, -10, -10, -10, -10, -10, -10, -10, -10, -10, -10, 25.166666, 25.375, 25.291666, 25.1875, 25.0625, 25, 24.9375, 24.9375, 24.9375, 24.9375, 25, 25, 25, 25, 25, 24.9375, 24.75, 24.5, 24.25, 24.0625, 24, 24, 24, 24, 24, 24, 24, 24, 24, 23.9375, 23.8125, 23.75, 23.625, 23.625, 23.75, 23.625, 23.5625, 23.4375, 23.3125, 23.25, 23.1875, 23.125, 23, 23, 23, 23, 23, 23, 23, 23, 23, 23, 22.875, 22.6875, 22.5625, 22.375, 22.4375, 22.625, 22.75, 22.6875, 22.5, 22.25, 22, 22, 22, 22, 22, 22, 22, 22, 21.875, 21.75, 21.75, 21.6875, 21.6875, 21.8125, 21.8125, 21.75, 21.75, 21.5, 21.25, 21.1875, 21.125, 21.125, 21.125, 21.0625, 21, 21, 21, 21, 21, 21, 21, 21, 21, 21, 21, 20.9375, 20.875, 20.6875, 20.5, 20.375, 20.375, 20.4375, 20.5, 20.5, 20.3125, 20.1875, 20.0625, 20, 20, 20, 19.875, 19.75, 19.75, 19.75, 19.875, 19.875, 19.875, 19.6875, 19.5, 19.4375, 19.25, 19.3125, 19.3125, 19.25, 19.1875, 19.0625, 19, 19, 19, 19, 19, 19, 19, 19, 19, 19, 19, 19, 18.9375, 18.90625, 18.78125, 18.59375, 18.40625, 18.1875, 18.125, 18.0625, 18.0625, 18.0625, 18
-10, -10, -10, -10, -10, -10, -10, -10, -10, -10, -10, -10, -10, -10, -10, -10, -10, -10, -10, 36, 36, 36, 35.75, 35.6875, 35.5, 35.1875, 34.892857, 34.455357, 34.1875, 34, 34, 34, 33.9375, 33.6875, 33.5, 33.25, 33.0625, 33.0625, 33, 33, 33, 33, 33, 33.125, 33.125, 33.125, 33.125, 33, 33, 32.9375, 32.875, 32.8125, 32.6875, 32.5625, 32.5, 32.375, 32.3125, 32.375, 32.375, 32.3125, 32.25, 32.1875, 32.0625, 32.0625, 32.0625, 32, 32, 32, 32, 32, 31.875, 31.75, 31.75, 31.75, 31.625, 31.5, 31.25, 31, 31, 31.0625, 31.1875, 31.1875, 31.267857, 31.3125, 31.071428, 31.008928, 30.8125, 30.791666, 30.982143, 31.541668, -10, -10, -10, -10, -10, -10, -10, -10, -10, -10, -10, -10, -10, -10, -10, -10, -10, -10, -10, -10, -10, -10, -10, -10, -10, -10, -10, -10, -10, -10, -10, -10, -10, -10, -10, -10, -10, -10, -10, -10, -10, -10, 81.833328, 81.916672, 82.083336, 82.375, 82.613091, 82.839287, 83, 83.125, 83.3125, 83.5, 83.6875, 83.6875, 83.5, 83.3125, 83.0625, 82.785713, 82.54464, 82.383926, 82.348213, 82.517853, 82.928574, 83.294647, 83.357147, 82.979164, 82.342262, 81.8125, 80.897957, 80.306114, 79.647957, 78.807823, 77.918358, 76.967857, 77.033333, -10, -10, -10, -10, -10, -10, -10, -10, -10, -10, -10, -10, -10, -10, -10, -10, -10, -10, -10, -10, -10, -10, -10, -10, -10, -10, -10, -10, -10, -10, -10, -10, -10, -10, -10, -10, -10, -10, -10, -10, -10, -10, -10, -10, -10, -10, -10, -10, -10, 25.333334, 25.416666, 25.291666, 25.1875, 25.0625, 24.9375, 24.9375, 24.9375, 24.9375, 25, 25, 24.9375, 24.875, 24.8125, 24.75, 24.625, 24.4375, 24.25, 24.0625, 24, 24, 24, 24, 24, 24, 24, 24, 24, 23.9375, 23.875, 23.875, 23.8125, 23.875, 23.9375, 23.8125, 23.75, 23.5625, 23.5, 23.375, 23.25, 23.1875, 23.0625, 23.125, 23.125, 23.125, 23.0625, 23, 23, 23, 23, 23, 22.9375, 22.75, 22.625, 22.4375, 22.4375, 22.625, 22.75, 22.75, 22.5625, 22.3125, 22.0625, 22, 22, 22, 22, 22, 22, 22, 21.875, 21.75, 21.75, 21.625, 21.6875, 21.8125, 21.8125, 21.875, 21.8125, 21.5625, 21.3125, 21.125, 21, 21, 21, 21, 21, 21, 21, 21, 21, 21, 21, 21, 21, 21, 21, 20.9375, 20.875, 20.75, 20.625, 20.5, 20.4375, 20.4375, 20.4375, 20.4375, 20.3125, 20.1875, 20.0625, 20, 20, 20, 19.875, 19.75, 19.75, 19.75, 19.8125, 19.8125, 19.8125, 19.625, 19.5, 19.5, 19.375, 19.4375, 19.5, 19.375, 19.25, 19.125, 19, 19, 19, 19, 19, 19, 19, 19, 19, 19, 19, 19, 19, 18.96875, 18.84375, 18.65625, 18.40625, 18.1875, 18.1875, 18.125, 18.125, 18.125, 18, 18, 18, 18, 18, 18, 18, -10, -10, -10, -10, -10, -10, -10, -10, -10, -10, -10, -10, -10, -10, -10, -10, -10, -10, -10, -10, -10, -10, -10, -10, -10, -10, 36.083332, 35.950001, 35.8125, 35.6875, 35.5625, 35.3125, 35.0625, 34.580357, 34.3125, 34.0625, 34, 34, 33.9375, 33.6875, 33.5, 33.25, 33.0625, 33.0625, 33, 33, 33, 33.0625, 33.125, 33.25, 33.25, 33.1875, 33.125, 33, 33, 33, 33, 32.9375, 32.8125, 32.580357, 32.5625, 32.4375, 32.3125, 32.375, 32.375, 32.3125, 32.3125, 32.25, 32.125, 32.125, 32.125, 32.0625, 32, 32, 32, 31.9375, 31.75, 31.625, 31.625, 31.6875, 31.625, 31.5, 31.25, 31, 31, 31.0625, 31.258928, 31.4375, 31.517857, 31.625, 31.258928, 31.133928, 30.9375, 30.875, 30.988096, 31.361113, -10, -10, -10, -10, -10, -10, -10, -10, -10, -10, -10, -10, -10, -10, -10, -10, -10, -10, -10, -10, -10, -10, -10, -10, -10, -10, -10, -10, -10, -10, -10, -10, -10, -10, -10, -10, -10, -10, -10, -10, -10, 82.5, 81.888885, 81.94445, 82.0625, 82.25, 82.446426, 82.714287, 82.875, 83.0625, 83.375, 83.5625, 83.75, 83.6875, 83.25, 83.0625, 82.8125, 82.598213, 82.41964, 82.383926, 82.410713, 82.705353, 83.178574, 83.544647, 83.669647, 83.291664, 82.654762, 82.241074, 81.497025, 80.928566, 80.653061, 79.819725, 79.040817, 77.982147, 77.275002, -10, -10, -10, -10, -10, -10, -10, -10, -10, -10, -10, -10, -10, -10, -10, -10, -10, -10, -10, -10, -10, -10, -10, -10, -10, -10, -10, -10, -10, -10, -10, -10, -10, -10, -10, -10, -10, -10, -10, -10, -10, -10, -10, -10, -10, -10, -10, -10, -10, -10, 25.555555, 25.388887, 25.3125, 25.145834, 25.0625, 25, 25, 25, 25, 25, 24.9375, 24.8125, 24.6875, 24.5625, 24.4375, 24.3125, 24.1875, 24.0625, 24, 24, 24, 24, 24, 24, 24, 24, 24, 24, 24, 24.0625, 24.035713, 23.892857, 23.821428, 23.6875, 23.625, 23.4375, 23.4375, 23.3125, 23.1875, 23.1875, 23.0625, 23.1875, 23.25, 23.25, 23.1875, 23.0625, 23, 23, 23, 23, 23, 22.8125, 22.625, 22.375, 22.25, 22.375, 22.5625, 22.6875, 22.5625, 22.375, 22.125, 22, 22, 22, 22, 22, 22, 22, 21.875, 21.75, 21.75, 21.5625, 21.625, 21.75, 21.75, 21.875, 21.8125, 21.5625, 21.3125, 21.125, 21, 21.0625, 21.0625, 21.0625, 21.0625, 21, 21, 21, 21, 21, 21, 21, 21, 21, 21, 20.9375, 20.875, 20.8125, 20.6875, 20.5625, 20.4375, 20.375, 20.375, 20.375, 20.3125, 20.1875, 20.0625, 20, 20, 20, 19.9375, 19.875, 19.875, 19.875, 19.875, 19.875, 19.875, 19.75, 19.6875, 19.6875, 19.6875, 19.723213, 19.714287, 19.5625, 19.3125, 19.1875, 19, 19, 19, 19, 19, 19, 19, 19, 19, 19, 18.9375, 18.875, 18.8125, 18.71875, 18.65625, 18.53125, 18.34375, 18.1875, 18.25, 18.1875, 18.1875, 18.25, 18.125
-10, -10, -10, -10, -10, -10, -10, -10, -10, -10, -10, -10, -10, -10, -10, -10, -10, -10, -10, -10, 35.761906, 35.700001, 35.696426, 35.6875, 35.553574, 35.104168, 34.892857, 34.5, 34.3125, 34.125, 34, 34, 33.9375, 33.6875, 33.5, 33.3125, 33.1875, 33.1875, 33.125, 33.0625, 33, 33.0625, 33.125, 33.1875, 33.1875, 33.125, 33.0625, 33, 33, 33, 32.9375, 32.875, 32.75, 32.580357, 32.6875, 32.5625, 32.4375, 32.375, 32.25, 32.1875, 32.1875, 32.1875, 32.125, 32.125, 32.125, 32.0625, 32, 32, 32, 31.9375, 31.8125, 31.75, 31.75, 31.75, 31.625, 31.4375, 31.25, 31.125, 31.125, 31.125, 31.196428, 31.375, 31.517857, 31.6875, 31.446428, 31.321428, 31.125, 31.125, 30.988096, 31.361113, -10, -10, -10, -10, -10, -10, -10, -10, -10, -10, -10, -10, -10, -10, -10, -10, -10, -10, -10, -10, -10, -10, -10, -10, -10, -10, -10, -10, -10, -10, -10, -10, -10, -10, -10, -10, -10, -10, 82.416672, 82.291672, 82.125, 82.333336, 81.916664, 81.958336, 81.9375, 82, 82.258926, 82.625, 82.8125, 83.125, 83.375, 83.5, 83.625, 83.5, 83, 82.8125, 82.5, 82.285713, 82.16964, 82.375, 82.714287, 83.1875, 83.741074, 84.107147, 84.169647, 83.791664, 83.029762, 82.598213, 82.20536, 81.535713, 81.232147, 80.508926, 80.071426, 79.14286, 78.013092, 77.857147, 77.142853, -10, -10, -10, -10, -10, -10, -10, -10, -10, -10, -10, -10, -10, -10, -10, -10, -10, -10, -10, -10, -10, -10, -10, -10, -10, -10, -10, -10, -10, -10, -10, -10, -10, -10, -10, -10, -10, -10, -10, -10, -10, -10, -10, -10, -10, -10, -10, -10, -10, -10, 25.416666, 25.194445, 25.083334, 25.125, 25.083334, 25, 24.964287, 24.9375, 24.8125, 24.75, 24.625, 24.5, 24.4375, 24.3125, 24.1875, 24.0625, 24, 24, 24, 24, 24, 24, 24, 24, 24, 24, 24, 24, 23.910713, 23.705357, 23.571428, 23.5, 23.5625, 23.5, 23.5625, 23.4375, 23.25, 23.25, 23.125, 23.25, 23.3125, 23.25, 23.1875, 23.0625, 23, 23, 23, 23, 23, 22.875, 22.6875, 22.4375, 22.3125, 22.3125, 22.4375, 22.625, 22.5625, 22.4375, 22.25, 22.0625, 22, 22.0625, 22.0625, 22.0625, 22.0625, 22, 21.9375, 21.875, 21.875, 21.6875, 21.625, 21.6875, 21.6875, 21.8125, 21.8125, 21.625, 21.4375, 21.3125, 21.1875, 21.1875, 21.125, 21.0625, 21.0625, 21, 21, 21, 21, 21, 21, 21, 21, 21, 21, 20.9375, 20.875, 20.875, 20.8125, 20.6875, 20.5625, 20.375, 20.25, 20.25, 20.25, 20.25, 20.25, 20.1875, 20.125, 20.0625, 20.0625, 20.125, 20.125, 20.125, 20, 19.875, 19.875, 19.8125, 19.8125, 19.875, 19.9375, 19.910713, 19.839287, 19.75, 19.5625, 19.5625, 19.285715, 19.428572, 19.166666, 19.071428, 19, 19, 19, 19, 19, 19, 18.9375, 18.875, 18.919643, 18.952379, 19, 18.964285, 18.785715, 18.625, 18.660715, 18.723213, 18.512501, 18.678572, 18.553572, 18.625, 18.625, 18.5625, 18.5, 18.4375, 18.416668, -10, -10, -10, -10, -10, -10, -10, -10, -10, -10, -10, -10, -10, -10, -10, -10, -10, -10, -10, -10, -10, -10, -10, -10, -10, -10, 34.611111, 35.283333, 35.446426, 35.607143, 35.553574, 35.104168, 34.857143, 34.5, 34.3125, 34.1875, 34, 34, 33.9375, 33.6875, 33.5, 33.375, 33.3125, 33.375, 33.3125, 33.1875, 33.0625, 33.0625, 33.125, 33.125, 33.125, 33.0625, 33, 33, 33.0625, 33.0625, 33, 32.875, 32.625, 32.392857, 32.4375, 32.375, 32.3125, 32.3125, 32.1875, 32.125, 32.125, 32.125, 32.1875, 32.1875, 32.1875, 32.1875, 32.0625, 32.0625, 32.0625, 31.9375, 31.8125, 31.75, 31.75, 31.75, 31.625, 31.5, 31.375, 31.3125, 31.375, 31.303572, 31.113094, 31.196428, 31.339285, 31.770834, 31.625, 31.633928, 31.333334, 31.333334, -10, -10, -10, -10, -10, -10, -10, -10, -10, -10, -10, -10, -10, -10, -10, -10, -10, -10, -10, -10, -10, -10, -10, -10, -10, -10, -10, -10, -10, -10, -10, -10, -10, -10, -10, -10, -10, -10, -10, 82.5, 82.416672, 82.19445, 81.950005, 81.916664, 81.809525, 81.8125, 81.919647, 81.9375, 82.133926, 82.5, 82.6875, 83, 83.25, 83.3125, 83.375, 83.1875, 82.625, 82.401787, 82, 81.8125, 81.991074, 82.720238, 83.39286, 83.96875, 84.397324, 84.59375, 84.59375, 84.375, 83.645836, 83.098213, 82.491074, 81.857147, 81.6875, 81.1875, 80.714287, 80.132652, 78.792854, 78.333336, 77.523804, 76.785713, 76.066666, -10, -10, -10, -10, -10, -10, -10, -10, -10, -10, -10, -10, -10, -10, -10, -10, -10, -10, -10, -10, -10, -10, -10, -10, -10, -10, -10, -10, -10, -10, -10, -10, -10, -10, -10, -10, -10, -10, -10, -10, -10, -10, -10, -10, -10, -10, -10, -10, -10, -10, -10, 25.166666, 25.083334, 25, 24.964287, 24.9375, 24.8125, 24.75, 24.625, 24.5, 24.375, 24.25, 24.125, 24, 24, 24, 24, 24, 24, 24, 24, 24, 24, 24, 24, 23.9375, 23.848213, 23.642857, 23.508928, 23.5, 23.5, 23.4375, 23.4375, 23.3125, 23.1875, 23.1875, 23.125, 23.25, 23.3125, 23.25, 23.1875, 23.0625, 23, 22.9375, 22.9375, 22.9375, 22.9375, 22.875, 22.75, 22.5, 22.3125, 22.25, 22.25, 22.5, 22.5, 22.5, 22.375, 22.125, 22.0625, 22.0625, 22.0625, 22.0625, 22.0625, 22, 22, 22, 22, 21.875, 21.75, 21.75, 21.75, 21.875, 21.9375, 21.8125, 21.6875, 21.5625, 21.4375, 21.4375, 21.3125, 21.1875, 21.125, 21, 21, 21, 21, 21, 21, 20.9375, 20.875, 20.875, 20.875, 20.9375, 21, 21, 20.9375, 20.75, 20.5, 20.3125, 20.1875, 20.1875, 20.3125, 20.375, 20.5, 20.473213, 20.267857, 20.205357, 20.1875, 20.3125, 20.375, 20.375, 20.25, 20.125, 20.125, 20.0625, 20.0625, 20.0625, 20.0625, 19.973213, 19.964287, 20, 19.9375, 20.125, 20.416666, 20.053572, 19.773809, 19.535713, 19.285715, 19.375, 19.4375, 19.357143, 19.25, 19.428572, 19.214285, 19.214285, 19.301022, 20.190475, 20.5, 20.541666, 20.416666, 20.333334, 20.291666, 19.589285, 19.200001, 19.303572, 19.178572
-10, -10, -10, -10, -10, -10, -10, -10, -10, -10, -10, -10, -10, -10, -10, -10, -10, -10, -10, -10, 34.523811, 35.238094, 35.550594, 35.732143, 35.678574, 35.166668, 34.919643, 34.5625, 34.375, 34.25, 34.0625, 34, 34, 33.75, 33.5, 33.375, 33.3125, 33.375, 33.375, 33.25, 33.0625, 33.0625, 33.1875, 33.1875, 33.1875, 33.125, 33, 33, 33.125, 33.1875, 33.1875, 33.0625, 32.75, 32.455357, 32.375, 32.25, 32.1875, 32.1875, 32.125, 32.125, 32.125, 32.1875, 32.25, 32.25, 32.25, 32.1875, 32.0625, 32.0625, 32.0625, 31.9375, 31.875, 31.8125, 31.8125, 31.8125, 31.625, 31.5625, 31.4375, 31.375, 31.4375, 31.241072, 30.925594, 30.967262, 31.261904, 31.694445, 31.738096, 31.75, -10, -10, -10, -10, -10, -10, -10, -10, -10, -10, -10, -10, -10, -10, -10, -10, -10, -10, -10, -10, -10, -10, -10, -10, -10, -10, -10, -10, -10, -10, -10, -10, -10, -10, -10, -10, -10, -10, -10, -10, -10, -10, -10, 82.19445, 81.950005, 81.166664, 81.226189, 81.3125, 81.544647, 81.6875, 81.875, 82.125, 82.375, 82.6875, 83, 83, 82.9375, 82.580353, 82.0625, 81.964287, 81.857147, 82, 82.401787, 83.255951, 84.357147, 85.040176, 85.254463, 85.236603, 85.03125, 84.75, 84.3125, 83.73214, 83, 82.321426, 82.125, 81.6875, 81.392853, 80.723213, 79.877548, 78.821426, 77.767853, 77.095238, 76.461113, 75.773811, 74.866669, -10, -10, -10, -10, -10, -10, -10, -10, -10, -10, -10, -10, -10, -10, -10, -10, -10, -10, -10, -10, -10, -10, -10, -10, -10, -10, -10, -10, -10, -10, -10, -10, -10, 41, 41, -10, -10, -10, -10, -10, -10, -10, -10, -10, -10, -10, -10, -10, -10, -10, 25.083334, 25, 24.964287, 24.9375, 24.875, 24.875, 24.8125, 24.75, 24.625, 24.5, 24.3125, 24.125, 24.0625, 24, 24, 24, 24, 24, 24, 24, 24, 24, 24, 23.9375, 23.848213, 23.642857, 23.446428, 23.375, 23.34375, 23.34375, 23.40625, 23.40625, 23.3125, 23.25, 23.125, 23.125, 23.1875, 23.125, 23.125, 23.0625, 23, 22.9375, 22.9375, 22.9375, 22.9375, 22.9375, 22.875, 22.6875, 22.5625, 22.375, 22.3125, 22.5, 22.5, 22.625, 22.5625, 22.3125, 22.1875, 22.125, 22.0625, 22.0625, 22.0625, 22, 22, 22, 22, 21.9375, 21.75, 21.75, 21.75, 21.8125, 22, 21.9375, 21.875, 21.8125, 21.6875, 21.6875, 21.625, 21.5, 21.4375, 21.3125, 21.25, 21.25, 21.25, 21.3125, 21.375, 21.178572, 21.142857, 21.142857, 21.142857, 21.178572, 21.4375, 21.375, 21.25, 21.0625, 20.839287, 20.857143, 20.794643, 20.8125, 20.875, 20.875, 21, 20.973213, 20.767857, 20.705357, 20.6875, 20.8125, 20.875, 20.9375, 20.875, 20.8125, 20.8125, 20.6875, 20.6875, 20.428572, 20.418367, 20.452381, 20.348215, 20.375, 20.4375, 20.892857, 21, 21.061224, 20.741497, 20.285713, 20.666666, 20.0625, 20.125, 19.982143, 19.8125, 19.991072, 20.375, 20.583334, 20.821428, 21.15476, 21.321428, 21.392857, 21.285715, 21.178572, 21.071428, 20.852039, 20.335714, 20.346939, 20.204082, 20.357143, 20.357143, 20.321428, 20.297619, 19.583334, -10, -10, -10, -10, -10, -10, -10, -10, -10, -10, -10, -10, -10, -10, -10, -10, -10, -10, -10, -10, -10, -10, -10, -10, -10, -10, -10, 34.666668, 35.495239, 35.425594, 35.669643, 35.553574, 35.104168, 34.857143, 34.5625, 34.4375, 34.3125, 34.1875, 34.0625, 33.9375, 33.6875, 33.4375, 33.25, 33.25, 33.3125, 33.3125, 33.25, 33.0625, 33, 33, 33.026787, 33.098213, 33.0625, 33.0625, 33, 33.125, 33.125, 33.0625, 32.875, 32.5625, 32.375, 32.25, 32.1875, 32.125, 32.125, 32.0625, 32.0625, 32.0625, 32.1875, 32.25, 32.25, 32.25, 32.125, 32.0625, 32.0625, 32.125, 32.125, 32.125, 32.125, 32.0625, 31.875, 31.625, 31.5, 31.375, 31.446428, 31.6875, 31.553572, 31.071428, 30.623016, -10, -10, -10, -10, -10, -10, -10, -10, -10, -10, -10, -10, -10, -10, -10, -10, -10, -10, -10, -10, -10, -10, -10, -10, -10, -10, -10, -10, -10, -10, -10, -10, -10, -10, -10, -10, -10, -10, -10, -10, -10, -10, -10, -10, -10, -10, -10, -10, -10, 80.666664, 80.892853, 81.112503, 81.294647, 81.5, 81.625, 81.8125, 82, 82.3125, 82.5, 82.5, 82.4375, 82.142853, 82, 82.14286, 82.276787, 82.285713, 82.292519, 83.088432, 84.357147, 85.556129, 86.312248, 85.879456, 85.602676, 85.3125, 84.9375, 84.330353, 83.535713, 82.85714, 82.4375, 82.125, 81.8125, 81.258926, 80.517853, 79.918358, 78.580353, 77.64286, 76.917267, 76.277779, 75.434929, 75.666672, -10, -10, -10, -10, -10, -10, -10, -10, -10, -10, -10, -10, -10, -10, -10, -10, -10, -10, -10, -10, -10, -10, -10, -10, -10, -10, -10, -10, -10, -10, -10, -10, 41, 41, 41, 41, -10, -10, -10, -10, -10, -10, -10, -10, -10, -10, -10, -10, -10, 25.111113, 25, 24.952383, 24.9375, 24.791666, 24.8125, 24.8125, 24.8125, 24.8125, 24.75, 24.5, 24.25, 24.125, 24, 24, 24, 24, 24, 24, 24, 24, 24, 24, 23.875, 23.8125, 23.75, 23.625, 23.625, 23.59375, 23.59375, 23.59375, 23.59375, 23.5, 23.375, 23.25, 23.125, 23.0625, 23, 23, 23, 23, 22.9375, 22.9375, 22.9375, 22.9375, 23, 23, 22.875, 22.8125, 22.625, 22.5, 22.6875, 22.6875, 22.8125, 22.8125, 22.5625, 22.4375, 22.375, 22.375, 22.3125, 22.104166, 22, 21.9375, 22, 22.0625, 22.125, 22.0625, 22.125, 22.125, 22.125, 22.25, 22.1875, 22.1875, 22.1875, 22.0625, 22.0625, 21.9375, 21.8125, 21.875, 21.919643, 21.875, 21.875, 21.8125, 21.8125, 21.875, 22.035715, 22.25, 22.333334, 22.333334, 22.107143, 22, 21.90625, 21.90625, 21.90625, 21.477041, 22.086735, 22.010204, 21.928572, 21.892857, 21.6875, 21.75, 21.723213, 21.580357, 21.580357, 21.357143, 21.5, 21.583334, 21.616072, 21.75, 21.826529, 21.857143, 21.714285, 21.642857, 21.875, 21.809525, 21.166666, 21.133928, 20.928572, 21.375, 21.6875, 21.785713, 21.696428, 21.585035, 21.36735, 21.666668, 21.561224, 21.291666, 21.101191, 20.875, 21.154762, 21.226191, 21.514286, 21.811224, 22.010416, 22.21875, 22.28125, 22.1875, 22.03125, 21.96875, 21.776785, 21.542858, 20.949406, 20.758928
-10, -10, -10, -10, -10, -10, -10, -10, -10, -10, -10, -10, -10, -10, -10, -10, -10, -10, -10, -10, 35.42857, 35.599998, 35.604168, 35.669643, 35.5, 35.1875, 34.839287, 34.625, 34.4375, 34.3125, 34.25, 34.0625, 33.9375, 33.6875, 33.4375, 33.1875, 33.125, 33.1875, 33.25, 33.3125, 33.1875, 33.125, 33.0625, 33.026787, 33.098213, 33.0625, 33.0625, 33, 33.125, 33.125, 33.125, 32.9375, 32.625, 32.4375, 32.25, 32.25, 32.25, 32.3125, 32.3125, 32.25, 32.25, 32.375, 32.375, 32.375, 32.3125, 32.125, 32.0625, 32.0625, 32.125, 32.125, 32.0625, 32, 31.9375, 31.75, 31.5625, 31.5, 31.383928, 31.654762, 31.991072, 31.928572, 31.625, -10, -10, -10, -10, -10, -10, -10, -10, -10, -10, -10, -10, -10, -10, -10, -10, -10, -10, -10, -10, -10, -10, -10, -10, -10, -10, -10, -10, -10, -10, -10, -10, -10, -10, -10, -10, -10, -10, -10, -10, -10, -10, -10, -10, -10, -10, -10, -10, -10, -10, -10, 80.392853, 80.695831, 80.982147, 81.357147, 81.4375, 81.5625, 81.625, 81.8125, 81.9375, 81.9375, 81.875, 81.714279, 82, 82.366074, 82.589287, 82.160713, 81.574829, 81.492058, 82.119049, 84.92347, 85.756119, 85.862244, 85.638397, 85.625, 85.3125, 84.8125, 84.035713, 83.41964, 82.770836, 82.208336, 81.75, 81.3125, 80.696426, 80.080353, 79.133926, 78.469383, 77.610123, 76.976189, 76.101364, 75.968254, -10, -10, -10, -10, -10, -10, -10, -10, -10, -10, -10, -10, -10, -10, -10, -10, -10, -10, -10, -10, -10, -10, -10, -10, -10, -10, -10, -10, -10, -10, -10, -10, -10, 41, 41, 41, 40.875, -10, -10, -10, -10, -10, -10, -10, -10, -10, -10, -10, -10, -10, -10, -10, 24.75, 24.666666, 24.625, 24.6875, 24.75, 24.75, 24.75, 24.5, 24.25, 24.125, 24, 24, 24, 24, 24, 24, 24, 24, 24, 24, 23.9375, 23.9375, 23.9375, 23.875, 23.875, 23.78125, 23.71875, 23.71875, 23.78125, 23.8125, 23.75, 23.6875, 23.5, 23.375, 23.3125, 23.25, 23.25, 23.25, 23.1875, 23.1875, 23.1875, 23.1875, 23.25, 23.25, 23.1875, 23.125, 23, 23, 23.125, 23.1875, 23.3125, 23.25, 23.0625, 22.9375, 22.8125, 22.8125, 22.75, 22.541666, 22.321428, 22.214285, 22.208334, 22.241072, 22.25, 22.3125, 22.4375, 22.4375, 22.4375, 22.5, 22.375, 22.3125, 22.330357, 22.458334, 22.544643, 22.5, 22.455357, 22.625, 22.908163, 22.928572, 22.857143, 22.785715, 22.785715, 22.857143, 22.892857, 23, 23.142857, 23.214285, 23.25, 23.285715, 23.178572, 23.178572, 23.25, 23.476191, 23.37245, 23.260204, 23.107143, 22.857143, 22.7449, 22.669643, 22.642857, 22.867346, 22.867346, 23.166666, 23.291666, 22.583334, 22.382654, 22.607143, 22.704082, 22.734694, 22.607143, 22.642857, 22.75, 22.765306, 22.619047, 22.545918, 22.75, 22.535715, 22.678572, 22.598213, 22.642857, 22.275511, 22.112244, 22.880953, 22.775511, 23, 22.904762, 22.708334, 22.910715, 22.994049, 22.521429, 22.78125, 22.96875, 23.03125, 23, 22.875, 22.6875, 22.65625, 22.584822, 22.464285, 21.927084, 21.484694, 21.571428, 21.666666, -10, -10, -10, -10, -10, -10, -10, -10, -10, -10, -10, -10, -10, -10, -10, -10, -10, -10, -10, -10, -10, -10, -10, -10, -10, -10, -10, -10, -10, -10, 35.75, 36.01667, 35.854168, 35.6875, 35.4375, 35.125, 34.875, 34.6875, 34.5, 34.3125, 34.25, 34.0625, 33.9375, 33.75, 33.5625, 33.3125, 33.1875, 33.1875, 33.25, 33.375, 33.3125, 33.25, 33.125, 33.026787, 33.098213, 33.0625, 33.0625, 33, 33.0625, 33.0625, 33.0625, 32.9375, 32.75, 32.625, 32.4375, 32.375, 32.375, 32.375, 32.4375, 32.375, 32.3125, 32.375, 32.25, 32.25, 32.1875, 32, 32, 32, 32.0625, 32.125, 32, 31.875, 31.75, 31.5, 31.375, 31.3125, 31.261904, 31.623016, 31.988096, 32.25, -10, -10, -10, -10, -10, -10, -10, -10, -10, -10, -10, -10, -10, -10, -10, -10, -10, -10, -10, -10, -10, -10, -10, -10, -10, -10, -10, -10, -10, -10, -10, -10, -10, -10, -10, -10, -10, -10, -10, -10, -10, -10, -10, -10, -10, -10, -10, -10, -10, -10, -10, -10, 80.25, 80.508331, 80.625, 80.919647, 81, 81.0625, 81.125, 81.3125, 81.375, 81.508926, 81.574997, 81.3125, 81.6875, 82.244896, 82.56633, 81.879463, 81.044212, 80.755104, 81.214287, 82.087303, 84.014282, 85.285713, 85.809532, 85.833336, 85.5, 85.083336, 84.464287, 83.901787, 83.172623, 82.208336, 81.770836, 81.5, 81, 80.617348, 79.744896, 79.166664, 78.526787, 77.8125, 76.931549, 76.476189, 76.767853, 75.916672, -10, -10, -10, -10, -10, -10, -10, -10, -10, -10, -10, -10, -10, -10, -10, -10, -10, -10, -10, -10, -10, -10, -10, -10, -10, -10, -10, -10, -10, -10, -10, 41, 41, 41, 40.875, 40.6875, 40.520836, -10, -10, -10, -10, -10, -10, -10, -10, -10, -10, -10, -10, -10, 24.75, 24.666666, 24.625, 24.6875, 24.75, 24.8125, 24.9375, 24.8125, 24.571428, 24.428572, 24.208334, 24.178572, 24.1875, 24.25, 24.25, 24.357143, 24.1875, 24.214287, 24.25, 24.357143, 24.4375, 24.4375, 24.375, 24.25, 24.125, 24.15625, 24.21875, 24.34375, 24.53125, 24.5625, 24.5, 24.4375, 24.25, 24.125, 24.0625, 23.714285, 23.714285, 23.714285, 23.9375, 23.875, 23.8125, 23.75, 23.6875, 23.6875, 23.6875, 23.75, 23.8125, 23.875, 23.9375, 23.875, 23.901787, 23.982143, 23.857143, 23.75, 23.625, 23.785715, 23.642857, 23.333332, 23.583334, 23.541666, 22.727892, 22.811224, 22.821428, 22.857143, 22.964285, 22.928572, 23.125, 23.035713, 22.416666, 22.169643, 22.080357, 22.380953, 22.540817, 22.8125, 23.044643, 23.375, 23.544643, 23.785715, 23.642857, 23.663265, 23.645834, 23.732143, 23.8125, 23.875, 23.9375, 24.0625, 24.321428, 24.392857, 24.321428, 24.285715, 24.321428, 24.301022, 24.418367, 24.306124, 24.214285, 23.8125, 23.651787, 23.979593, 23.908163, 23.928572, 23.928572, 24.071428, 24.142857, 23.809525, 24.077383, 23.87245, 23.553572, 23.580357, 23.5, 23.571428, 23.775, 23.669643, 23.809525, 23.683674, 23.714285, 23.75, 23.7551, 23.75, 23.734694, 23.797617, 23.880951, 23.880953, 23.811224, 23.75, 23.714285, 23.678572, 23.943878, 24.066328, 23.881634, 24.053572, 24.053572, 23.84375, 23.75, 23.5625, 23.4375, 23.441963, 23.46875, 23.34375, 23.202381, 23.386904
-10, -10, -10, -10, -10, -10, -10, -10, -10, -10, -10, -10, -10, -10, -10, -10, -10, -10, -10, -10, 36, 35.916668, 35.75, 35.5625, 35.3125, 35.0625, 34.875, 34.6875, 34.4375, 34.214287, 34.125, 34, 33.9375, 33.8125, 33.6875, 33.5, 33.375, 33.375, 33.4375, 33.491074, 33.229168, 33.142857, 32.9375, 32.901787, 33.035713, 33, 33.0625, 33, 33, 33, 32.9375, 32.875, 32.8125, 32.6875, 32.5625, 32.4375, 32.4375, 32.5, 32.5625, 32.5, 32.375, 32.375, 32.25, 32.25, 32.1875, 32, 32, 32, 32.0625, 32.125, 31.9375, 31.8125, 31.625, 31.333334, 31.25, 31.166666, -10, -10, -10, -10, -10, -10, -10, -10, -10, -10, -10, -10, -10, -10, -10, -10, -10, -10, -10, -10, -10, -10, -10, -10, -10, -10, -10, -10, -10, -10, -10, -10, -10, -10, -10, -10, -10, -10, -10, -10, -10, -10, -10, -10, -10, -10, -10, -10, -10, -10, -10, -10, -10, -10, -10, -10, 80.166664, 80.383331, 80.4375, 80.741074, 81.020836, 81.044647, 81.0625, 81.0625, 81, 81.196426, 81.298218, 81.133926, 81.5625, 81.39286, 81.404762, 80.984688, 80.538689, 80.142853, 80.416664, 81.133339, -10, -10, -10, -10, 85.8125, 85.479172, 85.049103, 84.4375, 83.672623, 82.488098, 82.199409, 81.791664, 81.653061, 81.464287, 80.979599, 79.988091, 79.39286, 78.526779, 78.030617, 77.288689, 77.035713, 76.277779, 76.033333, -10, -10, -10, -10, -10, -10, -10, -10, -10, -10, -10, -10, -10, -10, -10, -10, -10, -10, -10, -10, -10, -10, -10, -10, -10, -10, -10, -10, -10, -10, -10, 41, 41, 41.006248, 40.924999, 40.458332, 40.297619, -10, -10, -10, -10, -10, -10, -10, -10, -10, -10, -10, -10, 24.875, 24.833332, 24.910713, 24.985714, 25.178572, 25.071428, 25.3125, 25.25, 25.5, 25.428572, 24.666668, 24.632654, 24.607143, 24.875, 24.8125, 24.857143, 24.6875, 24.776787, 24.875, 24.982143, 25.0625, 25, 24.9375, 24.9375, 24.9375, 25.0625, 25.0625, 25.0625, 25.285715, 25.285715, 25.321428, 25.357143, 25.25, 25.214285, 25.214285, 25.416666, 25.416666, 25.333334, 24.928572, 24.714285, 24.642857, 24.571428, 24.40625, 24.53125, 24.59375, 24.928572, 25.035715, 25.035715, 25.071428, 24.8125, 24.839287, 25.158163, 25.051022, 24.928572, 24.785715, 24.5, 24.3125, 24.238094, 24.214285, 24.25, 24.49008, 24.785715, 24.958334, 24.940475, 24.638887, 24.555555, 24.270834, 23.952379, 22.666666, 22.13393, 22.008928, 22.444445, 22.84524, 23.392857, 23.919643, 24.25, 24.419643, 24.5625, 24.4375, 24.455357, 24.809525, 24.836735, 24.857143, 24.857143, 24.6875, 25.035715, 25.178572, 25.321428, 25.303572, 25.339285, 25.21875, 25.21875, 25.25, 25.089287, 25.142857, 24.964285, 24.852041, 24.979593, 24.908163, 24.625, 24.625, 24.8125, 24.982143, 24.976192, 25.030613, 24.943878, 24.683672, 24.698978, 24.75, 24.867346, 25.02857, 24.928572, 24.928572, 24.5625, 24.857143, 24.857143, 24.598213, 24.5625, 24.795918, 24.683672, 24.7551, 24.645834, 24.616072, 24.5625, 24.625, 24.6875, 24.982143, 25.151787, 25.195919, 25.214285, 25.071428, 24.821428, 24.53125, 24.375, 24.5, 24.379463, 24.5, 24.392857, 24.154764, 24.153061, 23.799999, 23.933334, -10, -10, -10, -10, -10, -10, -10, -10, -10, -10, -10, -10, -10, -10, -10, -10, -10, -10, -10, -10, -10, -10, -10, -10, -10, -10, -10, -10, -10, -10, 36, 36, 35.8125, 35.5625, 35.3125, 35, 34.875, 34.678574, 34.166668, 33.982143, 33.875, 33.875, 34, 33.9375, 33.875, 33.8125, 33.6875, 33.6875, 33.6875, 33.553574, 33.193455, 33.080357, 32.9375, 32.9375, 33, 33, 33, 33, 33, 33, 32.9375, 32.9375, 32.9375, 32.8125, 32.6875, 32.5625, 32.5625, 32.6875, 32.75, 32.625, 32.4375, 32.3125, 32.1875, 32.1875, 32.1875, 32.0625, 32.0625, 32.0625, 32, 32, 31.8125, 31.6875, 31.5625, 31.194445, -10, -10, -10, -10, -10, -10, -10, -10, -10, -10, -10, -10, -10, -10, -10, -10, -10, -10, -10, -10, -10, -10, -10, -10, -10, -10, -10, -10, -10, -10, -10, -10, -10, -10, -10, -10, -10, -10, -10, -10, -10, -10, -10, -10, -10, -10, -10, -10, -10, -10, -10, -10, -10, -10, -10, -10, -10, -10, 81, 81.013603, 80.880943, 81.122444, 81.452385, 81.418373, 81.633926, 81.428574, 81.104164, 81.205353, 81.378571, 81.462585, 81.833336, 81.440475, 81.333328, 80.635414, 80.276787, 80, -10, -10, -10, -10, -10, -10, 86.0625, 85.76667, 85.40625, 84.875, 84.172623, 83.484123, 82.666672, 82.221085, 81.918373, 81.709183, 81.479599, 80.761902, 80.5, 79.323975, 78.716835, 78.091835, 77.547623, 76.75, 76.133331, -10, -10, -10, -10, -10, -10, -10, -10, -10, -10, -10, -10, -10, -10, -10, -10, -10, -10, -10, -10, -10, -10, -10, -10, -10, -10, -10, -10, -10, -10, -10, -10, 41, 41.17292, 41.34375, 40.84375, 40.53175, 40.599998, -10, -10, -10, -10, -10, -10, -10, -10, -10, -10, -10, 25, 25.216665, 25.993198, 26.770239, 26.418367, 26.666666, 26.214285, 26.25, 26.428572, 26.357143, 26.305557, 26.202383, 26.041666, 25.857143, 25.785715, 25.836735, 25.571428, 25.704082, 25.979593, 26.102041, 26.142857, 26, 26.051022, 26.051022, 26.071428, 26.142857, 26.071428, 26.071428, 26.178572, 26, 26.0625, 26.125, 26, 25.9375, 26.178572, 26.214285, 26.214285, 26.142857, 25.928572, 25.4375, 25.3125, 25.25, 25.34375, 25.87245, 25.964285, 26.071428, 26.107143, 26, 25.928572, 25.857143, 25.887756, 25.943878, 25.943878, 25.857143, 25.714285, 25.4375, 25.3125, 25.125, 25.125, 25.25, 25.603743, 25.852041, 25.964285, 25.841837, 25.619047, 25.547619, 25.666668, 25.302721, 23.261904, 22.653063, 22.474489, 23.805557, 24.408163, 24.952383, 25.010204, 25, 25.205357, 25.4375, 25.5, 25.591837, 25.428572, 25.428572, 25.428572, 25.375, 25.4375, 25.625, 25.8125, 25.9375, 26, 26, 26, 25.9375, 26, 25.875, 25.8125, 25.928572, 25.908163, 25.825893, 25.763393, 25.65625, 25.53125, 25.625, 25.857143, 26.142857, 26.0625, 25.919643, 25.867346, 25.867346, 25.928572, 26.045918, 26.171429, 25.964285, 25.6875, 25.5625, 25.6875, 25.6875, 25.826529, 25.589287, 25.625, 25.5625, 25.625, 25.5, 25.5, 25.428572, 25.5, 25.678572, 26.015306, 26.214285, 26.183672, 26.071428, 25.75, 25.4375, 25.34375, 25.392857, 25.357143, 25.3801, 25.339285, 25.09375, 25.09375, 24.928572
-10, -10, -10, -10, -10, -10, -10, -10, -10, -10, -10, -10, -10, -10, -10, -10, -10, -10, -10, -10, 36, 36, 35.8125, 35.625, 35.4375, 35.1875, 35.1875, 34.875, 34.145836, 33.919643, 33.75, 33.875, 34, 34, 34, 34, 33.9375, 33.9375, 33.8125, 33.553574, 33.130955, 32.955357, 32.875, 33, 33.0625, 33.0625, 33.0625, 33, 33, 33, 32.9375, 32.9375, 32.9375, 32.8125, 32.625, 32.5, 32.5, 32.625, 32.6875, 32.625, 32.375, 32.1875, 32.125, 32.0625, 32.125, 32.0625, 32.0625, 32.0625, 32.0625, 32.125, 32.041668, 31.75, 31.583334, -10, -10, -10, -10, -10, -10, -10, -10, -10, -10, -10, -10, -10, -10, -10, -10, -10, -10, -10, -10, -10, -10, -10, -10, -10, -10, -10, -10, -10, -10, -10, -10, -10, -10, -10, -10, -10, -10, -10, -10, -10, -10, -10, -10, -10, -10, -10, -10, -10, -10, -10, -10, -10, -10, -10, -10, -10, -10, 87.5, 84.888885, 84.523811, 83.333336, 83.142853, 83.025795, 82.708336, 82.377548, 81.928574, 81.666664, 81.591835, 81.861221, 83.05555, 83.277779, 82.550003, 81.78231, 81.464287, 80.178566, 80, -10, -10, -10, -10, -10, -10, 86.375, 86.041672, 85.572914, 85.133926, 84.589287, 84.081627, 83.270836, 82.773804, 82.491074, 82.214287, 81.982147, 81.291664, 80.916069, 80.916664, 80.625, 80.23214, 78.485123, 77.778915, 76.662498, 76.14286, 75.142853, 73.976189, 73.214279, 72.733337, -10, -10, -10, -10, -10, -10, -10, -10, -10, -10, -10, -10, -10, -10, -10, -10, -10, -10, -10, -10, -10, -10, -10, -10, -10, -10, -10, -10, 41.313892, 41.90625, 41.34375, 40.961311, 41.019047, -10, -10, -10, -10, -10, -10, -10, -10, -10, -10, -10, 25.333334, 25.622223, 27.136057, 27.576872, 27.418367, 27.428572, 27.25, 27.357143, 27.3125, 27.25, 27.333332, 27.244898, 26.875, 26.833334, 27.035715, 26.763393, 26.785715, 26.831633, 27.051022, 27.112246, 26.875, 26.75, 26.794643, 27.015306, 27, 27, 26.71875, 26.71875, 26.84375, 26.875, 26.875, 26.9375, 26.9375, 26.9375, 27, 27, 26.96875, 26.96875, 26.78125, 26.53125, 26.3125, 26.125, 26.428572, 26.765306, 27, 27.142857, 26.96875, 26.84375, 26.78125, 26.5, 26.530613, 26.561224, 26.741072, 26.625, 26.5, 26.642857, 26.535715, 26.357143, 26.357143, 26.678572, 26.757441, 26.739584, 26.834822, 26.642857, 26.65476, 26.761904, 26.886053, 26.52721, 25.861113, 25.380953, 25.285713, 25.638887, 25.642857, 25.959185, 26.091837, 25.875, 26.37755, 26.642857, 26.484694, 26.530611, 26.125, 25.964285, 26, 26.25, 26.1875, 26.25, 26.375, 26.5625, 26.6875, 26.75, 26.75, 27, 26.785713, 26.651787, 26.75, 26.794643, 26.8125, 26.90625, 27.071428, 26.892857, 26.821428, 26.857143, 26.979593, 27.071428, 27.142857, 27.107143, 27.035715, 27.107143, 27.178572, 27.183674, 26.9625, 26.928572, 26.785715, 26.678572, 26.785715, 26.821428, 26.806122, 26.765306, 26.714285, 26.678572, 26.785715, 26.5625, 26.178572, 26.375, 26.458334, 26.666666, 26.982143, 27.125, 27, 26.75, 26.589287, 26.375, 26.133928, 26.071428, 26, 26.035713, 26, 26.0625, 26.020834, 26, -10, -10, -10, -10, -10, -10, -10, -10, -10, -10, -10, -10, -10, -10, -10, -10, -10, -10, -10, -10, -10, -10, -10, -10, -10, -10, -10, -10, -10, -10, -10, -10, 36, 35.9375, 35.75, 35.5625, 35.375, 35.1875, 35.1875, 34.875, 34.145836, 33.919643, 33.75, 33.875, 34, 34, 34, 34, 34, 34, 33.8125, 33.491074, 33.005955, 32.830357, 32.8125, 33, 33.0625, 33.0625, 33.0625, 33, 33, 33, 32.9375, 32.9375, 32.9375, 32.8125, 32.625, 32.5, 32.5, 32.625, 32.6875, 32.6875, 32.5, 32.3125, 32.25, 32.125, 32.0625, 32, 32.0625, 32.241074, 32.491074, 32.674999, 32.138889, -10, -10, -10, -10, -10, -10, -10, -10, -10, -10, -10, -10, -10, -10, -10, -10, -10, -10, -10, -10, -10, -10, -10, -10, -10, -10, -10, -10, -10, -10, -10, -10, -10, -10, -10, -10, -10, -10, -10, -10, -10, -10, -10, -10, -10, -10, -10, -10, -10, -10, -10, -10, -10, -10, -10, -10, -10, -10, -10, -10, 87.611115, 86.369041, 85.984695, 84.821426, 84.551018, 84.231285, 83.428574, 82.875, 82.491074, 82.476189, 82.839287, 83.35714, 84.088432, 84.585037, 84.492859, 84.726196, 85.708336, 88.854172, 89.349998, -10, -10, -10, -10, -10, -10, 86.875, 86.541672, 86.072914, 85.651779, 85.1875, 84.758926, 84.125, 83.34523, 82.8125, 82.33036, 82.209824, 81.78125, 81.634819, 81.75, 81.596939, 81.219383, 79.581627, 78.761902, 77.5625, 77.180954, 76.333336, 74.317459, 73.523804, 73.044441, -10, -10, -10, -10, -10, -10, -10, -10, -10, -10, -10, -10, -10, -10, -10, -10, -10, -10, -10, -10, -10, -10, -10, -10, -10, -10, -10, -10, -10, 42.5, 42.333336, 41.705357, 41.407143, 42.033333, -10, -10, -10, -10, -10, -10, -10, -10, -10, -10, -10, -10, 28.38492, 28.481632, 28.311224, 28.285715, 28.291666, 28.571428, 28.413265, 28.25, 28.0625, 28, 28.291666, 28.25, 28.071428, 28.035715, 27.964285, 27.959185, 27.919643, 27.919643, 27.875, 27.75, 27.794643, 27.794643, 27.75, 27.71875, 27.59375, 27.53125, 27.65625, 27.928572, 28, 28.142857, 28.071428, 28.035715, 28, 27.75, 27.71875, 27.78125, 27.862244, 27.637756, 27.5, 27.214285, 27.15625, 27.450893, 27.65625, 27.8125, 27.90625, 27.982143, 27.982143, 28.458334, 28.416666, 28.020407, 27.696428, 27.5, 27.642857, 27.678572, 27.642857, 27.535715, 27.642857, 27.964285, 28.082483, 27.677084, 27.709822, 27.455357, 27.523809, 27.59524, 27.494047, 27.482996, 27.163265, 27.102041, 27.081633, 27.333332, 27.132654, 27.066328, 26.848213, 26.875, 27.341837, 27.642857, 27.392857, 27.392857, 27.041666, 27.224489, 27.416666, 27, 27, 27.0625, 27.1875, 27.375, 27.4375, 27.5, 27.5625, 27.625, 27.598213, 27.526787, 27.75, 27.765306, 27.928572, 28.035715, 28.107143, 28.071428, 28.071428, 28.071428, 27.857143, 27.9375, 28, 28.25, 28.214285, 28.214285, 28.178572, 28.071428, 27.8125, 27.6875, 27.5625, 27.714285, 27.785715, 27.785715, 27.785715, 27.785715, 27.714285, 27.714285, 27.785715, 27.785715, 28, 28, 28.041666, 28.125, 28.107143, 28.0625, 28, 27.75, 27.651787, 27.75, 26.938776, 27.196428, 26.892857, 26.8125, 26.75, 27.107143, 27.214285, -10
-10, -10, -10, -10, -10, -10, -10, -10, -10, -10, -10, -10, -10, -10, -10, -10, -10, -10, -10, 36, 36.083332, 36.0625, 35.919643, 35.604168, 35.383926, 35.1875, 35.1875, 34.875, 34.208336, 34.017857, 33.8125, 33.9375, 34, 33.9375, 33.9375, 33.9375, 33.9375, 34, 33.8125, 33.5625, 33.339287, 33.125, 33.0625, 33.125, 33.0625, 33.0625, 33.0625, 33, 33, 33, 33, 33, 33, 32.9375, 32.75, 32.6875, 32.6875, 32.6875, 32.75, 32.75, 32.5625, 32.375, 32.25, 32.0625, 32, 32.0625, 32.25, 32.598213, 32.991074, 33.438091, -10, -10, -10, -10, -10, -10, -10, -10, -10, -10, -10, -10, -10, -10, -10, -10, -10, -10, -10, -10, -10, -10, -10, -10, -10, -10, -10, -10, -10, -10, -10, -10, -10, -10, -10, -10, -10, 99.75, 99.75, 99.928574, 100.25, 100.44643, 100.625, 100.33334, -10, -10, -10, -10, -10, -10, -10, -10, -10, -10, -10, -10, -10, -10, -10, -10, 87.875, 87.583336, 87.416664, 86.98661, 86.15477, 85.877548, 85.285713, 84.188774, 83.785713, 83.346939, 83.119041, 83.82653, 84.285713, 85.156456, 85.989799, 86.654762, 87.111115, 88.656738, 89.152779, 89.566673, -10, -10, -10, -10, -10, -10, 87.5625, 87.208336, 86.666664, 86.214279, 85.705353, 85.196426, 84.508926, 83.892853, 83.3125, 82.622025, 82.53125, 82.21875, 82.206253, 82.334824, 82.272324, 81.928574, 80.270836, 79.541664, 78.77211, 77.605446, 76.666672, 74.529762, 73.75, 73.283333, -10, -10, -10, -10, -10, -10, -10, -10, -10, -10, -10, -10, -10, -10, -10, -10, -10, -10, -10, -10, -10, -10, -10, -10, -10, -10, -10, -10, -10, 42.900002, 42.833332, 42.581631, 42, 42.022221, -10, -10, -10, -10, -10, -10, -10, -10, -10, -10, -10, -10, 29.833334, 30.214287, 30.208334, 30.083334, 29.958334, 29.678572, 29.267857, 29.125, 29, 28.9375, 29.142857, 29.071428, 29.107143, 29.035715, 29, 28.943878, 28.989796, 28.989796, 28.964285, 28.928572, 28.846939, 28.607143, 28.5, 28.40625, 28.607143, 28.607143, 28.785715, 28.75, 29.071428, 29.285715, 29.321428, 29.204082, 28.833332, 28.663265, 28.607143, 28.821428, 28.862244, 28.7449, 28.642857, 28.357143, 28.1875, 28.294643, 28.375, 28.5, 28.821428, 28.857143, 28.964285, 29.178572, 29.178572, 29.020407, 28.903061, 28.75, 28.607143, 28.642857, 28.642857, 28.607143, 28.821428, 29.071428, 29.115646, 28.84524, 28.739796, 28.25, 28.3125, 28.4375, 28.302719, 28.209185, 28.244898, 28.765306, 28.729593, 28.642857, 28.37755, 28.265306, 27.612244, 28.214285, 28.205357, 28.5, 28.734694, 28.806122, 28.277777, 28.261904, 28.178572, 28.171429, 28.25, 28.204082, 28.392857, 28.607143, 28.5, 28.482143, 28.291666, 28.258928, 28.223213, 28.276787, 28.4375, 28.544643, 28.75, 28.96875, 29.09375, 29.216837, 29.170918, 29.035715, 28.928572, 28.8125, 28.875, 29.178572, 29.214285, 29.214285, 28.9375, 28.8125, 28.8125, 28.6875, 28.857143, 28.785715, 28.5625, 28.5625, 28.5625, 28.625, 28.857143, 28.666666, 28.75, 28.773809, 28.693878, 28.653061, 28.952381, 29.015306, 29.142857, 29.142857, 29.071428, 28.892857, 28.852041, 28.857143, 28.797617, 28.510204, 28.198978, 28.107143, 28.107143, 28.285715, 27.583334, -10, -10, -10, -10, -10, -10, -10, -10, -10, -10, -10, -10, -10, -10, -10, -10, -10, -10, -10, -10, -10, -10, -10, -10, -10, -10, -10, -10, -10, -10, -10, -10, 36, 36.333332, 36.3125, 36.169643, 35.791668, 35.464287, 35.25, 35.125, 34.821426, 34.354168, 34.125, 33.9375, 34, 33.9375, 33.8125, 33.8125, 33.8125, 33.875, 34, 33.875, 33.75, 33.625, 33.4375, 33.3125, 33.25, 33.125, 33.125, 33.1875, 33.1875, 33.25, 33.1875, 33.125, 33.0625, 33, 33, 32.875, 32.75, 32.75, 32.625, 32.625, 32.6875, 32.5, 32.375, 32.25, 32.125, 32.0625, 32.166668, 32.25, 32.714283, 33.32143, 33.677776, -10, -10, -10, -10, -10, -10, -10, -10, -10, -10, -10, -10, -10, -10, -10, -10, -10, -10, -10, -10, -10, -10, -10, -10, -10, -10, -10, -10, -10, -10, -10, -10, -10, 98.166672, 98.25, 98.625, 98.964287, 99.75, 99.916664, 100.11905, 100.41666, 100.63095, 100.75, -10, -10, -10, -10, -10, -10, -10, -10, -10, -10, -10, -10, -10, -10, -10, -10, -10, 88.083336, 87.958336, 87.55555, 87.172615, 86.402779, 86.371429, 86.285713, 85.757935, 85.452385, 85.083336, 84.916664, 84.85714, 85.160713, 85.775513, 87.258507, 87.989799, 88.571426, 88.992554, 89.364586, 89.706253, -10, -10, -10, -10, 89.583328, 89.309525, 88.214287, 87.733337, 87.380943, 86.714279, 86.3125, 85.696426, 85.116074, 84.553574, 84.017853, 83.407738, 82.989586, 82.665176, 82.518753, 82.741074, 82.678574, 82.136902, 80.785713, 80.125, 79.688774, 78.369041, 77.005951, 75.172615, 74.285721, 73.804169, -10, -10, -10, -10, -10, -10, -10, -10, -10, -10, -10, -10, -10, -10, -10, -10, -10, -10, -10, -10, -10, -10, -10, -10, -10, -10, -10, -10, -10, 43.57143, 43.564625, 43.234692, 42.714287, 42.349998, 42.333336, -10, -10, -10, -10, -10, -10, -10, -10, -10, -10, -10, -10, 31.166666, 31.135714, 30.933672, 30.785715, 30.678572, 30.484694, 30.464285, 30.321428, 30.321428, 30.0625, 29.9375, 29.96875, 29.96875, 29.75, 29.933037, 29.642857, 29.875, 29.916666, 30.142857, 29.6875, 29.5625, 29.607143, 29.589285, 29.660715, 29.589285, 29.696428, 29.785715, 29.928572, 30.178572, 30.214285, 30.132654, 29.604166, 29.455357, 29.40625, 29.59375, 29.629463, 29.558037, 29.714285, 29.5, 29.571428, 29.5, 29.071428, 29.25, 29.428572, 29.535715, 29.857143, 29.830357, 29.830357, 29.705357, 29.633928, 29.785715, 29.4375, 29.4375, 29.375, 29.3125, 29.46875, 29.625, 29.708334, 29.761906, 29.709185, 29.5, 29.464285, 29.4375, 30.176588, 30.101191, 30.119047, 29.908163, 29.729593, 29.607143, 29.341837, 29.25, 29.5, 29.551022, 29.75, 29.928572, 29.938776, 29.938776, 30.083334, 30, 29.892859, 29.257143, 29.551022, 29.525511, 29.607143, 29.714285, 29.821428, 29.836735, 29.15476, 29.117346, 29.040815, 29.339287, 29.4375, 29.544643, 29.6875, 30.107143, 30.25, 30.163265, 29.946428, 29.8125, 30, 30, 30, 30.107143, 29.9375, 29.910713, 29.776787, 29.6875, 29.821428, 29.857143, 29.928572, 29.928572, 29.928572, 29.928572, 29.857143, 29.857143, 29.857143, 30.25, 30.375, 29.770834, 29.443878, 29.367346, 29.833334, 29.732143, 29.75, 29.75, 29.75, 30.051022, 30.051022, 30, 29.7551, 29.806122, 29.544218, 29.357143, 28.700001, 28.85, -10, -10
