-10, -10, -10, -10, -10, -10, -10, -10, -10, -10, -10, -10, -10, -10, -10, -10, -10, -10, -10, -10, -10, -10, 57.875, 57.666668, 57.5625, 57.071426, 56.434525, 56.1875, 55.6875, 55.5625, 55.3125, 55.0625, 55.0625, 55, 54.866074, 54.5, 54.1875, 53.830357, 53.892857, 54.190475, 53.973213, 53.145836, 52.665176, 52.15625, 51.986607, 51.90625, 51.660713, 51.392857, 51.196426, 50.8125, 50.6875, 50.4375, 49.9375, 49.535713, 49.25, 48.875, 48.678574, 48.479168, 48.142857, 47.568455, 47.241074, 46.857143, 46.541668, 46.517857, 46.285713, 45.857143, 45.684525, 44.550594, 44.303574, 44, 44, 44.0625, 43.928574, 43.625, 43.4375, 43.111607, 43.15625, 43.09375, 42.96875, 42.767857, 42.625, 42.232143, 41.583336, 41.071426, 40.4375, 40.1875, 39.875, 39.8125, 39.5625, 39.375, 39.1875, 38.9375, 38.8125, 38.625, 38.375, 38.125, 37.732143, 37.223213, 37, 36.875, 36.875, 36.875, 36.616074, 35.979168, 35.48214, 35.1875, 34.8125, 34.5625, 34.3125, 34, 33.75, 33.5, 33.3125, 33.125, 32.9375, 32.6875, 32.375, 32.125, 31.78125, 31.53125, 31.21875, 30.78125, 30.5, 30.375, 30.169643, 29.767857, 29.464285, 29.125, 28.8125, 28.5625, 28.1875, 27.705357, 27.375, 27.0625, 26.75, 26.5, 26.25, 25.875, 25.5625, 25.3125, 24.9375, 24.75, 24.5, 24.178572, 23.645834, 23.479166, 23.348213, 23.1875, 23.125, 22.875, 22.625, 22.375, 22, 21.5625, 21.3125, 21.0625, 20.875, 20.625, 20.375, 20.0625, 19.6875, 19.4375, 19.1875, 18.875, 18.625, 18.375, 18.053572, 17.5625, 17.375, 17, 16.625, 16.375, 16.125, 15.875, 15.6875, 15.375, 15.125, 14.875, 14.6875, 14.5, 14.25, 14, 13.75, 13.5, 13.0625, 12.723213, 12.6875, 12.6875, 12.875, 13, 13, 13, 13, 13, 13, 13, 13, 13, 13, 13, 13, 13.25, 13.4375, 13.5625, 13.625, 13.4375, 13.4375, 13.5, 13.6875, 13.875, 13.9375, 14, 14, 14, 14, 14, 14, 14, 14, 14.125, 14.3125, 14.375, 14.4375, 14.375, 14.375, 14.5625, 14.75, 14.8125, 14.875, 14.875, 14.875, 15, 15, 15, 15.0625, 15.125, 15.375, 15.5, 15.625, 15.625, 15.5625, 15.6875, 15.75, 15.8125, 15.625, 15.4375, 15.482143, 15.491072, 15.6875, 15.8125, 15.875, 15.75, 15.404762, 8.5714293, 8.125, 8, 7.6607141, 6.9791665, 6.5982141, 5.96875, 5.65625, 5.59375, 5.625, 5.875, 6, 6.125, 6.375, 6.625, 6.875, 6.875, 6.875, 7, 7.2142859, 7.375, 7.3571429, 7.0625, 7.1875, 7.4017859, 7.90625, 8.5848217, 9.2901783, 9.6875, 10.03125, 10.066964, 9.9955359, 10.0625, 10.169643, 10.375, 10.625, 10.75, 10.8125, 10.75, 10.5625, 10.267857, 10.09375, 9.90625, 9.9330359, 10.191964, 10.3125, 10.5, 10.625, 10.75, 10.875, 11.1875, 11.191964, 10.924107, 10.863094, 11.008928, 11.0625, 11.3125, 11.1875, 11.0625, 10.9375, 10.955357, 11.125, 11.285714, 11.339286, 11.46875, 11.65625, 11.65625, 11.71875, 11.8125, 12, 12.3125, 12.625, 12.8125, 12.875, 12.8125, 12.75, 12.821428, 13.142857, 13.708333, 13.928572, 14.276786, 14.767857, 15.526787, 15.875, 16.0625, 16, 16, 16, 16, 16.125, 16.3125, 16.544643, 16.625, 16.6875, 16.75, 16.71875, 16.8125, 17, 17.25, 17.919643, 18.397322, 19.142859, 19.75, 20.595238, 21.646427, 22.28125, 22.754463, 22.958334, -10, -10, -10, -10, -10, -10, -10, -10, -10, -10, -10, -10, -10, -10, -10, -10, -10, -10, -10, -10, -10, -10, -10, -10, -10, -10, -10, -10, -10, -10, -10, -10, -10, -10, -10, -10, -10, 58, 57.833332, 57.75, 57.321426, 56.476192, 56.196426, 55.678574, 55.4375, 55.25, 55, 55.0625, 55, 54.803574, 54.4375, 54.1875, 53.9375, 54, 54.107143, 53.973213, 53.416668, 52.957588, 52.421875, 52.064732, 51.921875, 51.660713, 51.392857, 51.196426, 50.875, 50.75, 50.5, 50, 49.535713, 49.25, 48.875, 48.678574, 48.354168, 47.98214, 47.497025, 47.25, 46.982143, 46.729168, 46.642857, 46.375, 46.026787, 45.863098, 44.791668, 44.345238, 44.008926, 44, 44, 43.732143, 43.25, 43.1875, 43.075893, 43.28125, 43.28125, 43.03125, 42.732143, 42.482143, 42.01786, 41.604168, 41.0625, 40.625, 40.348213, 39.955357, 39.883926, 39.625, 39.4375, 39.25, 39.0625, 39, 38.875, 38.625, 38.267857, 37.794643, 37.223213, 37, 36.875, 36.8125, 36.75, 36.491074, 35.854168, 35.464287, 35.125, 34.75, 34.5, 34.25, 34, 33.75, 33.5, 33.25, 33.0625, 32.8125, 32.5625, 32.3125, 32.0625, 31.78125, 31.53125, 31.21875, 30.78125, 30.5, 30.375, 30.169643, 29.767857, 29.464285, 29.1875, 28.9375, 28.6875, 28.25, 27.660713, 27.3125, 27, 26.8125, 26.5625, 26.3125, 26, 25.625, 25.375, 25.0625, 24.8125, 24.5625, 24.241072, 23.583334, 23.354166, 23.223213, 23.0625, 23, 22.75, 22.5, 22.1875, 21.875, 21.5, 21.25, 21.0625, 20.9375, 20.6875, 20.4375, 20.1875, 19.75, 19.5, 19.25, 18.866072, 18.416666, 18.133928, 17.803572, 17.375, 17.25, 16.875, 16.5625, 16.3125, 16.0625, 15.875, 15.6875, 15.4375, 15.1875, 14.9375, 14.75, 14.4375, 14.1875, 13.875, 13.5625, 13.375, 12.9375, 12.705357, 12.6875, 12.6875, 12.875, 13, 13, 13, 13, 13, 13, 13, 13, 13, 13, 13, 13, 13.1875, 13.3125, 13.375, 13.4375, 13.375, 13.4375, 13.5625, 13.75, 13.875, 13.9375, 14, 14, 14, 14, 14, 14, 14.0625, 14.125, 14.3125, 14.4375, 14.375, 14.3125, 14.125, 14.1875, 14.4375, 14.6875, 14.8125, 14.875, 14.875, 14.875, 15, 15, 15, 15.0625, 15.1875, 15.4375, 15.5625, 15.625, 15.5625, 15.4375, 15.5625, 15.6875, 15.8125, 15.8125, 15.625, 15.5625, 15.5, 15.625, 15.8125, 15.875, 16, 16.09375, 16.25, 8, 8, 7.7142859, 6.75, 6.3392859, 5.71875, 5.5044641, 5.53125, 5.625, 5.875, 6.03125, 6.21875, 6.46875, 6.71875, 6.9375, 6.875, 6.9375, 7.125, 7.4017859, 7.5625, 7.4196429, 7, 7.125, 7.3392859, 7.90625, 8.59375, 9.2901783, 9.65625, 9.96875, 9.9419641, 9.8705359, 9.96875, 10.169643, 10.5, 10.875, 11.125, 11.1875, 11.125, 10.8125, 10.455357, 10.25, 10, 10.089286, 10.285714, 10.4375, 10.6875, 10.75, 10.875, 10.9375, 11.1875, 11.102678, 10.691964, 10.654762, 10.883928, 11, 11.3125, 11.125, 11.0625, 10.9375, 10.955357, 11.125, 11.375, 11.5625, 11.71875, 11.90625, 11.84375, 11.90625
-10, -10, -10, -10, -10, -10, -10, -10, -10, -10, -10, -10, -10, -10, -10, -10, -10, -10, -10, -10, -10, -10, 58.125, 58, 57.875, 57.446426, 56.494049, 56.196426, 55.678574, 55.4375, 55.25, 55, 55.0625, 55, 54.803574, 54.4375, 54.25, 54, 54, 54, 53.9375, 53.6875, 53.234375, 52.627232, 52.127232, 51.859375, 51.5625, 51.375, 51.1875, 50.875, 50.6875, 50.375, 49.830357, 49.455357, 49.1875, 48.9375, 48.803574, 48.372025, 47.696426, 47.282738, 47.125, 47.044643, 46.854168, 46.705357, 46.339287, 46, 45.872025, 45.005955, 44.440479, 44.080353, 44, 44, 43.732143, 43.25, 43.1875, 43.075893, 43.28125, 43.21875, 42.90625, 42.607143, 42.294643, 41.901787, 41.75, 41.3125, 41, 40.714287, 40.122025, 39.955357, 39.6875, 39.5, 39.3125, 39.125, 39, 38.875, 38.625, 38.330357, 37.982143, 37.446426, 37.1875, 37, 36.75, 36.625, 36.375, 35.875, 35.455357, 35.017857, 34.625, 34.375, 34.1875, 34, 33.75, 33.5, 33.25, 33, 32.6875, 32.4375, 32.1875, 32, 31.75, 31.5, 31.1875, 30.6875, 30.4375, 30.25, 30.0625, 29.8125, 29.517857, 29.25, 29, 28.75, 28.375, 27.785713, 27.375, 27.125, 26.9375, 26.75, 26.5, 26.125, 25.6875, 25.4375, 25.169643, 24.830357, 24.633928, 24.366072, 23.770834, 23.479166, 23.285713, 23.0625, 22.875, 22.625, 22.375, 22, 21.75, 21.4375, 21.1875, 21.0625, 20.9375, 20.6875, 20.4375, 20.1875, 19.875, 19.6875, 19.5, 19.116072, 18.3125, 18.008928, 17.678572, 17.3125, 17.25, 16.875, 16.5625, 16.3125, 16.0625, 15.9375, 15.75, 15.5, 15.25, 14.875, 14.625, 14.25, 13.9375, 13.625, 13.3125, 13.1875, 12.8125, 12.6875, 12.625, 12.5625, 12.75, 12.875, 12.9375, 13, 13, 13, 13.0625, 13.125, 13.125, 13.125, 13.0625, 13, 13, 13.125, 13.1875, 13.25, 13.3125, 13.375, 13.5625, 13.6875, 13.8125, 13.875, 13.875, 13.9375, 14, 14, 13.9375, 13.9375, 14, 14.169643, 14.3125, 14.5, 14.5625, 14.5, 14.4375, 14.3125, 14.375, 14.5625, 14.75, 14.8125, 14.875, 14.875, 14.875, 15, 15, 15, 15.0625, 15.1875, 15.375, 15.5, 15.5, 15.375, 15.25, 15.3125, 15.5, 15.6875, 15.75, 15.5625, 15.5, 15.5, 15.625, 15.875, 15.9375, 16, 16.09375, 16.166666, 8, 8, 7.7142859, 6.5833335, 6.0803576, 5.53125, 5.4241071, 5.46875, 5.625, 5.875, 6, 6.3125, 6.5625, 6.8125, 7, 6.875, 6.9375, 7.125, 7.4017859, 7.5625, 7.4821429, 7, 7.0892859, 7.3392859, 7.90625, 8.59375, 9.2901783, 9.65625, 10, 10.035714, 9.9642859, 10, 10.125, 10.5, 10.982143, 11.25, 11.4375, 11.4375, 11.125, 10.830357, 10.5, 10.125, 10.151786, 10.348214, 10.5625, 10.9375, 11, 11.0625, 11.0625, 11.1875, 11.165178, 10.879464, 11.011905, 11.321428, 11.428572, 11.5625, 11.303572, 10.916667, 10.758928, 10.767857, 11.0625, 11.419643, 11.6875, 11.875, 12, 12, 12, 12, 12.1875, 12.4375, 12.6875, 12.8125, 12.875, 12.8125, 12.8125, 12.9375, 13.142857, 13.6875, 13.8125, 14.089286, 14.348214, 15.044643, 15.482143, 15.857143, 15.9375, 16, 15.9375, 15.75, 15.75, 15.8125, 15.982143, 16.258928, 16.5, 16.625, 16.75, 16.90625, 17.125, 17.375, 17.9375, 18.575893, 19.071428, 19.642857, 20.535713, 21.547619, 22.35268, 22.785713, 23, -10, -10, -10, -10, -10, -10, -10, -10, -10, -10, -10, -10, -10, -10, -10, -10, -10, -10, -10, -10, -10, -10, -10, -10, -10, -10, -10, -10, -10, -10, -10, -10, -10, -10, -10, -10, -10, 58.125, 58, 57.8125, 57.4375, 56.639881, 56.321426, 55.803574, 55.375, 55.151787, 55, 55.098213, 55.0625, 54.803574, 54.3125, 54.089287, 53.875, 54, 54.150002, 54, 53.741074, 53.296875, 52.814732, 52.359375, 52.109375, 51.75, 51.5, 51.25, 50.9375, 50.6875, 50.375, 49.830357, 49.4375, 49.1875, 48.9375, 48.741074, 48.122025, 47.339287, 47.053574, 46.8125, 46.75, 46.651787, 46.4375, 46.116074, 45.875, 45.642857, 45.139881, 44.645836, 44.267853, 44.125, 44.0625, 43.732143, 43.25, 43.1875, 43.075893, 43.28125, 43.15625, 42.84375, 42.544643, 42.232143, 41.964287, 41.803574, 41.3125, 41.285713, 40.776787, 40.247025, 40.017857, 39.75, 39.5625, 39.375, 39.1875, 39.0625, 38.9375, 38.6875, 38.392857, 38.044643, 37.508926, 37.25, 37.0625, 36.6875, 36.5, 36.25, 35.75, 35.4375, 34.955357, 34.5, 34.25, 34.0625, 33.9375, 33.75, 33.5, 33.25, 33, 32.6875, 32.375, 32.089287, 31.875, 31.625, 31.4375, 31.1875, 30.75, 30.5, 30.1875, 29.75, 29.5625, 29.3125, 29.1875, 29, 28.75, 28.4375, 27.955357, 27.5625, 27.3125, 27, 26.776787, 26.5, 26.125, 25.705357, 25.4375, 25.169643, 24.767857, 24.508928, 24.25, 23.9375, 23.625, 23.375, 23.125, 22.8125, 22.625, 22.375, 21.9375, 21.714287, 21.5, 21.25, 21.1875, 21.0625, 20.8125, 20.5625, 20.25, 19.830357, 19.5625, 19.3125, 18.991072, 18.1875, 17.946428, 17.75, 17.5625, 17.4375, 17.125, 16.6875, 16.375, 16.125, 15.9375, 15.6875, 15.4375, 15.125, 14.6875, 14.4375, 14.125, 13.848214, 13.517857, 13.258928, 13.125, 12.8125, 12.625, 12.5, 12.375, 12.5, 12.625, 12.75, 12.875, 12.9375, 13, 13.0625, 13.125, 13.125, 13.125, 13.0625, 13, 13, 13.133928, 13.375, 13.4375, 13.5, 13.5625, 13.6875, 13.8125, 13.9375, 13.9375, 13.9375, 13.9375, 14, 14, 13.866072, 13.7875, 14, 14.241072, 14.5, 14.6875, 14.75, 14.625, 14.5625, 14.4375, 14.5, 14.6875, 14.8125, 14.8125, 14.875, 14.875, 14.875, 15, 15, 15, 15.0625, 15.1875, 15.3125, 15.4375, 15.4375, 15.375, 15.25, 15.25, 15.375, 15.46875, 15.59375, 15.46875, 15.53125, 15.625, 15.75, 16, 16, 16, 16.09375, 15.875, 8.4285717, 8.083333, 7.75, 6.3333335, 5.75, 5.28125, 5.34375, 5.46875, 5.6875, 5.9375, 6, 6.25, 6.5, 6.75, 6.9375, 6.9375, 6.9375, 7.0625, 7.2321429, 7.3125, 7.3035717, 7.0625, 7.1517859, 7.4196429, 7.96875, 8.59375, 9.2901783, 9.65625, 9.9375, 10, 10, 10.071428, 10.4375, 10.6875, 11.169643, 11.3125, 11.4375, 11.4375, 11.1875, 11, 10.625, 10.3125, 10.3125, 10.4375, 10.6875, 11.0625, 11.1875, 11.25, 11.25, 11.3125, 11.321428, 11.098214, 11.208334, 11.375, 11.3125, 11.375, 11.116072, 10.791667, 10.727678, 10.71875, 11.03125, 11.450893, 11.6875, 11.9375, 12, 12, 12
-10, -10, -10, -10, -10, -10, -10, -10, -10, -10, -10, -10, -10, -10, -10, -10, -10, -10, -10, -10, -10, -10, 58.125, 57.916668, 57.8125, 57.482143, 56.711311, 56.508926, 55.973213, 55.270832, 54.955357, 54.75, 54.848213, 54.875, 54.6875, 54.375, 54.089287, 53.9375, 54.071426, 54.400002, 54.1875, 53.94643, 53.453125, 52.76265, 52.337051, 52.078125, 51.75, 51.5, 51.21875, 50.90625, 50.65625, 50.34375, 49.830357, 49.4375, 49.1875, 48.866074, 48.5625, 48.142857, 47.330357, 47.053574, 46.6875, 46.5625, 46.401787, 46.1875, 45.875, 45.75, 45.5, 45.254467, 44.770836, 44.455353, 44.25, 44.15625, 43.803574, 43.375, 43.25, 43.044643, 43, 42.776787, 42.5, 42.339287, 42.169643, 42.026787, 41.857143, 41.3125, 41.375, 41.026787, 40.613098, 40.205357, 39.9375, 39.625, 39.4375, 39.1875, 39.0625, 38.9375, 38.75, 38.38393, 37.9375, 37.625, 37.3125, 37.1875, 36.75, 36.5, 36.25, 35.75, 35.4375, 34.892857, 34.5, 34.232143, 33.892857, 33.758926, 33.625, 33.4375, 33.25, 33.0625, 32.75, 32.428574, 32.026787, 31.875, 31.5625, 31.4375, 31.1875, 30.75, 30.5, 30.125, 29.625, 29.4375, 29.1875, 29.0625, 28.9375, 28.6875, 28.375, 28.017857, 27.625, 27.375, 27.0625, 26.714287, 26.330357, 26, 25.580357, 25.3125, 25.107143, 24.642857, 24.383928, 24.1875, 23.9375, 23.6875, 23.4375, 23.1875, 22.8125, 22.6875, 22.5, 22.0625, 21.901787, 21.6875, 21.366072, 21.104166, 20.955357, 20.6875, 20.5, 20.1875, 19.767857, 19.4375, 19.1875, 18.866072, 18.0625, 17.883928, 17.6875, 17.625, 17.5, 17.25, 16.875, 16.5, 16.25, 16, 15.6875, 15.4375, 15.0625, 14.625, 14.375, 14.0625, 13.848214, 13.517857, 13.258928, 13.125, 12.75, 12.5, 12.3125, 12.1875, 12.375, 12.5625, 12.75, 12.875, 12.9375, 13, 13.0625, 13.125, 13.125, 13.125, 13.0625, 13, 13, 13.071428, 13.3125, 13.375, 13.4375, 13.5625, 13.6875, 13.8125, 13.9375, 13.9375, 13.9375, 13.9375, 14, 14, 13.928572, 13.85, 14.0625, 14.303572, 14.5625, 14.75, 14.8125, 14.6875, 14.5625, 14.5, 14.625, 14.8125, 14.9375, 14.8125, 14.8125, 14.8125, 14.8125, 15, 15, 15.0625, 15.0625, 15.125, 15.1875, 15.1875, 15.1875, 15.25, 15.1875, 15.1875, 15.3125, 15.375, 15.5, 15.4375, 15.5625, 15.625, 15.75, 16, 16, 16, 16.03125, 15.541666, 10.111111, 8.5119047, 7.8928576, 6.291667, 5.6428576, 5.1875, 5.25, 5.4375, 5.6875, 5.9375, 6, 6.1875, 6.4375, 6.6875, 6.875, 7, 7.0625, 7.0982141, 7.0892859, 7.125, 7.0625, 7.0625, 7.2142859, 7.5446429, 8.0625, 8.75, 9.4285717, 9.75, 10, 10, 10, 10.133928, 10.5, 10.75, 11.169643, 11.25, 11.4375, 11.4375, 11.25, 11.125, 10.75, 10.5, 10.5, 10.5625, 10.75, 11.0625, 11.25, 11.375, 11.4375, 11.5, 11.464286, 11.122025, 11.184524, 11.25, 11.25, 11.28125, 11.022322, 10.635417, 10.508928, 10.53125, 10.96875, 11.450893, 11.8125, 12.125, 12.125, 12.125, 12.125, 12.125, 12.25, 12.5, 12.6875, 12.75, 12.875, 12.875, 12.875, 13.0625, 13.196428, 13.5625, 13.8125, 14.0625, 14.25, 14.5625, 14.982143, 15.419643, 15.794643, 15.9375, 16, 15.9375, 15.9375, 15.9375, 15.9375, 16.008928, 16.125, 16.205357, 16.520834, 16.678572, 16.9375, 17.25, 17.6875, 18.428572, 19.238094, 19.696428, 20.366072, 21.154762, 22.434525, 22.986607, 23.291666, -10, -10, -10, -10, -10, -10, -10, -10, -10, -10, -10, -10, -10, -10, -10, -10, -10, -10, -10, -10, -10, -10, -10, -10, -10, -10, -10, -10, -10, -10, -10, -10, -10, -10, -10, -10, -10, 57.75, 57.583336, 57.5, 57.169643, 56.732143, 56.5625, 56.044643, 55.413689, 54.955357, 54.5625, 54.660713, 54.732143, 54.625, 54.3125, 53.991074, 53.875, 54.008926, 54.462502, 54.25, 54.00893, 53.517857, 52.809525, 52.383926, 52.125, 51.8125, 51.625, 51.40625, 51.049107, 50.46875, 50.147324, 49.642857, 49.375, 49.1875, 48.866074, 48.5625, 48.142857, 47.330357, 47.116074, 46.71875, 46.53125, 46.308037, 46.03125, 45.75, 45.6875, 45.392857, 44.825893, 44.532742, 44.258926, 44.1875, 44.15625, 43.8125, 43.5, 43.25, 42.90625, 42.71875, 42.433037, 42.21875, 42.125, 42.0625, 42.125, 41.955357, 41.392857, 41.321426, 40.959824, 40.626488, 40.227676, 39.90625, 39.5, 39.276787, 39.0625, 38.9375, 38.875, 38.6875, 38.303574, 37.901787, 37.625, 37.375, 37.258926, 36.604168, 36.375, 36.0625, 35.6875, 35.375, 34.892857, 34.5625, 34.357143, 34.017857, 33.883926, 33.75, 33.5, 33.3125, 33.0625, 32.75, 32.428574, 32.026787, 31.875, 31.5625, 31.4375, 31.1875, 30.8125, 30.5625, 30.1875, 29.6875, 29.4375, 29.1875, 29, 28.8125, 28.5625, 28.3125, 28.125, 27.75, 27.5, 27.0625, 26.651787, 26.205357, 25.8125, 25.455357, 25.1875, 24.982143, 24.580357, 24.321428, 24.125, 24, 23.8125, 23.5625, 23.3125, 22.9375, 22.8125, 22.625, 22.1875, 21.991072, 21.8125, 21.491072, 21.229166, 20.955357, 20.625, 20.4375, 20.125, 19.767857, 19.4375, 19.1875, 18.9375, 18.333334, 18.1875, 18, 17.875, 17.6875, 17.4375, 17.0625, 16.625, 16.375, 16.125, 15.75, 15.5, 15.125, 14.6875, 14.4375, 14.1875, 13.973214, 13.580357, 13.321428, 13.125, 12.75, 12.5, 12.3125, 12.1875, 12.375, 12.5625, 12.75, 12.875, 12.9375, 13, 13.0625, 13.125, 13.125, 13.125, 13.0625, 13.0625, 13.0625, 13.133928, 13.40625, 13.46875, 13.59375, 13.71875, 13.8125, 13.8125, 13.8125, 13.75, 13.6875, 13.75, 13.875, 13.9375, 13.991072, 13.9125, 14.125, 14.303572, 14.4375, 14.625, 14.75, 14.75, 14.6875, 14.625, 14.625, 14.6875, 14.8125, 14.6875, 14.75, 14.8125, 14.8125, 15, 15, 15.0625, 15.0625, 15.0625, 15.0625, 15, 15, 15.1875, 15.1875, 15.1875, 15.3125, 15.3125, 15.4375, 15.5, 15.625, 15.6875, 15.8125, 16, 16, 16, 16.0625, 15.583334, 10.495237, 8.6785717, 8.0892859, 6.6726193, 5.7142859, 5.2321429, 5.1875, 5.375, 5.625, 5.875, 5.96875, 6.09375, 6.34375, 6.59375, 6.8125, 6.9375, 6.875, 6.7857141, 6.7142859, 6.8125, 6.875, 7, 7.2142859, 7.5446429, 8, 8.625, 9.2589283, 9.6696434, 9.9375, 10, 10, 10.196428, 10.5625, 10.8125, 11.169643, 11.125, 11.375, 11.375, 11.3125, 11.3125, 10.9375, 10.75, 10.6875, 10.6875, 10.8125, 11.0625, 11.25, 11.375, 11.4375, 11.4375, 11.428572, 11.291667, 11.392857, 11.4375, 11.5, 11.46875, 11.334822, 10.79762, 10.688775, 10.714286, 11.28125, 11.638393, 11.9375, 12.25, 12.25, 12.25, 12.1875
-10, -10, -10, -10, -10, -10, -10, -10, -10, -10, -10, -10, -10, -10, -10, -10, -10, -10, -10, -10, -10, -10, 57.5, 57.333336, 57.375, 57.142857, 56.660713, 56.5, 55.982143, 55.351189, 54.924107, 54.46875, 54.504463, 54.513393, 54.4375, 54.1875, 53.928574, 53.875, 54.008926, 54.462502, 54.1875, 53.94643, 53.455357, 52.791668, 52.383926, 52.125, 51.875, 51.75, 51.59375, 51.236607, 50.59375, 50.22768, 49.75, 49.4375, 49.1875, 48.741074, 48.375, 47.9375, 47.455357, 47.3125, 46.879463, 46.486607, 46.191963, 45.90625, 45.8125, 45.8125, 45.517857, 44.82143, 44.678574, 44.401787, 44.3125, 44.21875, 43.875, 43.5, 43.25, 42.90625, 42.65625, 42.308037, 42.058037, 41.9375, 42, 42.098213, 41.785713, 41.214287, 41.071426, 40.78125, 40.647324, 40.21875, 39.799107, 39.4375, 39.276787, 39.1875, 39.116074, 38.9375, 38.741074, 38.241074, 37.985119, 37.508926, 37.25, 37.008926, 36.380955, 36.25, 36, 35.642857, 35.383926, 35, 34.6875, 34.482143, 34.080357, 33.883926, 33.741074, 33.291668, 33.142857, 33, 32.732143, 32.366074, 32.026787, 31.8125, 31.5625, 31.4375, 31.125, 30.75, 30.5, 30.125, 29.6875, 29.4375, 29.1875, 28.9375, 28.6875, 28.4375, 28.125, 28, 27.6875, 27.4375, 27, 26.526787, 26.080357, 25.6875, 25.392857, 25.125, 24.9375, 24.625, 24.375, 24.1875, 24, 23.875, 23.625, 23.375, 23, 22.6875, 22.5625, 22.125, 21.991072, 21.8125, 21.491072, 21.229166, 20.892857, 20.5625, 20.375, 20.0625, 19.642857, 19.25, 18.9375, 18.625, 18.375, 18.25, 18.0625, 17.9375, 17.6875, 17.4375, 17.125, 16.6875, 16.4375, 16.125, 15.6875, 15.4375, 15.0625, 14.75, 14.5, 14.3125, 14.160714, 13.705357, 13.446428, 13.1875, 12.75, 12.5, 12.3125, 12.25, 12.4375, 12.625, 12.8125, 12.875, 12.9375, 13, 13, 13, 13, 13, 13, 13.0625, 13.0625, 13.133928, 13.46875, 13.59375, 13.78125, 13.90625, 13.9375, 13.875, 13.8125, 13.6875, 13.5625, 13.625, 13.75, 13.875, 14.053572, 13.975, 14.125, 14.196428, 14.25, 14.4375, 14.625, 14.6875, 14.625, 14.5, 14.4375, 14.5, 14.6875, 14.6875, 14.8125, 14.875, 14.875, 15, 15, 15.0625, 15.0625, 15.0625, 15.0625, 15, 15.0625, 15.3125, 15.375, 15.375, 15.4375, 15.375, 15.4375, 15.5625, 15.6875, 15.75, 15.875, 16, 16, 16, 16.133928, 15.833334, 10.783333, 8.8452387, 8.2857141, 7.0535717, 5.7857141, 5.2767859, 5.125, 5.375, 5.625, 5.875, 6, 6, 6.25, 6.5, 6.75, 6.875, 6.75, 6.6607141, 6.6517859, 6.9196429, 7, 7.1875, 7.3125, 7.4375, 7.8125, 8.375, 9.0803576, 9.5892859, 9.875, 10, 10, 10.258928, 10.625, 10.8125, 11.0625, 11, 11.25, 11.25, 11.25, 11.25, 10.9375, 10.875, 10.875, 10.9375, 11.0625, 11.1875, 11.375, 11.4375, 11.4375, 11.4375, 11.303572, 11.166667, 11.267857, 11.375, 11.5, 11.46875, 11.46875, 11.8125, 11.958333, 11.979167, 11.78125, 11.888393, 12, 12.428572, 12.428572, 12.5, 12.4375, 12.375, 12.5, 12.75, 13, 13.1875, 13.375, 13.375, 13.375, 13.5, 13.4375, 13.625, 13.8125, 14.107143, 14.5, 14.875, 15.325, 15.517857, 15.857143, 15.875, 16, 16, 16, 16, 16, 15.9375, 15.9375, 16.080357, 16.458334, 16.866072, 17.25, 17.625, 18, 18.383928, 19.229168, 19.949406, 20.473215, 21, 22.3125, 22.928572, 23.249998, -10, -10, -10, -10, -10, -10, -10, -10, -10, -10, -10, -10, -10, -10, -10, -10, -10, -10, -10, -10, -10, -10, -10, -10, -10, -10, -10, -10, -10, -10, -10, -10, -10, -10, -10, -10, -10, 57.333332, 57.416668, 57.5, 57.258926, 56.556549, 56.375, 55.982143, 55.497025, 54.918156, 54.397324, 54.40625, 54.486607, 54.5, 54.4375, 54.151787, 54.0625, 54.071426, 54.3125, 54.125, 53.892857, 53.455357, 52.729168, 52.383926, 52.125, 51.875, 51.8125, 51.71875, 51.34375, 50.572918, 50.174107, 49.6875, 49.4375, 49.125, 48.616074, 48.25, 47.875, 47.5, 47.464287, 47.150295, 46.60268, 46.334824, 46.03125, 46, 45.9375, 45.705357, 45.198978, 44.449402, 44.214287, 44.125, 44.15625, 43.9375, 43.5625, 43.3125, 42.90625, 42.53125, 42.183037, 41.933037, 41.875, 42, 42.035713, 41.732143, 41.276787, 41.071426, 40.90625, 40.772324, 40.334824, 39.799107, 39.5, 39.339287, 39.375, 39.303574, 39.0625, 38.758926, 38.303574, 38.047619, 37.571426, 37.25, 36.767857, 36.014881, 35.839287, 35.625, 35.392857, 35.321426, 35.0625, 34.8125, 34.49107, 33.973213, 33.696426, 33.491074, 33.041668, 32.892857, 32.75, 32.482143, 32.241074, 32, 31.875, 31.6875, 31.5, 31.1875, 30.75, 30.5, 30.1875, 29.875, 29.5625, 29.3125, 28.875, 28.5625, 28.3125, 28, 27.9375, 27.625, 27.375, 27, 26.5625, 26.142857, 25.8125, 25.5, 25.1875, 25, 24.6875, 24.4375, 24.25, 24.0625, 23.875, 23.625, 23.375, 23.0625, 22.6875, 22.5625, 22.1875, 22.026787, 21.875, 21.553572, 21.229166, 20.830357, 20.4375, 20.25, 20, 19.6875, 19.375, 19.125, 18.75, 18.5, 18.3125, 18, 17.8125, 17.5625, 17.3125, 17.125, 16.75, 16.4375, 16.017857, 15.5625, 15.375, 15.15625, 14.96875, 14.71875, 14.40625, 14.1875, 13.75, 13.5, 13.25, 12.75, 12.5, 12.34375, 12.34375, 12.59375, 12.84375, 13, 13, 13, 13, 13, 13, 13, 13, 13, 13.0625, 13.0625, 13.0625, 13.21875, 13.34375, 13.59375, 13.84375, 13.9375, 13.9375, 13.8125, 13.625, 13.4375, 13.5, 13.625, 13.75, 14.0625, 14.0625, 14.0625, 14.125, 14.125, 14.375, 14.59375, 14.71875, 14.59375, 14.46875, 14.375, 14.4375, 14.6875, 14.75, 14.875, 14.9375, 14.9375, 15, 15, 15.0625, 15.0625, 15.0625, 15.0625, 15, 15.0625, 15.1875, 15.276786, 15.419643, 15.553572, 15.625, 15.6875, 15.75, 15.8125, 15.8125, 15.875, 15.9375, 15.9375, 15.9375, 16.133928, 16.333334, 10.633333, 8.9285717, 8.3839283, 7.3869052, 5.8869047, 5.3482141, 5.0625, 5.25, 5.4375, 5.5625, 5.6875, 5.75, 6.1160717, 6.4821429, 6.75, 6.8125, 6.75, 6.6607141, 6.6517859, 7.0446429, 7.0625, 7.1875, 7.25, 7.25, 7.5, 7.9375, 8.5803576, 9.4017859, 9.7678566, 10, 10, 10.1875, 10.4375, 10.6875, 10.9375, 11, 11.1875, 11.1875, 11.25, 11.28125, 11.09375, 11.15625, 11.15625, 11.169643, 11.175, 11.303572, 11.333333, 11.25, 11.25, 11.25, 11.178572, 11.104167, 11.267857, 11.4375, 11.6875, 11.71875, 11.78125, 12.125, 12.237245, 12.091836, 11.919643, 11.888393, 12.03125, 12.522322, 12.553572, 12.625, 12.5
-10, -10, -10, -10, -10, -10, -10, -10, -10, -10, -10, -10, -10, -10, -10, -10, -10, -10, -10, -10, -10, -10, -10, 57.142857, 57.162498, 57.101784, 56.413689, 56.196426, 55.875, 55.592262, 54.90625, 54.47768, 54.53125, 54.674107, 54.651787, 54.5625, 54.276787, 54.1875, 54.0625, 54.125, 53.9375, 53.6875, 53.330357, 52.8125, 52.375, 52.089287, 51.875, 51.8125, 51.875, 51.544643, 50.622025, 50.214283, 49.6875, 49.4375, 49.125, 48.625, 48.375, 48, 47.625, 47.589287, 47.284225, 46.519344, 46.272324, 45.90625, 46.026787, 46.0625, 45.74107, 45.142857, 44.449402, 44.151787, 44.03125, 44, 43.8125, 43.5, 43.25, 42.90625, 42.59375, 42.28125, 41.995537, 41.9375, 42, 42.035713, 41.74107, 41.401787, 41.133926, 40.90625, 40.78125, 40.459824, 39.924107, 39.75, 39.464287, 39.5, 39.366074, 39, 38.696426, 38.3125, 38.172619, 37.758926, 37.4375, 36.767857, 36.041668, 35.901787, 35.669643, 35.372025, 35.363098, 35.262501, 34.875, 34.49107, 33.973213, 33.6875, 33.491074, 33.104168, 32.9375, 32.604168, 32.30357, 32.0625, 32, 31.875, 31.75, 31.5, 31.1875, 30.75, 30.5, 30.25, 29.9375, 29.625, 29.375, 28.9375, 28.5625, 28.3125, 27.9375, 27.8125, 27.5625, 27.3125, 27, 26.625, 26.3125, 26, 25.75, 25.5, 25.25, 24.9375, 24.625, 24.3125, 24.125, 23.9375, 23.6875, 23.4375, 23.125, 22.625, 22.4375, 22.0625, 21.901787, 21.8125, 21.5625, 21.4375, 21, 20.625, 20.375, 20.125, 19.8125, 19.5, 19.25, 18.8125, 18.5625, 18.3125, 18, 17.75, 17.5, 17.25, 17, 16.6875, 16.375, 15.892857, 15.5, 15.3125, 15.15625, 15.03125, 14.78125, 14.46875, 14.1875, 13.75, 13.5, 13.25, 12.75, 12.5, 12.34375, 12.34375, 12.59375, 12.84375, 13, 13, 13, 13, 13, 13, 13, 13, 13, 13.0625, 13.0625, 13.0625, 13.15625, 13.21875, 13.40625, 13.65625, 13.8125, 13.875, 13.8125, 13.625, 13.4375, 13.5, 13.625, 13.75, 14, 14, 14, 14.0625, 14.125, 14.375, 14.59375, 14.78125, 14.65625, 14.53125, 14.4375, 14.375, 14.625, 14.75, 14.875, 15, 15, 15, 15, 15, 15, 15, 15, 15, 15.0625, 15.125, 15.276786, 15.482143, 15.616072, 15.6875, 15.6875, 15.6875, 15.71875, 15.75, 15.8125, 15.875, 15.90625, 16, 16.217262, 15.676191, 10.049999, 8.750001, 8.5, 7.7976193, 6, 5.3928571, 5, 5.125, 5.21875, 5.21875, 5.4017859, 5.7708335, 6.1964288, 6.6071429, 6.8125, 6.75, 6.625, 6.5625, 6.625, 7.0446429, 7.125, 7.1875, 7.1875, 7.125, 7.25, 7.5, 8.0803576, 9.2976189, 9.7321424, 10.0625, 10.0625, 10.125, 10.375, 10.625, 10.875, 11, 11.125, 11.125, 11.1875, 11.21875, 11.15625, 11.28125, 11.263393, 11.086309, 11.067857, 11.178572, 11.208333, 11.125, 11.0625, 11, 11, 11.1875, 11.375, 11.5625, 11.75, 11.8125, 12, 12.25, 12.348214, 12.205357, 12.107143, 11.950893, 12.09375, 12.522322, 12.553572, 12.625, 12.4375, 12.375, 12.5625, 12.8125, 13.125, 13.3125, 13.4375, 13.4375, 13.5, 13.5625, 13.5, 13.65625, 13.71875, 14.035715, 14.633928, 15.303572, 15.798214, 15.892857, 16.0625, 15.9375, 16, 16, 16, 16.0625, 16.258928, 16.619047, 16.732143, 16.875, 16.9375, 17.25, 17.5625, 18, 18.375, 18.625, 19.125, 19.886906, 20.5, 21.071428, 22.041668, 22.571428, 22.833332, -10, -10, -10, -10, -10, -10, -10, -10, -10, -10, -10, -10, -10, -10, -10, -10, -10, -10, -10, -10, -10, -10, -10, -10, -10, -10, -10, -10, -10, -10, -10, -10, -10, -10, -10, -10, -10, -10, 56.57143, 56.912498, 56.914284, 56.226189, 56.071426, 55.875, 55.636906, 54.96875, 54.620537, 54.53125, 54.566963, 54.526787, 54.5, 54.375, 54.375, 54.25, 54.125, 53.767857, 53.5, 53.1875, 52.75, 52.375, 52.026787, 51.8125, 51.75, 51.8125, 51.580357, 50.705357, 50.214283, 49.625, 49.25, 48.875, 48.4375, 48.1875, 47.875, 47.5625, 47.526787, 47.315475, 46.613094, 46.366074, 46, 46.089287, 46.0625, 45.785713, 45.486607, 44.739582, 44.433037, 44.1875, 44.0625, 43.9375, 43.5625, 43.3125, 42.9375, 42.5625, 42.3125, 42.026787, 42, 42.0625, 41.973213, 41.642857, 41.383926, 41.125, 40.875, 40.75, 40.428574, 39.955357, 39.9375, 39.6875, 39.6875, 39.491074, 38.9375, 38.696426, 38.375, 38.270832, 37.883926, 37.229168, 36.517857, 36.0625, 35.9375, 35.6875, 35.318455, 35.300598, 35.262501, 34.875, 34.42857, 33.973213, 33.660713, 33.383926, 33.050594, 32.875, 32.604168, 32.30357, 32.0625, 32, 31.875, 31.75, 31.5, 31.1875, 30.6875, 30.4375, 30.1875, 29.8125, 29.5625, 29.3125, 28.9375, 28.625, 28.375, 28, 27.8125, 27.5625, 27.3125, 27, 26.625, 26.375, 26.0625, 25.875, 25.6875, 25.4375, 25.1875, 24.875, 24.5, 24.25, 24, 23.6875, 23.4375, 23.125, 22.5625, 22.375, 22.0625, 21.9375, 21.8125, 21.5625, 21.34375, 20.90625, 20.59375, 20.34375, 20.125, 19.8125, 19.5, 19.25, 18.75, 18.5625, 18.375, 18.044643, 17.666666, 17.383928, 17.125, 16.875, 16.625, 16.3125, 15.767857, 15.4375, 15.25, 15.09375, 14.96875, 14.71875, 14.40625, 14.125, 13.75, 13.5, 13.25, 12.75, 12.5, 12.28125, 12.21875, 12.40625, 12.65625, 12.875, 12.9375, 13, 13, 13, 13, 13, 13, 13, 13, 13, 13, 13.0625, 13.125, 13.25, 13.5, 13.6875, 13.875, 13.9375, 13.8125, 13.6875, 13.6875, 13.75, 13.8125, 13.9375, 13.9375, 13.9375, 14, 14.1875, 14.4375, 14.65625, 14.84375, 14.65625, 14.59375, 14.5625, 14.482143, 14.6125, 14.803572, 14.866072, 15, 15, 15, 15, 15, 15, 15, 15, 15, 15.0625, 15.0625, 15.214286, 15.357143, 15.428572, 15.5, 15.4375, 15.4375, 15.46875, 15.5625, 15.6875, 15.8125, 15.84375, 15.9375, 15.833334, 12.744445, 9.9499998, 8.833334, 8.5625, 7.8690481, 6.0416665, 5.3928571, 5, 5.125, 5.28125, 5.3883929, 5.5892859, 6.0208335, 6.3839288, 6.7321429, 6.875, 6.8125, 6.75, 6.75, 6.8125, 7.1696429, 7.1875, 7.25, 7.1875, 7.0625, 7.1875, 7.25, 7.8392859, 9.3571434, 9.8660707, 10.21875, 10.125, 9.9553566, 10.142857, 10.520833, 10.803572, 11, 11.0625, 11.0625, 11.125, 11.15625, 11.21875, 11.34375, 11.263393, 10.979166, 10.942857, 11.116072, 11.244047, 11.1875, 11.125, 11, 11, 11.125, 11.321428, 11.625, 11.8125, 11.9375, 12, 12.1875, 12.160714, 12.017857, 12.044643, 12.013393, 12.15625, 12.459822, 12.392858, 12.4375, 12.3125
-10, -10, -10, -10, -10, -10, -10, -10, -10, -10, -10, -10, -10, -10, -10, -10, -10, -10, -10, -10, -10, -10, -10, 56.714287, 56.87619, 56.985714, 56.404762, 56.258926, 56.0625, 55.824406, 54.854168, 54.535713, 54.4375, 54.535713, 54.526787, 54.5, 54.4375, 54.5, 54.357143, 54.041668, 53.651787, 53.375, 53.1875, 52.875, 52.5625, 52.214287, 51.9375, 51.8125, 51.75, 51.464287, 50.351189, 49.85714, 49.28125, 48.96875, 48.65625, 48.3125, 48.125, 47.875, 47.5625, 47.464287, 47.279762, 46.720238, 46.482143, 46.125, 46.089287, 45.9375, 45.598213, 45.299107, 44.614582, 44.34375, 44.125, 44.0625, 43.973213, 43.580357, 43.392857, 43.0625, 42.75, 42.625, 42.3125, 42.1875, 42.125, 41.9375, 41.6875, 41.4375, 41.25, 40.910713, 40.705357, 40.50893, 40.0625, 39.854168, 39.633926, 39.535713, 39.3125, 38.830357, 38.517857, 38.25, 38, 37.75, 37.104168, 36.517857, 36.098213, 35.9375, 35.6875, 35.363098, 35.354168, 35.325001, 34.875, 34.42857, 33.973213, 33.598213, 33.330357, 33.196426, 32.982143, 32.729168, 32.446426, 32.25, 32.125, 32, 31.75, 31.5, 31.25, 30.75, 30.5, 30.25, 29.75, 29.5625, 29.3125, 29, 28.75, 28.4375, 28.125, 27.875, 27.625, 27.375, 27.0625, 26.75, 26.5, 26.1875, 26, 25.8125, 25.5625, 25.375, 25.0625, 24.6875, 24.4375, 24.125, 23.75, 23.4375, 23.1875, 22.75, 22.5, 22.25, 21.9375, 21.8125, 21.5625, 21.21875, 20.84375, 20.53125, 20.28125, 20.0625, 19.8125, 19.5, 19.25, 18.875, 18.625, 18.5, 18.151787, 17.622023, 17.330357, 17.0625, 16.875, 16.625, 16.25, 15.660713, 15.375, 15.1875, 15.03125, 14.84375, 14.59375, 14.28125, 14.0625, 13.75, 13.5, 13.25, 12.75, 12.5, 12.28125, 12.15625, 12.28125, 12.53125, 12.75, 12.8125, 12.9375, 12.9375, 12.9375, 12.9375, 12.9375, 12.9375, 12.9375, 13, 13, 13, 13, 13, 13.0625, 13.3125, 13.5625, 13.8125, 14, 14, 13.9375, 13.9375, 13.9375, 13.875, 13.9375, 13.9375, 13.9375, 14, 14.1875, 14.4375, 14.65625, 14.84375, 14.71875, 14.71875, 14.75, 14.669643, 14.7375, 14.803572, 14.741072, 14.875, 14.875, 14.9375, 15, 15, 15, 15, 15, 15, 15, 15, 15.089286, 15.169643, 15.205358, 15.25, 15.25, 15.3125, 15.34375, 15.5, 15.625, 15.75, 15.78125, 15.875, 15.761906, 12.438889, 10.308333, 9, 8.8125, 8.083334, 6.1666665, 5.4642859, 5, 5.125, 5.28125, 5.4508929, 5.8520408, 6.3809524, 6.5714288, 6.8571429, 6.9375, 6.875, 6.875, 6.875, 6.875, 7.0625, 7.0625, 7.125, 7.125, 7.125, 7.3125, 7.4910717, 8.0892859, 9.6071434, 10.116071, 10.5, 10.46875, 10.214286, 10.196428, 10.476191, 10.678572, 10.9375, 11, 11, 11, 11.03125, 11.21875, 11.450893, 11.513393, 11.166666, 10.859524, 10.991072, 10.994047, 11, 11, 10.875, 11, 11.1875, 11.383928, 11.6875, 11.8125, 11.9375, 11.9375, 12.0625, 11.973214, 11.892857, 11.982143, 12.09375, 12.34375, 12.40625, 12.276786, 12.1875, 12.125, 12.3125, 12.5625, 12.8125, 13, 13, 13, 13.0625, 13.1875, 13.375, 13.6875, 13.941964, 13.96875, 14.205358, 14.678572, 15.232143, 15.660714, 15.875, 16, 16, 16, 16, 16, 16.1875, 16.571428, 17.163691, 17.294643, 17.3125, 17.3125, 17.4375, 17.75, 18.25, 18.4375, 18.8125, 19.520834, 19.928572, 20.607143, 21.345238, 22.342262, 23, 23.249998, -10, -10, -10, -10, -10, -10, -10, -10, -10, -10, -10, -10, -10, -10, -10, -10, -10, -10, -10, -10, -10, -10, -10, -10, -10, -10, -10, -10, -10, -10, -10, -10, -10, -10, -10, -10, -10, -10, 56.625, 56.866669, 56.957142, 56.5, 56.36607, 56.125, 55.901787, 55.038692, 54.678574, 54.5, 54.5, 54.401787, 54.3125, 54.3125, 54.4375, 54.294643, 53.75, 53.321426, 53.0625, 52.9375, 52.8125, 52.625, 52.258926, 51.916668, 51.696426, 51.5625, 51.29464, 50.247021, 49.642853, 49.0625, 48.75, 48.5625, 48.3125, 48.1875, 47.9375, 47.5625, 47.375, 47.133926, 46.760418, 46.53125, 46.21875, 46.120537, 45.875, 45.473213, 45.15625, 44.65625, 44.40625, 44.1875, 44.0625, 43.910713, 43.517857, 43.392857, 43.1875, 42.982143, 42.8125, 42.5625, 42.3125, 42.25, 42.0625, 41.75, 41.5, 41.3125, 40.848213, 40.580357, 40.455357, 40.0625, 39.5625, 39.404762, 39.369045, 39.208332, 38.684525, 38.446426, 38.125, 37.875, 37.5625, 36.979168, 36.571426, 36.339287, 36.285713, 36, 35.613098, 35.416668, 35.325001, 34.8125, 34.482143, 34.080357, 33.660713, 33.392857, 33.258926, 33.107143, 32.854168, 32.633926, 32.375, 32.1875, 32.0625, 31.75, 31.5, 31.25, 30.75, 30.5, 30.25, 29.8125, 29.625, 29.3125, 28.955357, 28.6875, 28.375, 28.0625, 27.75, 27.5, 27.25, 27, 26.75, 26.5, 26.1875, 26.0625, 25.9375, 25.678572, 25.291666, 24.946428, 24.5625, 24.375, 24.1875, 23.8125, 23.5, 23.1875, 22.6875, 22.4375, 22.1875, 21.875, 21.6875, 21.4375, 21.03125, 20.78125, 20.53125, 20.21875, 19.955357, 19.75, 19.410713, 19.080357, 18.758928, 18.5, 18.4375, 18.214287, 17.684523, 17.392857, 17.125, 16.875, 16.625, 16.3125, 15.830357, 15.5, 15.25, 14.9375, 14.625, 14.375, 14.125, 14, 13.75, 13.5, 13.25, 12.75, 12.5, 12.25, 12.0625, 12.125, 12.3125, 12.5, 12.625, 12.8125, 12.875, 12.9375, 12.9375, 12.9375, 12.9375, 12.9375, 13.0625, 13.035714, 12.964286, 13, 12.9375, 13, 13.1875, 13.4375, 13.6875, 13.9375, 14.125, 14.125, 14.125, 14.125, 14, 14, 14, 14, 14, 14.125, 14.3125, 14.5625, 14.8125, 14.8125, 14.875, 14.875, 14.669643, 14.6125, 14.616072, 14.491072, 14.6875, 14.75, 14.875, 15, 15, 15, 15, 15, 15, 15, 15.125, 15.1875, 15.125, 15.089286, 15, 15.0625, 15.25, 15.34375, 15.5, 15.5625, 15.6875, 15.71875, 15.875, 15.824406, 13.792857, 10.904761, 9.166666, 8.9285717, 8.0476198, 6.1011906, 5.3928576, 5, 5.1964283, 5.6145835, 5.9419641, 6.2767859, 6.7083335, 6.8928571, 7, 7, 6.9375, 6.9375, 6.875, 6.875, 7, 7.0357141, 7.125, 7.125, 7.1875, 7.4375, 7.7410717, 8.727891, 9.8571434, 10.348214, 10.6875, 10.71875, 10.401786, 10.258928, 10.476191, 10.616072, 10.875, 11, 11, 10.9375, 11, 11.25, 11.482143, 11.607143, 11.309525, 10.997024, 10.90625, 10.910714, 10.875, 10.892857, 10.895833, 10.892857, 11.196428, 11.467261, 11.75, 11.875, 12, 11.973214, 11.964286, 12, 12.107143, 12.3125, 12.4375, 12.5, 12.375, 12.151786, 12.0625, 12.0625
-10, -10, -10, -10, -10, -10, -10, -10, -10, -10, -10, -10, -10, -10, -10, -10, -10, -10, -10, -10, -10, -10, -10, 56.958332, 57.141666, 57.100895, 56.772324, 56.638393, 56.40625, 56.151787, 55.288692, 54.85714, 54.5625, 54.5, 54.375, 54.1875, 54.151787, 54.169643, 53.875, 53.25893, 52.821426, 52.625, 52.5625, 52.5625, 52.5625, 52.294643, 51.907738, 51.571426, 51.375, 51.0625, 50.166664, 49.464287, 48.9375, 48.625, 48.5, 48.375, 48.3125, 48.0625, 47.6875, 47.258926, 47.026787, 46.90625, 46.71875, 46.522324, 46.15625, 45.8125, 45.5, 45.21875, 44.71875, 44.46875, 44.21875, 44.125, 43.973213, 43.580357, 43.455357, 43.25, 43.044643, 42.875, 42.6875, 42.4375, 42.375, 42.125, 41.705357, 41.4375, 41.1875, 40.785713, 40.455357, 40.392857, 40, 39.291668, 39.217262, 39.119045, 39.020832, 38.559525, 38.258926, 37.875, 37.625, 37.3125, 36.729168, 36.300598, 36.125, 35.973213, 35.767857, 35.508926, 35.25, 35.125, 34.75, 34.5, 34.3125, 33.883926, 33.473213, 33.205357, 33, 32.875, 32.6875, 32.4375, 32.1875, 32.0625, 31.741072, 31.375, 31.1875, 30.75, 30.625, 30.375, 29.9375, 29.642857, 29.25, 28.830357, 28.625, 28.3125, 28.0625, 27.705357, 27.4375, 27.1875, 27, 26.875, 26.625, 26.3125, 26.125, 25.875, 25.553572, 25.059525, 24.758928, 24.4375, 24.3125, 24.1875, 23.8125, 23.5, 23.1875, 22.6875, 22.4375, 22.1875, 21.875, 21.6875, 21.4375, 21.03125, 20.78125, 20.459822, 19.947916, 19.723213, 19.5625, 19.285713, 18.910713, 18.633928, 18.375, 18.375, 18.151787, 17.684523, 17.392857, 17.0625, 16.830357, 16.5625, 16.25, 15.892857, 15.625, 15.375, 15, 14.580357, 14.3125, 14.0625, 14, 13.75, 13.5, 13.25, 12.75, 12.5, 12.25, 12, 12, 12.125, 12.25, 12.4375, 12.6875, 12.8125, 12.9375, 12.9375, 12.9375, 12.9375, 12.9375, 13.0625, 13.035714, 13.026786, 13.0625, 13, 13.0625, 13.1875, 13.4375, 13.6875, 13.9375, 14.125, 14.125, 14.125, 14.125, 14, 13.9375, 13.875, 13.875, 13.875, 14, 14.1875, 14.375, 14.5625, 14.6875, 14.8125, 14.875, 14.732143, 14.55, 14.491072, 14.303572, 14.5, 14.625, 14.8125, 15, 15, 15, 15, 15, 15, 15, 15.125, 15.125, 15, 14.964286, 14.875, 15, 15.3125, 15.4375, 15.5625, 15.5625, 15.625, 15.625, 15.75, 15.803572, 14.744898, 11.458333, 9.5952377, 8.9910717, 7.2380958, 5.9523811, 5.3482141, 5.1875, 5.5535712, 6.0833335, 6.5357141, 6.8125, 6.9375, 7, 7, 7, 7, 7, 6.9375, 6.9375, 7, 7.0357141, 7.125, 7.125, 7.25, 7.625, 8.1696434, 9.0654764, 10.023809, 10.508928, 10.8125, 10.834822, 10.401786, 10.196428, 10.351191, 10.553572, 10.8125, 11, 11, 10.9375, 11.0625, 11.3125, 11.544643, 11.75, 11.580357, 11.229167, 11.09375, 10.973214, 10.9375, 11.017857, 11.020833, 11.017857, 11.321428, 11.592261, 11.9375, 12.125, 12.1875, 12.098214, 12.026786, 12.125, 12.232143, 12.4375, 12.5625, 12.4375, 12.1875, 11.964286, 11.875, 11.9375, 12.25, 12.4375, 12.696428, 13.145833, 13.303572, 13.4375, 13.5625, 13.696428, 14.0625, 14.375, 14.660714, 14.75, 14.964286, 15.232143, 15.491072, 15.75, 15.8125, 15.875, 16, 16.107143, 16.1875, 16.3125, 16.5, 16.75, 17.044643, 17.1875, 17.25, 17.4375, 17.75, 18.169643, 18.5625, 18.875, 19.25, 19.958334, 20.3125, 20.892857, 21.720238, 22.678572, 23.428572, 23.666666, -10, -10, -10, -10, -10, -10, -10, -10, -10, -10, -10, -10, -10, -10, -10, -10, -10, -10, -10, -10, -10, -10, -10, -10, -10, -10, -10, -10, -10, -10, -10, -10, -10, -10, -10, -10, -10, 57.5, 57.291664, 57.454166, 57.288395, 56.959824, 56.763393, 56.46875, 56.214287, 55.351192, 55.026787, 54.75, 54.75, 54.5625, 54.25, 54.053574, 53.901787, 53.392857, 52.767857, 52.428574, 52.3125, 52.3125, 52.375, 52.4375, 52.294643, 51.970238, 51.571426, 51.3125, 50.946426, 50.333332, 49.714287, 49.104168, 48.821426, 48.6875, 48.625, 48.625, 48.375, 48.0625, 47.61607, 47.169643, 46.977676, 46.709824, 46.313988, 45.915176, 45.5625, 45.3125, 45.0625, 44.625, 44.3125, 44.0625, 43.9375, 43.723213, 43.455357, 43.330357, 43.25, 43.107143, 42.875, 42.6875, 42.4375, 42.348213, 42.017857, 41.589287, 41.25, 41, 40.660713, 40.392857, 40.455357, 40.125, 39.416668, 39.279762, 39.056545, 38.851189, 38.434525, 38.071426, 37.6875, 37.4375, 37.1875, 36.9375, 36.586311, 36.145832, 35.866074, 35.767857, 35.637501, 35.321426, 35.196426, 34.75, 34.5, 34.25, 33.848213, 33.517857, 33.258926, 33, 32.75, 32.5625, 32.3125, 32.125, 32.0625, 31.732143, 31.299999, 31.208334, 30.633928, 30.571428, 30.3125, 29.9375, 29.642857, 29.25, 28.767857, 28.625, 28.3125, 28, 27.598213, 27.3125, 27, 26.875, 26.8125, 26.5625, 26.375, 26.125, 25.8125, 25.491072, 24.934525, 24.633928, 24.375, 24.25, 24.0625, 23.75, 23.4375, 23.125, 22.75, 22.5, 22.25, 21.875, 21.6875, 21.4375, 21.0625, 20.875, 20.428572, 19.809523, 19.598213, 19.4375, 19.223213, 18.848213, 18.571428, 18.25, 18.1875, 17.982143, 17.642857, 17.383928, 17.0625, 16.830357, 16.5625, 16.25, 15.955357, 15.6875, 15.4375, 15, 14.517857, 14.25, 14, 14, 13.75, 13.5, 13.25, 12.75, 12.5, 12.25, 12, 12, 12.0625, 12.1875, 12.375, 12.625, 12.8125, 12.9375, 12.9375, 12.9375, 12.9375, 12.9375, 13.0625, 13.035714, 13.089286, 13.125, 13.0625, 13.125, 13.1875, 13.4375, 13.6875, 13.9375, 14.125, 14.125, 14.125, 14.125, 14, 13.875, 13.75, 13.6875, 13.6875, 13.8125, 14, 14.1875, 14.3125, 14.5625, 14.75, 14.875, 14.8125, 14.625, 14.375, 14.125, 14.3125, 14.5, 14.669643, 14.75, 14.8125, 14.857143, 14.9375, 15, 15, 15, 15.125, 15.125, 15.0625, 15.026786, 14.9375, 15.125, 15.4375, 15.625, 15.75, 15.6875, 15.6875, 15.6875, 15.8125, 16.125, 15.568453, 12.442177, 10.386905, 9.5178576, 7.3551593, 6.3979592, 5.8826532, 5.7857141, 6.0790815, 6.7395835, 6.9598217, 7.0625, 7.0625, 7.0625, 7, 7, 7, 7.0625, 7, 7, 7.0625, 7.0357141, 7.0625, 7.125, 7.375, 7.9285717, 8.7142859, 9.5565481, 10.107143, 10.5, 10.71875, 10.915178, 10.794642, 10.491072, 10.410714, 10.5, 10.6875, 10.9375, 11, 10.9375, 11.0625, 11.3125, 11.607143, 11.9375, 11.875, 11.541667, 11.28125, 11.0625, 11, 11.017857, 11.083333, 11.017857, 11.321428, 11.583333, 11.8125, 12, 12.0625, 12.035714, 11.964286, 12.125, 12.232143, 12.375, 12.4375, 12.25, 12, 11.875, 11.8125, 11.9375
-10, -10, -10, -10, -10, -10, -10, -10, -10, -10, -10, -10, -10, -10, -10, -10, -10, -10, -10, -10, -10, -10, 57.666668, 57.416664, 57.466072, 57.097919, 56.709824, 56.513393, 56.28125, 56.026787, 55.497025, 55.133926, 54.75, 54.75, 54.5, 54.25, 53.928574, 53.651787, 53.035713, 52.476189, 52.169643, 52, 51.9375, 52, 52, 51.982143, 51.702381, 51.223213, 51.125, 50.8125, 50.625, 50.178574, 49.635418, 49.290176, 49.013393, 48.84375, 48.71875, 48.46875, 48.1875, 47.74107, 47.294643, 47.040176, 46.700897, 46.188988, 45.915176, 45.583332, 45.145832, 44.857143, 44.508926, 44.337502, 43.928574, 43.803574, 43.5, 43.375, 43.1875, 43, 42.794643, 42.5, 42.4375, 42.3125, 42.285713, 41.910713, 41.235119, 40.875, 40.625, 40.46875, 40.34375, 40.40625, 40.09375, 39.5, 39.270832, 38.958332, 38.726189, 38.354168, 38.071426, 37.8125, 37.5625, 37.375, 37.0625, 36.648811, 36.208332, 35.866074, 35.767857, 35.637501, 35.321426, 35.196426, 34.75, 34.5, 34.25, 33.848213, 33.517857, 33.321426, 33.0625, 32.8125, 32.5625, 32.25, 32, 31.875, 31.544643, 31.049999, 30.958334, 30.446428, 30.446428, 30.25, 30, 29.705357, 29.3125, 28.767857, 28.589287, 28.3125, 27.9375, 27.55357, 27.25, 26.875, 26.75, 26.625, 26.375, 26.25, 26.0625, 25.8125, 25.491072, 24.934525, 24.571428, 24.25, 24.125, 23.875, 23.625, 23.375, 23.0625, 22.8125, 22.5625, 22.25, 21.830357, 21.625, 21.375, 21.125, 20.9375, 20.491072, 19.872023, 19.598213, 19.375, 19.160713, 18.785713, 18.446428, 18.1875, 18.0625, 17.8125, 17.625, 17.375, 17.0625, 16.830357, 16.5625, 16.3125, 16.0625, 15.75, 15.4375, 14.9375, 14.455357, 14.1875, 14, 14, 13.75, 13.5, 13.25, 12.75, 12.5, 12.25, 12, 12, 12, 12.0625, 12.3125, 12.5625, 12.8125, 13.0625, 13.125, 13.125, 13.125, 13.0625, 13.0625, 13.035714, 13.089286, 13.125, 13.125, 13.25, 13.3125, 13.5625, 13.75, 13.9375, 14.0625, 14.0625, 14.0625, 14.0625, 14, 13.8125, 13.6875, 13.625, 13.625, 13.8125, 13.9375, 14.0625, 14.125, 14.375, 14.625, 14.8125, 14.8125, 14.625, 14.375, 14.125, 14.3125, 14.5, 14.589287, 14.5, 14.625, 14.714287, 14.875, 15, 15, 15, 15.0625, 15.125, 15.1875, 15.25, 15.25, 15.3125, 15.5, 15.6875, 15.6875, 15.6875, 15.6875, 15.6875, 15.875, 16.125, 15.839286, 14.559525, 11.777778, 10.57551, 8.8888893, 8.1190481, 7.7916665, 7.875, 7.9940476, 8.0119047, 7.8973217, 7.8125, 7.625, 7.5, 7.4375, 7.4375, 7.2857141, 7.5, 7.375, 7.3125, 7.375, 7.4732141, 7.4183679, 7.5, 7.75, 8.4285717, 8.9732151, 9.6279764, 10, 10.3125, 10.4375, 10.642857, 10.723214, 10.5, 10.410714, 10.4375, 10.5625, 10.8125, 10.875, 10.9375, 11.0625, 11.25, 11.5625, 11.8125, 11.8125, 11.75, 11.46875, 11.25, 11.125, 11.080357, 11.145833, 10.955357, 11.133928, 11.395833, 11.669643, 11.9375, 12.0625, 12.098214, 12.026786, 12.1875, 12.232143, 12.25, 12.25, 12.0625, 11.875, 11.8125, 11.8125, 11.875, 12.1875, 12.375, 12.633928, 13.279761, 13.761905, 13.982143, 14.25, 14.383928, 14.6875, 14.875, 15, 15, 15.151786, 15.491072, 16.020834, 16.366072, 16.544643, 16.607143, 16.5625, 16.669643, 16.6875, 16.8125, 16.8125, 16.75, 16.6875, 16.75, 17, 17.535715, 18.107143, 18.482143, 18.75, 19.142857, 19.4375, 19.794643, 20.422619, 21, 21.767857, 22.827381, 23.5, 23.749998, -10, -10, -10, -10, -10, -10, -10, -10, -10, -10, -10, -10, -10, -10, -10, -10, -10, -10, -10, -10, -10, -10, -10, -10, -10, -10, -10, -10, -10, -10, -10, -10, -10, -10, -10, -10, -10, 57.75, 57.666664, 57.544647, 56.864586, 56.602676, 56.40625, 56.28125, 56.026787, 55.497025, 55.133926, 54.75, 54.75, 54.5, 54.3125, 53.973213, 53.410713, 52.714287, 52.330357, 52.125, 51.973213, 51.767857, 51.696426, 51.5625, 51.625, 51.535717, 51.151787, 51.125, 50.8125, 50.75, 50.446426, 49.916668, 49.526787, 49.232143, 49.004463, 48.736607, 48.477676, 48.25, 47.80357, 47.357143, 47.133926, 46.732147, 46.309525, 46.16964, 45.788689, 45.104164, 44.785717, 44.508926, 44.462502, 44.071426, 43.803574, 43.5, 43.3125, 43.125, 42.84375, 42.625, 42.375, 42.25, 42.21875, 42.160713, 41.776787, 40.964287, 40.571426, 40.375, 40.34375, 40.34375, 40.46875, 40.200893, 39.708336, 39.383926, 38.767857, 38.226189, 37.9375, 37.625, 37.5, 37.330357, 37.375, 37.0625, 36.666668, 36.208332, 35.803574, 35.767857, 35.700001, 35.383926, 35.258926, 34.8125, 34.5, 34.25, 33.848213, 33.517857, 33.321426, 33.0625, 32.875, 32.6875, 32.366074, 31.916666, 31.696428, 31.357143, 30.924999, 30.833334, 30.446428, 30.446428, 30.25, 30, 29.642857, 29.3125, 28.875, 28.714287, 28.4375, 28, 27.55357, 27.25, 26.8125, 26.625, 26.4375, 26.1875, 26.125, 26, 25.75, 25.375, 25.059525, 24.85, 24.357143, 24.232143, 23.8125, 23.5625, 23.3125, 23, 22.8125, 22.5625, 22.25, 21.892857, 21.6875, 21.4375, 21.25, 20.9375, 20.491072, 19.934523, 19.642857, 19.375, 19.1875, 18.892857, 18.5625, 18.3125, 18.125, 17.8125, 17.6875, 17.4375, 17.125, 16.892857, 16.5625, 16.3125, 16, 15.6875, 15.375, 14.9375, 14.517857, 14.25, 14.0625, 14, 13.75, 13.5, 13.25, 12.75, 12.5, 12.25, 12, 12, 12, 12.125, 12.375, 12.625, 12.875, 13.125, 13.1875, 13.1875, 13.1875, 13.0625, 13, 13, 13.1875, 13.25, 13.375, 13.4375, 13.5, 13.6875, 13.8125, 14, 14, 14, 14, 14, 14, 13.8125, 13.6875, 13.625, 13.625, 13.8125, 13.9375, 14.0625, 14.125, 14.375, 14.625, 14.8125, 14.875, 14.75, 14.5625, 14.3125, 14.4375, 14.5, 14.464287, 14.375, 14.4375, 14.526787, 14.75, 14.875, 14.9375, 15, 15, 15.125, 15.25, 15.375, 15.5, 15.46875, 15.5625, 15.625, 15.5625, 15.65625, 15.6875, 15.75, 15.9375, 16.125, 16.044643, 15.431973, 14.420635, 11.885715, 9.9523802, 9.0204077, 8.5357141, 8.7295923, 9.2397966, 9.333334, 9.1547623, 8.7857141, 8.2857141, 8, 7.875, 7.9375, 8.333333, 8, 7.9375, 7.875, 7.9464283, 8.270833, 9.0476198, 9.125, 9.25, 9.3112249, 9.4732151, 9.7946434, 10, 10.1875, 10.3125, 10.455358, 10.598214, 10.4375, 10.348214, 10.4375, 10.5625, 10.75, 10.8125, 10.875, 10.9375, 11.125, 11.375, 11.625, 11.6875, 11.75, 11.625, 11.5625, 11.625, 11.5625, 11.5625, 11.375, 11.375, 11.473214, 11.5625, 11.767857, 11.9375, 12.098214, 12.125, 12.1875, 12.125, 12.125, 12.1875, 12.125, 12.0625, 12.0625, 12, 12
-10, -10, -10, -10, -10, -10, -10, -10, -10, -10, -10, -10, -10, -10, -10, -10, -10, -10, -10, -10, -10, -10, 57.75, 57.666664, 57.482147, 56.708336, 56.383926, 56.125, 56, 55.785713, 55.455357, 55.1875, 54.8125, 54.8125, 54.5625, 54.3125, 53.901787, 53.30357, 52.69643, 52.321426, 52.1875, 52.098213, 51.875, 51.613094, 51.383926, 51.3125, 51.294643, 51.089287, 51.0625, 50.875, 50.8125, 50.616074, 50.041668, 49.651787, 49.294643, 48.941963, 48.611607, 48.352676, 48.1875, 47.919643, 47.517857, 47.258926, 46.732147, 46.318455, 46.29464, 45.913689, 45.291664, 44.848217, 44.633926, 44.525002, 44.071426, 43.76786, 43.5, 43.375, 43.25, 42.96875, 42.6875, 42.375, 42.1875, 42.15625, 42.098213, 41.714287, 40.921429, 40.61607, 40.4375, 40.46875, 40.46875, 40.59375, 40.27232, 39.75, 39.383926, 38.75, 38.017857, 37.696426, 37.3125, 37.1875, 37.098213, 37.25, 37, 36.767857, 36.270832, 36, 36.092857, 35.958927, 35.633926, 35.383926, 34.875, 34.5, 34.125, 33.6875, 33.4375, 33.25, 33, 32.8125, 32.625, 32.303574, 31.854166, 31.571428, 31.241072, 30.924999, 30.770834, 30.383928, 30.258928, 30.0625, 29.9375, 29.75, 29.5, 29.1875, 28.94643, 28.517857, 28, 27.535713, 27.25, 26.75, 26.5, 26.25, 26, 26, 25.866072, 25.479166, 25.205357, 25.104166, 25.0375, 24.5, 24.303572, 23.8125, 23.5625, 23.3125, 23, 22.875, 22.625, 22.3125, 21.892857, 21.5625, 21.3125, 21.125, 20.8125, 20.4375, 20.080357, 19.6875, 19.4375, 19.25, 19, 18.75, 18.5, 18.25, 17.9375, 17.6875, 17.4375, 17.1875, 16.9375, 16.625, 16.375, 16, 15.625, 15.3125, 14.875, 14.5, 14.25, 14.0625, 14, 13.8125, 13.625, 13.375, 12.875, 12.517857, 12.25, 12, 12, 12.0625, 12.25, 12.5, 12.6875, 12.875, 13.0625, 13.125, 13.1875, 13.1875, 13.03125, 12.90625, 12.90625, 13.09375, 13.294643, 13.5, 13.625, 13.6875, 13.8125, 13.875, 14, 14, 14, 14, 14, 14, 13.875, 13.8125, 13.75, 13.75, 13.875, 13.9375, 14.125, 14.25, 14.5, 14.75, 14.875, 14.9375, 14.875, 14.75, 14.5, 14.5625, 14.5, 14.401787, 14.3125, 14.375, 14.464287, 14.625, 14.75, 14.8125, 15, 15.125, 15.3125, 15.5, 15.625, 15.71875, 15.65625, 15.625, 15.5625, 15.46875, 15.59375, 15.6875, 15.8125, 16, 16.0625, 16.1875, 15.982143, 15.401361, 13.990476, 10.895833, 9.9821424, 9.4375, 9.6696434, 10.303572, 10.315476, 10.014456, 9.6071424, 8.875, 8.8125, 8.75, 9.1428576, 9, 8.75, 8.7142859, 8.6326532, 9.1887751, 9.5952377, 9.8265314, 10.035714, 10.178572, 10.116072, 10.232143, 10.3125, 10.3125, 10.3125, 10.375, 10.589285, 10.910714, 10.75, 10.660713, 10.5625, 10.625, 10.75, 10.875, 11, 11.0625, 11.1875, 11.3125, 11.4375, 11.5, 11.6875, 11.75, 11.919643, 11.9375, 11.8125, 11.75, 11.5, 11.5, 11.598214, 11.625, 11.767857, 12, 12.160714, 12.1875, 12.1875, 12.125, 12.1875, 12.375, 12.5, 12.5, 12.5, 12.375, 12.3125, 12.5, 12.625, 12.8125, 13.133928, 13.395833, 13.508928, 13.892857, 14.169643, 14.614583, 14.959822, 15.0625, 15.125, 15.276786, 15.491072, 15.958334, 16.178572, 16.357143, 16.544643, 16.75, 16.919643, 17, 17, 16.9375, 16.75, 16.5, 16.4375, 16.866072, 17.482143, 18.107143, 18.5, 18.875, 19.299107, 19.71875, 20.075893, 20.641369, 21.1875, 21.830357, 22.982143, 23.571428, 23.833332, -10, -10, -10, -10, -10, -10, -10, -10, -10, -10, -10, -10, -10, -10, -10, -10, -10, -10, -10, -10, -10, -10, -10, -10, -10, -10, -10, -10, -10, -10, -10, -10, -10, -10, -10, -10, -10, 57.75, 57.666664, 57.482147, 56.708336, 56.321426, 56.0625, 55.9375, 55.785713, 55.517857, 55.3125, 54.9375, 54.875, 54.6875, 54.428574, 53.854168, 53.267857, 52.866074, 52.535713, 52.330357, 52.098213, 51.75, 51.425594, 51.133926, 51.0625, 51.044643, 50.901787, 50.9375, 50.75, 50.6875, 50.5, 50.0625, 49.705357, 49.357143, 48.879463, 48.486607, 48.227676, 48, 47.75, 47.5, 47.1875, 46.678574, 46.526787, 46.566963, 46.257439, 45.572914, 45.004467, 44.723213, 44.632141, 44.026787, 43.785713, 43.5625, 43.4375, 43.375, 43.03125, 42.75, 42.4375, 42.25, 42.21875, 42.125, 41.88393, 41.099998, 40.80357, 40.625, 40.65625, 40.65625, 40.611607, 39.89732, 39.303574, 39.008926, 38.5625, 38, 37.696426, 37.241074, 36.916668, 36.889881, 37.075001, 36.696426, 36.482143, 36.1875, 36.133926, 36.262501, 36.071426, 35.8125, 35.229168, 34.758926, 34.375, 34.0625, 33.625, 33.375, 33.1875, 32.9375, 32.8125, 32.625, 32.303574, 31.854166, 31.571428, 31.25, 30.9375, 30.580357, 30.375, 30.1875, 30.0625, 30, 29.875, 29.625, 29.3125, 28.901787, 28.517857, 28.035713, 27.535713, 27.258928, 26.75, 26.5, 26.25, 26.0625, 26.0625, 25.928572, 25.454166, 25.25, 25.104166, 25.1, 24.5, 24.303572, 23.8125, 23.5625, 23.3125, 22.9375, 22.75, 22.5, 22.125, 21.767857, 21.4375, 21.1875, 21.0625, 20.75, 20.5, 20.25, 19.75, 19.5, 19.25, 18.9375, 18.75, 18.5, 18.1875, 17.875, 17.625, 17.375, 17.1875, 16.9375, 16.625, 16.375, 16, 15.625, 15.3125, 14.875, 14.5, 14.25, 14.0625, 14, 13.803572, 13.5, 13.3125, 12.8125, 12.517857, 12.25, 12, 12.0625, 12.1875, 12.375, 12.625, 12.75, 12.875, 13.125, 13.1875, 13.25, 13.25, 13, 12.8125, 12.8125, 12.9375, 13.169643, 13.5, 13.6875, 13.8125, 13.9375, 13.9375, 14, 14, 14, 14, 14, 14, 13.9375, 13.9375, 13.9375, 13.9375, 14.0625, 14.125, 14.232143, 14.166667, 14.354167, 14.708333, 14.866072, 15, 15, 14.9375, 14.75, 14.75, 14.625, 14.482143, 14.5, 14.5, 14.482143, 14.5625, 14.625, 14.6875, 15, 15.25, 15.5, 15.75, 15.875, 15.96875, 15.84375, 15.6875, 15.5, 15.34375, 15.46875, 15.625, 15.8125, 16, 16.0625, 16.125, 16.125, 15.955357, 14.940817, 11.829932, 10.57483, 10.232143, 10.419643, 10.875, 10.854167, 10.622024, 10.3125, 9.875, 9.9375, 9.9375, 10.25, 10.666667, 10.708333, 10.75, 10.767858, 10.443877, 10.651361, 10.616072, 10.75, 10.9375, 11.25, 11.25, 11.053572, 10.729167, 10.571428, 10.625, 10.883928, 11.125, 10.955357, 10.839285, 10.75, 10.875, 11, 11.125, 11.25, 11.25, 11.25, 11.25, 11.1875, 11.25, 11.4375, 11.625, 12.211309, 12.270833, 12.142857, 12.008928, 11.75, 11.75, 11.785714, 11.75, 11.830357, 12, 12.223214, 12.3125, 12.375, 12.375, 12.5, 12.75, 12.9375, 13, 12.9375, 12.75, 12.625
-10, -10, -10, -10, -10, -10, -10, -10, -10, -10, -10, -10, -10, -10, -10, -10, -10, -10, -10, -10, -10, -10, 57.625, 57.499996, 57.366074, 56.791668, 56.508926, 56.25, 56.125, 55.941963, 55.611607, 55.477676, 55.21875, 55.125, 54.928574, 54.345242, 53.738098, 53.111607, 52.803574, 52.535713, 52.330357, 52.129463, 51.8125, 51.425594, 51.133926, 51, 50.9375, 51, 50.973213, 50.705357, 50.508926, 50.1875, 49.75, 49.455357, 49.25, 48.910713, 48.580357, 48.383926, 48.1875, 48, 47.875, 47.553574, 46.849998, 46.526787, 46.361607, 46.142857, 45.686012, 45.075897, 44.723213, 44.482143, 44.098213, 43.857143, 43.75, 43.553574, 43.375, 43.15625, 42.875, 42.625, 42.375, 42.28125, 42.125, 41.991074, 41.454166, 41.17857, 40.875, 40.75, 40.75, 40.642857, 40, 39.136906, 38.839287, 38.4375, 37.9375, 37.696426, 37.178574, 36.791668, 36.764881, 36.887501, 36.571426, 36.419643, 36.15625, 36.227676, 36.333931, 36.0625, 35.758926, 35.104168, 34.696426, 34.3125, 34, 33.625, 33.375, 33.125, 32.8125, 32.625, 32.4375, 32.178574, 31.854166, 31.696428, 31.428572, 30.979166, 30.589285, 30.375, 30.1875, 30, 29.9375, 29.75, 29.5, 29.3125, 28.9375, 28.642857, 28.214285, 27.559523, 27.267857, 26.75, 26.5, 26.25, 26.0625, 26.0625, 25.866072, 25.329166, 25.125, 24.979166, 25.0375, 24.5, 24.241072, 23.75, 23.5, 23.25, 22.875, 22.625, 22.375, 22.0625, 21.875, 21.5625, 21.3125, 21.125, 20.75, 20.5, 20.25, 19.75, 19.5, 19.25, 18.9375, 18.75, 18.5, 18.1875, 17.9375, 17.75, 17.5, 17.3125, 16.9375, 16.5625, 16.3125, 15.9375, 15.625, 15.3125, 14.875, 14.5625, 14.3125, 14.125, 14.0625, 13.803572, 13.5, 13.3125, 12.8125, 12.517857, 12.25, 12, 12.125, 12.3125, 12.5625, 12.8125, 12.875, 12.9375, 13.0625, 13.0625, 13.125, 13.1875, 13.125, 13.0625, 12.955357, 13.008928, 13.169643, 13.4375, 13.5625, 13.625, 13.6875, 13.75, 13.875, 13.9375, 14, 14, 14, 14, 14, 14, 14, 14, 14.0625, 14.0625, 14.107143, 13.979167, 14.113095, 14.583333, 14.741072, 14.9375, 14.9375, 15, 14.8125, 14.8125, 14.6875, 14.5, 14.625, 14.5, 14.375, 14.4375, 14.5, 14.625, 15.0625, 15.375, 15.625, 15.875, 15.9375, 15.96875, 15.90625, 15.75, 15.5625, 15.46875, 15.53125, 15.6875, 15.875, 16, 16.0625, 16.0625, 16.0625, 16.0625, 15.366072, 13.492064, 12.198413, 11.408164, 11.489797, 11.6875, 11.666667, 11.372024, 11.125, 11.142858, 11.285714, 11.198979, 11.224489, 11.357142, 11.571428, 11.836736, 11.908164, 11.867347, 11.583334, 11.401785, 11.446428, 11.5625, 11.964286, 12, 12.020409, 11.4375, 11, 11.083333, 11.479167, 11.583333, 11.482142, 11.265306, 11.271429, 11.491072, 11.482143, 11.5625, 11.6875, 11.8125, 11.714286, 11.642858, 11.589286, 11.660714, 11.839286, 12.089286, 12.979166, 12.958333, 12.642857, 12.508928, 12.25, 12.3125, 12.285714, 12.142857, 12.142857, 12.25, 12.410714, 12.4375, 12.5, 12.5, 12.6875, 13, 13.1875, 13.25, 13.1875, 12.9375, 12.75, 12.75, 12.75, 12.875, 13, 13, 13.089286, 13.464286, 14.127976, 14.703869, 15.022322, 15.125, 15.25, 15.5, 15.625, 15.8125, 15.75, 15.625, 15.8125, 16.25, 16.785715, 17.098213, 17.125, 17.125, 17, 16.9375, 17, 17.397322, 17.790178, 18.28125, 18.78125, 19.25, 19.65625, 20.03125, 20.21875, 20.40625, 20.625, 21.017857, 22.571428, 23.309523, 23.716667, -10, -10, -10, -10, -10, -10, -10, -10, -10, -10, -10, -10, -10, -10, -10, -10, -10, -10, -10, -10, -10, -10, -10, -10, -10, -10, -10, -10, -10, -10, -10, -10, -10, -10, -10, -10, -10, 57.5, 57.333332, 57.25, 56.8125, 56.5625, 56.3125, 56, 55.78125, 55.53125, 55.40625, 55.21875, 55.125, 54.919647, 54.074406, 53.452385, 53.040176, 52.9375, 52.785713, 52.517857, 52.165176, 51.8125, 51.479168, 51.196426, 51.0625, 51, 51.0625, 51.160713, 50.934525, 50.363098, 49.955357, 49.5, 49.3125, 49.125, 48.875, 48.625, 48.375, 48.080357, 47.875, 47.857143, 47.491074, 46.974998, 46.5625, 46.175892, 46.178574, 45.78125, 45.188988, 44.848213, 44.419643, 44.080357, 43.919643, 43.8125, 43.669647, 43.3125, 43.1875, 42.875, 42.6875, 42.4375, 42.375, 42.1875, 42.0625, 41.680359, 41.419643, 40.991074, 40.6875, 40.625, 40.392857, 39.821426, 38.886906, 38.589287, 38.294643, 38.104168, 37.946426, 37.491074, 36.979168, 36.764881, 36.700001, 36.383926, 36.276787, 36.09375, 36.165176, 36.208931, 35.875, 35.571426, 34.916668, 34.571426, 34.25, 34, 33.6875, 33.4375, 33.1875, 32.8125, 32.5625, 32.3125, 32.0625, 31.9375, 31.8125, 31.491072, 30.872023, 30.464285, 30.1875, 30.0625, 29.9375, 29.9375, 29.8125, 29.5625, 29.375, 29, 28.705357, 28.339285, 27.747023, 27.392857, 26.875, 26.517857, 26.25, 26.125, 26.125, 25.866072, 25.284523, 25.125, 24.875, 24.8125, 24.455357, 24.133928, 23.75, 23.5, 23.25, 22.9375, 22.6875, 22.4375, 22.125, 21.875, 21.5625, 21.3125, 21.125, 20.8125, 20.5625, 20.3125, 19.8125, 19.5, 19.25, 18.9375, 18.75, 18.5, 18.1875, 17.9375, 17.75, 17.5, 17.3125, 16.9375, 16.5625, 16.3125, 15.9375, 15.625, 15.3125, 14.8125, 14.5625, 14.3125, 14.0625, 13.955357, 13.678572, 13.375, 13.25, 12.875, 12.642857, 12.4375, 12.25, 12.375, 12.5625, 12.8125, 13, 13.0625, 13.0625, 13.0625, 13.0625, 13.0625, 13.1875, 13.25, 13.1875, 13.080357, 13.008928, 13.044643, 13.25, 13.375, 13.4375, 13.5, 13.625, 13.75, 13.875, 14, 14, 14, 14, 14, 14, 14.0625, 14.125, 14.1875, 14.1875, 14.107143, 13.854167, 13.925595, 14.333333, 14.491072, 14.75, 14.8125, 14.9375, 14.875, 14.875, 14.8125, 14.6875, 14.6875, 14.5625, 14.4375, 14.4375, 14.5625, 14.6875, 15.125, 15.5, 15.75, 16, 16, 15.96875, 15.9375, 15.8125, 15.6875, 15.65625, 15.6875, 15.8125, 15.9375, 16, 16, 16, 16, 16, 15.544643, 13.802382, 12.625, 12.336736, 12.0625, 12.1875, 12.285714, 12.224489, 12.25, 12.357142, 12.535714, 12.448979, 12.196428, 12.3125, 12.5, 12.732143, 12.989797, 12.969388, 12.714286, 12.223213, 12.258928, 12.375, 12.625, 12.75, 12.875, 12.625, 11.857142, 11.845238, 12.541667, 12.583333, 12.419642, 12.85119, 12.758334, 12.178572, 12.169643, 12.25, 12.5, 12.75, 13.071428, 13.541667, 13.708333, 13.916667, 14.125, 14.071429, 13.7483, 13.404761, 13.017857, 12.883928, 12.6875, 12.75, 12.75, 12.75, 12.75, 12.8125, 12.875, 12.9375, 12.892858, 12.97619, 13.083333, 13.232143, 13.3125, 13.375, 13.40625, 13.34375, 13.160714
-10, -10, -10, -10, -10, -10, -10, -10, -10, -10, -10, -10, -10, -10, -10, -10, -10, -10, -10, -10, -10, -10, 57.5, 57.333332, 57.25, 56.8125, 56.5625, 56.3125, 56, 55.78125, 55.53125, 55.40625, 55.191963, 54.955357, 54.669647, 53.886906, 53.372025, 53.040176, 53, 52.848213, 52.455357, 51.915176, 51.517857, 51.3125, 51.125, 51.125, 51.125, 51.3125, 51.580357, 51.282738, 50.363098, 49.875, 49.453125, 49.3125, 49.008926, 48.6875, 48.4375, 48.25, 48.017857, 47.9375, 47.714287, 47.616074, 47.162498, 46.625, 46.238392, 46.303574, 45.852676, 45.147324, 44.785713, 44.419643, 44.205357, 44.080357, 43.9375, 43.732147, 43.3125, 43.1875, 42.9375, 42.75, 42.5, 42.4375, 42.160713, 41.955357, 41.651787, 41.3125, 40.991074, 40.625, 40.5625, 40.205357, 39.625, 38.866074, 38.589287, 38.375, 38.3125, 38.1875, 37.741074, 37.229168, 36.872025, 36.575001, 36.258926, 36.133926, 36.03125, 36.09375, 35.946426, 35.678574, 35.383926, 34.720238, 34.321426, 34.09375, 33.875, 33.6875, 33.4375, 33.28125, 32.9375, 32.75, 32.5, 32.1875, 32.0625, 31.875, 31.491072, 30.764879, 30.339285, 30.0625, 30, 29.9375, 29.9375, 29.75, 29.5, 29.1875, 28.767857, 28.625, 28.339285, 27.872023, 27.517857, 27, 26.535713, 26.25, 26.125, 26.125, 25.9375, 25.555357, 25.357143, 24.9375, 24.75, 24.4375, 24.125, 23.8125, 23.5, 23.25, 22.9375, 22.625, 22.375, 22.0625, 21.8125, 21.5625, 21.3125, 21.125, 20.875, 20.6875, 20.4375, 19.9375, 19.517857, 19.25, 18.875, 18.625, 18.375, 18.0625, 17.8125, 17.6875, 17.4375, 17.25, 16.9375, 16.5625, 16.25, 15.8125, 15.5, 15.1875, 14.8125, 14.6875, 14.5, 14.25, 14.080357, 13.678572, 13.25, 13.205357, 13.145833, 13.178572, 12.857142, 12.928572, 12.875, 13, 13.125, 13.3125, 13.375, 13.4375, 13.5, 13.5625, 13.357142, 13.625, 13.65625, 13.65625, 13.611607, 13.575892, 13.285714, 13.418367, 13.517857, 13.4375, 13.4375, 13.5625, 13.6875, 13.9375, 14.125, 14.1875, 14.1875, 14.125, 14.0625, 14, 14.125, 14.25, 14.375, 14.375, 14.169643, 13.791667, 13.738095, 14.083333, 14.241072, 14.5625, 14.6875, 14.875, 14.9375, 14.9375, 14.9375, 14.8125, 14.75, 14.625, 14.5, 14.625, 14.8125, 14.9375, 15.25, 15.4375, 15.5625, 15.75, 15.8125, 15.875, 15.9375, 15.9375, 15.875, 15.875, 15.875, 15.9375, 16, 16, 16, 16, 16, 16, 15.696428, 14.614882, 13.553572, 13.169643, 12.9375, 13, 12.9375, 12.875, 13.142858, 13.285714, 13.392858, 13.35204, 13.474489, 13.5, 13.714286, 13.836736, 13.6875, 13.723214, 13.775511, 13.530611, 13.438775, 13.1875, 13.375, 13.5, 13.6875, 13.833333, 13.833333, 13.763889, 13.726191, 13.738095, 13.612245, 13.693877, 13.650001, 13.418367, 13.169643, 13.1875, 13.571428, 13.892858, 14.142858, 14.464286, 14.642858, 14.857142, 15.071428, 14.994898, 14.806122, 14.342261, 13.830357, 13.758928, 13.857142, 13.928572, 13.928572, 13.857142, 13.785714, 13.785714, 13.6875, 13.8125, 14.416667, 14.304421, 13.666666, 13.803572, 13.581633, 13.642858, 13.9375, 13.9375, 13.754464, 13.318453, 13.103571, 13.091836, 13.578571, 13.729167, 14.053572, 14.25, 14.770833, 14.964286, 15.125, 15.1875, 15.3125, 15.5625, 15.8125, 16, 16.0625, 16.125, 16.25, 16.5625, 16.991072, 17.160713, 17.1875, 17.125, 17.125, 17.3125, 17.5625, 17.84375, 18.15625, 18.40625, 18.65625, 19, 19.1875, 19.5, 19.625, 19.75, 19.875, 20.017857, 20.870747, 22.857141, 23.400002, -10, -10, -10, -10, -10, -10, -10, -10, -10, -10, -10, -10, -10, -10, -10, -10, -10, -10, -10, -10, -10, -10, -10, -10, -10, -10, -10, -10, -10, -10, -10, -10, -10, -10, -10, -10, -10, 57.5, 57.333332, 57.1875, 56.75, 56.5, 56.25, 56, 55.78125, 55.522324, 55.052082, 54.745537, 54.517857, 54.169647, 53.520836, 53.267853, 52.96875, 52.875, 52.6875, 52.3125, 51.790176, 51.517857, 51.375, 51.3125, 51.375, 51.303574, 51.3125, 51.642857, 51.30357, 50.279762, 49.848213, 49.546875, 49.473213, 49.008926, 48.821426, 48.5625, 48.330357, 48.089287, 48.0625, 48.035713, 47.758926, 47.358925, 46.6875, 46.269642, 46.272324, 45.821426, 45.241074, 44.946426, 44.625, 44.5, 44.3125, 44.125, 43.857147, 43.4375, 43.3125, 43.0625, 42.875, 42.5625, 42.4375, 42.160713, 41.830357, 41.526787, 41.1875, 40.803574, 40.4375, 40.3125, 40.125, 39.910713, 39.080357, 38.785713, 38.4375, 38.3125, 38.1875, 37.75, 37.4375, 37.017857, 36.5625, 36.3125, 36.125, 35.96875, 35.90625, 35.696426, 35.366074, 35.133926, 34.741074, 34.4375, 34.28125, 34, 33.8125, 33.455357, 33.34375, 33.0625, 32.9375, 32.6875, 32.3125, 32.0625, 31.75, 31.303572, 30.577379, 30.258928, 30, 30, 29.875, 29.8125, 29.5625, 29.3125, 29.125, 28.8125, 28.625, 28.366072, 27.916666, 27.571428, 27.125, 26.598213, 26.3125, 26.125, 26.0625, 25.9375, 25.642857, 25.3125, 24.830357, 24.625, 24.375, 24.125, 23.9375, 23.625, 23.375, 23.125, 22.75, 22.4375, 22.125, 21.8125, 21.5625, 21.3125, 21.125, 20.9375, 20.8125, 20.553572, 20, 19.642857, 19.3125, 19, 18.642857, 18.375, 18.125, 17.875, 17.75, 17.5, 17.25, 16.9375, 16.5625, 16.25, 15.75, 15.4375, 15.125, 14.8125, 14.8125, 14.6875, 14.5, 14.330357, 13.9375, 13.714286, 13.741072, 13.770833, 14.061225, 14.208333, 13.918367, 13.625, 13.71875, 13.8125, 13.9375, 13.9375, 13.96875, 13.9375, 14.0625, 14.416667, 14.0625, 14.229167, 14.541666, 14.526785, 14.607142, 15, 14.892858, 14.142857, 13.875, 13.8125, 13.9375, 13.892858, 14.4375, 14.625, 14.6875, 14.6875, 14.6875, 14.428572, 14.357142, 14.5, 14.75, 14.6875, 14.5625, 14.3125, 14.1875, 14.196428, 14.4375, 14.5, 14.6875, 14.75, 14.875, 14.9375, 14.9375, 14.9375, 14.875, 14.8125, 14.6875, 14.625, 14.8125, 15.0625, 15.1875, 15.375, 15.375, 15.375, 15.5, 15.5625, 15.625, 15.75, 15.875, 15.9375, 16, 16, 16, 16, 16, 16, 16, 16, 16, 15.758928, 14.766667, 14.319727, 14.071428, 13.785714, 13.6875, 13.705357, 13.833333, 13.991072, 14.125, 14.125, 14.089285, 14.397959, 14.392858, 14.535714, 14.357143, 14.375, 14.5, 14.419643, 14.438775, 14.469388, 14.321428, 14.428572, 14.571428, 14.446429, 14.761905, 14.67347, 14.619048, 14.666666, 14.690476, 14.622449, 14.508928, 14.5375, 14.530612, 14.418367, 14.321428, 14.428572, 14.714286, 14.928572, 15.0625, 15.361607, 15.65625, 15.84375, 15.808036, 15.372025, 15.295918, 14.857142, 14.857142, 14.821428, 14.857142, 15, 14.897959, 14.663264, 14.62245, 14.678572, 14.857142, 15.142858, 15.304421, 15.347221, 14.918367, 15.232142, 15.166667, 15, 15.035714, 14.790816
-10, -10, -10, -10, -10, -10, -10, -10, -10, -10, -10, -10, -10, -10, -10, -10, -10, -10, -10, -10, -10, -10, 57.5, 57.333332, 57.125, 56.625, 56.375, 56.125, 55.875, 55.6875, 55.366074, 54.833332, 54.526787, 54.267857, 53.928574, 53.416668, 53.160713, 53, 52.973213, 52.8125, 52.392857, 51.821426, 51.517857, 51.4375, 51.5, 51.6875, 51.625, 51.400002, 51.857143, 51.452381, 50.208336, 49.839287, 49.609375, 49.696426, 49.258926, 48.863094, 48.625, 48.267857, 48.026787, 47.9375, 47.723213, 47.392857, 47.151783, 46.8125, 46.474998, 46.553574, 46.107143, 45.455357, 45.267857, 44.9375, 44.8125, 44.5625, 44.25, 43.991074, 43.625, 43.4375, 43.1875, 42.9375, 42.6875, 42.5625, 42.285713, 41.830357, 41.464287, 41.125, 40.803574, 40.4375, 40.25, 40.0625, 39.776787, 39.309525, 39.017857, 38.625, 38.464287, 38.3125, 37.919643, 37.479168, 37.026787, 36.625, 36.375, 36.1875, 35.9375, 35.6875, 35.4375, 35.1875, 35.0625, 34.803574, 34.5625, 34.40625, 34.071426, 33.666668, 33.330357, 33.21875, 33.125, 33, 32.8125, 32.419643, 31.955357, 31.642857, 31.1875, 30.723213, 30.4375, 30.125, 30.0625, 29.875, 29.75, 29.5, 29.25, 29.0625, 28.75, 28.5, 28.1875, 27.875, 27.5625, 27.1875, 26.651785, 26.25, 26.125, 26, 26, 25.705357, 25.375, 24.830357, 24.5625, 24.3125, 24.125, 24.0625, 23.75, 23.5, 23.25, 22.8125, 22.5, 22.1875, 21.8125, 21.5625, 21.3125, 21.125, 20.9375, 20.8125, 20.491072, 20, 19.625, 19.142857, 18.821428, 18.455357, 18.25, 18.0625, 17.875, 17.75, 17.5, 17.25, 16.9375, 16.5625, 16.25, 15.8125, 15.625, 15.5, 15.375, 15.214286, 15.142858, 14.928572, 14.734694, 14.392858, 14.464286, 14.704082, 14.880952, 15.132653, 15.214286, 14.904762, 15, 14.964286, 14.892858, 14.964286, 14.8125, 14.84375, 14.875, 15.178572, 15.142858, 14.8125, 14.854167, 15.404761, 15.581633, 15.862245, 15.857142, 15.765306, 15.448979, 15.142858, 15.071428, 15.107142, 15.458333, 15.464286, 15.642858, 15.714286, 15.714286, 15.714286, 15.970238, 16.1, 16.107141, 15.6875, 15.5, 15.178572, 14.928572, 15.125, 15.0625, 15.0625, 15.0625, 15.125, 15.25, 15.3125, 15.3125, 15.25, 15.25, 15.166667, 15.366072, 15.303572, 15.142858, 15.5, 15.6875, 15.6875, 15.6875, 15.625, 15.5625, 15.625, 15.6875, 15.625, 15.6875, 15.8125, 15.875, 16, 16, 16.0625, 16.125, 16.125, 16.125, 16.0625, 16, 16, 15.866072, 15.4125, 15.292518, 15.214286, 14.708333, 14.428572, 14.341836, 14.988095, 15.061225, 15.107142, 14.9375, 15.071428, 15.25, 15.1875, 15.25, 15.125, 15.125, 15.25, 15.25, 15.1875, 15.25, 15.0625, 15.392858, 15.571428, 15.419643, 15.625, 15.5, 15.428572, 15.5625, 15.392857, 15.25, 15.25, 15.607142, 15.683673, 15.642858, 15.571428, 15.3125, 15.5, 15.464286, 15.678572, 16.080357, 16.3125, 16.4375, 16.526787, 15.976191, 15.867347, 15.535714, 15.75, 15.6875, 15.625, 16, 15.897959, 15.392857, 15.383929, 15.311225, 15.566327, 16.09375, 16.172619, 16.261904, 16, 16.056122, 15.928572, 15.946428, 15.75, 15.566964, 15.518707, 15.230613, 15.408163, 15.57551, 15.472789, 15.553572, 15.428572, 15.5, 15.5, 15.5625, 15.625, 15.75, 15.875, 16.125, 16.3125, 16.5, 16.75, 16.8125, 17.0625, 17.125, 17.125, 17.1875, 17.1875, 17.375, 17.625, 17.75, 17.875, 18, 18.125, 18.25, 18.5, 18.8125, 19.232143, 19.5625, 19.8125, 19.9375, 19.9375, 20.571428, 22.666666, 23.200001, -10, -10, -10, -10, -10, -10, -10, -10, -10, -10, -10, -10, -10, -10, -10, -10, -10, -10, -10, -10, -10, -10, -10, -10, -10, -10, -10, -10, -10, -10, -10, -10, -10, -10, -10, -10, -10, 57.5, 57.333332, 57.1875, 56.723213, 56.392857, 56.133926, 55.9375, 55.75, 55.366074, 54.726189, 54.276787, 53.955357, 53.625, 53.3125, 53.151787, 53.0625, 53.035713, 53, 52.67857, 52.142857, 51.875, 51.625, 51.580357, 51.6875, 51.5, 51.212502, 51.482143, 51.035713, 50.166668, 49.946426, 49.859375, 49.946426, 49.4375, 48.863094, 48.6875, 48.3125, 48.133926, 48.125, 47.910713, 47.57143, 47.089283, 46.8125, 46.482143, 46.424999, 46.285713, 45.663689, 45.580357, 45.25, 45.0625, 44.8125, 44.4375, 44.1875, 43.9375, 43.625, 43.3125, 42.964287, 42.75, 42.625, 42.401787, 41.747025, 41.392857, 41.0625, 40.875, 40.625, 40.375, 40.1875, 39.848213, 39.580357, 39.321426, 38.875, 38.589287, 38.4375, 38.017857, 37.488094, 37.0625, 36.625, 36.375, 36.1875, 35.9375, 35.75, 35.5, 35.25, 35.0625, 34.741074, 34.5625, 34.40625, 34.071426, 33.622025, 33.267857, 33.15625, 33.125, 33, 32.8125, 32.419643, 31.892857, 31.580357, 31.125, 30.705357, 30.4375, 30.125, 30.0625, 29.875, 29.6875, 29.4375, 29.1875, 28.9375, 28.625, 28.375, 28.0625, 27.8125, 27.5625, 27.25, 26.821428, 26.375, 26.1875, 26, 25.9375, 25.6875, 25.375, 24.892857, 24.625, 24.375, 24.1875, 24.125, 23.8125, 23.5625, 23.25, 22.75, 22.4375, 22.125, 21.8125, 21.625, 21.375, 21.1875, 20.9375, 20.75, 20.366072, 19.875, 19.5625, 19.080357, 18.758928, 18.392857, 18.1875, 18, 17.875, 17.75, 17.5625, 17.3125, 17, 16.6875, 16.375, 16.0625, 16, 15.9375, 16, 16.5, 16.583334, 16.625, 16.583334, 16.291666, 15.887755, 15.836734, 15.645833, 15.866072, 15.9375, 16.369047, 16.142857, 16.086735, 15.845239, 15.892858, 15.821428, 15.892858, 16, 15.875, 15.8125, 15.625, 15.604167, 16.119047, 16.403061, 16.598213, 16.6875, 16.669643, 16.581633, 16.357143, 16.321428, 16.392857, 16.505102, 16.566326, 16.714285, 16.678572, 16.678572, 16.714285, 16.831633, 16.942858, 16.87245, 16.928572, 16.647959, 16.833334, 16.666666, 16.392857, 16.357143, 16.357143, 16.285715, 16.178572, 16.071428, 15.994898, 15.919643, 15.928572, 15.714286, 15.619048, 16.178572, 16.178572, 16.666666, 16.375, 16.5, 16.4375, 16.375, 16.1875, 16, 16, 16, 16, 15.892858, 16.1875, 16.107143, 16.4375, 16.4375, 16.5, 16.5625, 16.5625, 16.482143, 16.4125, 16.416666, 16.178572, 16.258928, 16.169643, 16.089287, 16.321428, 16.375, 16.25, 16.136904, 15.95238, 16.061224, 16.071428, 16, 16.183674, 16.125, 16.0625, 16.125, 15.9375, 15.875, 16, 16, 16, 16.035713, 15.839286, 16.0625, 16.525511, 16.658163, 16.765306, 16.916666, 16.916666, 16.571428, 16.330357, 16.25, 16.25, 16.4375, 16.755102, 16.714285, 16.714285, 16.571428, 16.4375, 16.75, 16.75, 16.767857, 17.25, 17.1875, 17.241072, 17.295918, 17.214285, 17.25, 16.785713, 16.580357, 16.446428, 16.5625, 16.473213, 16.267857, 16.25893, 16.533163, 16.793367, 17, 17.071428, 17.1875, 17.008928, 17.017857, 16.8125, 16.78125, 16.691963, 16.495537
-10, -10, -10, -10, -10, -10, -10, -10, -10, -10, -10, -10, -10, -10, -10, -10, -10, -10, -10, -10, -10, -10, 57.458332, 57.099998, 57.041668, 56.735714, 56.339287, 56.071426, 55.8125, 55.6875, 55.303574, 54.601189, 54.0625, 53.705357, 53.5, 53.25, 53.151787, 53.1875, 53.098213, 52.974998, 52.979591, 52.448978, 52.1875, 51.9375, 51.892857, 51.9375, 51.625, 51.150002, 51.125, 50.625, 50.104168, 49.964287, 49.96875, 50.071426, 49.678574, 49.238094, 49, 48.5625, 48.321426, 48.1875, 47.973213, 47.57143, 47.089283, 46.875, 46.482143, 46.362499, 46.276787, 45.767857, 45.705357, 45.375, 45.125, 44.875, 44.5, 44.25, 44, 43.6875, 43.375, 43.089287, 42.8125, 42.5625, 42.25893, 41.729168, 41.383926, 41.1875, 41, 40.6875, 40.392857, 40.25, 39.910713, 39.705357, 39.446426, 39, 38.714287, 38.5625, 38.267857, 37.684525, 37.145836, 36.75, 36.5, 36.375, 36.0625, 35.75, 35.4375, 35.125, 34.875, 34.625, 34.5625, 34.4375, 34.133926, 33.622025, 33.267857, 33.0625, 33.0625, 32.875, 32.6875, 32.357143, 31.767857, 31.517857, 31.0625, 30.6875, 30.4375, 30.125, 30.0625, 29.875, 29.6875, 29.4375, 29.1875, 28.9375, 28.625, 28.375, 28.0625, 27.8125, 27.5625, 27.3125, 26.991072, 26.5, 26.3125, 26.0625, 25.875, 25.625, 25.3125, 24.830357, 24.5625, 24.3125, 24.125, 24, 23.75, 23.5, 23.125, 22.6875, 22.375, 22, 21.8125, 21.607143, 21.276787, 21.1875, 20.8125, 20.625, 20.241072, 19.8125, 19.607143, 19.142857, 18.883928, 18.455357, 18.25, 18.0625, 17.9375, 17.875, 17.75, 17.625, 17.4375, 17.25, 16.857143, 16.642857, 16.875, 16.8125, 17.071428, 17.142857, 17.285715, 17.357143, 17.357143, 17.25, 17.122448, 17.020409, 16.928572, 16.75, 16.928572, 17.071428, 17.107143, 17.114796, 16.59524, 16.607143, 16.571428, 16.607143, 17, 16.704082, 16.729166, 16.295918, 16.333334, 16.726191, 17.196428, 17.5, 17.5, 17.5, 17.4375, 17.571428, 17.571428, 17.642857, 17.719387, 17.464287, 17.785715, 17.5, 17.5, 17.5625, 17.758928, 17.950001, 17.919643, 18.214285, 17.897959, 17.821428, 17.642857, 17.607143, 17.571428, 17.535715, 17.464285, 17.285715, 16.875, 16.776787, 16.979593, 16.989796, 17.25, 17.111111, 17.275511, 17.346939, 17.428572, 17.464285, 17.428572, 17.285715, 17.214285, 17.107143, 17, 17.071428, 17.071428, 17, 17.333334, 17.071428, 17.416666, 17.1875, 17.125, 17.125, 17.125, 17.125, 17.044643, 17.0375, 17.104166, 16.596939, 17.071428, 17.107143, 17.285715, 17.321428, 17.178572, 17, 17.010204, 16.770832, 16.866072, 16.875, 16.75, 17.142857, 17.178572, 17.107143, 17.178572, 17.071428, 16.833334, 16.785715, 16.821428, 17.083334, 16.82653, 16.602041, 17, 17.241072, 17.586735, 17.693878, 17.642857, 17.571428, 17.357143, 17.270407, 17.178572, 17.178572, 17.428572, 17.540815, 17.607143, 17.785715, 17.719387, 17.678572, 17.709185, 17.607143, 17.867346, 18.285715, 18.428572, 18.484694, 18.295918, 18.142857, 18.035715, 17.862246, 17.392857, 17.196428, 17.3125, 17.348213, 17.3125, 17.273809, 17.086735, 17.522322, 17.65625, 17.857143, 18.178572, 18.0625, 18, 17.8125, 17.6875, 17.535713, 17.401787, 17.642857, 17.25, 17.214287, 17.125, 16.830357, 16.75, 16.642857, 16.770834, 16.530613, 16.438776, 16.333334, 16.3125, 16.375, 16.7125, 16.678572, 16.803572, 16.9375, 17.035713, 17.125, 17.125, 17.1875, 17.375, 17.5625, 17.8125, 17.9375, 17.9375, 17.9375, 18.0625, 18.25, 18.5, 18.75, 19, 19.232143, 19.25, 19.428572, 19.785713, 19.928572, 20.642857, 22.708332, 23.200001, -10, -10, -10, -10, -10, -10, -10, -10, -10, -10, -10, -10, -10, -10, -10, -10, -10, -10, -10, -10, -10, -10, -10, -10, -10, -10, -10, -10, -10, -10, -10, -10, -10, -10, -10, -10, -10, 57.583332, 57.166668, 57.041668, 56.798214, 56.339287, 56.071426, 55.6875, 55.5625, 55.1875, 54.767857, 54.175594, 53.830357, 53.625, 53.375, 53.214287, 53.3125, 53.196426, 52.992859, 53, 52.580357, 52.5, 52.25, 52.080357, 52, 51.633926, 51.275002, 51.0625, 50.541668, 50.125, 49.928574, 49.9375, 50.035713, 49.866074, 49.354168, 49.125, 48.732143, 48.428574, 48.125, 47.9375, 47.553574, 47.142857, 47, 46.544643, 46.487499, 46.464287, 45.9375, 45.747025, 45.455357, 45.223213, 44.892857, 44.508926, 44.1875, 43.875, 43.5625, 43.25, 42.964287, 42.75, 42.4375, 42.07143, 41.604168, 41.258926, 41.1875, 41.125, 40.8125, 40.517857, 40.25, 39.8125, 39.6875, 39.4375, 39.0625, 38.776787, 38.625, 38.330357, 37.684525, 37.208336, 36.9375, 36.875, 36.8125, 36.25, 35.839287, 35.4375, 35.0625, 34.75, 34.5625, 34.4375, 34.3125, 34.071426, 33.559525, 33.3125, 33.0625, 33.0625, 32.75, 32.5625, 32.232143, 31.642857, 31.392857, 31, 30.6875, 30.4375, 30.1875, 30.0625, 29.9375, 29.75, 29.5, 29.25, 28.9375, 28.625, 28.375, 28.0625, 27.8125, 27.5625, 27.3125, 26.991072, 26.5, 26.3125, 26.0625, 25.8125, 25.625, 25.375, 25, 24.6875, 24.375, 24.125, 23.875, 23.625, 23.375, 22.9375, 22.5625, 22.3125, 21.9375, 21.8125, 21.607143, 21.276787, 21.1875, 20.8125, 20.5625, 20.1875, 19.875, 19.607143, 19.205357, 18.946428, 18.6875, 18.5625, 18.5, 18.285715, 18.285715, 18.214285, 18.3125, 18.1875, 18.285715, 18.375, 18.333334, 18.035715, 17.928572, 17.8125, 17.875, 18.0625, 18.1875, 18.25, 18.25, 18.357143, 18.25, 18.178572, 17.9375, 17.642857, 17.785715, 17.785715, 18.116072, 18.597223, 18.604166, 18.6875, 18.645834, 18.791666, 18.726191, 18.15476, 18.398809, 18.049999, 18.25, 18.166666, 18.4375, 18.4375, 18.5, 18.714285, 18.714285, 18.714285, 18.714285, 18.7551, 18.673471, 18.5625, 18.5, 18.5, 18.5, 18.633928, 18.825001, 18.969389, 19.107143, 19.0051, 19.035715, 18.928572, 18.857143, 18.75, 18.642857, 18.571428, 18.428572, 18.0625, 17.964287, 18.158163, 18.275511, 18.154762, 18.027777, 18.025511, 18.196428, 18.125, 18.089287, 18.169643, 18.116072, 17.857143, 17.785715, 17.714285, 18.0625, 18.285715, 18.285715, 18.321428, 18.178572, 18.178572, 18.214285, 18.142857, 18.107143, 17.875, 17.9375, 17.919643, 18.22143, 18.40476, 18.369047, 18.367346, 18.443878, 18.357143, 18.0625, 17.830357, 17.705357, 17.895834, 17.866072, 18.178572, 18.178572, 17.571428, 18.0625, 17.892857, 18.0625, 18.119047, 18.081633, 18.392859, 18.708334, 18.875, 18.791666, 18.607141, 18.351191, 18.071428, 18.053572, 18.232143, 18.294643, 18.3125, 18.375, 18.020407, 17.87755, 17.955357, 17.875, 18, 18.098213, 18.25, 18.5, 18.7551, 18.785715, 18.589287, 18.5, 18.6875, 19, 19.321428, 19.37755, 19.133928, 19, 18.9375, 18.723213, 18.526785, 18.408928, 18.25, 18.5, 18.586735, 18.892859, 18.946428, 18.616072, 18.625, 18.732143, 19.107143, 19.214285, 19.142857, 19.035715, 18.892857, 18.719387, 18.566328
-10, -10, -10, -10, -10, -10, -10, -10, -10, -10, -10, -10, -10, -10, -10, -10, -10, -10, -10, -10, -10, -10, 57.583332, 57.250004, 57.148811, 56.816071, 56.419643, 56.10714, 55.642857, 55.580357, 55.223213, 54.785713, 54.184525, 53.830357, 53.6875, 53.5, 53.3125, 53.205357, 53.05357, 53.076191, 53.285713, 53.017857, 52.875, 52.526787, 52.1875, 51.839287, 51.5625, 51.25, 50.9375, 50.5625, 50.375, 50.1875, 50.125, 50.0625, 49.866074, 49.5, 49.25, 48.982143, 48.553574, 48.104168, 48, 47.616074, 47.4375, 47.25, 46.732143, 46.576786, 46.482143, 46.044643, 45.818455, 45.580357, 45.267857, 44.809525, 44.455353, 44.1875, 43.973213, 43.580357, 43.258926, 42.901787, 42.625, 42.3125, 41.94643, 41.541668, 41.258926, 41.1875, 41.125, 40.8125, 40.517857, 40.25, 39.8125, 39.5625, 39.276787, 39, 38.6875, 38.5625, 38.223213, 37.642857, 37.261906, 36.973213, 36.948978, 36.867344, 36.25, 35.901787, 35.5, 35.125, 34.75, 34.5625, 34.4375, 34.3125, 34.125, 33.830357, 33.5, 33.25, 33.125, 32.8125, 32.5625, 32.25, 31.8125, 31.4375, 31.0625, 30.6875, 30.4375, 30.3125, 30.1875, 30.125, 29.9375, 29.625, 29.375, 29, 28.625, 28.375, 28.125, 27.875, 27.625, 27.375, 27, 26.625, 26.375, 26.0625, 25.75, 25.625, 25.375, 25.125, 24.8125, 24.4375, 24.1875, 23.8125, 23.5625, 23.3125, 22.875, 22.5625, 22.3125, 21.9375, 21.8125, 21.607143, 21.276787, 21.1875, 20.875, 20.625, 20.3125, 20.0625, 19.875, 19.75, 19.625, 19.4375, 19.25, 19.214287, 19.666666, 19.428572, 19.523809, 19.25, 19.357143, 19.464285, 19.428572, 19.428572, 19.041666, 18.916666, 18.632654, 18.791666, 18.955357, 19.0625, 19.25, 19.607143, 19.5, 19.423471, 19.357143, 19.214285, 19.333334, 19.291666, 19.25, 19.285715, 19.404764, 19.410715, 19.517857, 19.553572, 19.7551, 19.765306, 19.511904, 19.448978, 19.666666, 19.791666, 19.791666, 19.642857, 19.607143, 19.642857, 19.678572, 19.678572, 19.678572, 19.642857, 19.535713, 19.693878, 19.714285, 19.607143, 19.607143, 19.535715, 19.571428, 19.714285, 19.765306, 19.6875, 19.948978, 19.964285, 19.892857, 19.857143, 19.785715, 19.714285, 19.607143, 19.428572, 19.285715, 19.193878, 19.275511, 19.459185, 19.851191, 19.833334, 19.791666, 19.205357, 19.089287, 18.836735, 19.169643, 19.241072, 19.666666, 19.708334, 19.666666, 19.5, 19.535715, 19.5, 19.535715, 19.428572, 19.1875, 18.928572, 19.0625, 18.9375, 18.8125, 18.8125, 18.989796, 19.210205, 19.595236, 19.459185, 19.683672, 19.632654, 19.5, 19.125, 18.520407, 18.37755, 19.202381, 19.275511, 19.392857, 19.321428, 19.375, 19.214285, 19.375, 19.142857, 18.791666, 18.974489, 19.12245, 19.357143, 19.5, 19.464285, 19.306122, 19.12245, 19.035715, 18.991072, 19.232143, 19.169643, 19.125, 19.1875, 19.589285, 19.666666, 19.142857, 19.0625, 18.785715, 19, 19.0625, 19.25, 19.285713, 19.375, 19.339287, 19.5, 19.5625, 19.8125, 19.901787, 19.955357, 20.040815, 20, 19.964285, 19.87755, 19.87755, 19.855103, 19.678572, 19.678572, 19.693878, 19.785715, 19.75, 19.714285, 19.607143, 19.482143, 19.625, 19.75, 19.857143, 19.857143, 19.785715, 19.504463, 19.366072, 19.020834, 18.732143, 18.508928, 18.512501, 18.330357, 18.25, 18.205357, 18.333334, 18.561224, 18.62755, 18.17687, 17.960882, 18.275509, 18.533674, 18.660715, 17.915178, 17.794643, 17.910713, 18.044643, 18.25, 18.348213, 18.267857, 18.392857, 18.580357, 18.940477, 19.044643, 19.125, 19.169643, 19.017857, 18.946428, 18.883928, 18.916666, 19.145834, 19.133928, 19.348215, 20, 20.401787, 21.285715, 22.940477, 23.316668, -10, -10, -10, -10, -10, -10, -10, -10, -10, -10, -10, -10, -10, -10, -10, -10, -10, -10, -10, -10, -10, -10, -10, -10, -10, -10, -10, -10, -10, -10, -10, -10, -10, -10, -10, -10, -10, 57.611111, 57.166668, 57.023811, 56.717857, 56.401783, 56.098213, 55.642857, 55.580357, 55.285713, 54.955357, 54.372025, 53.986607, 53.8125, 53.5625, 53.28125, 53.080357, 52.83482, 52.732441, 52.9375, 52.875, 52.875, 52.651787, 52.419643, 52.026787, 51.75, 51.4375, 51.125, 50.8125, 50.625, 50.4375, 50.3125, 50.1875, 50, 49.6875, 49.3125, 49.125, 48.803574, 48.175594, 48.133926, 47.6875, 47.6875, 47.4375, 46.9375, 46.669643, 46.4375, 45.982143, 45.630955, 45.455357, 45.142857, 44.684525, 44.392853, 44.125, 43.848213, 43.455357, 43.160713, 42.8125, 42.5, 42.25, 41.830357, 41.625, 41.330357, 41.1875, 41.0625, 40.75, 40.455357, 40.25, 39.741074, 39.291668, 38.973213, 38.75, 38.625, 38.5, 38.1875, 37.714287, 37.395832, 37.160713, 37.017857, 36.821426, 36.214287, 35.839287, 35.5, 35.1875, 34.875, 34.75, 34.5, 34.375, 34.1875, 33.9375, 33.625, 33.375, 33.1875, 32.875, 32.625, 32.3125, 31.9375, 31.5, 31.1875, 30.875, 30.625, 30.5, 30.3125, 30.1875, 30, 29.6875, 29.4375, 29.125, 28.6875, 28.4375, 28.1875, 27.875, 27.625, 27.375, 26.9375, 26.5625, 26.3125, 26, 25.8125, 25.6875, 25.4375, 25.1875, 24.8125, 24.4375, 24.1875, 23.75, 23.5625, 23.3125, 22.9375, 22.75, 22.4375, 22.0625, 21.875, 21.607143, 21.276787, 21.1875, 20.9375, 20.75, 20.625, 20.5625, 20.5, 20.5, 20.375, 20.392857, 20.285715, 20.423471, 20.612244, 20.438776, 20.520407, 20.392857, 20.428572, 20.464285, 20.428572, 20.428572, 20.666666, 20.75, 20.684525, 20.190475, 20.270407, 20.321428, 20.535715, 20.714285, 20.642857, 20.530613, 20.428572, 20.321428, 20.285715, 20.285715, 20.041666, 20.232143, 20.267857, 20.267857, 20.375, 20.4375, 20.660713, 20.669643, 20.738094, 20.724489, 20.785715, 20.892857, 20.821428, 20.75, 20.678572, 20.678572, 20.5, 20.5, 20.5, 20.5, 20.857143, 20.857143, 20.857143, 20.4375, 20.375, 20.3125, 20.375, 20.357143, 20.464285, 20.571428, 20.642857, 20.875, 21, 20.892857, 20.678572, 20.607143, 20.34375, 20.25, 20.5, 20.428572, 20.464285, 20.535715, 20.586735, 20.5, 20.464285, 20.234694, 20.173471, 20.523809, 20.37245, 20.489796, 20.5, 20.571428, 20.642857, 20.719387, 20.591837, 20.520407, 20.535715, 20.658163, 20.586735, 20.555555, 20.198978, 20.071428, 20.035715, 19.571428, 19.642857, 20.071428, 20.535715, 20.535715, 20.714285, 20.714285, 20.566328, 20.5, 20.470238, 20.285715, 20.294218, 20.382654, 20.535715, 20.535715, 20.428572, 20.166666, 19.87755, 19.955357, 19.738094, 19.696428, 19.919643, 20.1875, 20.375, 20.142857, 20, 19.857143, 20, 20.285715, 20.357143, 20.285715, 20.357143, 20.464285, 20.469387, 20.5, 20.37755, 20.285715, 20.541666, 20.178572, 20.142857, 20, 19.973213, 20.125, 20.151787, 20.25, 20.714285, 20.625, 20.651787, 20.8125, 20.75, 20.6875, 20.625, 20.785715, 20.867346, 20.992857, 20.821428, 20.714285, 20.419643, 20.4375, 20.375, 20.375, 20.223213, 20.053572, 20.15625, 20.21875, 20.28125, 20.34375, 20.28125, 20.21875, 20.151787
-10, -10, -10, -10, -10, -10, -10, -10, -10, -10, -10, -10, -10, -10, -10, -10, -10, -10, -10, -10, -10, -10, -10, 57.316669, 57.107143, 56.705357, 56.455357, 56.160713, 55.767857, 55.642857, 55.348213, 55.017857, 54.488098, 54.21875, 54, 53.6875, 53.34375, 52.955357, 52.77232, 52.819939, 52.946426, 53.0625, 53, 52.776787, 52.419643, 51.919643, 51.625, 51.3125, 51.125, 50.9375, 50.8125, 50.6875, 50.53125, 50.34375, 50.15625, 49.776787, 49.229168, 49.008926, 48.678574, 48.113094, 48.071426, 47.75, 47.8125, 47.5625, 47.0625, 46.6875, 46.4375, 45.982143, 45.693455, 45.580357, 45.267857, 44.872025, 44.517853, 44.125, 43.74107, 43.267857, 42.910713, 42.5625, 42.3125, 42.1875, 41.875, 41.625, 41.330357, 41.0625, 40.9375, 40.6875, 40.4375, 40.3125, 39.866074, 39.416668, 39.160713, 38.875, 38.75, 38.5625, 38.0625, 37.535713, 37.375, 37.160713, 37.017857, 36.758926, 36.151787, 35.839287, 35.625, 35.375, 35.125, 35, 34.6875, 34.5, 34.3125, 34.0625, 33.75, 33.5, 33.25, 32.875, 32.625, 32.3125, 31.9375, 31.5, 31.25, 31, 30.8125, 30.6875, 30.4375, 30.25, 29.928572, 29.5, 29.3125, 29, 28.6875, 28.4375, 28.1875, 27.8125, 27.5625, 27.3125, 26.875, 26.625, 26.375, 26.0625, 25.9375, 25.75, 25.4375, 25.142857, 24.75, 24.375, 24.125, 23.75, 23.5625, 23.3125, 23.0625, 22.875, 22.5625, 22.25, 22.0625, 21.8125, 21.6875, 21.625, 21.5, 21.142857, 21.3125, 21.3125, 21.3125, 21.607143, 21.571428, 21.571428, 21.25, 21.709185, 21.897959, 21.653061, 21.663265, 21.535715, 21.535715, 21.3125, 21.428572, 21.285715, 21.280613, 21.428572, 21.530613, 21.40476, 21.484694, 21.5, 21.678572, 21.785715, 21.714285, 21.401787, 21.3125, 21.1875, 21.125, 21.0625, 21.5, 21.285713, 21.267857, 21.392857, 21.142857, 21.4375, 21.63265, 21.571428, 21.5, 21.375, 21.5, 21.625, 21.5625, 21.4375, 21.3125, 21.25, 21.25, 21.25, 21.3125, 21.571428, 21.785715, 21.857143, 21.857143, 21.642857, 21.375, 21.3125, 21.5, 21.916666, 22, 22.125, 22.291666, 22.071428, 21.928572, 21.549107, 21.28125, 21.21875, 21.21875, 21.1875, 21.428572, 21.321428, 21.392857, 21.3125, 21.357143, 21.375, 21.3125, 21, 21.102041, 21.306122, 21.397961, 21.530613, 21.3125, 21.3125, 21.571428, 21.612244, 21.330357, 21.330357, 21.535715, 21.765306, 21.729593, 21.476191, 21.37755, 21.285715, 21.214285, 21.375, 21.416666, 21.260204, 21.3125, 21.375, 21.5, 21.714285, 21.637756, 21.678572, 21.510204, 21.459183, 21.639456, 21.168367, 21.616072, 21.547619, 21.448978, 21.625, 21.469387, 21.080357, 21.034014, 20.758928, 20.857143, 21.0625, 21.1875, 21.625, 21.583334, 21.583334, 21.392857, 21.464285, 21.535715, 21.5, 21.535715, 21.607143, 21.410713, 21.375, 21.540815, 21.576529, 21.571428, 21.5, 21.392857, 21.035713, 20.830357, 20.946428, 21, 21.1875, 21.571428, 21.642857, 21.673471, 21.598213, 21.625, 21.625, 21.5625, 21.5625, 21.633928, 21.775, 21.785715, 21.375, 21.205357, 21.3125, 21, 21.107143, 21.254463, 20.829082, 20.910715, 20.903061, 20.892857, 20.964285, 21.15625, 21.15625, 21.026787, 20.645834, 20.419643, 20.403061, 20.580612, 20.75, 20.989796, 21.208334, 21.208334, 20.916666, 20.5, 20.133928, 20.432539, 20.530613, 20.586735, 20.578869, 20.678572, 21.047621, 21.166666, 21.142859, 20.75, 20.596937, 20.341837, 20.484694, 20.760204, 21.134354, 20.965986, 21.045918, 20.969389, 20.795918, 20.7551, 20.755953, 20.861111, 21.263889, 21.505953, 21.561224, 21.836735, 22.091837, 22.303572, 23.002977, 23.216665, -10, -10, -10, -10, -10, -10, -10, -10, -10, -10, -10, -10, -10, -10, -10, -10, -10, -10, -10, -10, -10, -10, -10, -10, -10, -10, -10, -10, -10, -10, -10, -10, -10, -10, -10, -10, -10, -10, 57.166668, 57.107143, 56.767857, 56.580357, 56.285713, 55.955357, 55.767857, 55.598213, 55.30357, 54.767853, 54.397324, 54.1875, 53.8125, 53.53125, 53.205357, 53.02232, 53.069939, 53.196426, 53.25, 53.125, 52.839287, 52.419643, 51.982143, 51.723213, 51.330357, 51.267857, 51.098213, 50.892857, 50.758926, 50.53125, 50.34375, 50.09375, 49.714287, 49.166668, 48.883926, 48.625, 48.175594, 48.008926, 47.8125, 47.8125, 47.5625, 47.125, 46.6875, 46.375, 45.9375, 45.839287, 45.6875, 45.419643, 45.104168, 44.696426, 44.104168, 43.6875, 43.205357, 42.973213, 42.75, 42.5625, 42.5625, 42.25, 41.9375, 41.580357, 41.1875, 41, 40.6875, 40.4375, 40.3125, 39.866074, 39.416668, 39.223213, 38.910713, 38.705357, 38.508926, 38, 37.535713, 37.3125, 36.973213, 36.642857, 36.321426, 36.026787, 35.875, 35.75, 35.5625, 35.3125, 35.125, 34.875, 34.625, 34.375, 34.125, 33.75, 33.5, 33.25, 32.875, 32.625, 32.375, 32.0625, 31.75, 31.5625, 31.3125, 31.0625, 30.767857, 30.5, 30.25, 29.919643, 29.291666, 29.142857, 28.8125, 28.5625, 28.375, 28.0625, 27.75, 27.5, 27.25, 26.9375, 26.6875, 26.4375, 26.125, 26, 25.75, 25.4375, 25.080357, 24.625, 24.3125, 24, 23.75, 23.5625, 23.3125, 23.1875, 23.0625, 22.875, 22.75, 22.6875, 22.321428, 22.285715, 22.5, 22.375, 22.708334, 22.428572, 22.5, 22.571428, 22.678572, 22.642857, 22.642857, 22.875, 22.765306, 22.826529, 22.683674, 22.653061, 22.571428, 22.535715, 22.428572, 22.1875, 22.0625, 22.151787, 22.142857, 22.464287, 22.59524, 22.581633, 22.571428, 22.642857, 22.5, 22.714285, 22.551022, 22.392857, 22.285715, 22.214285, 22.25, 22.208334, 22.576529, 22.556122, 22.698978, 22.75, 22.535715, 22.30357, 22.25, 22.25, 22.3125, 22.375, 22.4375, 22.678572, 22.375, 22.035715, 21.964285, 21.964285, 21.948978, 22.214287, 22.375, 22.4375, 22.714285, 22.642857, 22.464285, 22.464285, 22.5, 22.607143, 22.785715, 22.857143, 22.964285, 23.071428, 23, 22.857143, 22.424107, 22.21875, 22.21875, 22.21875, 22.428572, 22.5, 22.125, 22.1875, 22.1875, 22.125, 22.1875, 22.25, 22.142857, 21.982143, 22.17857, 22.232143, 22.410713, 22.375, 22.107143, 22.3125, 22.348213, 22.267857, 22.267857, 22.375, 22.836735, 22.836735, 22.619047, 22.556122, 22.5, 22.464285, 22.5, 22.469387, 22.275511, 22.133928, 22.357143, 22.3125, 22.5, 22.459185, 22.571428, 22.571428, 22.591837, 22.734694, 23, 22.846939, 22.354166, 22.520407, 22.535715, 22.540815, 22.306122, 22.153061, 22, 22, 22.214285, 22.357143, 22.5, 22.5, 22.428572, 22.321428, 22.285715, 22.392857, 22.515306, 22.535715, 22.535715, 22.392857, 22.1875, 22.276787, 22.683672, 22.785715, 22.75, 22.642857, 22.433672, 22.163265, 22.188776, 22.25, 22.428572, 22.375, 22.4375, 22.693878, 22.7551, 22.678572, 22.642857, 22.571428, 22.4375, 22.5625, 22.625, 22.5, 22.3125, 22.205357, 22.428572, 22.583334, 22.625, 22.326529, 22.494049, 22.645834, 22.752975, 22.568451, 22.419641, 22.099489, 21.834822, 21.689285
