-10, -10, -10, -10, -10, -10, -10, 59.041668, 58.8125, 58.3125, 57.577381, 57.071426, 56.428574, 55.702381, 55.321426, 54.857147, 54.145836, 53.767853, 53.25893, 52.729168, 52.196426, 51.464287, 50.857143, 49.9375, 49.303574, 48.666668, 48.258926, 47.767857, 47.303574, 46.577381, 46.0625, 45.4375, 44.848213, 44.267857, 43.571426, 42.764881, 42.142857, 41.375, 40.75, 40.285713, 39.535713, 39, 38.4375, 37.892857, 36.895836, 36.339287, 35.8125, 35.25, 34.473213, 33.848213, 33.258926, 32.651787, 32.104164, 31.5, 30.892857, 30.288691, 29.520834, 28.800594, 28.142857, 27.526785, 26.809523, 26.321428, 25.8125, 25.4375, 25.026787, 24.252977, 23.333332, 22.571428, 21.764879, 21.205357, 20.75, 20.205357, 19.050594, 18.464285, 18.0625, 17.9375, 18, 18.0625, 18.125, 18.125, 18.0625, 18, 17.9375, 17.9375, 17.9375, 17.9375, 17.9375, 17.75, 17.5, 17.3125, 17.25, 17.3125, 17.375, 17.294643, 17.151787, 17.0625, 17, 17.0625, 16.9375, 16.8125, 16.75, 16.6875, 16.6875, 16.75, 16.75, 16.625, 16.4375, 16.25, 16.0625, 16, 16, 16, 15.9375, 15.9375, 15.9375, 15.9375, 16, 16, 16, 16, 15.9375, 15.8125, 15.5625, 15.3125, 15.125, 15, 15, 15, 15.0625, 15.1875, 15.4375, 15.973215, 16.857143, 17.755953, 18.169643, 18.477678, 19.007441, 19.525299, 19.941965, 20.125, 20.25, 20.169643, 19.947916, 19.915178, 19.950893, 20.03125, 20.15625, 20.21875, 20.40625, 20.65625, 20.8125, 21.0625, 21, 21.0625, 21.116072, 20.973213, 21.0625, 21, 21, 21, 20.875, 20.6875, 20.5, 20.3125, 20.1875, 20.125, 19.9375, 19.8125, 19.607143, 19.223215, 18.916666, 17.857141, 14.331972, 13.255953, 12.321428, 12.1875, 12.1875, 12.125, 12.0625, 12, 11.875, 11.75, 11.625, 11.5, 11.4375, 11.3125, 11.1875, 11.0625, 11, 11, 11, 11, 11, 11, 11, 11, 11, 11, 11, 10.875, 10.875, 10.8125, 10.5625, 10.5, 10.25, 10.0625, 10.0625, 10, 10, 10, 10, 10, 9.9375, 9.8125, 9.6875, 9.5625, 9.4375, 9.375, 9.25, 9.125, 9.0625, 9, 9, 9, 9, 8.9375, 8.8125, 8.6875, 8.6875, 8.6875, 8.625, 8.5, 8.25, 8, 7.9375, 7.9375, 7.9375, 8, 8, 8, 8, 8, 8, 7.8125, 7.625, 7.375, 7.125, 7.0625, 7, 7, 7, 7.0625, 7.0625, 7.125, 7.375, 7.416667, -10, -10, -10, -10, -10, -10, -10, 20.625, 20.75, 20.8125, 20.928572, 20.755953, 20.803572, 20.8125, 20.982143, 20.9375, 21.080357, 21.476788, 21.625, 21.866072, 21.75, 21.714287, 21.6875, 21.6875, 21.6875, 21.6875, 21.794643, 21.866072, 21.875, 22.098215, 22.744047, 22.866072, 23.1875, 23.1875, 23.3125, 23.34375, 23.4375, 23.5, 23.642857, 24.008928, 24.044643, 24.09375, 24.09375, 24.15625, 24.53125, 24.6875, 24.642857, 24.767857, 24.6875, 24.544643, 24.339287, 24.477678, 24.808037, 24.799107, 24.28125, 24.089285, 23.9375, 24.169643, 24.232143, 24.25, 24.25, 24, 23.799107, 23.604168, -10, -10, 24, 24.380953, 23.642857, 23.666668, 23.375, 23.308037, 23.4375, 23.625, 23.8125, 24, 24.357143, 24.510204, 24.477678, 24.918156, 25.352678, 25.84375, 26.388393, 26.5625, 27.281746, 27.676588, 27.828569, 27.714287, 27.533335, -10, -10, -10, -10, -10, -10, -10, -10, -10, -10, -10, -10, -10, -10, -10, -10, -10, -10, -10, -10, -10, -10, -10, -10, -10, -10, -10, -10, -10, -10, -10, -10, -10, -10, -10, -10, -10, -10, 59.166668, 58.862499, 58.276787, 57.660713, 57.125, 56.5, 55.848213, 55.392857, 54.991074, 54.416668, 54.008926, 53.39286, 52.675598, 52.089287, 51.401787, 50.839283, 49.875, 49.041668, 48.571426, 48.1875, 47.767857, 47.303574, 46.577381, 46.0625, 45.4375, 44.848213, 44.267857, 43.571426, 42.764881, 42.142857, 41.375, 40.75, 40.285713, 39.535713, 39, 38.375, 37.714287, 36.872025, 36.401787, 35.875, 35.25, 34.428574, 33.848213, 33.366074, 32.675598, 32.041664, 31.4375, 30.830357, 30.267857, 29.705357, 29.041666, 28.383928, 27.630953, 26.916666, 26.383928, 25.830357, 25.375, 24.839287, 23.967262, 23.229166, 22.5, 21.619047, 21.133928, 20.75, 20.321428, 19.0625, 18.5, 18.125, 18.0625, 18.1875, 18.3125, 18.3125, 18.25, 18.125, 18, 17.9375, 17.9375, 17.9375, 17.9375, 18, 17.875, 17.6875, 17.5625, 17.4375, 17.5, 17.4375, 17.3125, 17.3125, 17.1875, 17.1875, 17.25, 17.125, 17, 17, 16.9375, 16.9375, 16.9375, 16.875, 16.625, 16.375, 16.25, 16.0625, 16.0625, 16.0625, 16, 15.9375, 15.9375, 15.9375, 15.9375, 16, 16, 16, 16, 16, 15.875, 15.625, 15.375, 15.125, 15, 15, 15, 15, 15.0625, 15.25, 15.660715, 16.4375, 17.425596, 18.169643, 18.59375, 19.163691, 19.502977, 19.803572, 20, 20.1875, 20.294643, 20.135416, 20.040178, 19.90625, 19.90625, 20, 20.133928, 20.5, 20.6875, 20.875, 21, 20.875, 20.875, 21, 21.035713, 21.125, 21.125, 21, 21, 20.875, 20.75, 20.5625, 20.375, 20.25, 20.125, 19.9375, 19.75, 19.419643, 18.9375, 18.8125, 17.642857, 13.933332, 12.928572, 12, 12, 12, 12, 11.9375, 11.9375, 11.8125, 11.6875, 11.625, 11.5, 11.4375, 11.3125, 11.1875, 11.0625, 11, 11, 11, 11, 11, 11, 11, 11, 11, 10.9375, 10.875, 10.75, 10.6875, 10.625, 10.4375, 10.375, 10.1875, 10.0625, 10.0625, 10, 10, 10, 10, 10, 9.9375, 9.875, 9.75, 9.5625, 9.375, 9.1875, 9.0625, 9, 9, 9, 9, 9, 9, 8.9375, 8.75, 8.5625, 8.5625, 8.5625, 8.5625, 8.5, 8.3125, 8.125, 8.0625, 8.0625, 8, 8, 8, 8, 8, 8, 8, 7.75, 7.5, 7.3125, 7.125, 7.125, 7.125, 7.0625, 7, 7.0625, 7.0625, 7.125, 7.375, 7.416667, -10, -10, -10, -10, -10, -10, -10, 20.6875, 20.791666, 20.84375, 20.991072, 20.791666, 20.767857, 20.8125, 20.919643, 21, 21.142857, 21.476788, 21.625, 21.866072, 21.875, 22, 22, 22, 21.875, 21.8125, 21.982143, 22.116072, 22.1875, 22.491072, 22.946428, 22.875, 23.151787, 23.0625, 23.125, 23.28125, 23.4375, 23.5625, 23.767857, 24.071428, 24.107143, 24.1875, 24.1875, 24.25, 24.5, 24.625, 24.75, 24.875, 24.8125, 24.6875, 24.589287, 24.665178, 24.950893, 24.941963, 24.614582, 24.446428, 24.25, 24.3125, 24.375, 24.5, 24.5, 24.375, 24.174107, 24.020834, 23.9375, 23.9375, 24.125, 24.378967, 24.142857, 24.214285, 24.107143, 23.776787, 23.875, 24
-10, -10, -10, -10, -10, -10, -10, 59.25, 58.966667, 58.517857, 57.839287, 57.267857, 56.75, 56.133926, 55.497025, 55.133926, 54.6875, 54.25, 53.464287, 52.57143, 51.818455, 51.267857, 50.758926, 49.9375, 49.166668, 48.75, 48.208332, 47.803574, 47.303574, 46.577381, 46.0625, 45.4375, 44.776787, 44.098213, 43.383926, 42.577381, 42.133926, 41.491074, 40.848213, 40.25, 39.464287, 38.892857, 38.3125, 37.642857, 36.726192, 36.330357, 35.8125, 35.25, 34.428574, 33.848213, 33.303574, 32.550598, 31.809523, 31.25, 30.705357, 30.1875, 29.598213, 29.125, 28.4375, 27.702381, 27.0625, 26.383928, 25.785713, 25.25, 24.589287, 23.681547, 23.0625, 22.375, 21.702381, 21.258928, 20.9375, 20.5, 19.083334, 18.535715, 18.125, 18.0625, 18.25, 18.375, 18.375, 18.3125, 18.125, 18, 17.9375, 18, 17.973213, 17.830357, 17.821428, 17.75, 17.6875, 17.6875, 17.6875, 17.6875, 17.5625, 17.375, 17.3125, 17.1875, 17.21875, 17.34375, 17.21875, 17.15625, 17.125, 17, 17, 16.9375, 16.9375, 16.75, 16.5625, 16.5, 16.25, 16.1875, 16.125, 16, 15.9375, 15.875, 15.875, 15.875, 15.9375, 16, 16, 16, 16, 15.8125, 15.5625, 15.3125, 15.0625, 15, 15, 15, 15, 15, 15.125, 15.357143, 16.017857, 17.09524, 18.086309, 18.59375, 19.080357, 19.502977, 19.803572, 20.0625, 20.1875, 20.169643, 19.979166, 19.821428, 19.75, 19.875, 20.0625, 20.321428, 20.6875, 20.8125, 20.9375, 21, 20.875, 20.875, 21.0625, 21.071428, 21.017857, 21.017857, 20.875, 20.9375, 20.9375, 20.875, 20.75, 20.5, 20.3125, 20.0625, 19.8125, 19.625, 19.169643, 18.625, 18.4375, 17.285713, 14.083333, 12.892858, 12, 12.0625, 12.125, 12.125, 12.0625, 12, 11.8125, 11.6875, 11.625, 11.4375, 11.4375, 11.3125, 11.1875, 11.125, 11, 11, 11, 11, 11, 10.9375, 10.9375, 10.875, 10.75, 10.729167, 10.833333, 10.741072, 10.642857, 10.5, 10.3125, 10.25, 10.125, 10.0625, 10.0625, 10, 10, 10, 10, 9.9375, 9.9375, 9.9375, 9.875, 9.75, 9.5, 9.25, 9.0625, 9, 9, 9, 9, 9, 9, 8.9375, 8.75, 8.5625, 8.5625, 8.625, 8.625, 8.5625, 8.375, 8.125, 8.0625, 8.0625, 8, 8, 8, 8, 8, 8, 8, 7.8125, 7.625, 7.5, 7.375, 7.375, 7.3125, 7.1875, 7.0625, 7.125, 7.125, 7.1875, 7.4375, 7.416667, -10, -10, -10, -10, -10, -10, -10, 20.666666, 20.833332, 20.875, 21.0625, 21.125, 21.125, 21.125, 21.0625, 21.125, 21.267857, 21.637501, 21.705357, 21.875, 21.875, 22, 22.0625, 22.0625, 22, 22, 22.169643, 22.366072, 22.4375, 22.678572, 23.071428, 22.9375, 23.089287, 22.9375, 22.9375, 23.0625, 23.25, 23.4375, 23.6875, 23.875, 23.9375, 24.0625, 24.125, 24.25, 24.5, 24.6875, 24.875, 25.0625, 25, 24.875, 24.776787, 24.821428, 25.107143, 25.098213, 24.770832, 24.633928, 24.5, 24.5, 24.5625, 24.6875, 24.6875, 24.625, 24.424107, 24.270834, 24.291666, 24.375, 24.40625, 24.659225, 24.75, 24.75, 24.625, 24.401787, 24.4375, 24.4375, 24.678572, 25.008928, 25.066963, 25.15625, 25.28125, 25.46875, 25.888393, 26.290178, 26.71875, 27.044643, 27.729166, 27.904762, 27.748215, 27.669643, 27.25, -10, -10, -10, -10, -10, -10, -10, -10, -10, -10, -10, -10, -10, -10, -10, -10, -10, -10, -10, -10, -10, -10, -10, -10, -10, -10, -10, -10, -10, -10, -10, -10, -10, -10, -10, -10, -10, -10, 59.625, 59.300003, 58.830357, 58.035713, 57.410713, 56.9375, 56.303574, 55.648811, 55.241074, 54.642857, 54.1875, 53.383926, 52.464283, 51.755955, 51.25, 50.758926, 50.145832, 49.416668, 48.9375, 48.217258, 47.758926, 47.241074, 46.559525, 46, 45.3125, 44.535713, 43.848213, 43.196426, 42.598213, 42.1875, 41.5625, 40.910713, 40.142857, 39.392857, 38.785713, 38.25, 37.625, 36.726192, 36.330357, 35.8125, 35.25, 34.5, 33.955357, 33.366074, 32.622025, 31.809523, 31.321428, 30.767857, 30.1875, 29.55357, 29.0625, 28.491072, 27.809523, 27.125, 26.401785, 25.785713, 25.25, 24.589287, 23.535713, 22.991072, 22.428572, 21.809523, 21.383928, 21.0625, 20.416666, 19.166668, 18.589287, 18.1875, 18.125, 18.3125, 18.4375, 18.5, 18.375, 18.1875, 18.0625, 17.9375, 18, 17.973213, 17.830357, 17.758928, 17.6875, 17.6875, 17.6875, 17.75, 17.6875, 17.5, 17.3125, 17.25, 17.1875, 17.21875, 17.34375, 17.21875, 17.09375, 17.0625, 16.9375, 16.9375, 17, 17, 16.875, 16.6875, 16.5625, 16.3125, 16.1875, 16.125, 16, 16, 15.875, 15.875, 15.875, 15.875, 16, 15.9375, 15.9375, 15.9375, 15.6875, 15.5, 15.25, 15, 15, 15, 15, 15, 15, 15.1875, 15.375, 15.705357, 16.738096, 17.940475, 18.53125, 19.080357, 19.502977, 19.803572, 20, 20, 19.9375, 19.955357, 20.083334, 20.178572, 20.3125, 20.375, 20.571428, 20.8125, 20.875, 21, 21, 20.9375, 20.9375, 21.1875, 21.258928, 21.125, 21.067858, 20.982143, 20.9375, 21.0625, 21, 20.875, 20.6875, 20.428572, 19.916666, 19.696428, 19.4375, 19, 18.535713, 18.25, 17.142857, 14, 12.857142, 12, 12.0625, 12.125, 12.125, 12.0625, 12, 11.8125, 11.625, 11.5, 11.25, 11.1875, 11.125, 11.0625, 11.0625, 11, 11, 11, 11, 10.9375, 10.875, 10.875, 10.75, 10.625, 10.604167, 10.708333, 10.678572, 10.642857, 10.5, 10.3125, 10.25, 10.125, 10.0625, 10.0625, 10, 10, 10, 10, 9.9375, 9.9375, 9.9375, 9.9375, 9.8125, 9.5625, 9.3125, 9.0625, 9, 9, 9, 9, 9, 9, 8.9375, 8.8125, 8.6875, 8.6875, 8.75, 8.6875, 8.5625, 8.375, 8.125, 8.0625, 8.0625, 8, 8, 8, 8, 8, 8, 8, 7.875, 7.75, 7.6875, 7.625, 7.625, 7.5625, 7.375, 7.1875, 7.1875, 7.1875, 7.3125, 7.5625, 7.5833335, -10, -10, -10, -10, -10, -10, -10, -10, 20.916666, 20.9375, 21, 21, 21, 21, 21, 21.125, 21.196428, 21.450001, 21.580357, 21.75, 21.875, 22, 22.125, 22.25, 22.375, 22.5, 22.5625, 22.6875, 22.6875, 22.794643, 22.946428, 22.75, 22.839287, 22.8125, 22.8125, 22.9375, 23.0625, 23.25, 23.678572, 23.982143, 24.044643, 23.916666, 23.892857, 24.0625, 24.419643, 24.6875, 25, 25.125, 24.916666, 24.883928, 24.955357, 25.107143, 25.294643, 25.419643, 25.229166, 25.133928, 25, 24.9375, 24.875, 24.875, 24.875, 24.75, 24.705357, 24.625, 24.75, 24.785715, 24.65625, 24.919643, 25, 25, 24.90625, 24.71875, 24.75, 24.6875
-10, -10, -10, -10, -10, -10, -10, 59.75, 59.466667, 59.017857, 58.059525, 57.482143, 57, 56.366074, 55.738098, 55.348213, 54.660713, 54.125, 53.267853, 52.440475, 51.684525, 51.1875, 50.6875, 50.1875, 49.595238, 48.95536, 48.154758, 47.633926, 47.0625, 46.517857, 46, 45.25, 44.35714, 43.67857, 43.1875, 42.642857, 42.25, 41.571426, 40.910713, 40.142857, 39.330357, 38.678574, 38.125, 37.4375, 36.702381, 36.321426, 35.8125, 35.25, 34.5, 33.955357, 33.428574, 32.729168, 31.726189, 31.330357, 30.8125, 30.25, 29.571428, 29.0625, 28.491072, 27.809523, 27.125, 26.401785, 25.785713, 25.1875, 24.517857, 23.764879, 23.241072, 22.595238, 21.916666, 21.446428, 21.0625, 20.345238, 19.125002, 18.553572, 18.1875, 18.0625, 18.1875, 18.25, 18.25, 18.125, 18, 17.9375, 17.9375, 18.0625, 18.035713, 17.892857, 17.758928, 17.8125, 17.875, 17.8125, 17.767857, 17.5625, 17.3125, 17.1875, 17.125, 17.0625, 17.09375, 17.21875, 17.15625, 17.03125, 17, 16.875, 16.875, 17, 17, 16.9375, 16.8125, 16.6875, 16.4375, 16.25, 16.125, 16, 15.9375, 15.75, 15.75, 15.75, 15.8125, 16, 15.875, 15.875, 15.875, 15.625, 15.5, 15.25, 15, 15, 15, 15, 15, 15, 15.1875, 15.375, 15.5625, 16.214287, 17.75, 18.357143, 18.986607, 19.346727, 19.647322, 19.875, 19.8125, 19.75, 19.785713, 20.166668, 20.419643, 20.625, 20.5625, 20.633928, 20.8125, 20.8125, 21, 21, 21, 20.9375, 21.0625, 21.035713, 20.875, 20.880358, 20.919643, 20.9375, 21.0625, 20.9375, 20.8125, 20.625, 20.303572, 19.791666, 19.508928, 19.25, 18.875, 18.517857, 18.044643, 16.693876, 13.714286, 12.642858, 12, 12.0625, 12.125, 12.125, 12.0625, 12, 11.8125, 11.625, 11.4375, 11.1875, 11.125, 11.0625, 11.125, 11.125, 11.0625, 11.0625, 11, 11, 10.9375, 10.875, 10.8125, 10.625, 10.4375, 10.354167, 10.458333, 10.428572, 10.455357, 10.4375, 10.3125, 10.25, 10.125, 10, 10, 10, 10, 10, 10, 9.875, 9.875, 9.875, 9.875, 9.8125, 9.625, 9.4375, 9.25, 9.1875, 9.125, 9.0625, 9, 9, 9, 9, 8.9375, 8.875, 8.875, 8.875, 8.8125, 8.625, 8.4375, 8.25, 8.125, 8.0625, 7.9375, 7.875, 7.875, 7.9375, 8, 8, 8, 7.875, 7.75, 7.6875, 7.6875, 7.75, 7.75, 7.625, 7.375, 7.3125, 7.25, 7.25, 7.5, 7.5000005, -10, -10, -10, -10, -10, -10, -10, -10, 21, 21, 20.9375, 20.875, 20.875, 20.9375, 21.107143, 21.3125, 21.375, 21.5, 21.6875, 21.75, 21.9375, 21.9375, 22.089287, 22.285713, 22.375, 22.625, 22.6875, 22.8125, 22.875, 22.839287, 22.848213, 22.625, 22.651787, 22.6875, 22.625, 22.8125, 22.9375, 23.303572, 23.776785, 24.044643, 24.169643, 23.952381, 23.785713, 23.955357, 24.294643, 24.669643, 25, 25, 24.729166, 24.758928, 24.928572, 25.214287, 25.375, 25.5625, 25.5625, 25.5625, 25.5, 25.4375, 25.3125, 25.276787, 25.348213, 25.25, 25.375, 25.25, 25.15625, 25.09375, 24.96875, 25.125, 25.25, 25.25, 25.21875, 24.96875, 24.8125, 24.6875, 24.741072, 25.008928, 25.098213, 25.3125, 25.5625, 25.90625, 26.419643, 26.875, 27.3125, 27.598213, 27.6875, 27.5, 27.237499, 27.294643, 27.166668, -10, -10, -10, -10, -10, -10, -10, -10, -10, -10, -10, -10, -10, -10, -10, -10, -10, -10, -10, -10, -10, -10, -10, -10, -10, -10, -10, -10, -10, -10, -10, -10, -10, -10, -10, -10, -10, -10, 59.875, 59.625, 59.28125, 58.403275, 57.82143, 57.083332, 56.410713, 55.738098, 55.285713, 54.598213, 54.0625, 53.321426, 52.619045, 51.916668, 51.4375, 50.875, 50.330357, 49.928574, 49.050598, 48.226189, 47.633926, 47.0625, 46.517857, 46, 45.25, 44.35714, 43.74107, 43.3125, 42.8125, 42.321426, 41.580357, 40.982143, 40.267857, 39.455357, 38.636906, 38.0625, 37.428574, 36.702381, 36.321426, 35.8125, 35.3125, 34.607143, 33.809525, 33.321426, 32.75, 31.788689, 31.348215, 30.8125, 30.25, 29.571428, 29, 28.375, 27.785713, 27.125, 26.464285, 25.892857, 25.104166, 24.455357, 23.747023, 23.241072, 22.604166, 22.0625, 21.517857, 21.0625, 20.229166, 19.113096, 18.517857, 18.1875, 18.0625, 18.125, 18.125, 18.125, 18, 17.9375, 17.9375, 17.9375, 18.0625, 18.035713, 17.830357, 17.633928, 17.625, 17.625, 17.5625, 17.517857, 17.375, 17.1875, 17.125, 17.0625, 16.9375, 16.96875, 17.03125, 16.96875, 16.90625, 16.875, 16.8125, 16.875, 17, 17, 17, 16.9375, 16.8125, 16.5625, 16.3125, 16.125, 16, 15.9375, 15.75, 15.75, 15.75, 15.8125, 16, 15.875, 15.875, 15.875, 15.625, 15.5, 15.25, 15, 15, 15, 15, 15, 15, 15.125, 15.25, 15.375, 15.857143, 17.367346, 18.095238, 18.75, 19.190477, 19.428572, 19.625, 19.5, 19.4375, 19.535713, 19.979168, 20.419643, 20.75, 20.6875, 20.6875, 20.6875, 20.6875, 20.875, 21, 21, 20.875, 20.875, 20.848213, 20.6875, 20.755358, 20.919643, 20.875, 20.9375, 20.75, 20.625, 20.5, 20.178572, 19.666666, 19.258928, 18.9375, 18.625, 18.375, 17.767857, 15.047618, 13.428572, 12.428572, 12, 12.0625, 12.125, 12.125, 12.125, 12.0625, 11.9375, 11.75, 11.5, 11.25, 11.125, 11.0625, 11.1875, 11.1875, 11.125, 11.125, 11, 11, 10.9375, 10.875, 10.75, 10.5625, 10.3125, 10.229167, 10.395833, 10.366072, 10.455357, 10.4375, 10.3125, 10.25, 10.125, 10, 10, 10, 10, 10, 10, 9.8125, 9.8125, 9.8125, 9.8125, 9.875, 9.75, 9.625, 9.5, 9.375, 9.25, 9.125, 9, 9, 9, 9, 9, 9, 9, 9, 8.90625, 8.65625, 8.40625, 8.15625, 8, 7.875, 7.8125, 7.8125, 7.8125, 7.9375, 8, 8, 8, 7.875, 7.75, 7.625, 7.625, 7.75, 7.8125, 7.8125, 7.5625, 7.4375, 7.3125, 7.25, 7.5, 7.5000005, -10, -10, -10, -10, -10, -10, -10, -10, 21, 21, 20.875, 20.75, 20.6875, 20.625, 20.857143, 21.291666, 21.455357, 21.6875, 21.8125, 21.875, 22, 21.9375, 22.026787, 22.223213, 22.375, 22.660713, 22.6875, 22.75, 22.8125, 22.75, 22.75, 22.625, 22.625, 22.625, 22.5, 22.625, 22.741072, 23.407738, 23.955357, 24.223215, 24.086309, 23.869047, 23.785713, 23.924107, 24.325893, 24.638393, 24.96875, 25, 24.791666, 24.883928, 25.053572, 25.401787, 25.5625, 25.75, 25.8125, 25.8125, 25.75, 25.6875, 25.5625, 25.526787, 25.598213, 25.5, 25.625, 25.5, 25.5, 25.5, 25.4375, 25.59375, 25.625, 25.5, 25.375, 25.209822, 25.095236, 25.112244
-10, -10, -10, -10, -10, -10, -10, 60, 59.791664, 59.46875, 58.724701, 58.178574, 57.104164, 56.339287, 55.714287, 55.214287, 54.535713, 54, 53.375, 52.848213, 52.3125, 51.8125, 51.133926, 50.410713, 49.928574, 48.934525, 48.285713, 47.767857, 47.205357, 46.476189, 45.928574, 45.25, 44.598213, 43.99107, 43.3125, 42.794643, 42.258926, 41.571426, 40.836311, 40.267857, 39.571426, 38.806549, 38.071426, 37.392857, 36.785713, 36.375, 35.875, 35.375, 34.785713, 33.833336, 33.392857, 32.875, 31.958332, 31.428572, 30.875, 30.25, 29.571428, 29, 28.3125, 27.67857, 27.0625, 26.517857, 26, 25.166666, 24.464285, 23.747023, 23.241072, 22.604166, 22.0625, 21.455357, 20.892857, 20.050594, 19.154762, 18.589285, 18.25, 18.125, 18.0625, 18.0625, 18.0625, 17.9375, 17.9375, 17.9375, 17.9375, 18.0625, 18.0625, 17.9375, 17.705357, 17.625, 17.5, 17.375, 17.330357, 17.3125, 17.1875, 17.1875, 17.125, 16.9375, 16.9375, 16.9375, 16.875, 16.8125, 16.8125, 16.8125, 16.875, 17, 17, 17, 16.9375, 16.8125, 16.5625, 16.3125, 16.125, 16, 15.9375, 15.8125, 15.8125, 15.8125, 15.875, 16, 15.875, 15.875, 15.875, 15.6875, 15.5625, 15.3125, 15.0625, 15, 15, 15, 15, 15, 15.0625, 15.125, 15.1875, 15.5, 16.269842, 17.857143, 18.464287, 18.958334, 19.116072, 19.3125, 19.3125, 19.375, 19.446428, 19.895834, 20.419643, 20.625, 20.5625, 20.4375, 20.4375, 20.5, 20.75, 20.875, 20.9375, 20.75, 20.625, 20.6875, 20.669643, 20.799999, 21.044643, 20.9375, 20.875, 20.5625, 20.339287, 20.1875, 19.866072, 19.479166, 19.071428, 18.75, 18.5, 18.25, 17.491072, 14.448979, 13.142858, 12.214286, 12, 12, 12, 12, 12, 12, 12, 11.875, 11.6875, 11.4375, 11.1875, 11.0625, 11.125, 11.1875, 11.1875, 11.1875, 11.0625, 10.9375, 10.8125, 10.8125, 10.625, 10.5625, 10.4375, 10.25, 10.25, 10.1875, 10.3125, 10.375, 10.3125, 10.25, 10.125, 10, 10, 10, 10, 10, 10, 9.875, 9.875, 9.875, 9.875, 9.9375, 9.875, 9.8125, 9.6875, 9.5, 9.3125, 9.125, 9, 9, 9, 9, 9, 9, 9, 9, 8.9375, 8.6875, 8.4375, 8.1875, 8, 7.875, 7.8125, 7.8125, 7.8125, 7.9375, 8, 8, 8, 7.875, 7.6875, 7.5625, 7.5625, 7.6875, 7.8125, 7.8125, 7.5625, 7.375, 7.25, 7.1875, 7.4464283, 7.666667, -10, -10, -10, -10, -10, -10, -10, 21, 21, 21, 20.875, 20.75, 20.625, 20.589287, 20.964287, 21.407738, 21.642857, 21.8125, 21.8125, 21.875, 22, 22.0875, 21.964287, 22.098213, 22.1875, 22.446426, 22.4375, 22.5, 22.669643, 22.678572, 22.678572, 22.375, 22.4375, 22.553572, 22.535713, 22.6875, 22.866072, 23.532738, 24, 24.207485, 23.815475, 23.702381, 23.785713, 23.986607, 24.388393, 24.700893, 24.96875, 24.96875, 24.822916, 24.915178, 25.084822, 25.526787, 25.6875, 25.875, 26, 26.071428, 26.1875, 26.125, 25.955357, 25.839287, 25.848213, 25.75, 25.875, 25.75, 25.8125, 25.8125, 25.75, 25.84375, 25.8125, 25.625, 25.4375, 25.334822, 25.547619, 25.928572, 26.059525, 25.508928, 25.53125, 25.65625, 25.96875, 26.46875, 26.9375, 27.4375, 27.982143, 28.285713, 28.25, 27.892857, 27.410713, 27.3125, 27.25, -10, -10, -10, -10, -10, -10, -10, -10, -10, -10, -10, -10, -10, -10, -10, -10, -10, -10, -10, -10, -10, -10, -10, -10, -10, -10, -10, -10, -10, -10, -10, -10, -10, -10, -10, -10, -10, -10, 59.75, 59.624996, 59.46875, 58.867558, 58.160713, 57.211308, 56.485119, 55.708332, 55.142857, 54.517857, 54, 53.4375, 52.955357, 52.4375, 51.9375, 51.196426, 50.42857, 49.928574, 48.997025, 48.464283, 48, 47.455357, 46.517857, 45.928574, 45.25, 44.669643, 44.098213, 43.166668, 42.67857, 42.0625, 41.238094, 40.595242, 40.196426, 39.678574, 38.830357, 38.071426, 37.392857, 36.785713, 36.3125, 35.767857, 35.375, 34.82143, 33.750004, 33.339287, 32.875, 32.220238, 31.523809, 30.9375, 30.25, 29.571428, 29, 28.3125, 27.67857, 27.0625, 26.517857, 26, 25.104166, 24.357141, 23.830357, 23.366072, 22.729166, 22.125, 21.401785, 20.785713, 20.133928, 19.279762, 18.714285, 18.3125, 18.125, 18, 18, 17.9375, 17.875, 17.875, 17.875, 17.9375, 18.0625, 18, 17.8125, 17.642857, 17.5, 17.375, 17.3125, 17.267857, 17.375, 17.3125, 17.3125, 17.1875, 16.9375, 17, 16.973213, 16.839287, 16.875, 16.8125, 16.875, 16.9375, 17, 16.9375, 16.9375, 16.9375, 16.8125, 16.625, 16.375, 16.125, 16, 15.9375, 15.875, 15.8125, 15.8125, 15.875, 15.9375, 15.9375, 15.9375, 15.875, 15.6875, 15.5, 15.25, 15.0625, 15, 15, 15, 15, 15, 15, 15, 15, 15.142857, 15.829932, 17.607143, 18.285713, 18.75, 18.875, 19.0625, 19.125, 19.1875, 19.24107, 19.5, 19.991072, 20.25, 20.3125, 20.25, 20.25, 20.3125, 20.5625, 20.75, 20.875, 20.8125, 20.625, 20.625, 20.5625, 20.6875, 20.875, 20.8125, 20.6875, 20.375, 20.089287, 19.866072, 19.354166, 19.133928, 18.75, 18.5, 18.3125, 17.910713, 16.775509, 13.714286, 12.642858, 12, 12, 12, 12, 12, 12, 12, 11.9375, 11.875, 11.6875, 11.4375, 11.25, 11.0625, 11.125, 11.1875, 11.1875, 11.1875, 11.0625, 10.9375, 10.875, 10.875, 10.6875, 10.6875, 10.5625, 10.3125, 10.25, 10.0625, 10.0625, 10.125, 10.125, 10.125, 10.0625, 10, 10, 10, 10, 10, 10, 9.875, 9.875, 9.875, 9.875, 10, 10, 10, 9.875, 9.625, 9.375, 9.125, 9, 9, 9, 9, 9, 9, 9, 8.96875, 8.84375, 8.65625, 8.40625, 8.1875, 8.0625, 7.875, 7.8125, 7.8125, 7.8125, 7.9375, 8, 8, 8, 7.875, 7.625, 7.5, 7.5, 7.625, 7.8125, 7.875, 7.625, 7.375, 7.1875, 7, 7.2678566, 7.666667, -10, -10, -10, -10, -10, -10, -10, 21, 21, 21, 20.875, 20.75, 20.5625, 20.526787, 20.964287, 21.514881, 21.830357, 22, 22.008928, 22.270834, 22.357143, 22.4, 22.044643, 22.035713, 22.0625, 22.290176, 22.28125, 22.40625, 22.575893, 22.678572, 22.803572, 22.5, 22.5625, 22.616072, 22.598213, 22.8125, 22.991072, 23.657738, 23.946428, 23.721088, 23.708332, 23.857143, 24.226191, 24.40625, 24.65625, 24.825893, 24.90625, 24.96875, 24.96875, 24.96875, 24.96875, 25.232143, 25.4375, 25.732143, 25.9375, 26.142857, 26.5, 26.375, 26.223213, 26.089287, 26.035713, 26, 26.0625, 25.9375, 26, 26, 25.9375, 26, 25.9375, 25.75, 25.625, 25.553572, 25.666666, 25.946428
-10, -10, -10, -10, -10, -10, -10, 59.625, 59.624996, 59.59375, 59.27232, 58.339287, 57.380951, 56.601192, 55.660713, 55.035713, 54.5, 54, 53.4375, 52.955357, 52.5, 52, 51.267853, 50.386906, 49.821426, 49.041668, 48.526783, 48.017857, 47.455357, 46.517857, 45.991074, 45.330357, 44.598213, 44.0625, 43.041668, 42.61607, 42, 41.083336, 40.595242, 40.258926, 39.866074, 38.895832, 38.142857, 37.517857, 36.955357, 36.321426, 35.723213, 35.3125, 34.803574, 33.750004, 33.401787, 32.982143, 32.375, 31.630951, 31, 30.25, 29.571428, 29.0625, 28.428572, 27.702379, 27.0625, 26.455357, 25.892857, 25.041666, 24.339285, 23.767857, 23.3125, 22.8125, 22.25, 21.526785, 20.619047, 19.991072, 19.383928, 18.830357, 18.4375, 18.1875, 18, 18, 18, 18, 18, 18, 18, 18.0625, 17.9375, 17.6875, 17.455357, 17.25, 17.125, 17.125, 17.1875, 17.3125, 17.3125, 17.3125, 17.1875, 17, 17.0625, 16.973213, 16.839287, 16.875, 16.8125, 16.9375, 17, 17, 16.9375, 16.9375, 16.875, 16.75, 16.5625, 16.3125, 16.125, 16, 16, 16, 15.875, 15.8125, 15.75, 15.75, 15.875, 15.875, 15.8125, 15.625, 15.375, 15.25, 15.125, 15.0625, 15.0625, 15, 15, 15, 15, 15, 15, 15, 15.5, 17.333334, 18.07143, 18.6875, 18.8125, 18.9375, 19, 19.0625, 19.098213, 19.229166, 19.6875, 19.9375, 20.125, 20.125, 20.125, 20.25, 20.5, 20.6875, 20.875, 20.8125, 20.625, 20.6875, 20.625, 20.75, 20.9375, 20.75, 20.5625, 20.1875, 19.839287, 19.553572, 18.916666, 18.758928, 18.375, 18.25, 17.982143, 17.32653, 15.047618, 13.464286, 12.553572, 12.0625, 12, 12, 12, 12, 12, 11.9375, 11.8125, 11.6875, 11.5, 11.3125, 11.1875, 11.0625, 11.0625, 11.125, 11.125, 11.125, 11.0625, 10.9375, 10.9375, 10.9375, 10.8125, 10.875, 10.6875, 10.4375, 10.3125, 10.0625, 10.0625, 10.0625, 10.0625, 10.0625, 10, 10, 10, 10, 10, 10, 10, 9.9375, 9.9375, 9.9375, 9.9375, 9.9375, 9.875, 9.8125, 9.625, 9.4375, 9.25, 9.0625, 9, 9, 9, 9, 9, 9, 9, 8.96875, 8.84375, 8.65625, 8.40625, 8.1875, 8.0625, 7.9375, 7.9375, 7.9375, 7.9375, 8, 8, 8, 8, 7.9375, 7.75, 7.6875, 7.625, 7.625, 7.75, 7.75, 7.5625, 7.375, 7.1875, 7.0625, 7.3928566, 7.8833337, -10, -10, -10, -10, -10, -10, -10, 21, 21, 21, 20.9375, 20.875, 20.625, 20.526787, 20.794643, 21.264881, 21.642857, 21.875, 21.946428, 22.270834, 22.357143, 22.4625, 22.080357, 22, 22.125, 22.290176, 22.34375, 22.46875, 22.575893, 22.741072, 22.866072, 22.5625, 22.5625, 22.633928, 22.827381, 22.96875, 23.209822, 23.635416, 23.848215, 23.782738, 23.583332, 23.821428, 24.333334, 24.513393, 24.78125, 24.84375, 24.90625, 25.03125, 25.09375, 25.15625, 25.15625, 25.25, 25.4375, 25.669643, 25.875, 26.174107, 26.59375, 26.46875, 26.441963, 26.3125, 26.125, 26.125, 26.0625, 26, 26.125, 26.1875, 26.1875, 26.1875, 26.0625, 25.9375, 25.875, 25.991072, 26.291666, 26.633928, 26.732143, 26.446428, 26.4375, 26.375, 26.625, 27.125, 27.669643, 28.169643, 28.607143, 28.8125, 28.6875, 28.375, 27.910713, 27.6875, 27.583334, -10, -10, -10, -10, -10, -10, -10, -10, -10, -10, -10, -10, -10, -10, -10, -10, -10, -10, -10, -10, -10, -10, -10, -10, -10, -10, -10, -10, -10, -10, -10, -10, -10, -10, -10, -10, -10, -10, 59.625, 59.583332, 59.625, 59.249996, 58, 57.333332, 56.601192, 55.660713, 55.10714, 54.5625, 54.0625, 53.383926, 52.848213, 52.4375, 52, 51.348213, 50.244045, 49.67857, 49.0625, 48.517857, 47.973213, 47.392857, 46.5, 46.053574, 45.446426, 44.622025, 44, 42.916668, 42.44643, 41.928574, 41.074406, 40.595242, 40.241074, 39.6875, 38.866074, 38.205357, 37.642857, 37.125, 36.330357, 35.678574, 35.1875, 34.678574, 33.833336, 33.392857, 32.9375, 32.3125, 31.613094, 31, 30.25, 29.571428, 29.125, 28.544643, 27.726189, 27.0625, 26.392857, 25.714285, 25.017857, 24.401785, 23.830357, 23.3125, 22.767857, 22.1875, 21.446428, 20.511904, 19.928572, 19.4375, 18.9375, 18.5, 18.25, 18, 18, 18, 18, 18, 18, 18, 18.0625, 17.875, 17.625, 17.392857, 17.1875, 17.125, 17.125, 17.1875, 17.25, 17.25, 17.25, 17.125, 17, 17.0625, 16.973213, 16.901787, 16.9375, 16.875, 17, 17, 17, 16.875, 16.8125, 16.6875, 16.5, 16.375, 16.1875, 16.0625, 16, 16, 15.9375, 15.75, 15.625, 15.5, 15.5, 15.625, 15.625, 15.5625, 15.4375, 15.25, 15.1875, 15.1875, 15.125, 15.125, 15.0625, 15, 15, 15, 14.9375, 14.9375, 14.9375, 15.294643, 16.904764, 17.612246, 18.354166, 18.669643, 18.9375, 19, 19, 18.973213, 19.104166, 19.5, 19.75, 20, 20.071428, 20.25, 20.375, 20.625, 20.6875, 20.875, 20.875, 20.6875, 20.776787, 20.785713, 20.8125, 20.9375, 20.6875, 20.5, 20.053572, 19.505951, 19.053572, 18.416666, 18.321428, 18.0625, 17.946428, 17.431973, 15.428571, 14.163264, 13.151786, 12.464286, 12.125, 12, 12, 12, 12, 12, 11.9375, 11.8125, 11.6875, 11.5, 11.375, 11.3125, 11.1875, 11.125, 11.125, 11.0625, 11.0625, 11.0625, 10.9375, 10.9375, 10.9375, 10.875, 10.9375, 10.8125, 10.625, 10.4375, 10.1875, 10.1875, 10.125, 10.125, 10.125, 10, 10, 10, 10, 10, 10, 10, 10, 10, 10, 10, 9.875, 9.75, 9.625, 9.375, 9.25, 9.125, 9, 9, 9, 9, 9, 9, 9, 9, 8.96875, 8.875, 8.75, 8.5, 8.28125, 8.125, 8, 8, 8, 8, 8, 8, 8, 8, 7.9375, 7.8125, 7.8125, 7.6875, 7.625, 7.625, 7.5625, 7.4375, 7.3125, 7.1875, 7.0625, 7.3928566, 7.8833337, -10, -10, -10, -10, -10, -10, 21, 21, 21, 21, 21, 21, 20.8125, 20.839287, 21.044643, 21.223215, 21.5625, 21.6875, 21.821428, 22.208334, 22.294643, 22.4625, 22.142857, 22.125, 22.25, 22.441963, 22.53125, 22.65625, 22.763393, 22.866072, 22.928572, 22.696428, 22.775, 22.6875, 22.973213, 23.260416, 23.602678, 23.71875, 23.794643, 23.666666, 23.666666, 23.904762, 24.302084, 24.388393, 24.553572, 24.758928, 24.866072, 25.03125, 25.03125, 25.03125, 25.03125, 25.0625, 25.3125, 25.607143, 25.8125, 26.174107, 26.59375, 26.53125, 26.566963, 26.5, 26.375, 26.34375, 26.21875, 26.15625, 26.21875, 26.25, 26.25, 26.267857, 26.3125, 26.25, 26.3125, 26.3125, 26.375, 26.625
-10, -10, -10, -10, -10, -10, -10, 59.375, 59.333332, 59.4375, 58.999996, 57.5, 57.178574, 56.556549, 55.830357, 55.35714, 54.604168, 54.0625, 53.383926, 52.785713, 52.3125, 51.758926, 51.169643, 50.163689, 49.61607, 49.0625, 48.517857, 47.910713, 47.3125, 46.559525, 46.125, 45.446426, 44.452381, 43.919643, 43.095238, 42.505955, 41.928574, 40.958336, 40.57143, 40.169643, 39.625, 38.803574, 38.196426, 37.642857, 37.125, 36.330357, 35.678574, 35.125, 34.57143, 33.916668, 33.383926, 32.892857, 32.25, 31.595238, 31, 30.25, 29.5, 28.946428, 28.375, 27.645832, 27, 26.330357, 25.535713, 24.848213, 24.392857, 23.866072, 23.229166, 22.714285, 22.125, 21.446428, 20.511904, 19.928572, 19.4375, 18.9375, 18.5, 18.25, 18, 18, 18, 18, 18, 18, 18, 18, 17.8125, 17.625, 17.4375, 17.25, 17.1875, 17.125, 17.125, 17.125, 17.125, 17.125, 17.0625, 17, 17.0625, 16.973213, 16.901787, 16.9375, 16.875, 17, 17, 17, 16.875, 16.75, 16.5625, 16.3125, 16.1875, 16.0625, 16, 16, 15.9375, 15.8125, 15.625, 15.5, 15.4375, 15.5, 15.5625, 15.5, 15.4375, 15.25, 15.125, 15.125, 15.125, 15.125, 15.125, 15.0625, 15, 15, 15, 14.9375, 14.9375, 14.9375, 15.151786, 15.805556, 16.452379, 18.0625, 18.50893, 18.84375, 18.875, 18.875, 18.9375, 19.0625, 19.3125, 19.625, 19.875, 20.133928, 20.375, 20.5, 20.75, 20.8125, 20.9375, 21, 20.875, 20.933037, 21.004463, 20.96875, 20.96875, 20.508928, 20.205357, 19.741072, 19.166666, 18.741072, 18.104166, 18.008928, 17.875, 17.607143, 15.460319, 14.408163, 13.375, 12.776786, 12.375, 12.1875, 12, 12, 12, 12, 12, 11.9375, 11.8125, 11.6875, 11.4375, 11.375, 11.3125, 11.1875, 11.1875, 11.0625, 11, 11, 11, 11, 11.0625, 11.0625, 11.0625, 11.0625, 10.9375, 10.8125, 10.625, 10.4375, 10.4375, 10.3125, 10.25, 10.25, 10.0625, 10.0625, 10.0625, 10, 10, 10, 10, 10, 10, 10, 9.9375, 9.75, 9.625, 9.5, 9.3125, 9.25, 9.125, 9, 9, 9, 9, 9, 9, 9, 9, 8.96875, 8.84375, 8.71875, 8.46875, 8.25, 8.125, 8, 8, 8, 8, 8, 8, 8, 8, 7.875, 7.8125, 7.8125, 7.6875, 7.625, 7.5625, 7.5, 7.375, 7.3125, 7.1875, 7.0625, 7.3839283, 7.7166672, -10, -10, -10, -10, -10, -10, -10, 21, 21, 21, 21, 21, 20.9375, 21, 21.125, 21.232143, 21.4375, 21.5, 21.633928, 22.083334, 22.169643, 22.25, 22.142857, 22.125, 22.3125, 22.53125, 22.71875, 22.90625, 22.90625, 22.9375, 23.0625, 23.071428, 23.069643, 22.808929, 23.020834, 23.019344, 23.436012, 23.760416, 23.9375, 24.0625, 24, 24.071428, 24.302084, 24.263393, 24.428572, 24.633928, 24.803572, 25, 24.875, 24.875, 24.875, 24.875, 25.25, 25.544643, 25.75, 26.102678, 26.34375, 26.34375, 26.486607, 26.5625, 26.482143, 26.260416, 26.111607, 26.03125, 26.15625, 26.25, 26.3125, 26.455357, 26.625, 26.75, 26.875, 26.75, 26.642857, 26.75, 26.821428, 27.0625, 27.125, 27.125, 27.25, 27.625, 28.285715, 28.839287, 29.232143, 29.3125, 29.125, 28.8125, 28.375, 28.017857, 27.916668, -10, -10, -10, -10, -10, -10, -10, -10, -10, -10, -10, -10, -10, -10, -10, -10, -10, -10, -10, -10, -10, -10, -10, -10, -10, -10, -10, -10, -10, -10, -10, -10, -10, -10, -10, -10, -10, -10, 59.5, 59.416664, 59.375, 58.910713, 57.625, 56.988098, 56.419643, 55.809525, 55.383926, 54.622025, 54.125, 53.446426, 52.848213, 52.258926, 51.651787, 51.107143, 50.145832, 49.61607, 49.008926, 48.226189, 47.607143, 47.0625, 46.580357, 46.1875, 45.45536, 44.452381, 43.982143, 43.357147, 42.601192, 42, 41.104168, 40.642857, 40.169643, 39.571426, 38.886902, 38.258926, 37.660713, 37.125, 36.392857, 35.785713, 35.125, 34.535713, 34, 33.4375, 32.892857, 32.133926, 31.571428, 31, 30.25, 29.5, 28.946428, 28.3125, 27.467262, 26.830357, 26.25, 25.473213, 24.848213, 24.392857, 23.866072, 23.166666, 22.607141, 22.0625, 21.4375, 20.511904, 19.928572, 19.4375, 18.9375, 18.5, 18.25, 18.0625, 18.125, 18.125, 18.125, 18.0625, 18, 18, 18, 17.875, 17.75, 17.5625, 17.4375, 17.375, 17.25, 17.1875, 17.0625, 17, 17, 17, 17, 17, 16.9375, 17, 17, 16.9375, 16.964287, 16.9375, 16.9375, 16.875, 16.6875, 16.4375, 16.1875, 16.0625, 16, 16, 16, 15.9375, 15.8125, 15.6875, 15.5625, 15.5, 15.5625, 15.5625, 15.5, 15.5, 15.3125, 15.1875, 15.1875, 15.125, 15.125, 15.125, 15.0625, 15, 15, 15, 14.9375, 14.9375, 14.9375, 15.044643, 15.486395, 16.312925, 17.830357, 18.428574, 18.78125, 18.8125, 18.8125, 18.875, 19, 19.3125, 19.625, 19.875, 20.196428, 20.5, 20.6875, 20.9375, 20.9375, 21, 20.9375, 20.8125, 20.870537, 21.004463, 20.959822, 20.78125, 20.321428, 19.830357, 19.136906, 18.559523, 18.1875, 17.875, 17.9375, 17.660713, 16.979591, 14.353742, 13.526786, 13, 12.6875, 12.5, 12.25, 12, 12, 12, 12, 12, 11.9375, 11.875, 11.75, 11.5, 11.5, 11.375, 11.25, 11.25, 11.0625, 11, 11.0625, 11.0625, 11.0625, 11.125, 11.0625, 11.0625, 11.0625, 10.9375, 10.875, 10.75, 10.5625, 10.625, 10.4375, 10.3125, 10.3125, 10.0625, 10.125, 10.1875, 10.125, 10.125, 10.0625, 10, 10, 9.9375, 9.875, 9.8125, 9.625, 9.5625, 9.4375, 9.25, 9.1875, 9.0625, 9, 9, 9, 9, 8.9375, 8.875, 8.875, 8.875, 8.9375, 8.875, 8.6875, 8.4375, 8.1875, 8.0625, 8, 8, 8, 8, 8, 8, 8, 8, 7.875, 7.8125, 7.75, 7.625, 7.5625, 7.4375, 7.375, 7.25, 7.1875, 7.125, 7.0625, 7.375, 7.5500002, -10, -10, -10, -10, -10, -10, -10, 21, 21, 21, 21, 21, 21, 21.0625, 21.125, 21.0625, 21.214287, 21.357143, 21.491072, 21.75, 21.8125, 21.9375, 22, 22.0625, 22.3125, 22.5, 22.6875, 22.875, 22.875, 22.9375, 23.0625, 23.196428, 23.257143, 23.058929, 23.270834, 23.144344, 23.498512, 23.760416, 23.9375, 24.0625, 24, 24, 23.96875, 23.90625, 24.116072, 24.446428, 24.741072, 25, 24.9375, 25, 25.0625, 25.0625, 25.375, 25.5625, 25.75, 26.03125, 26.09375, 26.15625, 26.34375, 26.46875, 26.388393, 26.104166, 25.955357, 25.96875, 26.263393, 26.4375, 26.5625, 26.642857, 26.8125, 27, 27.416666, 27.25, 26.726191, 26.651787
-10, -10, -10, -10, -10, -10, -10, 59.625, 59.416664, 59.25, 58.714283, 57.625, 56.943451, 56.38393, 55.892857, 55.446426, 54.639881, 54.125, 53.508926, 52.955357, 52.321426, 51.714287, 51.107143, 50.229168, 49.732143, 49.071426, 48.205357, 47.651787, 47.125, 46.705357, 46.041668, 45.383926, 44.639881, 44.1875, 43.491074, 42.619049, 42, 41.3125, 40.75, 40.169643, 39.464287, 38.928574, 38.3125, 37.723213, 37.125, 36.392857, 35.785713, 35.15625, 34.566963, 34.03125, 33.40625, 32.785713, 32.125, 31.535713, 31, 30.104166, 29.428572, 28.821428, 28.196428, 27.372025, 26.723213, 26.25, 25.517857, 24.910713, 24.410713, 23.866072, 22.958332, 22.428572, 21.875, 21.25, 20.5, 19.892857, 19.4375, 18.9375, 18.5, 18.25, 18.125, 18.25, 18.25, 18.25, 18.125, 18, 18, 18, 17.9375, 17.875, 17.75, 17.625, 17.5625, 17.375, 17.25, 17.125, 17, 17, 17, 17, 17, 17, 17.0625, 17.0625, 16.9375, 16.901787, 16.8125, 16.75, 16.6875, 16.4375, 16.25, 16.125, 16.125, 16.125, 16.1875, 16.125, 16, 15.875, 15.75, 15.6875, 15.6875, 15.75, 15.6875, 15.625, 15.625, 15.4375, 15.3125, 15.1875, 15.0625, 15.0625, 15.0625, 15.0625, 15, 15, 15, 14.9375, 14.9375, 14.9375, 15.008928, 15.467262, 16.255951, 17.580357, 18.285713, 18.65625, 18.6875, 18.65625, 18.71875, 18.84375, 19.15625, 19.508928, 19.875, 20.196428, 20.625, 20.75, 21.0625, 21.0625, 21.125, 21.125, 21, 21.058037, 21.129463, 20.959822, 20.625, 20.102678, 19.491072, 18.657738, 18.184523, 17.875, 17.875, 17.9375, 17.723213, 15.914286, 13.880953, 13.0625, 12.625, 12.625, 12.5625, 12.3125, 12.0625, 12, 12, 12, 12, 12, 11.9375, 11.8125, 11.625, 11.625, 11.5, 11.375, 11.3125, 11.0625, 11, 11.125, 11.125, 11.125, 11.125, 11, 11, 11, 11, 10.9375, 10.8125, 10.6875, 10.625, 10.4375, 10.3125, 10.25, 10.0625, 10.1875, 10.3125, 10.25, 10.25, 10.125, 10, 10, 9.875, 9.8125, 9.75, 9.625, 9.625, 9.5, 9.3125, 9.1875, 9.0625, 9, 9, 9, 9, 8.875, 8.8125, 8.75, 8.75, 8.875, 8.8125, 8.6875, 8.4375, 8.1875, 8.0625, 8, 8, 8, 8, 8, 8, 8, 8, 7.875, 7.8125, 7.6875, 7.5625, 7.5, 7.3125, 7.25, 7.125, 7.0625, 7.0625, 7, 7.25, 7.3333335, -10, -10, -10, -10, -10, -10, -10, 21, 21, 21, 21, 21.0625, 21.125, 21.1875, 21.25, 21.1875, 21.276787, 21.419643, 21.553572, 21.75, 21.8125, 21.9375, 22, 22.0625, 22.25, 22.375, 22.5, 22.625, 22.696428, 22.9375, 23.0625, 23.383928, 23.507143, 23.353573, 23.416668, 23.238094, 23.404762, 23.666666, 23.875, 24, 24.0625, 24.0625, 24.03125, 24.03125, 24.178572, 24.508928, 24.803572, 25, 25, 25, 25, 25, 25.25, 25.5, 25.75, 26, 26, 26.0625, 26.1875, 26.28125, 26.263393, 25.916666, 25.767857, 25.897322, 26.430059, 26.6875, 26.875, 26.892857, 27.0625, 27.1875, 27.541666, 27.241072, 26.62619, 26.755953, 26.767857, 27.360119, 27.375, 27.5625, 27.625, 27.8125, 28.366072, 28.794643, 29.169643, 29.375, 29.4375, 29.25, 28.8125, 28.202381, 28.000002, -10, -10, -10, -10, -10, -10, -10, -10, -10, -10, -10, -10, -10, -10, -10, -10, -10, -10, -10, -10, -10, -10, -10, -10, -10, -10, -10, -10, -10, -10, -10, -10, -10, -10, -10, -10, -10, -10, 59.5, 59.333332, 59.0625, 58.455357, 57.583332, 56.699409, 56.214287, 55.8125, 55.375, 54.577381, 54.0625, 53.4375, 53, 52.321426, 51.714287, 51.035713, 50.1875, 49.625, 49.008926, 48.205357, 47.696426, 47.25, 46.830357, 46.041668, 45.348213, 44.723213, 44.3125, 43.678574, 42.851192, 42.25, 41.416668, 40.785713, 40.125, 39.535713, 39, 38.3125, 37.67857, 37.0625, 36.446426, 35.892857, 35.21875, 34.513393, 33.924107, 33.40625, 32.830357, 32.1875, 31.553572, 31, 30.104166, 29.357143, 28.651785, 28.017857, 27.122025, 26.544643, 26.1875, 25.625, 24.934523, 24.419643, 23.857143, 22.812498, 22.357143, 21.8125, 21.25, 20.428572, 19.785713, 19.375, 18.9375, 18.5625, 18.3125, 18.1875, 18.3125, 18.3125, 18.3125, 18.1875, 18, 18, 18, 18, 18, 17.9375, 17.8125, 17.75, 17.5, 17.3125, 17.1875, 17, 17, 17, 17, 17, 17, 17.0625, 17.0625, 17, 17.026787, 16.9375, 16.8125, 16.714287, 16.4375, 16.25, 16.1875, 16.125, 16.125, 16.1875, 16.0625, 15.9375, 15.875, 15.8125, 15.875, 15.875, 15.875, 15.75, 15.5625, 15.589286, 15.473214, 15.3125, 15.25, 15, 15, 15, 15, 15, 15, 15, 15, 15.0625, 15.1875, 15.428572, 15.967262, 16.738094, 17.663691, 18.303572, 18.53125, 18.625, 18.65625, 18.825893, 18.96875, 19.352678, 19.821428, 20.125, 20.4375, 20.625, 20.75, 21, 21.0625, 21.125, 21.125, 21.0625, 21.09375, 21.03125, 20.834822, 20.4375, 20.040178, 19.553572, 18.588436, 18.267857, 17.982143, 17.9375, 18, 17.785713, 16.938776, 14.244898, 13.459184, 12.958333, 12.794643, 12.5625, 12.375, 12.125, 12, 12, 12, 12, 12, 11.875, 11.75, 11.625, 11.625, 11.5625, 11.4375, 11.3125, 11.0625, 11, 11.125, 11.125, 11.125, 11.125, 11, 11, 11, 11, 10.875, 10.75, 10.625, 10.5, 10.375, 10.25, 10.1875, 10.0625, 10.1875, 10.3125, 10.25, 10.25, 10.0625, 9.9375, 9.9375, 9.8125, 9.8125, 9.75, 9.6875, 9.6875, 9.5625, 9.375, 9.1875, 9.0625, 9, 9, 9, 9, 8.875, 8.8125, 8.6875, 8.625, 8.75, 8.6875, 8.5625, 8.375, 8.125, 8, 8, 8, 8, 8, 8, 8, 8, 8, 7.9375, 7.8125, 7.625, 7.5, 7.375, 7.25, 7.1875, 7.0625, 7, 7, 7, 7.25, 7.3333335, -10, -10, -10, -10, -10, -10, -10, 21, 21, 21, 21, 21.0625, 21.125, 21.1875, 21.25, 21.125, 21.214287, 21.565477, 21.678572, 21.875, 21.875, 21.9375, 22, 22.0625, 22.25, 22.375, 22.4375, 22.5625, 22.633928, 22.8125, 23, 23.1875, 23.25, 23.532143, 23.565477, 23.258928, 23.270834, 23.479166, 23.6875, 23.8125, 23.875, 23.875, 23.9375, 24.125, 24.375, 24.625, 24.875, 25, 25, 25, 25, 25, 25.25, 25.5, 25.75, 26, 26, 26, 26.0625, 26.09375, 26.075893, 25.760416, 25.736607, 25.928572, 26.461309, 26.875, 27.125, 27.125, 27.1875, 27.25, 27.541666, 27.366072, 26.87619, 27.068453
-10, -10, -10, -10, -10, -10, -10, 59.375, 59.25, 58.9375, 58.375, 57.654762, 56.592262, 56.044643, 55.5625, 55.125, 54.598213, 54.125, 53.383926, 52.892857, 52.321426, 51.830357, 51.205357, 50.267857, 49.6875, 48.863094, 48.133926, 47.633926, 47.3125, 46.9375, 46.104168, 45.42857, 44.830357, 44.375, 43.75, 42.997025, 42.392857, 41.604168, 41.017857, 40.375, 39.577381, 39, 38.3125, 37.60714, 36.955357, 36.383926, 35.830357, 35.28125, 34.620537, 33.840775, 33.34375, 32.8125, 32.1875, 31.553572, 31, 30.104166, 29.357143, 28.723213, 28.125, 27.059525, 26.544643, 26.125, 25.625, 24.934523, 24.419643, 23.866072, 22.958332, 22.428572, 21.875, 21.25, 20.357143, 19.67857, 19.25, 18.8125, 18.5, 18.25, 18.25, 18.4375, 18.4375, 18.4375, 18.25, 18, 18, 17.9375, 17.9375, 17.9375, 17.9375, 17.875, 17.875, 17.6875, 17.5, 17.4375, 17.1875, 17.125, 17.0625, 17, 17, 17, 17.0625, 17.0625, 17, 17.026787, 16.875, 16.6875, 16.526787, 16.25, 16.125, 16.125, 16.125, 16.125, 16.1875, 16.0625, 16, 16, 15.9375, 16, 15.875, 15.75, 15.6875, 15.5, 15.589286, 15.535714, 15.3125, 15.25, 15, 15, 15, 15, 15, 15.0625, 15.125, 15.125, 15.25, 15.375, 15.616072, 16.261906, 17.291666, 17.973213, 18.589287, 18.6875, 18.8125, 18.90625, 19.111607, 19.28125, 19.633928, 20.008928, 20.3125, 20.5625, 20.71875, 20.8125, 21.0625, 21.125, 21.1875, 21.1875, 21.0625, 21.0625, 20.875, 20.616072, 20.21875, 19.96875, 19.723213, 19.498016, 18.705357, 18.419643, 18.104166, 18.142857, 17.848213, 17.255102, 16.559525, 15.660713, 13.333333, 12.883929, 12.4375, 12.3125, 12.125, 12, 12, 12, 12, 12, 11.875, 11.75, 11.6875, 11.6875, 11.625, 11.5, 11.3125, 11.0625, 11, 11.125, 11.125, 11.125, 11.125, 11, 11, 11, 11, 10.875, 10.6875, 10.5, 10.3125, 10.1875, 10.125, 10.0625, 10, 10.125, 10.25, 10.25, 10.25, 10.0625, 9.9375, 9.9375, 9.8125, 9.8125, 9.8125, 9.8125, 9.75, 9.625, 9.375, 9.125, 9.0625, 9, 9, 9, 9, 8.875, 8.8125, 8.625, 8.4375, 8.4642859, 8.5, 8.5446434, 8.4375, 8.25, 8.0625, 8, 8, 8, 8, 8, 8, 8, 8, 8, 7.8125, 7.5625, 7.375, 7.1875, 7.125, 7.125, 7.0625, 7, 7, 7, 7.25, 7.3333335, -10, -10, -10, -10, -10, -10, -10, 21, 21, 21, 21, 21.0625, 21.0625, 21.0625, 21.0625, 20.875, 21.053572, 21.610121, 21.857143, 22.0625, 22, 21.9375, 21.9375, 22, 22.1875, 22.3125, 22.3125, 22.4375, 22.508928, 22.6875, 22.875, 23, 23.080357, 23.419643, 23.44643, 23.544643, 23.419643, 23.5, 23.625, 23.6875, 23.9375, 24.0625, 24.223213, 24.4375, 24.625, 24.75, 24.9375, 25, 25.0625, 25.0625, 25.0625, 25.0625, 25.1875, 25.4375, 25.6875, 26, 26.0625, 26.125, 26.1875, 26.15625, 26.28125, 26.15625, 26.15625, 26.428572, 26.773809, 27.125, 27.375, 27.25, 27.25, 27.25, 27.541666, 27.491072, 27.295834, 27.884354, 27.836735, 27.922619, 27.8125, 27.9375, 27.946426, 27.866074, 28.1875, 28.285713, 28.625, 28.9375, 29.25, 29.348213, 29.151787, 28.747025, 28.500002, -10, -10, -10, -10, -10, -10, -10, -10, -10, -10, -10, -10, -10, -10, -10, -10, -10, -10, -10, -10, -10, -10, -10, -10, -10, -10, -10, -10, -10, -10, -10, -10, -10, -10, -10, -10, -10, -10, 59.25, 59.166664, 58.875, 58.3125, 57.547615, 56.738098, 56.151787, 55.458332, 54.991074, 54.517857, 54, 53.258926, 52.723213, 52.25, 51.8125, 51.205357, 50.267857, 49.6875, 48.708336, 48.247025, 47.8125, 47.5, 47.0625, 46.184525, 45.607143, 44.854168, 44.3125, 43.633926, 42.973213, 42.455357, 41.729168, 41.1875, 40.517857, 39.702381, 38.916668, 38.321426, 37.651787, 37.017857, 36.401787, 35.830357, 35.34375, 34.727676, 33.757442, 33.21875, 32.6875, 32.1875, 31.598213, 31.125, 30.291666, 29.297619, 28.580357, 27.883928, 26.952381, 26.526785, 26.0625, 25.580357, 24.872023, 24.401785, 23.866072, 22.958332, 22.428572, 21.875, 21.258928, 20.172619, 19.5, 19.0625, 18.6875, 18.4375, 18.1875, 18.1875, 18.3125, 18.3125, 18.3125, 18.1875, 18, 18, 17.875, 17.901787, 17.973213, 17.875, 17.767857, 17.75, 17.625, 17.5625, 17.625, 17.375, 17.25, 17.125, 17, 17, 17, 17, 17, 16.9375, 17, 16.8125, 16.5625, 16.401787, 16.125, 16.0625, 16.125, 16.125, 16.125, 16.1875, 16.0625, 15.9375, 15.9375, 15.875, 15.9375, 15.8125, 15.625, 15.5625, 15.3125, 15.401786, 15.410714, 15.1875, 15.1875, 15, 15, 15, 14.9375, 14.9375, 15.0625, 15.232143, 15.25, 15.46875, 15.65625, 16.008928, 16.726191, 17.708334, 18.258928, 18.732143, 18.75, 18.9375, 19.21875, 19.52232, 19.71875, 20.008928, 20.290178, 20.65625, 20.84375, 20.9375, 20.9375, 21, 21.0625, 21.125, 21.125, 21.125, 21.125, 20.9375, 20.75, 20.40625, 20.15625, 20.035713, 19.879253, 19.5, 19.147959, 18.333332, 18.214285, 18.0625, 17.848213, 17.5, 16.571428, 13.708333, 12.973214, 12.3125, 12.25, 12.125, 12, 12, 12, 12, 12, 11.875, 11.75, 11.6875, 11.625, 11.5625, 11.4375, 11.25, 11.0625, 11, 11.0625, 11.0625, 11.0625, 11.0625, 11, 11, 11, 11, 10.8125, 10.5625, 10.375, 10.125, 10.0625, 10.0625, 10, 10, 10.0625, 10.125, 10.125, 10.125, 10, 9.9375, 9.9375, 9.875, 9.9375, 9.9375, 9.9375, 9.8125, 9.625, 9.375, 9.125, 9.0625, 9, 9, 9, 9, 8.9375, 8.9375, 8.75, 8.5, 8.4017859, 8.375, 8.4821434, 8.4375, 8.3125, 8.125, 8, 8, 8, 8, 8, 8, 8, 8, 7.9375, 7.75, 7.5, 7.25, 7.0625, 7, 7, 7, 7, 7.0625, 7.0625, 7.3125, 7.416667, -10, -10, -10, -10, -10, -10, -10, 21, 21, 21, 21, 21.0625, 21.0625, 21, 21.026787, 20.9375, 21.005951, 21.681549, 21.857143, 22.0625, 22.0625, 21.973213, 21.901787, 22, 22.0625, 22.25, 22.25, 22.375, 22.508928, 22.625, 22.8125, 22.875, 22.892857, 23.294643, 23.38393, 23.607143, 23.544643, 23.625, 23.6875, 23.6875, 23.9375, 24.133928, 24.473213, 24.625, 24.705357, 24.767857, 25.083334, 25.107143, 25.1875, 25.125, 25.0625, 25.0625, 25.1875, 25.4375, 25.75, 26.125, 26.25, 26.375, 26.4375, 26.4375, 26.625, 26.5625, 26.5625, 26.741072, 26.916666, 27.1875, 27.375, 27.3125, 27.375, 27.375, 27.4375, 27.491072, 27.775, 28.291666
-10, -10, -10, -10, -10, -10, -10, 59.125, 59.166664, 58.910713, 58.258926, 57.476189, 56.675598, 55.925594, 55.208332, 54.803574, 54.4375, 54, 53.3125, 52.556545, 52.053574, 51.625, 51.133926, 50.404762, 49.666668, 48.779762, 48.392853, 48, 47.6875, 47.125, 46.339287, 45.607143, 44.809525, 44.3125, 43.75, 43.142857, 42.526787, 41.747025, 41.1875, 40.517857, 39.630955, 38.809525, 38.258926, 37.589287, 37.017857, 36.401787, 35.830357, 35.3125, 34.633926, 33.619049, 33.125, 32.625, 32.1875, 31.598213, 31.1875, 30.553572, 29.309525, 28.571428, 27.821428, 27.005953, 26.633928, 26.0625, 25.5, 24.778273, 24.352678, 23.897322, 23.220238, 22.440475, 21.866072, 21.258928, 20.279762, 19.523809, 19.071428, 18.6875, 18.4375, 18.1875, 18.125, 18.1875, 18.1875, 18.1875, 18.125, 18, 18, 17.875, 17.964287, 18.008928, 17.767857, 17.660713, 17.625, 17.5625, 17.625, 17.75, 17.5, 17.375, 17.1875, 17, 17, 17, 17, 17, 17, 17.0625, 16.9375, 16.6875, 16.464287, 16.1875, 16.0625, 16.0625, 15.9375, 15.9375, 15.9375, 15.875, 15.875, 15.875, 15.875, 15.9375, 15.75, 15.5, 15.375, 15.0625, 15.151786, 15.223214, 15, 15.0625, 14.9375, 14.9375, 14.9375, 14.875, 14.875, 15, 15.232143, 15.25, 15.540178, 16.072916, 16.508928, 17.142857, 18.083334, 18.508928, 18.875, 18.875, 19.125, 19.5, 19.86607, 20.0625, 20.352678, 20.65625, 20.977678, 21.1875, 21.125, 21, 20.84375, 20.78125, 20.8125, 20.9375, 21.169643, 21.21875, 21.09375, 20.90625, 20.53125, 20.25, 20.214287, 20.071428, 19.669643, 19.202381, 18.404762, 18.214285, 18.0625, 18.0625, 18.0625, 17.178572, 14.25, 13.214286, 12.4375, 12.5, 12.4375, 12.375, 12.3125, 12.1875, 12.125, 12.0625, 11.875, 11.75, 11.625, 11.5, 11.4375, 11.3125, 11.1875, 11.0625, 11, 11, 11, 11, 11, 11, 11, 11, 11, 10.875, 10.625, 10.375, 10.125, 10, 10, 10, 10, 10, 10, 10, 10, 9.9375, 9.9375, 9.9375, 9.9375, 10, 9.9375, 9.9375, 9.8125, 9.6875, 9.5, 9.25, 9.125, 9, 9, 9, 9, 9, 9, 8.8125, 8.5, 8.2767859, 8.1875, 8.2946434, 8.3125, 8.25, 8.125, 8, 8, 8, 8, 8, 8, 8, 8, 7.9375, 7.6875, 7.5, 7.25, 7.0625, 7.0625, 7, 7.0625, 7.125, 7.25, 7.25, 7.4375, 7.5, -10, -10, -10, -10, -10, -10, -10, 21, 21, 21, 20.9375, 20.9375, 20.9375, 20.875, 20.901787, 20.839287, 20.988094, 21.672619, 21.857143, 22.125, 22.1875, 22.160713, 22.089287, 22.1875, 22.25, 22.375, 22.4375, 22.5625, 22.625, 22.625, 22.8125, 22.75, 22.767857, 23.107143, 23.22768, 23.575893, 23.575893, 23.71875, 23.75, 23.6875, 23.9375, 24.196428, 24.598213, 24.75, 24.830357, 24.830357, 25.145834, 25.232143, 25.25, 25.1875, 25.0625, 25, 25.1875, 25.5, 25.919643, 26.3125, 26.5, 26.5625, 26.625, 26.625, 26.8125, 26.875, 26.9375, 27.0625, 27, 27.1875, 27.3125, 27.3125, 27.375, 27.375, 27.5, 27.6875, 28.0625, 28.375, 28.3125, 28.25, 28, 27.9375, 27.821426, 27.741074, 28, 28.214287, 28.794643, 29.035713, 29.3125, 29.348213, 29.214287, 29.071428, 28.645834, -10, -10, -10, -10, -10, -10, -10, -10, -10, -10, -10, -10, -10, -10, -10, -10, -10, -10, -10, -10, -10, -10, -10, -10, -10, -10, -10, -10, -10, -10, -10, -10, -10, -10, -10, -10, -10, -10, 59, 59.083332, 58.848213, 58.258926, 57.464287, 56.705353, 55.952381, 55.252975, 54.69643, 54.383926, 54, 53.491074, 52.452381, 51.919643, 51.4375, 51, 50.57143, 49.916668, 48.976192, 48.288689, 47.883926, 47.5625, 47.125, 46.464287, 45.785713, 44.767857, 44.258926, 43.678574, 42.934525, 42.276787, 41.705357, 41.1875, 40.517857, 39.559525, 38.702381, 38.196426, 37.571426, 37.017857, 36.339287, 35.723213, 35.25, 34.6875, 33.726192, 33.1875, 32.6875, 32.1875, 31.598213, 31.25, 30.633928, 29.238096, 28.464285, 27.696428, 27.089287, 26.6875, 26.0625, 25.446428, 24.861607, 24.40625, 23.96875, 23.220238, 22.440475, 21.866072, 21.258928, 20.279762, 19.523809, 19.071428, 18.625, 18.375, 18.125, 18.0625, 18.125, 18.125, 18.125, 18.0625, 18, 18, 17.875, 17.964287, 18.008928, 17.767857, 17.723213, 17.6875, 17.6875, 17.8125, 17.9375, 17.6875, 17.5, 17.25, 17, 17, 17, 17, 17, 16.9375, 16.9375, 16.8125, 16.5625, 16.375, 16.125, 16, 16, 15.9375, 16, 16, 16, 16, 15.9375, 15.9375, 15.9375, 15.8125, 15.625, 15.5, 15.25, 15.25, 15.1875, 14.9375, 14.9375, 14.9375, 15.044643, 15.125, 15.0625, 15, 15.0625, 15.232143, 15.3125, 15.665178, 16.313988, 16.758928, 17.392857, 18.333334, 18.696428, 18.9375, 18.9375, 19.1875, 19.535713, 19.883928, 20.125, 20.388393, 20.59375, 20.977678, 21.125, 21.0625, 20.875, 20.65625, 20.59375, 20.6875, 20.9375, 21.294643, 21.40625, 21.34375, 21.09375, 20.611607, 20.1875, 19.964287, 19.8125, 19.732143, 19.407738, 18.717262, 18.464285, 18.1875, 18.125, 18, 17.267857, 14.578232, 13.440476, 12.633928, 12.5, 12.5, 12.5, 12.4375, 12.3125, 12.1875, 12.0625, 11.9375, 11.875, 11.75, 11.5625, 11.375, 11.1875, 11.0625, 11, 11, 11, 11, 11, 11, 11, 11, 11, 11, 10.9375, 10.75, 10.5, 10.25, 10.0625, 10, 10, 10, 10, 10, 10, 10, 10, 10, 10, 10, 10, 9.875, 9.8125, 9.75, 9.6875, 9.5625, 9.375, 9.1875, 9, 9, 9, 9, 9, 9, 8.875, 8.625, 8.3392859, 8.1875, 8.2321434, 8.1875, 8.1875, 8.125, 8, 8, 8, 8, 8, 8, 8, 8, 7.9375, 7.75, 7.625, 7.4375, 7.25, 7.1875, 7.0625, 7.125, 7.25, 7.4375, 7.4375, 7.5625, 7.5833335, -10, -10, -10, -10, -10, -10, -10, 20.833334, 20.875, 20.9375, 20.9375, 21, 21, 20.9375, 21.026787, 20.964287, 21.113094, 21.651787, 21.794643, 22.125, 22.25, 22.223213, 22.151787, 22.1875, 22.25, 22.375, 22.5, 22.625, 22.6875, 22.75, 22.875, 22.875, 22.90625, 23.03125, 23.167412, 23.497768, 23.529018, 23.796875, 23.9375, 23.9375, 24.3125, 24.571428, 24.910713, 25, 24.955357, 24.955357, 25.270834, 25.419643, 25.4375, 25.3125, 25.125, 25, 25.1875, 25.5, 25.919643, 26.3125, 26.5, 26.633928, 26.958334, 26.982143, 27.125, 27.125, 27, 27.0625, 27, 27.125, 27.25, 27.25, 27.3125, 27.3125, 27.5, 27.6875, 28, 28.25
-10, -10, -10, -10, -10, -10, -10, 59, 59.083332, 58.910713, 58.383926, 57.678574, 56.675594, 55.845238, 55.065475, 54.50893, 54.196426, 53.866074, 53.336311, 52.309525, 51.732143, 51.25, 50.6875, 50.428574, 49.773811, 49.059525, 48.395836, 47.839283, 47.508926, 47.125, 46.58036, 45.726189, 44.696426, 44.133926, 43.491074, 42.764881, 42.133926, 41.580357, 41.0625, 40.330357, 39.535713, 38.702381, 38.258926, 37.75, 37.041668, 36.348213, 35.714287, 35.041668, 34.508926, 33.747025, 33.25, 32.705357, 32.1875, 31.598213, 31.25, 30.404762, 29.09524, 28.321428, 27.571428, 27.151787, 26.75, 26.241072, 25.458334, 24.897322, 24.40625, 23.96875, 23.220238, 22.440475, 21.866072, 21.258928, 20.351191, 19.630953, 19.133928, 18.642857, 18.375, 18.125, 18, 18, 18, 18, 18, 18, 18, 17.9375, 18.026787, 18.071428, 17.830357, 17.785713, 17.75, 17.75, 17.875, 17.875, 17.625, 17.4375, 17.1875, 17, 17, 17, 17, 17, 16.9375, 16.9375, 16.875, 16.625, 16.4375, 16.1875, 16.0625, 16.0625, 16, 16.125, 16.0625, 16.0625, 16.0625, 15.9375, 15.9375, 15.9375, 15.875, 15.75, 15.625, 15.375, 15.25, 15.125, 14.9375, 14.9375, 15, 15.107143, 15.125, 15.0625, 15, 15, 15.107143, 15.294643, 15.894344, 16.697916, 17.258928, 17.785713, 18.395834, 18.616072, 18.8125, 18.875, 19.232143, 19.535713, 19.848213, 20.125, 20.419643, 20.71875, 21.102678, 21.1875, 21.03125, 20.75, 20.40625, 20.34375, 20.5, 20.8125, 21.294643, 21.46875, 21.53125, 21.325893, 20.715773, 20.1875, 19.776787, 19.5625, 19.419643, 19.157738, 18.800594, 18.571428, 18.3125, 18.1875, 17.9375, 17.19643, 15.185715, 13.404762, 12.848214, 13.1, 12.714286, 12.714286, 12.4375, 12.3125, 12.1875, 12.0625, 11.9375, 11.875, 11.75, 11.5625, 11.375, 11.1875, 11.0625, 11, 11, 11, 11, 11, 11, 11, 11, 11, 11, 10.9375, 10.8125, 10.5625, 10.375, 10.25, 10.125, 10.1875, 10.125, 10.0625, 10.0625, 10, 10, 10, 10, 10, 10, 10, 9.8125, 9.6875, 9.625, 9.5, 9.4375, 9.3125, 9.125, 9, 9, 9, 9, 9, 9, 8.9375, 8.8125, 8.625, 8.375, 8.25, 8.125, 8.0625, 8.0625, 8, 8, 8, 8, 8, 8, 8, 8, 7.9375, 7.8125, 7.75, 7.625, 7.4375, 7.3125, 7.125, 7.125, 7.25, 7.4375, 7.5, 7.625, 7.6666665, -10, -10, -10, -10, -10, -10, 20, 20.666668, 20.75, 20.875, 20.9375, 21, 21, 21, 21.151787, 21.133928, 21.198811, 21.723215, 21.794643, 22.125, 22.25, 22.285713, 22.214287, 22.25, 22.3125, 22.4375, 22.625, 22.75, 22.8125, 22.9375, 23.0625, 23.0625, 23.125, 23.1875, 23.25, 23.5, 23.5625, 23.875, 24.125, 24.125, 24.375, 24.477678, 24.71875, 24.84375, 24.861607, 25.017857, 25.395834, 25.607143, 25.616072, 25.3125, 25.125, 24.9375, 25.25, 25.5625, 25.982143, 26.3125, 26.4375, 26.580357, 27.0625, 27.075893, 27.15625, 27.09375, 26.9375, 26.9375, 26.9375, 27, 27.0625, 27.0625, 27.125, 27.196428, 27.5625, 27.75, 28, 28.125, 27.9375, 27.875, 27.75, 27.75, 27.8125, 27.875, 28.0625, 28.303572, 28.732143, 29.035713, 29.1875, 29.3125, 29.4375, 29.321428, 29.145832, -10, -10, -10, -10, -10, -10, -10, -10, -10, -10, -10, -10, -10, -10, -10, -10, -10, -10, -10, -10, -10, -10, -10, -10, -10, -10, -10, -10, -10, -10, -10, -10, -10, -10, -10, -10, -10, -10, 58.875, 58.883331, 58.616074, 58.142857, 57.473213, 56.425594, 55.488094, 54.80357, 54.223213, 54.008926, 53.714287, 53.166668, 52.166664, 51.607143, 51.125, 50.5625, 50.366074, 49.702381, 49.059525, 48.324402, 47.714283, 47.383926, 47.0625, 46.616074, 45.642857, 44.779762, 44.196426, 43.571426, 42.872025, 42.133926, 41.464287, 40.892857, 40.25, 39.473213, 38.910713, 38.4375, 37.883926, 36.9375, 36.276787, 35.651787, 34.979168, 34.401787, 33.830357, 33.375, 32.830357, 32.1875, 31.494047, 30.833334, 29.976191, 28.949406, 28.276787, 27.642857, 27.25, 26.875, 26.419643, 25.398809, 24.825893, 24.28125, 23.84375, 23.157738, 22.422619, 21.866072, 21.3125, 20.642857, 19.872023, 19.267857, 18.660713, 18.375, 18.125, 18, 18, 18, 18, 18, 18, 18, 18, 18.0625, 18.035713, 17.892857, 17.892857, 17.8125, 17.75, 17.75, 17.625, 17.4375, 17.3125, 17.125, 17, 17, 17, 17, 17, 16.9375, 16.9375, 16.9375, 16.6875, 16.5, 16.25, 16.125, 16.125, 16.0625, 16.1875, 16.0625, 16.0625, 16.125, 16, 16, 15.9375, 15.8125, 15.75, 15.625, 15.4375, 15.3125, 15.125, 15, 15, 15.0625, 15.169643, 15.125, 15.125, 15.125, 15.1875, 15.357143, 15.669643, 16.363094, 17.273809, 17.866072, 18.450001, 18.705357, 18.9375, 19, 19.125, 19.419643, 19.660713, 19.9375, 20.25, 20.544643, 20.8125, 21.071428, 21.09375, 20.866072, 20.4375, 20.21875, 20.09375, 20.383928, 20.875, 21.232143, 21.46875, 21.53125, 21.450893, 20.986607, 20.270834, 19.821428, 19.5625, 19.419643, 19.229166, 19.133928, 19.0625, 18.875, 18.75, 18.25, 17.612246, 15.619048, 14.462585, 13.921768, 14.019048, 13.214286, 12.928572, 12.4375, 12.3125, 12.1875, 12.0625, 11.9375, 11.875, 11.8125, 11.6875, 11.5, 11.3125, 11.125, 11, 11, 11, 11, 11, 11, 11, 11, 11, 11, 11, 10.875, 10.625, 10.5, 10.375, 10.25, 10.3125, 10.1875, 10.0625, 10.0625, 10, 10, 10, 9.9375, 9.875, 9.875, 9.875, 9.75, 9.625, 9.5, 9.375, 9.3125, 9.25, 9.125, 9, 9, 9, 9, 9, 9, 8.9375, 8.875, 8.75, 8.5, 8.3125, 8.125, 8, 8, 8, 8, 8, 8, 8, 7.9375, 7.9375, 7.9375, 8, 8, 8, 7.9375, 7.6875, 7.5, 7.25, 7.1875, 7.25, 7.375, 7.4375, 7.5714283, 7.7499995, -10, -10, -10, -10, -10, -10, 20, 20.604168, 20.708334, 20.84375, 20.9375, 21, 20.96875, 21, 21.0625, 21.008928, 21.250893, 21.651785, 21.803572, 22.125, 22.1875, 22.3125, 22.375, 22.4375, 22.625, 22.6875, 22.875, 22.9375, 22.9375, 23.0625, 23.1875, 23.160713, 23.1875, 23.232143, 23.125, 23.375, 23.4375, 23.8125, 24.125, 24.1875, 24.4375, 24.53125, 24.65625, 24.90625, 24.96875, 25.125, 25.3125, 25.5, 25.428572, 25.125, 25, 24.875, 25.294643, 25.625, 25.982143, 26.1875, 26.25, 26.392857, 27, 27.111607, 27.28125, 27.28125, 27.125, 27.125, 27.0625, 27, 27, 27, 27, 27.142857, 27.708334, 27.928572, 28.1875, 28.1875
-10, -10, -10, -10, -10, -10, -10, 58.625, 58.549999, 58.330357, 58.008926, 57.35714, 56.247025, 55.392857, 54.69643, 54.160713, 53.883926, 53.589287, 53.050594, 52.261906, 51.595238, 51.0625, 50.4375, 50.25, 49.714287, 48.904762, 48.136902, 47.464283, 47.196426, 46.9375, 46.669647, 45.82143, 44.949402, 44.205357, 43.526787, 42.872025, 42.241074, 41.404762, 40.82143, 40.25, 39.580357, 38.934525, 38.375, 37.821426, 36.875, 36.330357, 35.758926, 35.041668, 34.410713, 33.830357, 33.3125, 32.705357, 32.017857, 31.351191, 30.645834, 29.797619, 28.991072, 28.348213, 27.559525, 27.196428, 26.8125, 26.428572, 25.250002, 24.678572, 24.1875, 23.75, 23.041666, 22.410713, 21.830357, 21.3125, 20.651785, 20.017857, 19.339287, 18.723213, 18.375, 18.125, 18, 18, 18, 18, 18, 18, 18, 18, 18, 18, 18, 18, 17.875, 17.75, 17.625, 17.5, 17.4375, 17.375, 17.25, 17.125, 17.0625, 17, 17, 17, 16.9375, 16.9375, 16.9375, 16.6875, 16.5, 16.25, 16.1875, 16.1875, 16.1875, 16.3125, 16.1875, 16.25, 16.25, 16.125, 16.0625, 15.875, 15.75, 15.75, 15.6875, 15.5625, 15.4375, 15.1875, 15.0625, 15.0625, 15.125, 15.232143, 15.1875, 15.25, 15.375, 15.678572, 16.035713, 16.526787, 17.440475, 17.919643, 18.419643, 18.887501, 19.080357, 19.3125, 19.375, 19.5625, 19.857143, 20.035713, 20.25, 20.5, 20.732143, 20.875, 21, 21, 20.741072, 20.375, 20.1875, 20.09375, 20.415178, 20.84375, 21.09375, 21.3125, 21.375, 21.357143, 21.017857, 20.395834, 19.982143, 19.75, 19.625, 19.625, 19.625, 19.5, 19.3125, 19.321428, 19.291666, 19.059525, 18.424604, 17.650793, 16.801586, 16.038889, 13.339286, 12.767858, 12.125, 12.125, 12.0625, 12, 12, 12, 12, 11.9375, 11.6875, 11.4375, 11.1875, 11, 11, 11, 11, 11, 11, 11, 11, 11, 11, 10.928572, 10.6875, 10.5625, 10.544643, 10.482143, 10.25, 10.3125, 10.125, 10.0625, 10.0625, 10, 10, 10, 9.9375, 9.8125, 9.8125, 9.8125, 9.75, 9.6875, 9.5, 9.3125, 9.1875, 9.125, 9.0625, 9, 9, 9, 9, 9, 9, 9, 9, 8.9375, 8.6875, 8.4375, 8.25, 8.0625, 8.0625, 8.0625, 8, 8, 8, 8, 7.875, 7.875, 7.875, 7.9375, 8.0625, 8.0625, 8.0625, 7.875, 7.625, 7.375, 7.125, 7.125, 7.3375001, 7.25, 7.5505953, 7.833333, -10, -10, -10, -10, -10, -10, -10, 20.541668, 20.666668, 20.8125, 21, 21.0625, 21.03125, 21.03125, 21.03125, 20.950893, 21.112499, 21.580359, 21.741072, 22.0625, 22.125, 22.25, 22.375, 22.5, 22.6875, 22.8125, 22.875, 22.875, 22.875, 22.9375, 23.125, 23.223213, 23.25, 23.294643, 23.09375, 23.21875, 23.28125, 23.65625, 24.0625, 24.25, 24.4375, 24.53125, 24.65625, 24.84375, 24.96875, 25.125, 25.25, 25.3125, 25.178572, 24.875, 24.875, 24.982143, 25.419643, 25.6875, 25.875, 26, 26, 26.267857, 26.9375, 27.111607, 27.40625, 27.40625, 27.25, 27.25, 27.125, 26.9375, 26.875, 26.875, 26.9375, 27.25, 27.895834, 28.203571, 28.291666, 28.4375, 28.044643, 27.964287, 27.9375, 28.0625, 28.28125, 28.28125, 28.34375, 28.28125, 28.4375, 28.625, 28.6875, 29.017857, 29.502975, 29.678572, 29.916666, -10, -10, -10, -10, -10, -10, -10, -10, -10, -10, -10, -10, -10, -10, -10, -10, -10, -10, -10, -10, -10, -10, -10, -10, -10, -10, -10, -10, -10, -10, -10, -10, -10, -10, -10, -10, -10, -10, 58.5, 58.549999, 58.309525, 58.071426, 57.535713, 56.488094, 55.511902, 54.547619, 54.089287, 53.75, 53.464287, 52.934525, 52.357143, 51.583336, 51.071426, 50.5, 50.3125, 49.75, 48.625, 48.035713, 47.330357, 47.071426, 46.75, 46.419647, 45.5625, 44.883926, 44.133926, 43.441963, 42.924107, 42.272324, 41.498512, 40.928574, 40.330357, 39.75893, 39.041668, 38.553574, 37.839287, 36.875, 36.392857, 35.866074, 34.958336, 34.285713, 33.705357, 33.25, 32.63393, 31.872023, 31.279762, 30.520834, 29.717262, 29.0625, 28.455357, 27.747025, 27.383928, 27, 26.511906, 25.083334, 24.5, 24.0625, 23.6875, 23.1875, 22.410713, 21.785713, 21.25, 20.705357, 20.125, 19.401787, 18.785713, 18.375, 18.125, 18, 18, 18, 18, 18, 18, 18, 18, 18, 18, 18, 18, 17.875, 17.75, 17.625, 17.5, 17.5, 17.4375, 17.3125, 17.1875, 17, 16.875, 16.8125, 16.8125, 16.8125, 16.875, 16.9375, 16.75, 16.625, 16.4375, 16.4375, 16.375, 16.3125, 16.3125, 16.1875, 16.25, 16.25, 16.1875, 16.0625, 15.875, 15.75, 15.75, 15.75, 15.625, 15.5, 15.25, 15.125, 15.125, 15.125, 15.125, 15, 15.125, 15.4375, 16.044643, 16.959183, 17.591839, 18.202381, 18.584822, 18.96875, 19.325001, 19.361607, 19.739796, 19.857143, 20.107143, 20.294643, 20.4375, 20.625, 20.75, 20.875, 20.9375, 21.0625, 21.0625, 20.866072, 20.5625, 20.40625, 20.34375, 20.665178, 21.03125, 21.125, 21.3125, 21.3125, 21.357143, 21.1875, 20.708334, 20.419643, 20.25, 20.125, 20, 19.875, 19.75, 19.723213, 19.625, 19.5625, 19.551022, 19.047619, 18.653061, 17.931973, 17.023129, 13.755953, 12.857142, 12, 12, 12, 11.9375, 11.875, 11.875, 11.875, 11.9375, 11.8125, 11.5625, 11.3125, 11.0625, 11, 11, 11, 11, 11, 11, 11, 11, 11, 10.857143, 10.4375, 10.375, 10.357143, 10.357143, 10.1875, 10.25, 10.0625, 10.0625, 10.0625, 10, 10, 10, 9.9375, 9.8125, 9.75, 9.75, 9.75, 9.75, 9.5625, 9.3125, 9.125, 9, 9, 9, 9, 9, 9, 9, 9, 9, 9, 9, 8.75, 8.5625, 8.4375, 8.25, 8.25, 8.25, 8.125, 8.0625, 8.0625, 8.0625, 7.9375, 7.96875, 8.03125, 8.15625, 8.40625, 8.4375, 8.4375, 8.1875, 7.875, 7.6875, 7.4375, 7.375, 7.5875001, 7.5, 7.8005953, 8.166667, -10, -10, -10, -10, -10, -10, -10, 20.708334, 20.791668, 20.875, 21, 21, 20.96875, 20.96875, 20.90625, 20.888393, 21.049999, 21.517859, 21.741072, 22, 22.0625, 22.25, 22.4375, 22.625, 22.8125, 22.875, 22.8125, 22.8125, 22.8125, 22.875, 23.125, 23.223213, 23.25, 23.325893, 23.171875, 23.234375, 23.296875, 23.578125, 23.9375, 24.25, 24.375, 24.46875, 24.53125, 24.59375, 24.78125, 24.9375, 25.0625, 25.0625, 24.866072, 24.5625, 24.625, 24.857143, 25.294643, 25.5625, 25.75, 25.875, 25.9375, 26.258928, 26.729166, 27.004463, 27.40625, 27.53125, 27.5, 27.4375, 27.25, 26.875, 26.776787, 26.919643, 27.017857, 27.40625, 27.927084, 28.109821, 28.104166, 28.25
-10, -10, -10, -10, -10, -10, -10, -10, 58.674999, 58.359524, 58.026783, 57.5, 56.758926, 55.797615, 54.744049, 54.169643, 53.75, 53.410713, 53.017857, 52.482143, 51.708336, 51.133926, 50.642857, 50.3125, 49.767857, 48.625, 47.919643, 47.258926, 46.821426, 46.464287, 46.116074, 45.479168, 44.848213, 44.133926, 43.441963, 42.924107, 42.334824, 41.552086, 40.928574, 40.455357, 39.928574, 39.354168, 38.82143, 37.839287, 36.994045, 36.446426, 35.9375, 35.104168, 34.285713, 33.660713, 33.25, 32.669643, 31.788689, 31.154762, 30.395834, 29.946428, 29.3125, 28.622023, 27.872025, 27.446428, 27, 26.395834, 25.142857, 24.571428, 24.125, 23.75, 23.1875, 22.339285, 21.67857, 21.1875, 20.6875, 20.125, 19.464287, 18.955357, 18.5, 18.25, 18.0625, 18, 18, 18, 18, 18, 18, 18, 18, 18, 18, 18, 17.875, 17.6875, 17.5, 17.375, 17.375, 17.375, 17.375, 17.3125, 17.1875, 17.053572, 16.729166, 16.633928, 16.625, 16.75, 16.875, 16.8125, 16.75, 16.625, 16.5625, 16.4375, 16.3125, 16.1875, 16.125, 16.1875, 16.1875, 16.1875, 16.0625, 15.875, 15.75, 15.6875, 15.6875, 15.5625, 15.4375, 15.25, 15.0625, 15.0625, 15.0625, 15.0625, 15, 15.196428, 15.770834, 16.544643, 17.401785, 18.07143, 18.5625, 19.107143, 19.375, 19.668751, 19.611607, 19.803572, 20, 20.357143, 20.6875, 20.8125, 20.875, 20.901787, 20.9375, 20.9375, 21.0625, 21.0625, 20.991072, 20.8125, 20.78125, 20.78125, 20.977678, 21.21875, 21.1875, 21.3125, 21.25, 21.375, 21.458334, 21.145834, 21.044643, 20.875, 20.75, 20.5, 20.25, 20.125, 20.160713, 20.125, 20.21875, 20.15625, 20.03125, 19.763393, 18.708332, 16.880272, 13.791667, 12.642857, 12, 12, 12, 11.875, 11.8125, 11.8125, 11.8125, 11.9375, 11.875, 11.6875, 11.4375, 11.1875, 11.0625, 11, 11, 11, 11, 11, 11, 11, 11, 10.857143, 10.375, 10.3125, 10.294643, 10.294643, 10.1875, 10.1875, 10, 10, 10, 10, 10, 10.0625, 10.0625, 9.9375, 9.875, 9.8125, 9.8125, 9.875, 9.6875, 9.5, 9.25, 9.125, 9.125, 9.125, 9.1875, 9.1875, 9.3125, 9.375, 9.4375, 9.4285717, 9.166667, 9.1428566, 8.9375, 8.875, 8.875, 8.75, 8.75, 8.75, 8.625, 8.5625, 8.5625, 8.5625, 8.25, 8.3214283, 8.65625, 8.84375, 9.09375, 9.125, 9.1875, 8.7142859, 8.3877554, 8.291667, 8.104167, 8.0749998, 8.1589289, 8.0803566, 8.2380953, 8.583333, -10, -10, -10, -10, -10, -10, -10, 20.875, 20.916668, 20.875, 20.9375, 20.90625, 20.84375, 20.8125, 20.6875, 20.71875, 21.03125, 21.464287, 21.75, 22.0625, 22.1875, 22.4375, 22.6875, 22.875, 23, 23, 22.875, 22.75, 22.6875, 22.625, 22.8125, 23.035713, 23.129463, 23.294643, 23.267857, 23.458334, 23.584822, 23.8125, 24.0625, 24.375, 24.4375, 24.5625, 24.625, 24.625, 24.8125, 24.875, 24.9375, 24.8125, 24.625, 24.5, 24.625, 25.107143, 25.589287, 25.875, 26.0625, 26.125, 26.116072, 26.237499, 26.616072, 26.973213, 27.645834, 27.791666, 27.583334, 27.4375, 27.1875, 26.875, 26.839287, 27.044643, 27.142857, 27.459822, 27.739584, 27.859821, 27.690475, 28.125, 27.919643, 28.044643, 28.294643, 28.5625, 28.78125, 28.84375, 28.84375, 28.71875, 28.6875, 28.53125, 28.46875, 28.669643, 29.357141, 29.723215, 29.888887, -10, -10, -10, -10, -10, -10, -10, -10, -10, -10, -10, -10, -10, -10, -10, -10, -10, -10, -10, -10, -10, -10, -10, -10, -10, -10, -10, -10, -10, -10, -10, -10, -10, -10, -10, -10, -10, -10, -10, 59, 58.766666, 58.348213, 57.8125, 57.017857, 55.934525, 54.922615, 54.401783, 53.875, 53.5, 53.125, 52.607143, 51.895836, 51.3125, 50.684525, 50.25, 49.651787, 48.601192, 47.919643, 47.258926, 46.758926, 46.276787, 45.830357, 45.3125, 44.723213, 44.071426, 43.215775, 42.745533, 42.272324, 41.659225, 40.952381, 40.464287, 39.928574, 39.300594, 38.529762, 37.589287, 36.973213, 36.5, 36, 35.104168, 34.285713, 33.660713, 33.25, 32.669643, 31.642857, 31.071428, 30.5, 30.017857, 29.40625, 28.715773, 28.010416, 27.540178, 27.0625, 26.395834, 25.226191, 24.714287, 24.3125, 23.9375, 23.258928, 22.285715, 21.571428, 21.125, 20.616072, 19.979166, 19.464287, 19.0625, 18.625, 18.375, 18.1875, 18.0625, 18.0625, 18.125, 18.125, 18.125, 18.125, 18.0625, 18, 18, 18, 18, 17.875, 17.75, 17.5625, 17.4375, 17.4375, 17.375, 17.375, 17.3125, 17.1875, 17.053572, 16.729166, 16.633928, 16.6875, 16.8125, 16.9375, 16.9375, 16.875, 16.8125, 16.6875, 16.5, 16.3125, 16.125, 16.125, 16.1875, 16.1875, 16.1875, 16.0625, 15.9375, 15.8125, 15.6875, 15.6875, 15.5625, 15.5, 15.375, 15.125, 15.0625, 15, 15, 15, 15.258928, 15.833334, 16.544643, 17.401785, 18.32143, 18.803572, 19.34375, 19.46875, 19.625, 19.71875, 19.839285, 20.15625, 20.513393, 20.8125, 20.875, 20.90625, 20.933037, 20.973213, 21, 21.125, 21.0625, 21.125, 21.1875, 21.21875, 21.34375, 21.40625, 21.40625, 21.3125, 21.375, 21.25, 21.3125, 21.4375, 21.375, 21.4375, 21.375, 21.25, 20.9375, 20.625, 20.375, 20.348213, 20.3125, 20.40625, 20.40625, 20.174107, 19.584822, 18.648809, 15.798096, 13.791667, 12.642857, 12, 12, 12, 11.875, 11.8125, 11.8125, 11.8125, 11.9375, 11.875, 11.6875, 11.4375, 11.1875, 11.0625, 11, 11, 11, 11, 11, 11, 11, 11, 10.857143, 10.375, 10.3125, 10.294643, 10.294643, 10.1875, 10.1875, 10, 10, 10.0625, 10.125, 10.1875, 10.3125, 10.375, 10.25, 10.1875, 10.125, 10.0625, 10.1875, 10, 9.875, 9.6875, 9.625, 9.5357141, 9.591836, 9.6785717, 9.6785717, 10.0625, 10.053572, 9.9875002, 10.107143, 9.5782318, 9.591836, 9.4642859, 9.4642859, 9.5, 9.6428566, 9.5625, 9.5, 9.5714283, 9.5714283, 9.6428576, 9.6428576, 9.916667, 9.9375, 9.75, 9.9642859, 10.142858, 10.25, 10.285714, 10.25, 10.029762, 9.4047623, 9.333334, 9.4428568, 9.194643, 9.2551022, 9.125, 9.166666, -10, -10, -10, -10, -10, -10, -10, 20.9375, 20.958334, 20.90625, 20.9375, 20.84375, 20.75, 20.6875, 20.5, 20.558037, 20.991072, 21.5, 21.848213, 22.125, 22.25, 22.375, 22.625, 22.8125, 22.9375, 23, 22.875, 22.75, 22.6875, 22.625, 22.75, 23, 23.129463, 23.1875, 23.330357, 23.520834, 23.772322, 24.285715, 24.375, 24.589287, 24.5625, 24.5625, 24.625, 24.5625, 24.8125, 24.875, 24.9375, 24.8125, 24.75, 24.8125, 25.107143, 25.607143, 25.982143, 26.1875, 26.241072, 26.041666, 25.9375, 25.924999, 26.25, 26.770834, 27.449406, 27.604166, 27.395834, 27.25, 27.125, 26.9375, 27.026787, 27.232143, 27.205357, 27.28125, 27.299107, 27.514584, 27.532738, 27.9375
-10, -10, -10, -10, -10, -10, -10, -10, 59.25, 58.916668, 58.410713, 58, 57.30357, 56.196426, 55.208336, 54.589283, 53.987499, 53.666668, 52.991074, 52.535713, 51.979168, 51.491074, 50.726192, 50.1875, 49.535713, 48.505955, 47.8125, 47.133926, 46.571426, 46.089287, 45.517857, 45.026787, 44.598213, 44.071426, 43.072918, 42.540176, 42.03125, 41.638393, 40.916668, 40.401787, 39.8125, 39.205357, 38.422619, 37.526787, 36.910713, 36.5, 36, 35.104168, 34.285713, 33.660713, 33.25, 32.669643, 31.571428, 30.964285, 30.4375, 29.955357, 29.40625, 28.715773, 28.15625, 27.611607, 27.1875, 26.511906, 25.580357, 24.964287, 24.455357, 24, 23.258928, 22.285715, 21.571428, 21.0625, 20.553572, 19.916666, 19.446428, 19.125, 18.6875, 18.5, 18.375, 18.1875, 18.25, 18.3125, 18.3125, 18.3125, 18.25, 18.125, 18.0625, 18.0625, 18.0625, 18.0625, 17.875, 17.75, 17.5, 17.3125, 17.25, 17.1875, 17.25, 17.25, 17.1875, 17.053572, 16.729166, 16.571428, 16.5625, 16.6875, 16.8125, 16.9375, 17, 17, 16.875, 16.625, 16.375, 16.125, 16.0625, 16.0625, 16.0625, 16.0625, 16, 16, 15.9375, 15.8125, 15.8125, 15.6875, 15.625, 15.5, 15.25, 15.125, 15, 15, 15, 15.258928, 15.770834, 16.303572, 16.973215, 17.82143, 18.699406, 19.316963, 19.46875, 19.5625, 19.611607, 19.776785, 20.09375, 20.513393, 20.71875, 20.78125, 20.8125, 20.901787, 21.008928, 21.0625, 21.1875, 21.0625, 21.125, 21.1875, 21.21875, 21.375, 21.375, 21.375, 21.34375, 21.482143, 21.375, 21.5, 21.625, 21.625, 21.8125, 21.75, 21.625, 21.25, 20.875, 20.6875, 20.723213, 20.6875, 20.71875, 20.489584, 19.882441, 19.227678, 18.482143, 16.771429, 13.791667, 12.642857, 12, 12, 12, 11.875, 11.8125, 11.8125, 11.875, 12.0625, 12.0625, 11.875, 11.517857, 11.330357, 11.395833, 11.357143, 11.375, 11.3125, 11.25, 11.1875, 11.0625, 10.892857, 10.875, 10.866072, 10.732143, 10.625, 10.5, 10.330357, 10.25, 10.294643, 10.479167, 10.285714, 10.5625, 10.5, 10.5625, 10.6875, 10.8125, 10.75, 10.6875, 10.625, 10.625, 10.8125, 10.6875, 10.5625, 10.339286, 10.5, 11, 11.214286, 11.375, 11.458333, 11.285714, 11.275511, 11.128572, 11.193878, 11.015873, 11.095238, 11.125, 11.166667, 11.041667, 10.770408, 10.678572, 10.607142, 10.642858, 10.678572, 10.75, 10.678572, 10.678572, 10.696428, 10.767858, 11.140306, 11.232142, 11.321428, 11.357142, 11.214286, 11.132653, 10.761905, 10.619048, 10.534694, 10.30102, 9.9732141, 10.212585, 11, -10, -10, -10, -10, -10, -10, -10, 21, 21, 20.9375, 20.9375, 20.78125, 20.625, 20.53125, 20.34375, 20.464287, 20.950893, 21.684525, 22.017857, 22.25, 22.25, 22.25, 22.4375, 22.625, 22.8125, 22.9375, 22.9375, 22.8125, 22.75, 22.6875, 22.6875, 22.901787, 23.174107, 23.232143, 23.517857, 23.770834, 24.084822, 24.4375, 24.5625, 24.651787, 24.5625, 24.5625, 24.625, 24.625, 24.875, 24.9375, 25, 24.9375, 24.9375, 25.0625, 25.586735, 26.071428, 26.443878, 26.571428, 26.428572, 26.166666, 26, 25.924999, 26.1875, 26.708334, 27.261906, 27.354166, 27.083334, 26.875, 26.8125, 26.75, 26.964287, 27.232143, 27.205357, 27.174107, 27.111607, 27.239584, 27.428572, 27.75, 27.8125, 28.017857, 28.357143, 28.5, 28.75, 29, 29.232143, 29.205357, 28.747025, 28.566963, 28.59375, 28.933929, 29.472221, 29.809525, -10, -10, -10, -10, -10, -10, -10, -10, -10, -10, -10, -10, -10, -10, -10, -10, -10, -10, -10, -10, -10, -10, -10, -10, -10, -10, -10, -10, -10, -10, -10, -10, -10, -10, -10, -10, -10, -10, -10, -10, 59.25, 58.899998, 58.285713, 57.9375, 57.24107, 56.184525, 55.39286, 54.767857, 54.174999, 53.791668, 52.845238, 52.428574, 52.0625, 51.598213, 50.642857, 50, 49.3125, 48.535713, 47.776787, 47.089287, 46.508926, 45.964287, 45.392857, 44.857143, 44.455357, 43.946426, 42.979168, 42.446426, 42, 41.482143, 40.702381, 40.258926, 39.625, 39.026787, 37.931976, 37.446426, 36.848213, 36.5, 36, 35.104168, 34.285713, 33.660713, 33.1875, 32.616074, 31.65476, 30.955357, 30.392857, 29.892857, 29.459822, 28.822916, 28.15625, 27.566963, 27.125, 26.491072, 25.764879, 25.142857, 24.580357, 24.0625, 23.113094, 22.214285, 21.55357, 21.0625, 20.553572, 19.916666, 19.446428, 19.1875, 18.8125, 18.625, 18.5, 18.25, 18.25, 18.3125, 18.3125, 18.3125, 18.25, 18.125, 18.0625, 18.125, 18.125, 18.0625, 17.767857, 17.5625, 17.25, 17.0625, 17, 17, 17.125, 17.1875, 17.25, 17.178572, 16.916666, 16.696428, 16.5625, 16.625, 16.6875, 16.8125, 16.9375, 16.9375, 16.8125, 16.625, 16.375, 16.125, 16, 16.0625, 16.0625, 16.0625, 16.0625, 16, 15.9375, 15.8125, 15.8125, 15.75, 15.75, 15.625, 15.375, 15.1875, 15, 15, 15, 15.196428, 15.645834, 16, 16.482143, 17.163267, 18.563988, 19.139881, 19.276787, 19.4375, 19.5625, 19.785713, 20.09375, 20.513393, 20.59375, 20.71875, 20.6875, 20.776787, 20.946428, 21, 21.125, 20.9375, 20.9375, 20.9375, 21, 21.1875, 21.1875, 21.25, 21.3125, 21.482143, 21.4375, 21.625, 21.6875, 21.6875, 21.9375, 21.875, 21.75, 21.4375, 21.125, 20.9375, 20.9375, 20.875, 20.78125, 20.489584, 19.611607, 18.852678, 18.107143, 16.638775, 14.081633, 13.095238, 12.464286, 12.3125, 12.25, 12.294643, 12.271429, 12.214286, 12.367347, 12.660714, 12.455357, 12.258928, 11.892857, 11.767857, 11.895833, 11.857143, 11.9375, 11.9375, 11.9375, 11.642858, 11.459184, 11.163264, 11.142858, 11.214286, 11.336736, 11.482143, 11.3125, 10.87755, 10.75, 10.836736, 11.291667, 11.583333, 11.357142, 11.125, 11.125, 11.25, 11.455357, 11.45, 11.321428, 11.330357, 11.5, 11.785714, 11.821428, 11.821428, 11.744898, 11.458333, 12, 12.112245, 12.178572, 12.25, 12.25, 12.285714, 12.012501, 11.919643, 11.95238, 12.061225, 12.214286, 12.25, 11.8125, 11.642857, 11.5, 11.4375, 11.714286, 11.785714, 11.857142, 11.625, 11.625, 11.625, 11.65625, 11.888393, 11.90625, 11.96875, 12, 11.9375, 12.17347, 11.95238, 11.809524, 11.405356, 11.044642, 10.848213, 11.069728, 11.571428, 12.482143, 13, 13.875, -10, -10, -10, -10, 21, 21, 20.9375, 20.9375, 20.78125, 20.625, 20.53125, 20.34375, 20.464287, 20.888393, 21.630953, 22.080357, 22.25, 22.3125, 22.1875, 22.3125, 22.4375, 22.625, 22.75, 22.8125, 22.75, 22.6875, 22.6875, 22.625, 22.866072, 23.17857, 23.169643, 23.517857, 23.770834, 24.116072, 24.5, 24.5625, 24.598215, 24.6875, 24.6875, 24.875, 24.875, 25.125, 25.1875, 25.1875, 25.125, 25.125, 25.25, 25.678572, 26.333334, 26.723215, 26.803572, 26.532738, 26.113094, 25.8125, 25.612499, 25.919643, 26.625, 27.065477, 27.059523, 26.708334, 26.5, 26.5, 26.5625, 26.75, 26.9375, 26.9375, 26.955357, 27.080357, 27.333334, 27.678572, 28.0625
-10, -10, -10, -10, -10, -10, -10, -10, 59.125, 58.849998, 58.321426, 57.854168, 57.17857, 56.238094, 55.63393, 55.053574, 54.341667, 53.916668, 52.907738, 52.44643, 52.0625, 51.660713, 50.75, 49.916668, 49.1875, 48.348213, 47.678574, 47.125, 46.508926, 45.928574, 45.330357, 44.794643, 44.375, 43.839283, 42.916668, 42.42857, 41.9375, 41.366074, 40.595238, 40.071426, 39.375, 38.607143, 37.744049, 37.321426, 36.8125, 36.5, 36, 35.104168, 34.357143, 33.767857, 33.1875, 32.580357, 31.738094, 31.017857, 30.410713, 29.830357, 29.40625, 28.90625, 28.28125, 27.691963, 27.1875, 26.5, 25.764879, 25.142857, 24.517857, 23.955357, 23.050594, 22.267857, 21.660713, 21.1875, 20.678572, 19.979166, 19.464285, 19.125, 18.8125, 18.625, 18.5, 18.3125, 18.25, 18.3125, 18.3125, 18.3125, 18.25, 18.0625, 18, 18.0625, 18, 17.9375, 17.580357, 17.375, 17.125, 17, 17, 17, 17.0625, 17.0625, 17.0625, 17, 17, 16.875, 16.75, 16.75, 16.6875, 16.6875, 16.8125, 16.8125, 16.8125, 16.75, 16.5625, 16.3125, 16.1875, 16.1875, 16.125, 16.0625, 15.96875, 15.90625, 15.84375, 15.84375, 15.875, 15.875, 15.875, 15.6875, 15.4375, 15.1875, 15, 15.0625, 15.0625, 15.25, 15.5, 15.6875, 16.151787, 17.130953, 18.416666, 18.983631, 19.183037, 19.46875, 19.6875, 19.973213, 20.15625, 20.40625, 20.34375, 20.40625, 20.4375, 20.625, 20.883928, 21, 21.125, 20.875, 20.75, 20.6875, 20.6875, 20.8125, 20.964287, 21.232143, 21.428572, 21.732143, 21.6875, 21.75, 21.642857, 21.5625, 21.75, 21.8125, 21.75, 21.5625, 21.3125, 21.0625, 21.0625, 20.9375, 20.75, 20.333334, 19.339285, 18.363094, 17.982143, 17.321428, 16.190475, 14.047618, 13.102041, 12.846939, 12.714286, 13.107143, 13.8, 13.666667, 13.898808, 13.530612, 13.005357, 12.9375, 12.633928, 12.523808, 12.777778, 13.051021, 13.071428, 13, 12.928572, 13.208333, 13.029762, 12.678571, 12.666667, 12.541667, 12.779762, 12.479592, 12.142858, 12.178571, 12.089286, 12.238095, 12.440476, 12.357142, 12.321428, 12.142858, 11.875, 11.9375, 12.142857, 12.407143, 12.071428, 12.205357, 12.25, 12.5, 12.892858, 12.892858, 12.852041, 13.125, 12.875, 12.973214, 13, 13, 12.9375, 13, 13.128572, 12.803572, 12.8125, 12.857143, 13, 13, 12.875, 12.678571, 12.5, 12.765306, 12.714286, 12.625, 12.625, 12.625, 12.5625, 12.678572, 12.732142, 12.638393, 12.65625, 12.78125, 12.785714, 12.75, 13.107142, 13, 12.857142, 12.517857, 12.285714, 11.698979, 11.784014, 12.273809, 12.885715, 13.35, 14.25, -10, -10, -10, -10, 21, 21, 21, 21, 20.875, 20.75, 20.625, 20.4375, 20.526787, 20.857143, 21.568453, 22.017857, 22.125, 22.1875, 21.9375, 22, 22.125, 22.375, 22.5625, 22.6875, 22.75, 22.75, 22.875, 22.8125, 22.928572, 23.142857, 23.107143, 23.375, 23.508928, 24.020834, 24.357143, 24.5, 24.535715, 24.6875, 24.75, 24.9375, 24.9375, 25.1875, 25.3125, 25.375, 25.375, 25.3125, 25.375, 25.75, 26.479168, 26.794643, 26.803572, 26.407738, 25.863094, 25.508928, 25.375, 25.5625, 26.458334, 26.660715, 26.767857, 26.625, 26.5625, 26.598213, 26.455357, 26.508928, 26.625, 26.6875, 26.767857, 27.080357, 27.458334, 27.803572, 28.1875, 28.1875, 28.321428, 28.645834, 28.607143, 28.8125, 28.9375, 29.169643, 29.205357, 28.934525, 28.910713, 28.958334, -10, -10, -10, -10, -10, -10, -10, -10, -10, -10, -10, -10, -10, -10, -10, -10, -10, -10, -10, -10, -10, -10, -10, -10, -10, -10, -10, -10, -10, -10, -10, -10, -10, -10, -10, -10, -10, -10, -10, -10, -10, -10, -10, 59, 58.716667, 58.241074, 57.747025, 57.107143, 56.404762, 55.94643, 55.366074, 54.654167, 54.113094, 52.979168, 52.464283, 52, 51.544643, 50.654762, 49.809525, 49.125, 48.330357, 47.741074, 47.142857, 46.258926, 45.723213, 45.1875, 44.732143, 44.3125, 43.732143, 43.0625, 42.544643, 42, 41.258926, 40.57143, 40, 39.25, 38.428574, 37.785713, 37.375, 36.875, 36.4375, 35.892857, 35.041668, 34.339287, 33.767857, 33.125, 32.473213, 31.821428, 31.080357, 30.49107, 29.9375, 29.5, 29, 28.375, 27.785713, 27.041666, 26.321428, 25.723213, 25.071428, 24.392857, 23.785713, 22.979166, 22.321428, 21.767857, 21.1875, 20.642857, 20.0625, 19.517857, 19.1875, 18.8125, 18.625, 18.4375, 18.3125, 18.3125, 18.3125, 18.375, 18.375, 18.3125, 18.178572, 18, 18, 17.875, 17.875, 17.580357, 17.375, 17.125, 17, 17, 17.035713, 16.955357, 16.955357, 16.9375, 16.9375, 17, 16.875, 16.75, 16.75, 16.6875, 16.6875, 16.8125, 16.875, 16.9375, 16.9375, 16.875, 16.6875, 16.544643, 16.487499, 16.458334, 16.133928, 16.040178, 15.84375, 15.78125, 15.84375, 15.875, 15.9375, 15.875, 15.625, 15.375, 15.125, 15, 15.125, 15.1875, 15.4375, 15.8125, 16.107143, 16.544643, 17.255953, 18.488096, 19.014881, 19.276787, 19.5625, 19.6875, 19.9375, 20.125, 20.375, 20.40625, 20.53125, 20.53125, 20.65625, 20.848213, 20.9375, 21.0625, 20.875, 20.6875, 20.5625, 20.5625, 20.6875, 20.901787, 21.294643, 21.553572, 21.857143, 21.8125, 21.75, 21.517857, 21.375, 21.5, 21.5625, 21.5, 21.375, 21.1875, 20.9375, 20.9375, 20.75, 20.5, 20.020834, 19.071428, 18.425594, 18.0625, 17.660713, 17.091837, 16.301588, 14.976192, 14.494048, 14.166667, 14.12245, 14.400001, 14.285714, 14.556122, 14.459184, 13.942857, 14.178572, 13.928572, 14.178571, 14.305554, 14.061225, 14.071428, 13.964286, 14, 14.107142, 13.954082, 13.581633, 13.428572, 13.25, 13.418367, 13.336736, 12.875, 13.010203, 12.933673, 13.061225, 13.380953, 13.1875, 13.25, 13.098214, 12.830357, 12.758928, 12.955357, 13.075, 12.946428, 13.341836, 13.1875, 13.4375, 13.6875, 13.75, 13.979592, 14.035714, 14, 13.964286, 13.723214, 13.651786, 13.6875, 13.758928, 13.8375, 13.892858, 14.010203, 14.051021, 13.916667, 13.916667, 14.178572, 14.07653, 13.625, 14.086736, 13.928572, 13.928572, 13.785714, 13.75, 13.714286, 13.714286, 13.75, 13.544643, 13.5625, 13.625, 13.660714, 13.75, 13.9375, 13.875, 13.75, 13.795918, 13.535714, 13.625, 13.630952, 13.595238, 13.882653, 14.255102, 14.625, -10, -10, -10, -10, 21, 21, 21, 21, 20.9375, 20.9375, 20.875, 20.75, 20.8125, 20.964285, 21.425594, 21.794643, 21.8125, 21.9375, 21.75, 21.8125, 21.90625, 22.09375, 22.34375, 22.53125, 22.6875, 22.75, 22.875, 22.8125, 22.928572, 23.142857, 23.107143, 23.3125, 23.455357, 24.104168, 24.348215, 24.5, 24.571428, 24.75, 24.875, 25, 25, 25.1875, 25.3125, 25.4375, 25.5, 25.375, 25.3125, 25.535713, 26.291668, 26.544643, 26.616072, 26.291666, 26.071428, 25.8125, 25.75, 25.866072, 26.5, 26.669643, 26.767857, 26.625, 26.625, 26.598213, 26.392857, 26.348215, 26.4375, 26.625, 26.8125, 27.151787, 27.482143, 27.803572, 28.1875
-10, -10, -10, -10, -10, -10, -10, -10, 58.875, 58.650002, 58.303574, 57.684525, 57.1875, 56.678574, 56.089287, 55.544647, 54.854168, 54.133926, 53.193455, 52.607143, 51.916668, 51.366074, 50.488094, 49.747025, 49.0625, 48.401787, 47.848213, 47.267857, 46.383926, 45.785713, 45.196426, 44.660713, 44.125, 43.535713, 43.125, 42.6875, 42.241074, 41.279762, 40.607143, 40, 39.25, 38.5, 37.892857, 37.4375, 37, 36.455357, 35.642857, 34.836311, 34.267857, 33.8125, 33.1875, 32.553574, 32, 31.3125, 30.67857, 30.0625, 29.517857, 29.0625, 28.491072, 27.809523, 26.979166, 26.258928, 25.660713, 24.916666, 24.321428, 23.723213, 22.979166, 22.321428, 21.767857, 21.1875, 20.580357, 19.955357, 19.455357, 19.125, 18.8125, 18.5625, 18.3125, 18.25, 18.1875, 18.1875, 18.25, 18.1875, 18.125, 18.053572, 17.875, 17.875, 17.8125, 17.8125, 17.642857, 17.428572, 17.125, 17.0625, 17, 17.035713, 16.892857, 16.892857, 16.875, 16.9375, 17, 16.9375, 16.875, 16.9375, 16.848213, 16.714287, 16.8125, 16.875, 17.0625, 17.1875, 17.1875, 17, 16.857143, 16.737499, 16.708334, 16.321428, 16.165178, 15.90625, 15.71875, 15.78125, 15.8125, 15.8125, 15.75, 15.5625, 15.375, 15.1875, 15.125, 15.267857, 15.604166, 15.946428, 16.4375, 16.794643, 17.443878, 18.108843, 18.717262, 19.104166, 19.339287, 19.75, 19.919643, 20.125, 20.3125, 20.4375, 20.5, 20.625, 20.625, 20.6875, 20.8125, 20.875, 21, 20.875, 20.75, 20.75, 20.875, 21.0625, 21.401787, 21.732143, 21.866072, 22.125, 22, 21.875, 21.642857, 21.4375, 21.46875, 21.46875, 21.40625, 21.28125, 21.125, 20.875, 20.75, 20.5, 20.25, 19.9375, 19.363094, 18.854166, 18.5, 18.1875, 17.848213, 17.35034, 16.193876, 15.410714, 15, 15.044643, 15.2875, 15.1875, 15.455357, 15.339286, 15.067857, 15.316327, 15.061225, 15.030612, 15.071428, 15.204082, 15.005952, 14.696428, 14.767858, 15.15625, 15.053572, 14.75, 14.321428, 14.071428, 14.107142, 13.979592, 14, 13.9375, 13.848214, 13.875, 14, 13.9375, 14.285714, 14.255102, 13.984694, 13.903061, 13.839285, 14.1375, 14.008928, 14.267857, 14.428572, 14.535714, 14.5625, 14.75, 14.8125, 14.875, 14.875, 14.964286, 14.969388, 14.589286, 14.785714, 14.633928, 14.7125, 14.928572, 15.040816, 15.061225, 15.458333, 15.375, 15.214286, 15.219388, 15.25, 15.193878, 15, 14.928572, 14.857142, 14.6875, 14.669643, 14.5625, 14.5625, 14.571428, 14.642858, 14.714286, 14.82653, 14.928572, 15.035714, 14.964286, 14.821428, 14.785714, 14.642858, 14.607142, 14.642858, 14.642858, 14.821428, 15.030612, 15.321428, 16, -10, -10, -10, 21, 21, 21, 21, 21.0625, 21.1875, 21.25, 21.178572, 21.049999, 21.142857, 21.133928, 21.5, 21.5, 21.6875, 21.5625, 21.6875, 21.65625, 21.84375, 22.09375, 22.21875, 22.5625, 22.6875, 22.875, 22.9375, 22.964287, 23.035713, 23.0625, 23.3125, 23.553572, 24.229168, 24.473215, 24.625, 24.758928, 24.9375, 25.0625, 25.125, 25, 25.089287, 25.1875, 25.375, 25.5625, 25.5, 25.4375, 25.535713, 26.104168, 26.232143, 26.303572, 25.979166, 25.883928, 25.75, 25.6875, 25.803572, 26.4375, 26.669643, 26.830357, 26.8125, 26.875, 26.848213, 26.705357, 26.598215, 26.625, 26.75, 26.875, 27.276787, 27.642857, 27.928572, 28.1875, 28.125, 28.321428, 28.708334, 28.857143, 29, 28.875, 28.8125, 28.875, 29.241072, 29.517857, 29.583334, -10, -10, -10, -10, -10, -10, -10, -10, -10, -10, -10, -10, -10, -10, -10, -10, -10, -10, -10, -10, -10, -10, -10, -10, -10, -10, -10, -10, -10, -10, -10, -10, -10, -10, -10, -10, -10, -10, -10, -10, -10, -10, -10, 58.75, 58.583332, 58.366074, 57.747025, 57.375, 56.919643, 56.267857, 55.616074, 54.872025, 54.133926, 53.401787, 52.785713, 51.979168, 51.258926, 50.464287, 49.747025, 49.125, 48.580357, 47.943455, 47.44643, 46.508926, 45.910713, 45.276787, 44.767857, 44.25, 43.660713, 43.1875, 42.776787, 42.348213, 41.288689, 40.64286, 40, 39.25, 38.57143, 38, 37.5, 37.125, 36.508926, 35.476189, 34.848213, 34.330357, 33.875, 33.3125, 32.678574, 32.071426, 31.291666, 30.785713, 30.169643, 29.559523, 29.0625, 28.491072, 27.809523, 26.979166, 26.258928, 25.660713, 24.916666, 24.321428, 23.723213, 23.125, 22.464285, 21.955357, 21.375, 20.767857, 20.026785, 19.473213, 19.125, 18.8125, 18.625, 18.4375, 18.4375, 18.375, 18.3125, 18.3125, 18.1875, 18.125, 18.053572, 17.875, 17.8125, 17.75, 17.8125, 17.75, 17.616072, 17.3125, 17.1875, 17.0625, 17.035713, 16.955357, 16.955357, 16.9375, 17, 17, 17, 17, 17.125, 17.008928, 16.803572, 16.9375, 17.044643, 17.3125, 17.5, 17.5625, 17.4375, 17.357143, 17.174999, 17.145834, 16.696428, 16.477678, 16.21875, 15.96875, 15.959822, 15.8125, 15.75, 15.625, 15.5625, 15.4375, 15.4375, 15.5, 15.705357, 16.175594, 16.779762, 17.525511, 17.943878, 18.275511, 18.604166, 19.071428, 19.544643, 19.75, 20.0625, 20.1875, 20.375, 20.598213, 20.6875, 20.75, 20.8125, 20.875, 21, 21.125, 21.1875, 21.25, 21.125, 21.0625, 21.125, 21.25, 21.4375, 21.776787, 21.982143, 22.053572, 22.25, 22.0625, 21.9375, 21.767857, 21.5, 21.40625, 21.34375, 21.28125, 21.28125, 21.1875, 20.9375, 20.714287, 20.4375, 20.1875, 20, 19.696428, 19.354166, 19.125, 18.803572, 18.372023, 17.919641, 16.9375, 16.892859, 16.5, 16, 15.9375, 15.9375, 16.285715, 16.316326, 16.242857, 16.244898, 15.803572, 15.776786, 15.875, 16.053572, 16.636904, 16.666666, 16.583334, 16.285715, 16.178572, 16.291666, 16.208334, 16.083334, 15.958333, 15.666667, 15.163264, 15, 14.806123, 14.5, 14.5625, 14.5, 14.794643, 15.262244, 14.948979, 14.948979, 14.974489, 15.285714, 15.357142, 15.607142, 15.535714, 15.607142, 15.714286, 15.857142, 15.857142, 15.892858, 15.964286, 15.892858, 15.933673, 15.816327, 15.857142, 15.892858, 15.75, 16.178572, 16.178572, 16.142857, 16.214285, 16.142857, 16.25, 16.377552, 16.357143, 16.107143, 16.142857, 15.75, 15.857142, 15.857142, 15.836736, 15.714286, 15.785714, 15.75, 15.625, 15.690475, 15.969388, 15.974489, 15.964286, 15.928572, 15.5625, 15.5625, 15.5, 15.5, 15.5625, 15.5, 15.5625, 15.6875, 15.75, 16.111113, -10, -10, -10, 21.0625, 21, 21, 21, 21.0625, 21.1875, 21.3125, 21.303572, 21.157143, 21.059523, 20.979166, 21.333334, 21.428572, 21.625, 21.5625, 21.625, 21.53125, 21.65625, 21.90625, 22.09375, 22.4375, 22.633928, 22.887501, 22.821428, 22.821428, 22.821428, 23.145834, 23.366072, 23.678572, 24.291668, 24.410715, 24.625, 24.979166, 25.080357, 25.3125, 25.3125, 25.3125, 25.339287, 25.3125, 25.392857, 25.5, 25.4375, 25.4375, 25.464285, 25.833334, 25.866072, 26, 26, 26, 26, 25.9375, 25.946428, 26.270834, 26.553572, 26.75, 26.875, 27.0625, 27.035713, 27.017857, 26.910715, 26.875, 26.9375, 26.9375, 27.285715, 27.767857, 27.928572, 28.0625
-10, -10, -10, -10, -10, -10, -10, -10, 58.75, 58.5, 58.3125, 57.892857, 57.625, 57.1875, 56.205357, 55.473213, 54.830357, 54.196426, 53.526787, 52.955357, 52.050598, 51.205353, 50.357143, 49.830357, 49.1875, 48.660713, 47.979168, 47.464287, 46.6875, 46.044643, 45.285713, 44.723213, 44.25, 43.705357, 43.25, 42.794643, 42.348213, 41.288689, 40.64286, 40, 39.3125, 38.678574, 38.0625, 37.517857, 37.125, 36.508926, 35.476189, 34.848213, 34.330357, 33.875, 33.375, 32.785713, 31.988094, 31.300594, 30.830357, 30.232143, 29.577379, 29.0625, 28.428572, 27.702379, 26.916666, 26.25, 25.660713, 24.979166, 24.4375, 23.663691, 23.053572, 22.401785, 21.955357, 21.4375, 20.839285, 19.922619, 19.330357, 19.0625, 18.8125, 18.6875, 18.625, 18.625, 18.5625, 18.4375, 18.375, 18.1875, 18.0625, 18.053572, 17.8125, 17.75, 17.8125, 17.875, 17.9375, 17.866072, 17.625, 17.5, 17.375, 17.348213, 17.205357, 17.205357, 17.1875, 17.1875, 17.125, 17.0625, 17.0625, 17.25, 17.321428, 17.251701, 17.418367, 17.551022, 17.9375, 18, 18.0625, 18, 17.919643, 17.799999, 17.833334, 17.383928, 17.196428, 16.875, 16.5625, 16.491072, 16.071428, 15.964286, 15.857142, 16, 15.875, 16.008928, 16.333334, 16.571428, 17.113094, 17.891157, 18.116072, 18.482143, 18.75, 19.125, 19.607143, 20.044643, 20.25, 20.4375, 20.5, 20.625, 20.848213, 20.875, 20.9375, 21.0625, 21.232143, 21.375, 21.5, 21.5, 21.4375, 21.375, 21.375, 21.4375, 21.625, 21.8125, 22.0625, 22.0625, 22.0625, 22.125, 21.9375, 21.9375, 21.875, 21.6875, 21.53125, 21.40625, 21.34375, 21.34375, 21.3125, 21.0625, 20.776787, 20.4375, 20.1875, 20.0625, 19.875, 19.8125, 19.625, 19.303572, 18.684523, 18.169641, 17.714285, 17.489796, 17.285715, 17.214285, 16.916666, 16.916666, 17.392857, 17.125, 17.0625, 16.9375, 16.625, 16.589287, 16.964285, 17.311224, 17.545918, 17.607143, 17.571428, 17.428572, 17.311224, 17.071428, 17, 16.892857, 16.857143, 16.642857, 16.413265, 16, 15.535714, 15.357142, 15.265306, 15.25, 15.586736, 16.135714, 15.892857, 16.12245, 16.045918, 16.321428, 16.321428, 16.428572, 16.357143, 16.464285, 16.571428, 16.5625, 16.625, 16.625, 16.75, 16.75, 16.785713, 16.979593, 16.928572, 16.892857, 16.928572, 17.107143, 17.071428, 16.946428, 16.976191, 16.904762, 17.104166, 17.133928, 17.214285, 17, 16.875, 16.6875, 16.625, 16.857143, 16.836735, 16.714285, 16.785715, 16.857143, 17.333334, 17.547619, 17.275509, 17.147959, 16.642857, 16.8125, 16.6875, 16.5625, 16.642857, 16.642857, 16.642857, 16.3125, 16.25, 16.3125, 16.4375, 16.482994, -10, 20.414286, 21.041668, 21.0625, 21, 21, 21, 21.0625, 21.1875, 21.375, 21.428572, 21.264286, 21.059523, 20.916666, 21.208334, 21.366072, 21.5625, 21.5625, 21.625, 21.53125, 21.59375, 21.84375, 21.96875, 22.3125, 22.571428, 22.825001, 22.821428, 22.821428, 22.883928, 23.270834, 23.553572, 23.857143, 24.208334, 24.366072, 24.625, 25.220238, 25.42857, 25.5625, 25.383928, 25.3125, 25.38393, 25.366072, 25.455357, 25.5, 25.4375, 25.5, 25.517857, 25.625, 25.625, 25.75, 25.8125, 26, 26.0625, 26.0625, 26.0625, 26.125, 26.3125, 26.4375, 26.625, 26.857143, 26.9375, 27.125, 27.089287, 27.0625, 27, 26.875, 27.116072, 27.726191, 27.919643, 28, 27.901787, 28.169643, 28.473215, 28.75, 28.875, 28.8125, 28.901787, 29.3125, 29.839287, 30.267857, -10, -10, -10, -10, -10, -10, -10, -10, -10, -10, -10, -10, -10, -10, -10, -10, -10, -10, -10, -10, -10, -10, -10, -10, -10, -10, -10, -10, -10, -10, -10, -10, -10, -10, -10, -10, -10, -10, -10, -10, -10, -10, -10, -10, 58.875, 58.583332, 58.321426, 57.892857, 57.75, 57.3125, 56.101189, 55.392853, 54.705357, 54.1875, 53.598213, 53.0625, 52.113098, 51.214287, 50.42857, 49.9375, 49.25, 48.67857, 47.916668, 47.446426, 46.9375, 46.104168, 45.35714, 44.723213, 44.3125, 43.8125, 43.25, 42.75, 42.285713, 41.279762, 40.64286, 40, 39.375, 38.785713, 38.1875, 37.642857, 37.1875, 36.51786, 35.476189, 34.848213, 34.330357, 33.875, 33.4375, 32.892857, 32.050594, 31.309523, 30.830357, 30.232143, 29.514879, 28.955357, 28.303572, 27.577379, 27.0625, 26.428572, 25.702379, 25.050594, 24.553572, 23.6875, 23.125, 22.455357, 21.872025, 21.446428, 20.883928, 19.985119, 19.276785, 18.892857, 18.75, 18.6875, 18.75, 18.8125, 18.625, 18.4375, 18.330357, 18.25, 18.125, 18.1875, 18, 18, 18.1875, 18.223213, 18.3125, 18.241072, 18, 17.9375, 17.8125, 17.8125, 17.8125, 17.8125, 17.8125, 17.75, 17.625, 17.5625, 17.5625, 17.8125, 17.946428, 18.646826, 18.767859, 18.821428, 18.5, 18.5625, 18.625, 18.5625, 18.53125, 18.642857, 18.571428, 18.392857, 18.178572, 17.892857, 17.440475, 17.311224, 17.208334, 17.208334, 17.25, 16.910713, 16.535715, 16.795918, 17.666668, 17.928572, 18.391157, 18.529762, 18.803572, 19, 19.125, 19.5, 19.982143, 20.357143, 20.5625, 20.6875, 20.75, 20.875, 21.035713, 21, 21.0625, 21.1875, 21.419643, 21.625, 21.6875, 21.625, 21.5625, 21.5, 21.5625, 21.6875, 21.8125, 21.9375, 22.125, 22, 22.0625, 22.275, 22, 22.133928, 22.0625, 21.875, 21.65625, 21.53125, 21.46875, 21.53125, 21.5, 21.25, 20.901787, 20.5, 20.3125, 20.25, 20.1875, 20.1875, 20.0625, 19.678572, 18.997023, 18.526785, 18.1875, 18.125, 18.035713, 18.178572, 18.458334, 18.458334, 18.336735, 18, 17.875, 17.6875, 17.5, 17.693878, 18, 18.316328, 18.321428, 18.40625, 18.28125, 18.15625, 18.053572, 17.9375, 18, 17.678572, 17.714285, 17.75, 17.760204, 17.775, 17.821428, 17.527779, 17.216269, 17.011904, 17.113096, 17.22143, 17.178572, 17.260204, 17.183674, 17.1875, 17.125, 17.1875, 17.142857, 17.119047, 17.244898, 17.428572, 17.5, 17.75, 17.8125, 17.964285, 18, 18, 17.964285, 17.75, 17.928572, 17.8125, 17.75, 17.974489, 18.402779, 18.444445, 18.15476, 17.946428, 17.875, 17.75, 17.6875, 17.785715, 17.5625, 17.625, 17.607143, 17.714285, 17.785715, 17.892857, 18.142857, 18.326529, 18.239796, 18.07653, 18.208334, 17.892857, 17.821428, 17.831633, 17.625, 17.892857, 17.336735, 17.178572, 17.035715, 17.035715, 17.107143, 18.210318, 19.857143, 20.442858, 20.944445, 21.0625, 21, 21, 21, 21.0625, 21.0625, 21.25, 21.428572, 21.300001, 21.086309, 20.979166, 21.208334, 21.491072, 21.6875, 21.8125, 21.8125, 21.6875, 21.75, 21.8125, 21.875, 22.125, 22.383928, 22.700001, 22.758928, 22.821428, 22.883928, 23.333334, 23.678572, 23.973213, 24.125, 24.25, 24.5, 25.220238, 25.49107, 25.625, 25.383928, 25.1875, 25.25893, 25.241072, 25.392857, 25.5, 25.5, 25.6875, 25.75, 25.732143, 25.625, 25.6875, 25.6875, 25.875, 25.875, 25.875, 25.84375, 25.90625, 26.0625, 26.1875, 26.40625, 26.638393, 26.8125, 27.0625, 27.125, 27.125, 27.0625, 27, 27.339285, 27.869047, 27.883928, 27.821428
