-10, -10, -10, -10, -10, -10, -10, -10, -10, 53, 53, 53, 52.75, 52.5, 52.25, 52, 52, 51.75, 51.5, 51.25, 51, 51, 51, 50.875, 50.625, 50.375, 50.125, 50, 50, 50, 49.875, 49.6875, 49.330357, 49.142857, 49.125, 49, 49.0625, 48.875, 48.625, 48.375, 48.125, 48, 48, 47.9375, 47.75, 47.5625, 47.3125, 47.125, 47.0625, 47, 47, 46.75, 46.5, 46.25, 46.0625, 45.973213, 45.767857, 45.508926, 45.25, 45.125, 45, 45, 44.9375, 44.875, 44.625, 44.375, 44.1875, 44, 43.9375, 43.875, 43.6875, 43.5625, 43.5625, 43.330357, 43.169643, 42.916668, 42.571426, 42.3125, 42.1875, 42, 42, 42, 41.8125, 41.75, 41.6875, 41.4375, 41.375, 41.1875, 41, 40.875, 40.6875, 40.4375, 40.1875, 40.125, 40.0625, 40.0625, 39.9375, 39.75, 39.625, 39.375, 39.25, 39.125, 39, 39, 38.9375, 38.875, 38.6875, 38.4375, 38.25, 37.96875, 37.84375, 37.65625, 37.5, 36.964287, 35.104168, 34.410713, 33.916668, 9.375, 9.25, 9.1875, 9.125, 9.1875, 9.3125, 9.53125, 9.71875, 9.84375, 9.96875, 9.9375, 9.875, 9.8125, 9.75, 9.8125, 9.875, 9.9375, 10, 9.9375, 9.875, 9.8125, 9.8125, 9.875, 9.875, 9.875, 9.75, 9.6875, 9.6875, 9.6875, 9.75, 9.8125, 9.8125, 9.833333, 10, -10, -10, -10, -10, -10, -10, 21.416668, 21.729166, 21.75, 21.8125, 21.6875, 21.625, 21.6875, 21.625, 21.625, 21.5625, 21.3125, 21.1875, 21.125, 21.0625, 21.125, 21.1875, 21.1875, 21.1875, 21.3125, 21.375, 21.4375, 21.491072, 21.104166, 21.080357, 21.125, 21.25, 21.5625, 21.75, 21.9375, 22.25, 22.375, 22.4375, 22.4375, 22.25, 22.125, 22.1875, 22.25, 22.375, 22.330357, 22.258928, 22.3125, 22.3125, 22.3125, 22.3125, 22.375, 22.5625, 22.75, 22.9375, 22.9375, 22.9375, 23.03125, 23.21875, 23.40625, 23.65625, 23.75, 23.75, 23.875, 23.9375, 24, 24.3125, 24.8125, 25.428572, 25.75, 26, 26.125, 26.375, 26.625, 26.875, 27.125, 27.375, 27.5625, 27.8125, 27.9375, 27.9375, 28.25, 28.4375, 28.5625, 28.8125, 28.8125, 29.0625, 29.4375, 29.6875, 30, 30.25, 30.625, 31, 30.892857, 31.050594, 31.479168, 31.732143, 32.0625, 32.4375, 32.75, 33.0625, 33.4375, 33.625, 33.9375, 34.1875, 34.4375, 34.6875, 34.875, 35.09375, 35.40625, 35.65625, 35.84375, 36, 36, 36, 36.1875, 36.4375, 36.75, 37.1875, 37.5, 37.75, 37.9375, 38, 38, 38.25, 38.5, 38.75, 38.9375, 39.214287, 39.958332, 40, 40.25, 40, 39.714287, 38.666668, 38.357143, 38, 38.089287, 37.973213, 37.392857, 36.928574, 36.3125, 35.723213, 35.3125, 34.767857, 34.1875, 33.553574, 33, 32.113094, 31.244047, 30.736607, 30.296875, 30.046875, 29.707588, 29.413691, -10, -10, -10, -10, -10, -10, -10, -10, -10, -10, -10, 11.625, 11.666667, 11.625, 11.625, 11.6875, 11.75, 11.875, 12, 12, 11.9375, 11.9375, 11.9375, 11.9375, 12, 12, 12, 12, 12.1875, 12.375, 12.5, 12.75, 12.8125, 12.8125, 13, 13.035714, 12.964286, 13.0625, 13, 13.0625, 12.973214, 12.901786, 12.9375, 12.946428, 13.25, -10, -10, -10, -10, -10, -10, -10, -10, -10, -10, -10, -10, -10, -10, -10, -10, -10, -10, -10, -10, -10, -10, -10, -10, -10, -10, -10, -10, -10, -10, -10, -10, -10, -10, -10, 53, 53, 52.9375, 52.6875, 52.4375, 52.1875, 52, 52, 51.75, 51.5, 51.25, 51, 51, 51, 50.8125, 50.5625, 50.3125, 50.0625, 50, 50, 50, 49.875, 49.6875, 49.330357, 49.142857, 49.125, 49, 49.0625, 48.8125, 48.5625, 48.3125, 48.0625, 48, 48, 48, 47.8125, 47.625, 47.375, 47.125, 47.0625, 47, 47, 46.8125, 46.5625, 46.3125, 46.1875, 46.098213, 45.955357, 45.696426, 45.375, 45.1875, 45, 45, 45, 45, 44.75, 44.5, 44.25, 44, 43.9375, 43.875, 43.625, 43.4375, 43.4375, 43.375, 43.348217, 42.895836, 42.517857, 42.25, 42.125, 42, 42, 42, 41.875, 41.75, 41.625, 41.375, 41.25, 41.125, 41, 40.9375, 40.8125, 40.5625, 40.3125, 40.1875, 40.125, 40.125, 40, 39.875, 39.75, 39.5, 39.375, 39.1875, 39, 39, 39, 38.96875, 38.78125, 38.53125, 38.28125, 37.9375, 37.703125, 37.484375, 37.435268, 36.869045, 34.958336, 34.339287, 33.833332, 9.125, 9.083333, 9.125, 9.1875, 9.3125, 9.375, 9.46875, 9.53125, 9.59375, 9.71875, 9.6875, 9.625, 9.5625, 9.5, 9.5625, 9.6875, 9.75, 9.8125, 9.75, 9.625, 9.5625, 9.5625, 9.625, 9.625, 9.625, 9.5, 9.4375, 9.4375, 9.4375, 9.5, 9.5625, 9.5625, 9.7777777, -10, -10, -10, -10, -10, -10, 21, 21.277779, 21.479166, 21.5, 21.5625, 21.4375, 21.375, 21.5, 21.4375, 21.4375, 21.375, 21.125, 21.0625, 21.0625, 21.0625, 21.0625, 21.0625, 21, 21, 21.125, 21.25, 21.25, 21.241072, 20.854166, 20.767857, 20.875, 21, 21.375, 21.625, 21.8125, 22.125, 22.1875, 22.1875, 22.1875, 22.0625, 22, 22.125, 22.25, 22.375, 22.330357, 22.258928, 22.375, 22.4375, 22.5, 22.5625, 22.5625, 22.6875, 22.8125, 22.9375, 23, 23.0625, 23.21875, 23.46875, 23.59375, 23.78125, 23.8125, 23.75, 23.875, 24, 24.035713, 24.25, 24.875, 25.392859, 25.75, 26, 26.0625, 26.25, 26.4375, 26.625, 26.9375, 27.25, 27.607143, 27.8125, 27.9375, 27.9375, 28.1875, 28.4375, 28.5, 28.6875, 28.6875, 28.875, 29.3125, 29.625, 29.9375, 30.3125, 30.75, 31.1875, 31.142857, 31.229166, 31.458334, 31.678572, 32, 32.4375, 32.75, 33.0625, 33.40625, 33.59375, 33.84375, 34.03125, 34.25, 34.5, 34.75, 35.03125, 35.375, 35.625, 35.8125, 35.96875, 36, 36, 36.1875, 36.4375, 36.75, 37.1875, 37.5, 37.75, 37.9375, 38, 38, 38.25, 38.5, 38.75, 39, 39.276787, 39.875, 39.9375, 40.1875, 40, 39.714287, 38.75, 38.535713, 38.125, 38.151787, 37.9375, 37.3125, 36.821426, 36.1875, 35.598213, 35.1875, 34.642857, 34.125, 33.473213, 32.892857, 32.050594, 31.226191, 30.736607, 30.296875, 30.109375, 29.770088, 29.455357, 29.366667, -10, -10, -10, -10, -10, -10, -10, -10, -10, -10, 11.5625, 11.541667, 11.5625, 11.625, 11.75, 11.875, 11.9375, 12, 12, 12, 12
-10, -10, -10, -10, -10, -10, -10, -10, -10, 53, 52.916668, 52.8125, 52.5625, 52.3125, 52.125, 52, 52, 51.75, 51.5, 51.25, 51, 51, 51, 50.8125, 50.5625, 50.3125, 50.0625, 50, 50, 50, 49.9375, 49.8125, 49.5625, 49.3125, 49.125, 49, 49, 48.8125, 48.5625, 48.3125, 48.0625, 48, 48, 47.9375, 47.6875, 47.4375, 47.25, 47.0625, 47.0625, 47, 46.875, 46.6875, 46.4375, 46.25, 46.125, 46.0625, 46.0625, 45.875, 45.5625, 45.3125, 45.0625, 45, 45, 44.9375, 44.6875, 44.4375, 44.1875, 44, 43.875, 43.75, 43.5625, 43.4375, 43.4375, 43.375, 43.303574, 42.916668, 42.571426, 42.375, 42.25, 42.125, 42.125, 42.0625, 41.9375, 41.875, 41.75, 41.5, 41.3125, 41.125, 41, 41, 40.9375, 40.6875, 40.4375, 40.1875, 40.0625, 40.0625, 40, 40, 39.9375, 39.6875, 39.5, 39.25, 39, 39, 38.9375, 38.84375, 38.65625, 38.40625, 38.21875, 37.928574, 37.447918, 37.236607, 37.200893, 36.636902, 34.75, 34.107143, 33.583332, 9.125, 9.083333, 9.125, 9.1875, 9.3125, 9.375, 9.4375, 9.4375, 9.4375, 9.5, 9.4375, 9.375, 9.3125, 9.25, 9.3125, 9.4375, 9.5, 9.5625, 9.5, 9.375, 9.3125, 9.3125, 9.375, 9.375, 9.375, 9.25, 9.1875, 9.1875, 9.1875, 9.25, 9.3125, 9.416667, -10, -10, -10, -10, -10, -10, -10, 21, 21.208334, 21.229166, 21.3125, 21.4375, 21.375, 21.375, 21.5, 21.375, 21.3125, 21.25, 21, 21, 21, 21, 21, 21, 21, 21, 21.0625, 21.125, 21.0625, 20.991072, 20.666666, 20.642857, 20.6875, 20.75, 21.0625, 21.25, 21.5, 21.75, 21.776787, 21.919643, 21.991072, 22, 22, 22.125, 22.3125, 22.4375, 22.392857, 22.321428, 22.375, 22.4375, 22.5, 22.625, 22.625, 22.6875, 22.75, 22.75, 22.8125, 23, 23.263393, 23.53125, 23.71875, 23.84375, 23.875, 23.875, 24, 24.1875, 24.223213, 24.375, 24.9375, 25.392859, 25.75, 26, 26, 26.125, 26.25, 26.4375, 26.75, 27.125, 27.544643, 27.6875, 27.875, 27.9375, 28.232143, 28.5, 28.5625, 28.6875, 28.6875, 28.8125, 29.25, 29.5625, 29.8125, 30.25, 30.625, 31.089287, 31.25, 31.375, 31.5, 31.6875, 32.0625, 32.5, 32.8125, 33.0625, 33.28125, 33.40625, 33.53125, 33.71875, 33.9375, 34.25, 34.625, 34.96875, 35.375, 35.625, 35.8125, 35.96875, 36, 36, 36.1875, 36.4375, 36.75, 37.125, 37.375, 37.625, 37.8125, 37.9375, 38, 38.25, 38.5625, 38.919643, 39.125, 39.392857, 39.8125, 39.875, 40.125, 40, 39.723213, 38.958336, 38.776787, 38.375, 38.3125, 38, 37.5, 36.955357, 36.196426, 35.553574, 35.125, 34.625, 34.125, 33.473213, 32.892857, 32.008926, 31.244047, 30.783482, 30.375, 30.28125, 29.895088, 29.538691, 29.355555, -10, -10, -10, -10, 26, 26, 26, 26, 12, 12.125, 11.729167, 11.65625, 11.6875, 11.75, 11.875, 12, 12, 12, 12, 12, 12, 12, 12, 12, 11.9375, 11.964286, 12.035714, 12.0625, 12.1875, 12.125, 12.25, 12.4375, 12.5625, 12.8125, 13, 13, 13.0625, 13.0625, 13.125, 13.098214, 13.151786, 13.375, 13.3125, 13.5, -10, -10, -10, -10, -10, -10, -10, -10, -10, -10, -10, -10, -10, -10, -10, -10, -10, -10, -10, -10, -10, -10, -10, -10, -10, -10, -10, -10, -10, -10, -10, -10, -10, -10, -10, 53, 52.833336, 52.6875, 52.4375, 52.1875, 52.0625, 51.9375, 51.875, 51.625, 51.375, 51.1875, 51, 51, 50.9375, 50.6875, 50.4375, 50.1875, 50, 50, 50, 50, 50, 49.8125, 49.5625, 49.3125, 49.0625, 49, 48.9375, 48.75, 48.5625, 48.3125, 48.125, 48.0625, 48, 47.875, 47.625, 47.375, 47.1875, 47.0625, 47.0625, 46.9375, 46.75, 46.5625, 46.3125, 46.1875, 46.0625, 46, 46, 45.875, 45.625, 45.375, 45.125, 45, 45, 44.875, 44.625, 44.375, 44.125, 43.9375, 43.75, 43.625, 43.5, 43.4375, 43.5, 43.4375, 43.303574, 42.916668, 42.571426, 42.375, 42.3125, 42.1875, 42.1875, 42.125, 41.9375, 41.875, 41.6875, 41.4375, 41.25, 41.0625, 41, 41, 41, 40.8125, 40.5625, 40.3125, 40.125, 40.0625, 40.0625, 40.0625, 39.9375, 39.6875, 39.4375, 39.1875, 39, 39, 38.875, 38.71875, 38.46875, 38.21875, 38.09375, 37.794643, 37.1875, 37.049107, 37.013393, 36.529758, 34.666668, 34.035713, 33.5, 9, 9, 9.0625, 9.1875, 9.25, 9.25, 9.25, 9.1875, 9.1875, 9.25, 9.1875, 9.125, 9.0625, 9, 9.0625, 9.1875, 9.25, 9.3125, 9.25, 9.125, 9.0625, 9.0625, 9.125, 9.125, 9.125, 9.0625, 9, 9, 9, 9, 9.0625, -10, -10, -10, -10, -10, -10, -10, 21, 21, 21.083334, 21.0625, 21.0625, 21.125, 21.044643, 21.081633, 21.183672, 21.071428, 21.035715, 20.8125, 20.6875, 20.8125, 20.8125, 20.875, 20.9375, 20.9375, 21, 21, 21, 21, 20.8125, 20.625, 20.5, 20.607143, 20.741072, 20.8125, 21, 21.125, 21.3125, 21.4375, 21.491074, 21.848215, 21.949406, 21.892857, 21.916666, 22.0625, 22.1875, 22.3125, 22.205357, 22.196428, 22.25, 22.375, 22.4375, 22.625, 22.6875, 22.6875, 22.6875, 22.5625, 22.625, 22.9375, 23.339287, 23.5625, 23.75, 23.8125, 23.8125, 23.875, 24, 24.25, 24.285713, 24.4375, 25, 25.392859, 25.75, 26, 26, 26.125, 26.25, 26.4375, 26.6875, 27.0625, 27.482143, 27.625, 27.946428, 28.1875, 28.419643, 28.75, 28.75, 28.8125, 28.84375, 28.96875, 29.34375, 29.65625, 29.875, 30.25, 30.5625, 30.919643, 31.125, 31.28125, 31.46875, 31.65625, 31.96875, 32.3125, 32.5625, 32.8125, 33.03125, 33.15625, 33.34375, 33.59375, 33.8125, 34.125, 34.375, 34.65625, 35.125, 35.482143, 35.75, 35.96875, 36, 36, 36.125, 36.375, 36.6875, 37, 37.25, 37.4375, 37.625, 37.875, 38.107143, 38.375, 38.75, 39.107143, 39.25, 39.508926, 39.75, 39.8125, 40.0625, 40, 39.732143, 39.166668, 38.986607, 38.53125, 38.40625, 38.09375, 37.553574, 36.872025, 36.133926, 35.535713, 35.125, 34.625, 34.1875, 33.580357, 32.92857, 31.770834, 31.232143, 30.734375, 30.421875, 30.296875, 29.863838, 29.517857, 29.329168, -10, -10, -10, -10, 26, 25.888887, -10, -10, -10, 12.25, 12, 11.84375, 11.78125, 11.8125, 11.875, 12, 12, 12, 12, 12, 12
-10, -10, -10, -10, -10, -10, -10, -10, -10, 53, 52.750004, 52.5625, 52.3125, 52.0625, 52, 51.9375, 51.8125, 51.5625, 51.3125, 51.125, 51, 51, 50.875, 50.625, 50.375, 50.125, 50, 50, 50, 49.9375, 49.875, 49.625, 49.375, 49.1875, 49, 49, 48.9375, 48.8125, 48.6875, 48.4375, 48.25, 48.125, 48, 47.875, 47.625, 47.375, 47.1875, 47.0625, 47.0625, 46.9375, 46.75, 46.5625, 46.3125, 46.1875, 46.0625, 46, 45.9375, 45.875, 45.625, 45.375, 45.1875, 45, 45, 44.875, 44.625, 44.375, 44.125, 43.9375, 43.6875, 43.5, 43.375, 43.3125, 43.375, 43.375, 43.241074, 42.854168, 42.571426, 42.375, 42.3125, 42.1875, 42.1875, 42.125, 42, 41.9375, 41.6875, 41.4375, 41.1875, 41, 41, 41, 41, 40.875, 40.625, 40.375, 40.1875, 40.0625, 40.0625, 40, 39.8125, 39.5625, 39.3125, 39.125, 39, 39, 38.875, 38.65625, 38.40625, 38.15625, 38.03125, 37.723213, 36.987499, 37.04018, 36.995537, 36.565475, 34.541668, 33.82143, 33.25, 9, 9, 9.0625, 9.125, 9.1875, 9.1875, 9.125, 9.0625, 9, 9, 9, 9, 9, 9, 9, 9.0625, 9.0625, 9.0625, 9.0625, 9, 9, 9, 9, 9, 9, 9, 9, 9, 9, 9, 9, -10, -10, -10, -10, -10, -10, -10, 20.833334, 20.833334, 20.875, 20.8125, 20.8125, 20.875, 20.794643, 20.448978, 20.438776, 20.166666, 20.208334, 20.5, 20.4375, 20.5625, 20.5625, 20.625, 20.75, 20.8125, 20.9375, 21, 21, 20.9375, 20.75, 20.5625, 20.4375, 20.544643, 20.678572, 20.75, 20.875, 21, 21, 21, 21.053572, 21.473215, 21.699406, 21.705357, 21.791666, 21.8125, 21.875, 22, 22, 22.125, 22.1875, 22.25, 22.25, 22.375, 22.5625, 22.5625, 22.642857, 22.625, 22.580357, 23.0625, 23.50893, 23.75, 23.875, 23.8125, 23.75, 23.6875, 23.776787, 24.107143, 24.151787, 24.375, 24.9375, 25.392859, 25.75, 26, 26, 26.0625, 26.1875, 26.375, 26.625, 27.0625, 27.482143, 27.625, 28.008928, 28.3125, 28.544643, 28.875, 28.875, 28.875, 28.96875, 29.09375, 29.34375, 29.65625, 29.8125, 30.1875, 30.5, 30.75, 31.0625, 31.25, 31.5, 31.75, 32, 32.3125, 32.5, 32.75, 33.03125, 33.200893, 33.34375, 33.53125, 33.6875, 33.9375, 34.1875, 34.5, 34.90625, 35.325893, 35.65625, 35.90625, 36, 36, 36.125, 36.375, 36.625, 36.875, 37.125, 37.3125, 37.5625, 37.875, 38.107143, 38.375, 38.75, 39.107143, 39.3125, 39.5625, 39.6875, 39.8125, 40, 40, 39.732143, 39.25, 39.022324, 38.361607, 38.165176, 37.8125, 37.334824, 36.715775, 36.040176, 35.517857, 35.0625, 34.5625, 34.1875, 33.544643, 32.511906, 31.351191, 30.870535, 30.546875, 30.421875, 30.296875, 29.859375, 29.517857, 29.229168, 28.6875, 28.4375, 27.946428, 27, 26.142857, 26, -10, -10, -10, 12.520833, 12.1625, 12.040178, 11.875, 11.875, 11.9375, 12, 12, 12, 12, 12, 11.9375, 11.9375, 12.0625, 12.232143, 12.3125, 12.464286, 12.535714, 12.375, 12.3125, 12.125, 12, 12.25, 12.5, 12.75, 13, 13, 13, 13, 13, 13, 13.0625, 13.1875, 13.1875, 13.25, -10, -10, -10, -10, -10, -10, -10, -10, -10, -10, -10, -10, -10, -10, -10, -10, -10, -10, -10, -10, -10, -10, -10, -10, -10, -10, -10, -10, -10, -10, -10, -10, -10, -10, -10, 53, 52.750004, 52.5625, 52.3125, 52.0625, 52, 51.9375, 51.8125, 51.5625, 51.3125, 51.125, 51, 51, 50.875, 50.625, 50.375, 50.0625, 49.875, 49.8125, 49.8125, 49.75, 49.6875, 49.5, 49.25, 49.125, 49, 49, 48.9375, 48.8125, 48.6875, 48.4375, 48.25, 48.125, 48, 47.875, 47.6875, 47.4375, 47.25, 47.125, 47.0625, 46.9375, 46.75, 46.5625, 46.3125, 46.1875, 46.0625, 46, 45.9375, 45.9375, 45.75, 45.5, 45.3125, 45.0625, 45, 44.875, 44.625, 44.375, 44.125, 43.9375, 43.75, 43.625, 43.5, 43.375, 43.3125, 43.1875, 43.0625, 43, 42.8125, 42.625, 42.455357, 42.25, 42.1875, 42.125, 42, 42, 41.75, 41.5, 41.25, 41, 41, 41, 41, 40.9375, 40.6875, 40.4375, 40.1875, 40, 40, 39.9375, 39.75, 39.5, 39.25, 39.0625, 39, 39, 38.875, 38.625, 38.375, 38.125, 38, 37.785713, 37.174999, 37.29018, 37.075893, 36.607143, 34.5, 33.714287, 33.166668, 9, 9, 9, 9, 9, 9, 9, 9, 9, 9, 9, 9, 9, 9, 9, 9, 9, 9, 9, 9, 9, 9, 9, 9, 9, 9, 9, 9, 9, 9, -10, -10, -10, -10, -10, -10, -10, -10, 20.625, 20.511906, 20.291666, 20.205357, 20.25, 20.482143, 20.482143, 20.163265, 20.081633, 20.1875, 20.1875, 20.1875, 20.25, 20.348213, 20.276787, 20.375, 20.4375, 20.625, 20.8125, 20.9375, 21, 20.9375, 20.75, 20.5, 20.3125, 20.357143, 20.491072, 20.625, 20.8125, 21, 21, 20.9375, 20.928572, 21.285715, 21.449406, 21.455357, 21.604166, 21.625, 21.75, 21.9375, 21.9375, 22.1875, 22.25, 22.3125, 22.25, 22.25, 22.4375, 22.4375, 22.642857, 22.660713, 22.410713, 22.854166, 23.404762, 23.678572, 23.875, 23.8125, 23.75, 23.6875, 23.776787, 24.044643, 24.178572, 24.5, 24.9375, 25.44643, 25.75, 26, 26, 26.0625, 26.25, 26.5, 26.8125, 27.25, 27.5625, 27.75, 28.133928, 28.5, 28.732143, 29, 29, 29, 29.15625, 29.34375, 29.53125, 29.78125, 29.875, 30.1875, 30.5, 30.75, 31.0625, 31.3125, 31.5625, 31.8125, 32.0625, 32.3125, 32.5, 32.75, 33, 33.107143, 33.1875, 33.3125, 33.5, 33.75, 34, 34.3125, 34.6875, 35.169643, 35.607143, 35.875, 36, 36, 36.125, 36.375, 36.625, 36.875, 37.125, 37.3125, 37.5625, 37.875, 38.107143, 38.3125, 38.6875, 39.044643, 39.3125, 39.625, 39.75, 39.875, 40, 40, 39.732143, 39.166668, 38.772324, 38.174107, 37.915176, 37.625, 37.334824, 36.822918, 36.227676, 35.705357, 35.133926, 34.580357, 34.25, 33.794643, 32.625851, 30.976191, 30.45982, 30.225447, 30.404018, 30.401041, 29.895834, 29.523809, 29.194445, 28.6875, 28.4375, 28.130951, 27.4, 26.464285, 26.25, -10, -10, -10, 12.694444, 12.225, 12.165178, 12, 12, 12, 12, 12, 12, 12, 12, 11.875
-10, -10, -10, -10, -10, -10, -10, -10, -10, 53, 52.750004, 52.5625, 52.3125, 52.0625, 52, 51.9375, 51.8125, 51.625, 51.375, 51.1875, 51.0625, 51, 50.875, 50.6875, 50.4375, 50.125, 50, 49.848213, 49.705357, 49.571426, 49.4375, 49.3125, 49.125, 49.0625, 49, 49, 48.875, 48.75, 48.6875, 48.4375, 48.3125, 48.1875, 48, 47.9375, 47.8125, 47.625, 47.4375, 47.25, 47.125, 47, 46.875, 46.75, 46.5625, 46.375, 46.1875, 46.0625, 45.9375, 45.9375, 45.8125, 45.5625, 45.375, 45.125, 45, 44.9375, 44.6875, 44.4375, 44.1875, 43.9375, 43.8125, 43.6875, 43.5, 43.3125, 43.1875, 43.125, 43.125, 43.25, 43.125, 42.875, 42.642857, 42.3125, 42.1875, 42.125, 41.9375, 41.875, 41.625, 41.375, 41.1875, 41, 41, 41, 41, 40.9375, 40.6875, 40.4375, 40.1875, 40, 40, 39.875, 39.625, 39.375, 39.125, 39, 39, 39, 38.9375, 38.6875, 38.4375, 38.1875, 38, 37.857143, 37.508331, 37.584824, 37.325893, 36.785713, 34.666668, 33.928574, 33.416668, 9, 9, 9, 9, 9, 9, 9, 9, 9, 9, 9, 9, 9, 9, 9, 9, 9, 9, 9, 9, 9, 9, 9, 9, 9, 9, 9, 9, 9, 9, -10, -10, -10, -10, -10, -10, 20, 20, 20.4375, 20.297619, 19.782312, 19.683672, 19.678572, 20.044643, 20.044643, 19.892857, 19.821428, 19.6875, 19.75, 19.8125, 19.875, 20.0625, 20.0625, 20.125, 20.25, 20.375, 20.625, 20.8125, 20.9375, 20.9375, 20.6875, 20.375, 20.125, 20.107143, 20.303572, 20.5, 20.75, 20.9375, 20.9375, 20.9375, 20.901787, 21.178572, 21.270834, 21.205357, 21.354166, 21.375, 21.5625, 21.8125, 21.875, 22.1875, 22.3125, 22.4375, 22.357143, 22.1875, 22.3125, 22.3125, 22.642857, 22.723213, 22.535713, 22.854166, 23.297619, 23.553572, 23.71875, 23.71875, 23.65625, 23.65625, 23.714287, 23.919643, 24.053572, 24.375, 24.875, 25.44643, 25.75, 26, 26, 26.0625, 26.3125, 26.625, 27.044643, 27.4375, 27.6875, 27.875, 28.196428, 28.5625, 28.75, 29, 29, 29.0625, 29.28125, 29.53125, 29.65625, 29.84375, 29.875, 30.125, 30.5, 30.8125, 31.1875, 31.4375, 31.6875, 31.875, 32, 32.1875, 32.3125, 32.5, 32.8125, 33.013393, 33.21875, 33.40625, 33.59375, 33.75, 33.875, 34.1875, 34.5625, 35.151787, 35.607143, 35.875, 36, 36.0625, 36.1875, 36.4375, 36.75, 37.044643, 37.3125, 37.5, 37.6875, 37.9375, 38.107143, 38.25, 38.5, 38.75, 39.0625, 39.4375, 39.6875, 39.875, 40, 40, 39.723213, 38.958336, 38.53125, 37.986607, 37.790176, 37.5, 37.272324, 36.822918, 36.34375, 35.875, 35.205357, 34.526787, 34.178574, 33.794643, 32.895241, 30.801588, 30.255951, 30.113096, 30.075893, 30.104166, -10, -10, -10, -10, -10, 28.223213, 27.599998, 26.785713, 26.5, -10, -10, -10, -10, 12.183333, 12.133928, 12, 11.9375, 11.9375, 11.9375, 11.9375, 12, 12, 12, 11.875, 11.875, 12, 12.232143, 12.5625, 12.6875, 12.75, 12.5625, 12.3125, 12.1875, 12.125, 12.375, 12.625, 12.875, 13, 13, 13, 13, 13, 13, 13, 13, 13, 13, -10, -10, -10, -10, -10, -10, -10, -10, -10, -10, -10, -10, -10, -10, -10, -10, -10, -10, -10, -10, -10, -10, -10, -10, -10, -10, -10, -10, -10, -10, -10, -10, -10, -10, -10, 53, 52.833336, 52.6875, 52.4375, 52.1875, 52.0625, 52, 51.9375, 51.8125, 51.625, 51.375, 51.1875, 51.0625, 50.9375, 50.75, 50.5, 50.1875, 50, 49.848213, 49.705357, 49.508926, 49.375, 49.25, 49.0625, 49.0625, 49, 49, 48.875, 48.6875, 48.5625, 48.3125, 48.1875, 48.125, 48, 48, 47.9375, 47.8125, 47.6875, 47.4375, 47.25, 47.125, 47, 46.9375, 46.8125, 46.625, 46.375, 46.1875, 46, 45.875, 45.75, 45.5, 45.3125, 45.125, 45, 45, 44.75, 44.5, 44.1875, 43.75, 43.75, 43.598213, 43.4375, 43.25, 43.0625, 43.125, 43.25, 43.4375, 43.375, 43.0625, 42.660713, 42.3125, 42.125, 42.0625, 41.9375, 41.8125, 41.5625, 41.3125, 41.125, 41, 41, 41, 41, 40.875, 40.625, 40.375, 40.125, 40, 40, 39.875, 39.6875, 39.4375, 39.1875, 39.0625, 39, 39, 38.9375, 38.6875, 38.4375, 38.1875, 37.9375, 37.866074, 37.737499, 37.803574, 37.669643, 37.07143, 34.833332, 34.035717, 33.5, 9, 9, 8.9375, 8.875, 8.8125, 8.8125, 8.8125, 8.875, 8.9375, 8.9375, 9, 9, 9, 9, 9, 9, 9, 9, 9, 9, 9, 9, 9, 9, 9, 9, 9, 9, 9, -10, -10, -10, -10, -10, -10, 19.833332, 19.916666, 20, 20.25, 20.110119, 19.747023, 19.660713, 19.625, 19.857143, 19.875, 19.875, 19.8125, 19.6875, 19.75, 19.8125, 19.875, 20, 20, 20, 20.0625, 20.1875, 20.375, 20.5625, 20.6875, 20.6875, 20.5, 20.25, 20.0625, 19.9375, 20.0625, 20.3125, 20.625, 20.875, 20.9375, 21, 20.9375, 21.0625, 21.125, 21.125, 21.25, 21.125, 21.3125, 21.5625, 21.598213, 21.8125, 22.1875, 22.383928, 22.401787, 22.125, 22.1875, 22.1875, 22.642857, 22.848213, 22.723213, 22.947916, 23.284227, 23.522322, 23.6875, 23.71875, 23.59375, 23.53125, 23.589287, 23.732143, 23.928572, 24.3125, 24.8125, 25.44643, 25.75, 26, 26.0625, 26.0625, 26.330357, 26.794643, 27.223215, 27.625, 27.8125, 27.9375, 28.125, 28.375, 28.625, 28.875, 29, 29.0625, 29.3125, 29.5, 29.625, 29.8125, 29.8125, 30.125, 30.4375, 30.6875, 31.0625, 31.28125, 31.59375, 31.84375, 31.96875, 32.125, 32.1875, 32.25, 32.4375, 32.691963, 33.15625, 33.424107, 33.65625, 33.75, 33.9375, 34.25, 34.5625, 35.107143, 35.544643, 35.8125, 36, 36.0625, 36.1875, 36.4375, 36.75, 37.107143, 37.4375, 37.6875, 37.875, 38.0625, 38.125, 38.25, 38.4375, 38.6875, 39, 39.375, 39.6875, 39.875, 40, 40, 39.785713, 39.020836, 38.625, 38.142857, 37.883926, 37.53125, 37.236607, 36.96875, 36.53125, 36.0625, 35.214287, 34.410713, 33.946426, 33.627975, -10, -10, -10, -10, 29.732143, 29.791666, -10, -10, -10, -10, -10, 28.1875, 27.8125, 26.952381, 26.654762, -10, -10, -10, -10, 12.1, 12.071428, 12, 11.9375, 11.9375, 11.875, 11.8125, 11.875, 11.875, 11.9375, 11.875
-10, -10, -10, -10, -10, -10, -10, -10, -10, 52.75, 52.75, 52.6875, 52.5, 52.3125, 52.125, 52, 52, 51.9375, 51.8125, 51.5625, 51.3125, 51.125, 51, 50.875, 50.625, 50.3125, 50.0625, 49.848213, 49.705357, 49.571426, 49.4375, 49.3125, 49.125, 49.0625, 49, 49, 48.8125, 48.5625, 48.375, 48.125, 48.0625, 48.0625, 48, 48, 48, 47.9375, 47.8125, 47.5625, 47.3125, 47.125, 47, 47, 46.9375, 46.8125, 46.625, 46.375, 46.1875, 46, 45.875, 45.625, 45.375, 45.1875, 45, 45, 44.8125, 44.5625, 44.25, 43.75, 43.75, 43.660713, 43.5, 43.375, 43.125, 43.125, 43.3125, 43.5, 43.5, 43.1875, 42.723213, 42.375, 42.125, 42.0625, 41.9375, 41.8125, 41.625, 41.375, 41.1875, 41.0625, 41, 41, 41, 40.8125, 40.5625, 40.3125, 40.0625, 40, 40, 39.9375, 39.8125, 39.625, 39.375, 39.1875, 39.0625, 38.9375, 38.8125, 38.5625, 38.3125, 38.1875, 37.973213, 37.830357, 37.830357, 37.75, 37.75, 37.17857, 35.041664, 34.214287, 33.666668, 8.75, 8.833333, 8.75, 8.6875, 8.625, 8.5625, 8.5625, 8.6875, 8.8125, 8.8125, 8.875, 8.875, 8.875, 8.9375, 9, 9, 9, 9, 9, 9, 9, 8.9375, 8.9375, 8.9375, 8.9375, 9, 9, 9, 9, -10, -10, -10, -10, -10, 19.25, 19.555555, 19.6875, 19.6875, 19.75, 19.780613, 19.282312, 19.290815, 19.1875, 19.482143, 19.625, 19.625, 19.5625, 19.4375, 19.5, 19.5625, 19.696428, 20, 20, 20, 19.875, 19.9375, 20.0625, 20.25, 20.4375, 20.5, 20.375, 20.1875, 20.0625, 19.9375, 20, 20.1875, 20.4375, 20.6875, 20.875, 21, 21.03125, 21.15625, 21.21875, 21.28125, 21.3125, 21.1875, 21.25, 21.375, 21.410713, 21.5625, 22, 22.196428, 22.214287, 21.9375, 21.9375, 22.053572, 22.791666, 22.955357, 22.955357, 22.947916, 23.177084, 23.334822, 23.4375, 23.53125, 23.46875, 23.53125, 23.732143, 24.041666, 24.25, 24.5625, 24.9375, 25.464287, 25.75, 26, 26.125, 26.1875, 26.455357, 26.982143, 27.410715, 27.75, 27.9375, 28, 28.125, 28.375, 28.625, 28.875, 29, 29.0625, 29.25, 29.4375, 29.625, 29.75, 29.8125, 30.125, 30.419643, 30.6875, 31, 31.227678, 31.65625, 31.84375, 32.03125, 32.0625, 32.125, 32.1875, 32.3125, 32.584824, 33.15625, 33.486607, 33.78125, 33.875, 34.0625, 34.3125, 34.625, 35.107143, 35.419643, 35.6875, 35.875, 36, 36.15625, 36.375, 36.6875, 37.107143, 37.46875, 37.75, 37.9375, 38.0625, 38.1875, 38.3125, 38.5, 38.75, 38.9375, 39.3125, 39.625, 39.8125, 40, 40, 39.785713, 39.020836, 38.696426, 38.357143, 38.0625, 37.75, 37.330357, 37.017857, 36.5625, 36.0625, 35.17857, 34.035713, 33.526787, 33.3125, -10, -10, -10, -10, 29.294643, 29.375, -10, -10, -10, -10, -10, 28.25, 27.900002, 26.976191, 26.642857, 26, -10, -10, -10, 11.8125, 11.875, 11.9375, 11.9375, 11.9375, 11.875, 11.8125, 11.875, 11.875, 11.9375, 11.9375, 11.9375, 11.9375, 12.0625, 12.3125, 12.3125, 12.375, 12.375, 12.3125, 12.4375, 12.625, 12.75, 12.875, 13, 13, 13, 13, 13, 13, 13, 13, 13, 13.125, 13.166666, -10, -10, -10, -10, -10, -10, -10, -10, -10, -10, -10, -10, -10, -10, -10, -10, -10, -10, -10, -10, -10, -10, -10, -10, -10, -10, -10, -10, -10, -10, -10, -10, -10, -10, -10, 52.5, 52.5, 52.5, 52.375, 52.25, 52.125, 52, 51.9375, 51.875, 51.75, 51.5, 51.3125, 51.125, 51, 50.9375, 50.75, 50.5, 50.3125, 50.098213, 49.892857, 49.758926, 49.5625, 49.375, 49.1875, 49.0625, 49, 49, 48.8125, 48.5625, 48.375, 48.125, 48.0625, 48.0625, 48, 48, 48, 48, 47.875, 47.625, 47.375, 47.125, 47, 47, 47, 46.875, 46.75, 46.5, 46.25, 46.0625, 45.8125, 45.5625, 45.3125, 45.125, 45, 44.9375, 44.8125, 44.5625, 44.25, 43.8125, 43.75, 43.660713, 43.5625, 43.4375, 43.1875, 43.1875, 43.3125, 43.4375, 43.4375, 43.1875, 42.767857, 42.4375, 42.1875, 42.0625, 41.9375, 41.8125, 41.6875, 41.4375, 41.25, 41.125, 41, 41, 41, 40.75, 40.5, 40.25, 40.0625, 40.0625, 40.0625, 40, 39.875, 39.75, 39.5, 39.3125, 39.125, 38.9375, 38.75, 38.5, 38.3125, 38.1875, 38.035713, 37.830357, 37.794643, 37.785713, 37.8125, 37.357143, 35.166664, 34.32143, 33.75, 8.5, 8.666666, 8.625, 8.625, 8.625, 8.5625, 8.5, 8.5625, 8.6875, 8.625, 8.6875, 8.75, 8.75, 8.875, 9, 8.9375, 8.875, 8.8125, 8.75, 8.75, 8.8125, 8.75, 8.8125, 8.875, 8.875, 9, 9, 9, -10, -10, -10, -10, -10, -10, 19.166666, 19.333332, 19.3125, 19.3125, 19.375, 19.219387, 19.056122, 19.12755, 19.25, 19.375, 19.4375, 19.375, 19.3125, 19.1875, 19.25, 19.25, 19.321428, 19.651787, 19.723213, 19.75, 19.75, 19.75, 19.875, 20.0625, 20.1875, 20.25, 20.1875, 20.0625, 20, 19.9375, 19.9375, 20.0625, 20.1875, 20.375, 20.625, 20.875, 21.09375, 21.34375, 21.46875, 21.53125, 21.4375, 21.25, 21.1875, 21.1875, 21.223213, 21.25, 21.6875, 21.883928, 21.901787, 21.6875, 21.6875, 21.803572, 22.541666, 22.794643, 23.0625, 23.21875, 23.34375, 23.299107, 23.258928, 23.28125, 23.290178, 23.614584, 23.910715, 24.291666, 24.4375, 24.6875, 25, 25.464287, 25.75, 26, 26.1875, 26.3125, 26.580357, 27.107143, 27.473215, 27.75, 27.9375, 28, 28.125, 28.375, 28.625, 28.875, 29, 29.0625, 29.25, 29.4375, 29.625, 29.75, 29.8125, 30.125, 30.357143, 30.5625, 30.875, 31.102678, 31.638393, 31.84375, 32.03125, 31.928572, 31.799999, 31.928572, 31.919643, 32.209824, 32.834824, 33.486607, 33.933037, 34.125, 34.3125, 34.5625, 34.8125, 35.169643, 35.3125, 35.5625, 35.75, 35.9375, 36.03125, 36.25, 36.791668, 37.17857, 37.53125, 37.6875, 37.8125, 38, 38.294643, 38.5, 38.6875, 38.875, 38.9375, 39.25, 39.5625, 39.75, 40, 40, 39.785713, 39.104168, 38.883926, 38.419643, 38.080357, 37.6875, 37.142857, 36.830357, 36.3125, 35.875, 35.10714, 33.964287, 33.172623, 32.849998, -10, -10, -10, -10, 28.6875, 28.770834, 28.583334, -10, -10, -10, -10, 28.125, 27.766666, 26.96726, 26.535715, 26.111113, 11.5, 11.5, 11.5, 11.75, 11.75, 11.8125, 11.8125, 11.875, 11.875, 11.8125, 11.875, 11.875, 11.9375, 12
-10, -10, -10, -10, -10, -10, -10, -10, -10, 52.25, 52.333332, 52.375, 52.3125, 52.25, 52.125, 52, 51.9375, 51.8125, 51.6875, 51.4375, 51.25, 51.125, 51, 50.9375, 50.75, 50.5, 50.25, 50.0625, 50, 49.9375, 49.8125, 49.625, 49.375, 49.1875, 49.0625, 49, 48.875, 48.625, 48.375, 48.125, 48, 47.9375, 47.875, 47.875, 47.8125, 47.8125, 47.6875, 47.4375, 47.25, 47.0625, 47, 47, 46.9375, 46.8125, 46.6875, 46.4375, 46.25, 46, 45.6875, 45.4375, 45.1875, 45.0625, 44.9375, 44.8125, 44.6875, 44.4375, 44.1875, 43.8125, 43.75, 43.723213, 43.6875, 43.5625, 43.3125, 43.1875, 43.1875, 43.25, 43.25, 43, 42.580357, 42.3125, 42.0625, 42, 42, 41.9375, 41.8125, 41.5625, 41.3125, 41.125, 41, 41, 41, 40.8125, 40.625, 40.375, 40.1875, 40.125, 40.0625, 40.0625, 40, 39.9375, 39.6875, 39.4375, 39.1875, 38.9375, 38.75, 38.5, 38.3125, 38.1875, 38.035713, 37.830357, 37.794643, 37.848213, 37.875, 37.42857, 35.125, 34.178574, 33.583332, 8.25, 8.416666, 8.4375, 8.5, 8.5625, 8.5625, 8.4375, 8.5, 8.625, 8.5, 8.5625, 8.5625, 8.5625, 8.75, 8.9375, 8.875, 8.8125, 8.6875, 8.5625, 8.5625, 8.625, 8.625, 8.75, 8.8125, 8.75, 8.8125, 8.8125, 8.833333, -10, -10, -10, -10, -10, -10, 19.125, 19.083332, 19.0625, 19.0625, 19.0625, 19.0625, 19.0625, 19.125, 19.125, 19.1875, 19.1875, 19.125, 19.0625, 19, 19.0625, 19.0625, 19.196428, 19.4375, 19.4375, 19.5, 19.5, 19.625, 19.75, 19.9375, 20, 20, 20, 19.9375, 19.9375, 19.9375, 19.9375, 20.0625, 20.125, 20.3125, 20.5625, 20.8125, 21.15625, 21.46875, 21.65625, 21.78125, 21.625, 21.375, 21.1875, 21.0625, 21.035713, 21, 21.375, 21.508928, 21.482143, 21.401787, 21.616072, 21.875, 22.604166, 22.982143, 23.25, 23.388393, 23.260416, 23.129463, 23.040178, 23.0625, 23.133928, 23.467262, 23.994049, 24.470238, 24.6875, 24.875, 25.125, 25.482143, 25.75, 26, 26.1875, 26.3125, 26.517857, 26.919643, 27.1875, 27.645834, 27.866072, 28, 28.1875, 28.4375, 28.625, 28.875, 28.9375, 28.9375, 29.1875, 29.375, 29.625, 29.8125, 29.875, 30.1875, 30.419643, 30.5625, 30.714287, 30.977678, 31.495537, 31.78125, 32.03125, 31.857143, 31.549999, 31.678572, 31.642857, 32.303574, 32.94643, 33.580357, 34.026787, 34.25, 34.5, 34.75, 34.875, 35.0625, 35.1875, 35.4375, 35.6875, 35.8125, 35.84375, 36.053574, 36.708336, 37.071426, 37.40625, 37.4375, 37.625, 37.9375, 38.401787, 38.6875, 38.9375, 39.0625, 39.0625, 39.3125, 39.5625, 39.75, 40, 40, 39.785713, 39.104168, 38.883926, 38.357143, 37.955357, 37.5, 36.892857, 36.580357, 36.0625, 35.6875, 35.035713, 33.955357, 33.065475, 32.689285, -10, -10, -10, 29.142859, 28.8125, 28.699406, 28.5, -10, -10, -10, -10, 27.875, 27.550001, 26.895832, 26.410715, 26.166668, 11.2, 11.2, 11.095238, 11.583333, 11.607143, 11.75, 11.875, 12.044643, 12.0625, 12, 11.9375, 11.875, 11.9375, 12, 12, 12, 12.0625, 12.125, 12.125, 12.1875, 12.25, 12.3125, 12.5625, 12.75, 12.875, 12.9375, 12.8125, 12.75, 12.857143, 12.928572, 13, 13, 13, 13, 13.0625, 13.1875, 13.25, -10, -10, -10, -10, -10, -10, -10, -10, -10, -10, -10, -10, -10, -10, -10, -10, -10, -10, -10, -10, -10, -10, -10, -10, -10, -10, -10, -10, -10, -10, -10, -10, -10, -10, 52, 52.125, 52.166664, 52.1875, 52.1875, 52.125, 52.0625, 52, 51.9375, 51.75, 51.5625, 51.3125, 51.125, 51.0625, 51, 51, 50.8125, 50.5625, 50.3125, 50.0625, 50, 50, 49.875, 49.75, 49.5, 49.25, 49.125, 48.9375, 48.8125, 48.5625, 48.3125, 48.125, 48, 47.875, 47.75, 47.6875, 47.5625, 47.5625, 47.4375, 47.25, 47.125, 47, 47, 47, 46.875, 46.6875, 46.5625, 46.3125, 46.1875, 46, 45.6875, 45.4375, 45.1875, 45.0625, 44.875, 44.6875, 44.5625, 44.3125, 44.1875, 44.0625, 43.9375, 43.9375, 43.875, 43.6875, 43.4375, 43.1875, 43.0625, 43.0625, 43.0625, 42.9375, 42.625, 42.375, 42.125, 42, 41.9375, 41.9375, 41.8125, 41.5625, 41.375, 41.125, 41, 41, 41, 40.875, 40.6875, 40.4375, 40.25, 40.125, 40.0625, 40, 39.875, 39.8125, 39.5625, 39.375, 39.1875, 38.9375, 38.8125, 38.5625, 38.375, 38.25, 38.098213, 37.892857, 37.857143, 37.910713, 37.875, 37.57143, 35.055553, 34.047619, 33.444443, 8, 8.166666, 8.25, 8.375, 8.5, 8.5, 8.4375, 8.5, 8.5625, 8.4375, 8.375, 8.3125, 8.3125, 8.5625, 8.8125, 8.8125, 8.75, 8.5625, 8.375, 8.3125, 8.4375, 8.4375, 8.5625, 8.625, 8.5, 8.5625, 8.5625, 8.7777777, -10, -10, -10, -10, -10, 19, 19, 18.916666, 18.875, 18.8125, 18.6875, 18.6875, 18.6875, 18.75, 18.875, 18.9375, 19, 19, 19, 19, 19, 18.9375, 19.008928, 19.1875, 19.1875, 19.25, 19.25, 19.375, 19.5625, 19.8125, 19.9375, 20, 20, 20, 20, 20, 20, 20, 20, 20.125, 20.375, 20.6875, 21.15625, 21.53125, 21.78125, 21.96875, 21.75, 21.5, 21.25, 21, 21, 21, 21.125, 21.1875, 21.15625, 21.245537, 21.584822, 21.96875, 22.666666, 23.044643, 23.1875, 23.294643, 23.104166, 22.973213, 22.946428, 22.9375, 23.133928, 23.529762, 24.119049, 24.720238, 24.9375, 25.0625, 25.25, 25.5, 25.75, 26, 26.125, 26.3125, 26.5625, 26.8125, 26.973215, 27.458334, 27.723215, 27.9375, 28.1875, 28.4375, 28.5625, 28.75, 28.8125, 28.8125, 29.125, 29.4375, 29.6875, 29.90625, 30.03125, 30.28125, 30.575893, 30.75, 30.839287, 31.133928, 31.589287, 31.75, 32, 31.857143, 31.621429, 31.834822, 31.924107, 32.53125, 32.94643, 33.5625, 33.964287, 34.3125, 34.5625, 34.875, 35, 35.0625, 35.1875, 35.375, 35.625, 35.8125, 35.84375, 36.053574, 36.770836, 37.178574, 37.40625, 37.375, 37.517857, 37.958332, 38.455357, 38.75, 38.9375, 39, 39, 39.25, 39.5, 39.75, 40, 40, 39.714287, 38.916668, 38.696426, 38.044643, 37.660713, 37.1875, 36.625, 36.330357, 35.8125, 35.5, 34.964287, 34.071426, 33.279762, 32.74881, 32.729164, 31.6875, 31.419643, 30.371429, 29.169643, 28.78274, 28.625002, -10, -10, -10, -10, 27.625, 27.36875, 26.916666, 26.464285, 26.250002, 10.857142, 10.857142, 11.133928, 11.458333, 11.544643, 11.75, 11.875, 12.044643, 12.125, 12.125, 12.0625, 12, 12, 12
-10, -10, -10, -10, -10, -10, -10, -10, -10, 52.375, 52.25, 52.1875, 52.125, 52, 52, 52, 51.9375, 51.75, 51.5, 51.25, 51.0625, 51, 51, 51, 50.803574, 50.4375, 50.25, 50, 50, 50, 49.875, 49.75, 49.5, 49.25, 49.125, 48.9375, 48.875, 48.6875, 48.4375, 48.25, 48.0625, 47.875, 47.75, 47.625, 47.4375, 47.375, 47.25, 47.125, 47.0625, 47, 47, 46.9375, 46.75, 46.5, 46.3125, 46.125, 46.0625, 45.9375, 45.625, 45.375, 45.125, 45, 44.8125, 44.5625, 44.4375, 44.25, 44.1875, 44.1875, 44.0625, 44, 44, 43.8125, 43.5625, 43.3125, 43.0625, 43, 43, 42.9375, 42.6875, 42.4375, 42.1875, 42, 41.875, 41.875, 41.6875, 41.4375, 41.3125, 41.0625, 41, 41, 41, 40.875, 40.6875, 40.4375, 40.25, 40.125, 40.0625, 40, 39.8125, 39.6875, 39.375, 39.125, 39, 38.875, 38.875, 38.6875, 38.5, 38.25, 38.0625, 38, 37.964287, 38.035713, 37.90625, 37.672619, -10, -10, 8, 8, 8.083333, 8.1875, 8.3125, 8.4375, 8.5, 8.4375, 8.4375, 8.4375, 8.3125, 8.25, 8.1875, 8.1875, 8.375, 8.5625, 8.5625, 8.5, 8.3125, 8.125, 8.0625, 8.1875, 8.25, 8.375, 8.4375, 8.3125, 8.3125, 8.3125, -10, -10, -10, -10, -10, -10, 19, 18.916666, 18.791666, 18.6875, 18.625, 18.5625, 18.625, 18.6875, 18.6875, 18.75, 18.8125, 18.875, 18.9375, 19, 19, 19, 18.875, 18.8125, 18.75, 18.75, 18.875, 19.0625, 19.25, 19.5, 19.75, 19.875, 20, 20, 19.9375, 19.9375, 20, 20.035713, 20.0625, 20.0625, 20.0625, 20.25, 20.5, 20.8125, 21.285715, 21.464285, 21.632654, 21.479166, 21.375, 21.3125, 21.0625, 21.0625, 21.0625, 21.0625, 21.125, 21.09375, 21.183037, 21.584822, 21.977678, 22.482143, 22.8125, 22.9375, 23.107143, 22.979166, 22.910713, 22.977678, 23.03125, 23.290178, 23.748512, 24.333334, 24.845238, 25, 25.125, 25.3125, 25.53125, 25.75, 26, 26.125, 26.3125, 26.5625, 26.75, 26.848215, 27.270834, 27.473215, 27.75, 28, 28.3125, 28.5, 28.6875, 28.8125, 28.8125, 29.1875, 29.5, 29.75, 30.03125, 30.15625, 30.40625, 30.65625, 30.8125, 30.839287, 31.125, 31.464287, 31.6875, 31.9375, 31.857143, 31.683929, 31.897322, 31.924107, 32.40625, 32.714287, 33.458332, 33.892857, 34.3125, 34.5, 34.8125, 34.9375, 35, 35.1875, 35.375, 35.625, 35.8125, 35.875, 36.116074, 36.833336, 37.241074, 37.4375, 37.375, 37.580357, 38.083332, 38.580357, 38.875, 39, 39, 39, 39.25, 39.5, 39.75, 40, 40, 39.723213, 38.979168, 38.589287, 38, 37.598213, 37.0625, 36.517857, 36.25, 35.8125, 35.5625, 35.0625, 34.464287, 33.699402, 33.207142, 33.069443, 31.978571, 31.446428, 30.632654, 29.979593, 29.145834, 28.84524, 28.839287, 28.142857, 27.476191, 27.142857, 27.359375, 27.171875, 26.90625, 26.486607, 26.312502, 11.25, 11.25, 11.383928, 11.645833, 11.607143, 11.75, 11.8125, 11.982143, 12.125, 12.125, 12.0625, 12, 12, 12, 12, 12, 12, 12, 12, 12.0625, 12.125, 12.125, 12.25, 12.4375, 12.5, 12.5625, 12.5625, 12.5, 12.732143, 12.928572, 13, 13, 13, 13, 13.0625, 13.125, 13.166666, -10, -10, -10, -10, -10, -10, -10, -10, -10, -10, -10, -10, -10, -10, -10, -10, -10, -10, -10, -10, -10, -10, -10, -10, -10, -10, -10, -10, -10, -10, -10, -10, -10, -10, -10, 52.5, 52.333332, 52.25, 52.125, 52, 52, 52, 52, 51.875, 51.625, 51.375, 51.125, 51, 51, 51, 50.803574, 50.4375, 50.25, 50, 50, 50, 49.875, 49.75, 49.5, 49.25, 49.125, 48.9375, 48.875, 48.75, 48.5625, 48.4375, 48.25, 48, 47.75, 47.5625, 47.375, 47.25, 47.1875, 47.0625, 47, 47, 47, 46.9375, 46.6875, 46.4375, 46.1875, 46, 46, 45.875, 45.625, 45.375, 45.125, 45, 44.8125, 44.5625, 44.375, 44.25, 44.25, 44.25, 44.1875, 44.0625, 44, 43.875, 43.6875, 43.4375, 43.1875, 43.0625, 43, 42.9375, 42.6875, 42.4375, 42.1875, 42, 41.875, 41.875, 41.6875, 41.4375, 41.3125, 41.0625, 41, 41, 41, 40.875, 40.6875, 40.4375, 40.1875, 40.0625, 40, 39.9375, 39.8125, 39.625, 39.25, 38.892857, 38.8125, 38.75, 38.875, 38.75, 38.5, 38.25, 38, 38, 38, 38, 37.875, 37.702377, -10, -10, 8, 8, 8, 8.0625, 8.125, 8.1875, 8.25, 8.25, 8.3125, 8.3125, 8.25, 8.1875, 8.0625, 8.0625, 8.1875, 8.3125, 8.375, 8.375, 8.25, 8.125, 8.0625, 8.125, 8.1875, 8.25, 8.25, 8.125, 8.09375, 8.104167, -10, -10, -10, -10, -10, -10, 18.75, 18.666666, 18.625, 18.5625, 18.5, 18.4375, 18.4375, 18.4375, 18.4375, 18.5, 18.5625, 18.625, 18.75, 18.875, 18.9375, 19, 18.875, 18.75, 18.625, 18.625, 18.75, 18.9375, 19.125, 19.375, 19.625, 19.8125, 20, 20, 19.9375, 20, 20.125, 20.160713, 20.1875, 20.125, 20, 20.125, 20.25, 20.5, 20.583334, 20.611113, 20.420635, 20.898809, 21, 21.061224, 20.979166, 21.0625, 21.125, 21.0625, 21.035713, 20.861607, 20.950893, 21.397322, 21.959822, 22.482143, 22.8125, 22.8125, 22.857143, 22.666666, 22.705357, 22.90625, 23.09375, 23.3125, 23.508928, 23.998512, 24.519558, 24.719387, 24.9375, 25.232143, 25.546875, 25.75, 26, 26.125, 26.3125, 26.5625, 26.75, 26.785715, 27.145834, 27.348215, 27.625, 27.875, 28.1875, 28.375, 28.5625, 28.8125, 28.9375, 29.3125, 29.625, 29.8125, 30.03125, 30.21875, 30.46875, 30.78125, 31, 30.964287, 31.25, 31.482143, 31.6875, 32, 32.11607, 32.24107, 32.40625, 32.504463, 32.90625, 33.098213, 33.520832, 33.803574, 34.1875, 34.4375, 34.75, 34.9375, 35, 35.1875, 35.375, 35.6875, 35.982143, 36.125, 36.366074, 36.791668, 37.232143, 37.4375, 37.5, 37.767857, 38.145832, 38.535713, 38.8125, 38.9375, 39.0625, 39.0625, 39.3125, 39.5625, 39.75, 40, 40, 39.794643, 39.157738, 38.568451, 38.071426, 37.642857, 37.125, 36.535713, 36.25, 35.875, 35.625, 35.1875, 34.642857, 34.116074, 33.669643, 33.239582, 32.647957, 31.65625, 31.196428, 30.482143, 29.645834, 29.226191, 29.142859, 28.523809, 27.650793, 27.238096, 27.078125, 26.942709, 26.71875, 26.40625, 26.270834, 11.428572, 11.428572, 11.383928, 11.708333, 11.732143, 11.875, 11.9375, 12.044643, 12.125, 12.125, 12.0625, 12, 12, 12
-10, -10, -10, -10, -10, -10, -10, -10, -10, 52.625, 52.416664, 52.3125, 52.125, 52, 52, 52, 52, 51.875, 51.625, 51.375, 51.125, 51, 51, 51, 50.866074, 50.5, 50.25, 49.964287, 49.9375, 49.9375, 49.8125, 49.625, 49.375, 49.125, 49.0625, 48.9375, 48.875, 48.8125, 48.625, 48.5, 48.3125, 48, 47.75, 47.5625, 47.375, 47.25, 47.1875, 47.0625, 47, 46.9375, 46.9375, 46.875, 46.6875, 46.5, 46.1875, 45.964287, 45.9375, 45.8125, 45.625, 45.375, 45.125, 45, 44.875, 44.6875, 44.5, 44.4375, 44.375, 44.3125, 44.25, 44.0625, 44, 43.9375, 43.8125, 43.625, 43.4375, 43.25, 43.125, 43.0625, 42.75, 42.5, 42.25, 42, 41.875, 41.875, 41.75, 41.5, 41.375, 41.125, 41, 41, 41, 40.8125, 40.5625, 40.3125, 40.0625, 40, 40, 39.9375, 39.8125, 39.5625, 39.1875, 38.830357, 38.75, 38.75, 38.84375, 38.71875, 38.46875, 38.21875, 38, 38, 38, 38, 37.875, 37.833332, -10, -10, 8, 8, 8, 8, 8, 8, 8, 8.0625, 8.125, 8.1875, 8.25, 8.1875, 8.125, 8.0625, 8.0625, 8.125, 8.1875, 8.1875, 8.125, 8.0625, 8, 8.0625, 8.0625, 8.0625, 8.0625, 8, 8.09375, 8.125, -10, -10, -10, -10, -10, 18, 18.5, 18.416666, 18.375, 18.3125, 18.25, 18.1875, 18.1875, 18.1875, 18.125, 18.1875, 18.3125, 18.482143, 18.625, 18.8125, 18.8125, 18.8125, 18.6875, 18.5, 18.4375, 18.5, 18.6875, 18.875, 19, 19.1875, 19.4375, 19.6875, 19.9375, 20, 19.9375, 20.0625, 20.160713, 20.125, 20.1875, 20.125, 20.125, 20.1875, 20.25, 20.3125, 20.4375, 20.520834, 20.146257, 20.348639, 20.083334, 20.336735, 20.729166, 20.8125, 20.875, 21.0625, 21.107143, 21.111607, 21.236607, 21.46875, 21.888393, 22.232143, 22.375, 22.3125, 22.375, 22.5, 22.625, 22.84375, 23.049107, 23.3125, 23.375, 23.558035, 23.488094, 23.668367, 24.6875, 25.13393, 25.546875, 25.75, 26, 26.125, 26.3125, 26.5625, 26.8125, 26.839287, 27, 27.232143, 27.5, 27.75, 28.0625, 28.3125, 28.5625, 28.982143, 29.1875, 29.5, 29.75, 29.875, 30.09375, 30.34375, 30.59375, 30.84375, 31.0625, 31.125, 31.375, 31.625, 31.75, 32.0625, 32.375, 32.848213, 33.03125, 33.09375, 32.96875, 32.955357, 33.333332, 33.616074, 34.0625, 34.3125, 34.625, 34.90625, 35, 35.25, 35.5, 35.84375, 36.232143, 36.5, 36.6875, 36.9375, 37.357143, 37.5625, 37.75, 37.955357, 38.208332, 38.428574, 38.6875, 38.8125, 39, 39.0625, 39.25, 39.5, 39.6875, 39.9375, 40, 39.803574, 39.366074, 38.809525, 38.321426, 37.955357, 37.5625, 36.98214, 36.4375, 36.044643, 35.75, 35.4375, 35.080357, 34.723213, 34.122025, 33.583332, 32.897957, 31.696428, 31.232141, 30.857143, 30.029762, 29.535713, 29.232143, 28.642857, 27.696428, 27.285715, 26.890625, 26.734375, 26.53125, 26.28125, 26.1875, 11.75, 11.75, 11.8125, 11.875, 11.875, 11.9375, 11.9375, 11.9375, 12, 12, 12, 12, 12, 12, 12, 12, 12, 12.0625, 12.125, 12.107143, 12.175, 12.232143, 12.125, 12.3125, 12.25, 12.375, 12.625, 12.75, 12.875, 13, 13, 13, 13.0625, 13.0625, 13.0625, 13.125, 13.083333, -10, -10, -10, -10, -10, -10, -10, -10, -10, -10, -10, -10, -10, -10, -10, -10, -10, -10, -10, -10, -10, -10, -10, -10, -10, -10, -10, -10, -10, -10, -10, -10, -10, -10, -10, 52.5, 52.333332, 52.25, 52.0625, 52, 52, 52, 52, 51.9375, 51.6875, 51.4375, 51.1875, 51, 51, 51, 50.866074, 50.5, 50.25, 49.964287, 49.9375, 49.9375, 49.75, 49.5, 49.25, 49, 48.9375, 48.875, 48.8125, 48.8125, 48.6875, 48.5625, 48.375, 48.0625, 47.803574, 47.549999, 47.482143, 47.25, 47.25, 47.0625, 47, 46.9375, 46.9375, 46.8125, 46.625, 46.4375, 46.0625, 45.901787, 45.875, 45.78125, 45.65625, 45.40625, 45.15625, 45, 44.9375, 44.8125, 44.625, 44.5625, 44.4375, 44.3125, 44.25, 44.0625, 44, 43.9375, 43.8125, 43.6875, 43.5625, 43.375, 43.25, 43.125, 42.75, 42.5, 42.25, 42, 41.9375, 41.9375, 41.875, 41.625, 41.4375, 41.1875, 41, 41, 41, 40.8125, 40.5625, 40.3125, 40.0625, 40, 40, 40, 39.9375, 39.6875, 39.3125, 38.892857, 38.75, 38.75, 38.84375, 38.71875, 38.46875, 38.21875, 38, 38, 38, 38, 37.8125, 37.797619, 8, 8, 8, 8, 8, 8, 8, 8, 8, 8, 8, 8.125, 8.1875, 8.1875, 8.1875, 8.0625, 8, 8, 8, 8, 8, 8, 8, 8, 8, 8, 8, 8, 8.09375, 8.166667, -10, -10, -10, -10, 18, 18, 18.25, 18.166666, 18.125, 18.0625, 17.9375, 17.9375, 17.9375, 17.9375, 17.9375, 17.96875, 18.15625, 18.325893, 18.40625, 18.526787, 18.5, 18.5, 18.5, 18.375, 18.375, 18.5, 18.75, 19, 19.125, 19.25, 19.4375, 19.625, 19.875, 20, 19.875, 20.026787, 20.196428, 20.125, 20.25, 20.1875, 20.25, 20.375, 20.410713, 20.205357, 20.133928, 20.083334, 19.877977, 20.086309, 20, 20.169643, 20.479166, 20.5, 20.5625, 20.75, 20.857143, 21.017857, 21.25, 21.375, 21.732143, 21.982143, 22.0625, 22.125, 22.1875, 22.375, 22.473213, 22.558037, 22.799107, 22.9375, 23, 23.058035, 22.773808, 23.005102, 24.4375, 25.035713, 25.546875, 25.75, 26, 26.125, 26.25, 26.375, 26.5625, 26.6875, 26.8125, 27.0625, 27.375, 27.625, 27.9375, 28.3125, 28.6875, 29.214287, 29.5, 29.75, 29.875, 29.9375, 30.0625, 30.3125, 30.5625, 30.875, 31.1875, 31.3125, 31.5625, 31.75, 31.875, 32.1875, 32.5, 32.964287, 33.1875, 33.1875, 33.125, 33.080357, 33.395832, 33.678574, 34, 34.1875, 34.4375, 34.71875, 34.9375, 35.25, 35.625, 36.03125, 36.419643, 36.75, 36.875, 37.0625, 37.375, 37.625, 37.875, 38.0625, 38.125, 38.25, 38.4375, 38.625, 38.875, 39, 39.1875, 39.4375, 39.625, 39.875, 40, 39.8125, 39.491074, 38.934525, 38.508926, 38.1875, 37.8125, 37.16964, 36.517857, 36.169643, 35.875, 35.6875, 35.330357, 34.928574, 34.300594, 33.767857, 33.160713, 32.080357, 31.5, 31, 30.321428, 29.785713, 29.5625, 29.071428, 27.833334, 27.32143, 26.765625, 26.578125, 26.34375, 26.15625, 26.104166, 12, 12, 12, 12, 11.9375, 11.9375, 11.9375, 11.9375, 12, 12, 12, 12, 12, 12.0625
-10, -10, -10, -10, -10, -10, -10, -10, -10, 52.333332, 52.291664, 52.25, 52.125, 52.0625, 52, 52, 52, 51.9375, 51.6875, 51.4375, 51.1875, 51, 51, 51, 50.875, 50.625, 50.25, 49.964287, 49.875, 49.875, 49.75, 49.5625, 49.375, 49.1875, 49.1875, 49.053574, 48.8125, 48.8125, 48.6875, 48.6875, 48.5, 48.1875, 47.803574, 47.412498, 47.535713, 47.366074, 47.5, 47.25, 47.125, 47, 46.875, 46.75, 46.5625, 46.375, 46.0625, 45.901787, 45.875, 45.75, 45.625, 45.375, 45.125, 45, 45, 44.9375, 44.6875, 44.5625, 44.375, 44.1875, 44.1875, 44.0625, 44, 43.875, 43.75, 43.6875, 43.5625, 43.4375, 43.25, 43, 42.625, 42.375, 42.125, 41.9375, 41.9375, 41.9375, 42, 41.75, 41.5, 41.25, 41, 41, 41, 40.875, 40.625, 40.375, 40.125, 40, 40, 40, 40, 39.75, 39.4375, 39.080357, 38.875, 38.875, 38.90625, 38.71875, 38.46875, 38.21875, 38, 38, 38, 38, 37.90625, 37.964287, 38.433334, 8, 8, 8, 8, 8, 8, 8, 8, 7.9375, 7.9375, 8.0625, 8.125, 8.1875, 8.1875, 8.0625, 8, 8, 7.9375, 7.9375, 7.9375, 7.9375, 8, 8, 8, 8, 8, 8, 8.09375, -10, -10, -10, -10, -10, 18, 18, 18, 17.9375, 17.875, 17.8125, 17.6875, 17.75, 17.8125, 17.875, 17.9375, 17.96875, 18.03125, 18.075893, 18.03125, 18.089287, 18.125, 18.1875, 18.3125, 18.25, 18.375, 18.5625, 18.8125, 19.0625, 19.125, 19.1875, 19.375, 19.5625, 19.8125, 20, 19.9375, 20.089287, 20.258928, 20.151787, 20.25, 20.1875, 20.25, 20.4375, 20.598213, 20.517857, 20.401787, 20.342262, 20.020834, 19.857143, 19.6875, 19.732143, 20.104166, 20.1875, 20.25, 20.5, 20.669643, 20.955357, 21.285713, 21.375, 21.607143, 21.6875, 21.875, 22.035713, 22.125, 22.3125, 22.285713, 22.276787, 22.455357, 22.53125, 22.59375, 22.674107, 22.638393, 22.973215, 24.1875, 24.910713, 25.515625, 25.75, 26, 26.125, 26.1875, 26.25, 26.375, 26.5, 26.6875, 27.0625, 27.5625, 27.75, 28, 28.1875, 28.5625, 29.089287, 29.5, 29.8125, 29.9375, 30, 30.0625, 30.3125, 30.625, 31.044643, 31.375, 31.5625, 31.75, 31.875, 31.9375, 32.25, 32.625, 33.089287, 33.3125, 33.3125, 33.3125, 33.3125, 33.5, 33.8125, 34.0625, 34.25, 34.5, 34.71875, 35, 35.375, 35.75, 36.15625, 36.482143, 36.75, 36.875, 37.0625, 37.375, 37.625, 37.875, 38, 38, 38.0625, 38.1875, 38.375, 38.696426, 39.125, 39.410713, 39.65625, 39.78125, 39.9375, 40, 39.8125, 39.553574, 39.104168, 38.633926, 38.375, 38, 37.401787, 36.705357, 36.294643, 36, 35.875, 35.616074, 35.032738, 34.300594, 33.642857, 33.017857, 32.205357, 31.55357, 31, 30.375, 29.919643, 29.678572, 29.059525, 27.916668, 27.166668, 26.602678, 26.375, 26.1875, 26.0625, 26.041666, 26, 12.166667, 12.125, 12.0625, 12.03125, 12, 12, 12, 12, 12, 12, 12, 12, 12.0625, 12.0625, 12.125, 12.1875, 12.25, 12.4375, 12.482143, 12.4875, 12.544643, 12.4375, 12.5, 12.5625, 12.75, 12.875, 13, 13, 13, 13, 13, 13.0625, 13.0625, 13.0625, 13.0625, 13, -10, -10, -10, -10, -10, -10, -10, -10, -10, -10, -10, -10, -10, -10, -10, -10, -10, -10, -10, -10, -10, -10, -10, -10, -10, -10, -10, -10, -10, -10, -10, -10, -10, -10, 52, 52.458332, 52.375, 52.3125, 52.1875, 52.0625, 52, 52, 52, 51.9375, 51.6875, 51.4375, 51.1875, 51, 51, 51, 50.875, 50.625, 50.25, 49.964287, 49.875, 49.875, 49.8125, 49.625, 49.5, 49.3125, 49.25, 49.053574, 48.6875, 48.6875, 48.5, 48.5, 48.375, 48.0625, 47.803574, 47.474998, 47.598213, 47.491074, 47.625, 47.4375, 47.3125, 47.125, 46.9375, 46.6875, 46.5, 46.3125, 46, 45.901787, 45.875, 45.75, 45.625, 45.375, 45.125, 45, 45, 45, 44.8125, 44.625, 44.375, 44.125, 44.0625, 44, 44, 43.8125, 43.625, 43.5625, 43.4375, 43.375, 43.1875, 42.875, 42.5, 42.25, 42.0625, 41.9375, 41.9375, 41.9375, 42, 41.75, 41.5, 41.25, 41, 41, 41, 40.875, 40.625, 40.375, 40.125, 40, 40, 40, 40, 39.75, 39.5, 39.25, 39, 39, 38.96875, 38.71875, 38.46875, 38.21875, 38, 38, 38, 38, 37.96875, 38.099705, 38.455555, 8, 8, 8, 8, 8, 8, 8, 8, 7.875, 7.8125, 7.9375, 8, 8.125, 8.125, 8, 7.9375, 7.9375, 7.9375, 7.9375, 7.875, 7.875, 7.9375, 7.9375, 8, 8, 8, 8, 8.083333, -10, -10, -10, -10, -10, 17.875, 17.833334, 17.8125, 17.75, 17.625, 17.5625, 17.4375, 17.5, 17.625, 17.75, 17.8125, 17.84375, 17.84375, 17.825893, 17.71875, 17.776787, 17.8125, 17.875, 18.125, 18.125, 18.3125, 18.5, 18.6875, 18.946428, 19.125, 19.125, 19.375, 19.5, 19.75, 20, 19.9375, 20.026787, 20.071428, 19.901787, 20.017857, 20.208334, 20.357143, 20.5625, 20.741072, 20.788691, 20.571428, 20.508928, 20.3125, 19.916666, 19.895834, 19.975, 19.9375, 20.008928, 20, 20.3125, 20.633928, 21.1875, 21.5, 21.4375, 21.5, 21.4375, 21.5625, 21.785713, 21.875, 22.0625, 22.098213, 22.026787, 22.214285, 22.520834, 22.607143, 22.794643, 23.026787, 23.392859, 24.375, 24.991074, 25.5, 25.75, 26, 26.125, 26.125, 26.15625, 26.28125, 26.34375, 26.53125, 26.892857, 27.520834, 27.741072, 28, 28.125, 28.5, 28.964287, 29.375, 29.75, 29.875, 30, 30.0625, 30.3125, 30.625, 31.044643, 31.375, 31.5625, 31.75, 31.875, 31.9375, 32.1875, 32.5, 32.857143, 33.125, 33.25, 33.3125, 33.4375, 33.625, 33.875, 34.0625, 34.1875, 34.5, 34.825893, 35.125, 35.5625, 35.875, 36.15625, 36.4375, 36.6875, 36.8125, 37.0625, 37.25, 37.464287, 37.794643, 37.928574, 38, 38, 38.133926, 38.520832, 38.8125, 39.25, 39.410713, 39.59375, 39.71875, 39.875, 40, 39.75, 39.5, 39.25, 38.75, 38.5625, 38.1875, 37.633926, 36.892857, 36.419643, 36.0625, 35.9375, 35.723213, 35.050598, 34.238094, 33.517857, 32.848213, 32.133926, 31.535713, 31.0625, 30.5, 30.017857, 29.5625, 28.880953, 27.979168, 27.247025, 26.696428, 26.330357, 26.125, 26, 26, 12.5, 12.333334, 12.25, 12.0625, 12, 11.9375, 11.9375, 12, 12, 12, 12, 12, 12, 12.0625
-10, -10, -10, -10, -10, -10, -10, -10, -10, 52.583332, 52.458336, 52.375, 52.25, 52.0625, 52, 52, 52, 51.9375, 51.6875, 51.4375, 51.1875, 51, 51, 50.9375, 50.75, 50.5, 50.1875, 50, 49.9375, 49.9375, 49.875, 49.6875, 49.5625, 49.375, 49.25, 49.053574, 48.6875, 48.625, 48.4375, 48.4375, 48.3125, 48.125, 47.928574, 47.599998, 47.723213, 47.616074, 47.6875, 47.5, 47.375, 47.1875, 47, 46.6875, 46.4375, 46.1875, 45.9375, 45.9375, 45.9375, 45.875, 45.6875, 45.4375, 45.1875, 45, 45, 45, 44.875, 44.625, 44.375, 44.125, 44, 44, 44, 43.75, 43.5, 43.375, 43.1875, 43.1875, 43, 42.6875, 42.375, 42.125, 42, 41.9375, 41.9375, 41.9375, 41.9375, 41.6875, 41.4375, 41.1875, 41, 41, 41, 40.875, 40.625, 40.375, 40.125, 40, 40, 40, 39.9375, 39.6875, 39.4375, 39.1875, 39, 39, 39, 38.75, 38.5, 38.25, 38, 38, 38, 38, 37.96875, 38.147324, 38.391666, 8, 8, 8, 8, 8, 8, 8, 8, 7.8125, 7.75, 7.8125, 7.8125, 8, 8, 7.9375, 7.9375, 7.9375, 7.9375, 7.875, 7.75, 7.75, 7.8125, 7.875, 8, 8, 8, 8, -10, -10, -10, -10, -10, -10, 17.625, 17.583334, 17.5625, 17.5, 17.375, 17.3125, 17.125, 17.1875, 17.3125, 17.375, 17.5625, 17.65625, 17.629463, 17.53125, 17.46875, 17.464287, 17.625, 17.8125, 18.0625, 18.125, 18.25, 18.375, 18.5625, 18.821428, 19.0625, 19.1875, 19.4375, 19.5625, 19.8125, 20, 19.9375, 19.901787, 19.910713, 19.75, 19.767857, 19.958334, 19.982143, 20.25, 20.491072, 20.726191, 20.821428, 20.696428, 20.5625, 20.104166, 20.145834, 20.225, 20.0625, 20.071428, 20.0625, 20.1875, 20.5, 21, 21.25, 21.1875, 21.25, 21.25, 21.5, 21.785713, 21.9375, 22.0625, 22.098213, 22.089287, 22.321428, 22.614584, 22.763393, 23.058037, 23.637756, 24.102041, 24.5625, 25.089287, 25.5, 25.75, 26, 26.125, 26.125, 26.15625, 26.25, 26.3125, 26.5, 26.861607, 27.583334, 27.910715, 28.125, 28.1875, 28.4375, 28.732143, 29.125, 29.5625, 29.75, 29.9375, 30.0625, 30.223213, 30.4375, 30.973215, 31.241072, 31.5, 31.6875, 31.8125, 31.875, 32, 32.1875, 32.4375, 32.928574, 33.232143, 33.375, 33.625, 33.75, 33.9375, 34.0625, 34.125, 34.375, 34.607143, 34.9375, 35.375, 35.732143, 36, 36.25, 36.5, 36.6875, 36.9375, 37.0625, 37.214287, 37.544643, 37.785713, 37.9375, 38.0625, 38.258926, 38.752975, 39.0625, 39.5, 39.660713, 39.78125, 39.84375, 39.9375, 40, 39.75, 39.5, 39.1875, 38.6875, 38.4375, 37.9375, 37.375, 36.785713, 36.375, 35.991074, 35.604168, 35.29464, 34.559525, 33.946426, 33.267857, 32.598213, 31.955357, 31.455357, 31.0625, 30.616072, 30.125, 29.6875, 29.005953, 28.342262, 27.348215, 26.830357, 26.392857, 26.1875, 26.0625, 26, 12.833333, 12.583334, 12.4375, 12.125, 11.821428, 11.6875, 11.723214, 11.8125, 11.9375, 12, 12.0625, 12.0625, 12, 12, 12, 12.125, 12.3125, 12.375, 12.625, 12.75, 12.8125, 12.8125, 12.8125, 12.8125, 12.875, 13, 13, 13, 13, 13, 13.0625, 13.0625, 13.0625, 13.0625, 13, 13, 13, -10, -10, -10, -10, -10, -10, -10, -10, -10, -10, -10, -10, -10, -10, -10, -10, -10, -10, -10, -10, -10, -10, -10, -10, -10, -10, -10, -10, -10, -10, -10, -10, -10, -10, -10, 52.833332, 52.625004, 52.5, 52.3125, 52.0625, 52, 52, 52, 51.875, 51.625, 51.375, 51.125, 51, 50.9375, 50.8125, 50.625, 50.375, 50.125, 50, 49.9375, 49.9375, 49.9375, 49.75, 49.625, 49.4375, 49.3125, 49.178574, 48.875, 48.8125, 48.5625, 48.5, 48.3125, 48.125, 48, 47.799999, 47.866074, 47.803574, 47.75, 47.5625, 47.375, 47.1875, 46.9375, 46.625, 46.375, 46.125, 46, 46, 46, 45.96875, 45.71875, 45.46875, 45.21875, 45, 45, 45, 44.9375, 44.6875, 44.4375, 44.1875, 44, 44, 44, 43.75, 43.5, 43.3125, 43.0625, 43.0625, 42.8125, 42.5, 42.25, 42, 41.9375, 41.9375, 41.9375, 41.9375, 41.875, 41.625, 41.375, 41.125, 41, 41, 40.9375, 40.75, 40.5, 40.25, 40.0625, 40, 40, 40, 39.875, 39.625, 39.375, 39.125, 39, 39, 39, 38.75, 38.5, 38.25, 38, 38, 38, 38, 37.96875, 38.183037, 38.529167, 8, 8, 8, 8, 7.9375, 7.875, 7.8125, 7.8125, 7.6875, 7.6875, 7.75, 7.75, 7.9375, 7.9375, 7.9375, 7.9375, 7.9375, 7.875, 7.75, 7.625, 7.625, 7.75, 7.875, 8, 8, 8, 8, -10, -10, -10, -10, -10, -10, 17.375, 17.333334, 17.3125, 17.25, 17.125, 17.0625, 16.9375, 16.9375, 17.0625, 17.125, 17.25, 17.4375, 17.348213, 17.25, 17.25, 17.3125, 17.5625, 17.8125, 18, 18, 18.0625, 18.1875, 18.375, 18.633928, 18.9375, 19.0625, 19.34375, 19.53125, 19.78125, 19.96875, 20, 19.875, 19.71875, 19.46875, 19.299107, 19.489584, 19.482143, 19.6875, 19.955357, 20.333334, 20.714285, 20.508928, 20.5, 20.211309, 20.333334, 20.4125, 20.1875, 20.196428, 20.1875, 20.375, 20.6875, 21, 21.080357, 21, 21, 21.0625, 21.375, 21.691963, 21.96875, 22.125, 22.1875, 22.28125, 22.540178, 23.105656, 23.370537, 23.683037, 24.120537, 24.473215, 24.78125, 25.21875, 25.53125, 25.78125, 26, 26.125, 26.1875, 26.34375, 26.607143, 26.625, 26.75, 27.049107, 27.699406, 28.244049, 28.4375, 28.375, 28.4375, 28.5625, 28.875, 29.383928, 29.833334, 30.116072, 30.3125, 30.348213, 30.5, 30.910715, 31.053572, 31.375, 31.5625, 31.75, 31.8125, 31.875, 32, 32.1875, 32.75, 33.315475, 33.491074, 33.75, 33.8125, 33.9375, 34.0625, 34.125, 34.3125, 34.544643, 34.875, 35.357143, 35.669643, 35.875, 36.0625, 36.3125, 36.5625, 36.8125, 36.9375, 37.089287, 37.419643, 37.723213, 38, 38.1875, 38.383926, 38.877975, 39.125, 39.5625, 39.723213, 39.84375, 39.90625, 39.9375, 40, 39.8125, 39.5625, 39.1875, 38.642857, 38.3125, 37.604168, 37.133926, 36.642857, 36.3125, 35.928574, 35.416668, 35, 34.309525, 33.803574, 33.041668, 32.419643, 31.892857, 31.5, 31.1875, 30.741072, 30.25, 29.8125, 29.122023, 28.705357, 27.520834, 26.955357, 26.455357, 26.3125, 26.125, 26, 12.833333, 12.833334, 12.645833, 12.21875, 11.75, 11.59375, 11.598214, 11.75, 11.9375, 12.0625, 12.125, 12.125, 12.0625, 11.9375
-10, -10, -10, -10, -10, -10, -10, -10, -10, 53, 52.750004, 52.5625, 52.3125, 52.0625, 52, 52, 52, 51.8125, 51.5625, 51.3125, 51.0625, 51, 50.875, 50.75, 50.625, 50.375, 50.25, 50.125, 50, 50, 50, 49.75, 49.5625, 49.3125, 49.0625, 49, 48.875, 48.8125, 48.5625, 48.375, 48.1875, 48, 48, 48, 47.9375, 47.8125, 47.625, 47.4375, 47.25, 47.125, 47, 46.6875, 46.4375, 46.1875, 46, 46, 46, 45.9375, 45.6875, 45.4375, 45.1875, 45, 45, 45, 45, 44.8125, 44.5625, 44.3125, 44.0625, 44, 44, 43.75, 43.5, 43.25, 43.0625, 43.0625, 42.8125, 42.517857, 42.25, 42, 42, 42, 41.9375, 41.9375, 41.75, 41.5, 41.3125, 41.0625, 41, 41, 40.9375, 40.75, 40.5, 40.25, 40.0625, 40, 40, 40, 39.8125, 39.5625, 39.3125, 39.0625, 39, 39, 38.9375, 38.6875, 38.4375, 38.1875, 38, 38, 38, 37.9375, 37.78125, 37.891369, 38.483334, 8, 8, 7.875, 7.8333335, 7.75, 7.6875, 7.5625, 7.5625, 7.5, 7.5, 7.5625, 7.5625, 7.75, 7.8125, 7.875, 7.9375, 7.9375, 7.875, 7.6875, 7.5, 7.4375, 7.5, 7.625, 7.75, 7.75, 7.75, 7.75, -10, -10, -10, -10, -10, -10, 17.125, 17, 16.9375, 16.875, 16.75, 16.8125, 16.8125, 16.75, 16.875, 16.875, 16.875, 17.0625, 17.035713, 17, 17.125, 17.25, 17.5, 17.75, 17.9375, 17.9375, 17.875, 17.955357, 18.25, 18.462053, 18.890625, 19.015625, 19.25, 19.46875, 19.71875, 19.90625, 20, 19.875, 19.65625, 19.34375, 19.049107, 19.141369, 19.169643, 19.3125, 19.580357, 19.761906, 19.880953, 20, 20.25, 20.023809, 20.333334, 20.510714, 20.3125, 20.258928, 20.1875, 20.375, 20.6875, 20.875, 20.919643, 20.875, 20.875, 21, 21.25, 21.59375, 22.013393, 22.169643, 22.104166, 22.197916, 22.623512, 23.355656, 23.683037, 23.933037, 24.325893, 24.598215, 24.84375, 25.28125, 25.53125, 25.78125, 26, 26.125, 26.25, 26.53125, 26.857143, 26.875, 27, 27.111607, 27.543156, 28.150299, 28.34375, 28.46875, 28.5625, 28.6875, 28.875, 29.258928, 29.717262, 30.199406, 30.419643, 30.410713, 30.375, 30.616072, 30.741072, 31.0625, 31.375, 31.625, 31.75, 31.875, 31.9375, 32.125, 32.75, 33.422619, 33.616074, 33.875, 33.875, 33.875, 34, 34.0625, 34.1875, 34.482143, 34.8125, 35.339287, 35.669643, 35.875, 36.0625, 36.25, 36.5, 36.75, 36.8125, 37.026787, 37.357143, 37.723213, 38.125, 38.375, 38.633926, 39.127975, 39.334824, 39.53125, 39.59375, 39.71875, 39.8125, 39.875, 40, 39.875, 39.625, 39.1875, 38.598213, 38.25, 37.541668, 37.133926, 36.642857, 36.3125, 35.866074, 35.229168, 34.654762, 33.851189, 33.44643, 32.854168, 32.401787, 32.017857, 31.6875, 31.330357, 30.616072, 30.044643, 29.633928, 29.205357, 28.848215, 27.687502, 27.0625, 26.580357, 26.5625, 26.333334, 25.958334, 25.700001, 12.916667, 12.729166, 12.25, 11.647322, 11.5, 11.473214, 11.6875, 11.9375, 12.0625, 12.125, 12.125, 12.0625, 11.9375, 11.9375, 12, 12.125, 12.1875, 12.375, 12.5, 12.625, 12.6875, 12.75, 12.8125, 12.875, 13, 13, 13, 13, 13, 13.1875, 13.1875, 13.1875, 13.1875, 13, 12.9375, 12.916667, -10, -10, -10, -10, -10, -10, -10, -10, -10, -10, -10, -10, -10, -10, -10, -10, -10, -10, -10, -10, -10, -10, -10, -10, -10, -10, -10, -10, -10, -10, -10, -10, -10, -10, -10, 53, 52.833336, 52.6875, 52.4375, 52.1875, 52.0625, 52, 52, 51.8125, 51.5625, 51.3125, 51.0625, 51, 50.875, 50.75, 50.625, 50.375, 50.25, 50.125, 50, 50, 50, 49.8125, 49.5625, 49.3125, 49.0625, 49, 49, 48.875, 48.625, 48.375, 48.1875, 48.0625, 48.0625, 48, 47.8125, 47.625, 47.375, 47.1875, 47.0625, 47, 46.9375, 46.6875, 46.4375, 46.1875, 46, 46, 45.9375, 45.8125, 45.5625, 45.25, 45.0625, 44.9375, 44.9375, 45, 45, 44.875, 44.625, 44.375, 44.125, 44, 44, 43.8125, 43.5625, 43.3125, 43.125, 43.0625, 42.875, 42.580357, 42.3125, 42.0625, 42.0625, 42.0625, 42, 42, 41.6875, 41.4375, 41.25, 41, 41, 41, 40.9375, 40.8125, 40.625, 40.375, 40.1875, 40.0625, 40, 39.9375, 39.75, 39.5, 39.25, 39.0625, 39, 38.9375, 38.8125, 38.5625, 38.3125, 38.125, 38, 38, 38, 37.875, 37.625, 37.630951, -10, -10, -10, 7.625, 7.5833335, 7.5, 7.4375, 7.3125, 7.3125, 7.3125, 7.375, 7.4375, 7.4375, 7.625, 7.75, 7.875, 8, 7.9375, 7.75, 7.5, 7.3125, 7.25, 7.3125, 7.4375, 7.5, 7.5, 7.5, 7.5625, -10, -10, -10, -10, -10, -10, 16.75, 16.666666, 16.625, 16.5625, 16.5, 16.5625, 16.5625, 16.5, 16.5625, 16.5625, 16.625, 16.875, 16.910713, 16.875, 17, 17.0625, 17.3125, 17.5625, 17.6875, 17.6875, 17.696428, 18.038691, 18.392857, 18.546875, 18.796875, 18.921875, 19.125, 19.46875, 19.71875, 19.90625, 20, 19.875, 19.71875, 19.40625, 19.09375, 18.915178, 18.705357, 18.758928, 19.008928, 19.375, 19.544643, 19.316328, 19.464285, 19.693878, 20.160713, 20.053572, 19.979166, 20.020834, 20.053572, 20.25, 20.4375, 20.5, 20.625, 20.75, 20.8125, 20.9375, 21.0625, 21.361607, 21.909227, 22.160715, 22.135416, 22.291666, 22.708334, 23.241072, 23.638393, 23.84375, 24.15625, 24.482143, 24.71875, 25.21875, 25.53125, 25.78125, 26, 26.125, 26.3125, 26.625, 27.013393, 27.09375, 27.21875, 27.28125, 27.491072, 28.065477, 28.25, 28.5, 28.625, 28.75, 28.875, 29.196428, 29.654762, 30.136906, 30.419643, 30.348213, 30.3125, 30.553572, 30.678572, 31.0625, 31.383928, 31.75, 31.8125, 32, 31.9375, 32.125, 32.71875, 33.328869, 33.584824, 33.84375, 33.875, 33.875, 34, 33.9375, 33.9375, 34.125, 34.544643, 35.151787, 35.607143, 35.875, 36, 36.125, 36.3125, 36.5, 36.696426, 37.145832, 37.428574, 37.857143, 38.25, 38.5625, 38.8125, 39.044643, 39.21875, 39.46875, 39.65625, 39.84375, 39.9375, 39.9375, 40, 39.9375, 39.6875, 39.1875, 38.553574, 38.1875, 37.479168, 37.133926, 36.642857, 36.3125, 35.866074, 35.104168, 34.380951, 33.416664, 33.089287, 32.666668, 32.330357, 31.851191, 31.5625, 31.111607, 30.522322, 30.013393, 29.705357, 29.229166, 28.785715, 27.500002, 27.0625, 26.794643, 26.9375, 26.761906, 26.125, 25.895239, 13, 12.854166, 12.4, 11.636905, 11.53125, 11.441964, 11.65625, 11.9375, 12.0625, 12.125, 12.125, 12.0625, 11.9375
-10, -10, -10, -10, -10, -10, -10, -10, -10, 53, 52.833336, 52.6875, 52.4375, 52.1875, 52.0625, 52, 52, 51.875, 51.625, 51.375, 51.125, 51, 50.875, 50.8125, 50.6875, 50.4375, 50.3125, 50.125, 50, 50, 49.9375, 49.75, 49.5, 49.25, 49.0625, 49, 49, 48.875, 48.625, 48.375, 48.1875, 48.125, 48.125, 48, 47.767857, 47.5, 47.25, 47.125, 47, 47, 46.875, 46.625, 46.375, 46.125, 46, 46, 45.9375, 45.75, 45.4375, 45.089287, 44.9375, 44.875, 44.9375, 45, 45, 44.875, 44.625, 44.375, 44.125, 44, 43.9375, 43.75, 43.5, 43.25, 43.125, 43.0625, 42.9375, 42.705357, 42.4375, 42.1875, 42.125, 42.0625, 42, 42, 41.75, 41.5, 41.3125, 41.0625, 41, 41, 40.9375, 40.8125, 40.625, 40.375, 40.1875, 40.0625, 40, 39.9375, 39.8125, 39.5625, 39.3125, 39.125, 39, 38.9375, 38.75, 38.5625, 38.3125, 38.125, 38.0625, 38, 37.9375, 37.75, 37.5, 37.416664, -10, -10, -10, 7.375, 7.3333335, 7.25, 7.1875, 7.0625, 7.0625, 7.125, 7.1875, 7.25, 7.25, 7.375, 7.5, 7.625, 7.75, 7.6875, 7.5, 7.3125, 7.1875, 7.125, 7.1875, 7.25, 7.25, 7.25, 7.25, 7.375, 7.3333335, -10, -10, -10, -10, 16, 16.5, 16.416666, 16.375, 16.3125, 16.1875, 16.25, 16.3125, 16.25, 16.375, 16.5, 16.5625, 16.8125, 16.8125, 16.75, 16.75, 16.8125, 17.0625, 17.25, 17.4375, 17.4375, 17.508928, 17.976191, 18.36607, 18.484375, 18.734375, 18.734375, 18.9375, 19.34375, 19.59375, 19.84375, 20, 19.9375, 19.772322, 19.34375, 19.09375, 18.790178, 18.580357, 18.508928, 18.633928, 18.946428, 19.086309, 19.058037, 19.21875, 19.450893, 19.723213, 19.454082, 19.497023, 19.583334, 19.616072, 19.8125, 20, 20, 20.125, 20.357143, 20.729166, 20.866072, 20.892857, 21.049107, 21.578871, 22.077381, 22.108631, 22.322916, 22.614584, 23.116072, 23.607143, 23.770834, 24.25, 24.5, 24.708334, 25.28125, 25.572916, 25.78125, 26, 26.1875, 26.375, 26.75, 27.232143, 27.285713, 27.375, 27.3125, 27.350447, 27.786459, 28.046875, 28.359375, 28.5625, 28.78125, 28.875, 29.133928, 29.529762, 30.011906, 30.232143, 30.25, 30.34375, 30.46875, 30.65625, 31.03125, 31.446428, 31.919643, 32, 32.25, 32.125, 32.25, 32.665176, 33.221725, 33.522324, 33.71875, 33.8125, 33.8125, 33.9375, 33.875, 33.901787, 34.232143, 34.660713, 35.276787, 35.625, 35.875, 36, 36.0625, 36.1875, 36.3125, 36.580357, 37.291664, 37.607143, 38.0625, 38.4375, 38.6875, 38.9375, 39.0625, 39.21875, 39.46875, 39.65625, 39.84375, 39.9375, 39.9375, 40, 40, 39.75, 39.25, 38.57143, 38.1875, 37.479168, 37.196426, 36.75, 36.375, 35.9375, 35.25, 34.452381, 33.479164, 33.089287, 32.729168, 32.410713, 31.708334, 31.357143, 30.861607, 30.34375, 30.013393, 29.633928, 29.020832, 28.464287, 27.291668, 26.991072, 26.794643, 27.0625, 26.949406, 26.375, 26.171429, 26, 12.833333, 12.4625, 11.877976, 11.78125, 11.65625, 11.84375, 12, 12.0625, 12.0625, 12.0625, 12.0625, 12, 12, 12, 12, 12, 12.0625, 12.1875, 12.25, 12.25, 12.3125, 12.375, 12.607143, 12.8125, 12.9375, 13, 13.0625, 13.035714, 13.151786, 13.160714, 13.026786, 13.125, 12.9375, 12.9375, 12.916667, -10, -10, -10, -10, -10, -10, -10, -10, -10, -10, -10, -10, -10, -10, -10, -10, -10, -10, -10, -10, -10, -10, -10, -10, -10, -10, -10, -10, -10, -10, -10, -10, -10, -10, -10, 53, 52.833336, 52.6875, 52.4375, 52.1875, 52.0625, 52, 52, 51.875, 51.625, 51.375, 51.125, 51, 50.875, 50.8125, 50.6875, 50.4375, 50.3125, 50.125, 50, 50, 49.9375, 49.75, 49.5, 49.25, 49.0625, 49, 49, 48.875, 48.625, 48.375, 48.1875, 48.125, 48.125, 48, 47.705357, 47.5, 47.3125, 47.25, 47.178574, 46.916668, 46.758926, 46.5, 46.3125, 46.125, 46, 46, 45.9375, 45.6875, 45.375, 45.026787, 44.875, 44.875, 44.9375, 45, 45, 44.875, 44.625, 44.375, 44.125, 44, 43.875, 43.6875, 43.4375, 43.1875, 43.125, 43.0625, 43, 42.830357, 42.5625, 42.3125, 42.1875, 42.0625, 42, 42, 41.8125, 41.5625, 41.375, 41.125, 41, 41, 41, 40.875, 40.6875, 40.4375, 40.1875, 40.0625, 40, 39.9375, 39.875, 39.625, 39.375, 39.1875, 39, 38.875, 38.625, 38.4375, 38.25, 38.1875, 38.1875, 38.125, 37.96875, 37.65625, 37.40625, 37.208332, -10, -10, -10, 7.125, 7.0833335, 7.0625, 7.0625, 7, 7, 7, 7, 7, 7, 7.125, 7.25, 7.375, 7.5, 7.4375, 7.3125, 7.1875, 7.0625, 7, 7, 7, 7, 7, 7, 7.1875, 7.3333335, -10, -10, -10, -10, 16, 16.25, 16.166666, 16.125, 16, 15.8125, 15.875, 15.875, 15.875, 16, 16.125, 16.25, 16.4375, 16.5, 16.4375, 16.4375, 16.5625, 16.8125, 17.0625, 17.3125, 17.3125, 17.383928, 17.788691, 18.11607, 18.234375, 18.484375, 18.484375, 18.65625, 19.0625, 19.3125, 19.625, 19.875, 19.875, 19.803572, 19.4375, 19.25, 19.008928, 18.741072, 18.464285, 18.455357, 18.767857, 19.169643, 19.10268, 19.15625, 19.15625, 19.285713, 19.178572, 19.193451, 19.470833, 19.375, 19.508928, 19.5625, 19.5625, 19.75, 20.107143, 20.577381, 20.741072, 20.767857, 20.892857, 21.350342, 21.988094, 22.108631, 22.354166, 22.583334, 22.875, 23.214287, 23.445833, -10, -10, -10, 24.880951, 25.416666, 25.633928, 26, 26.1875, 26.25, 26.4375, 26.767857, 26.994049, 27.25, 27.3125, 27.359375, 27.515625, 27.761162, 28.216518, 28.553572, 28.90625, 29.0625, 29.25, 29.446428, 29.833334, 29.982143, 30.0625, 30.15625, 30.3125, 30.5625, 30.9375, 31.477678, 32.089287, 32.1875, 32.4375, 32.25, 32.375, 32.71875, 33.075893, 33.34375, 33.53125, 33.6875, 33.8125, 34.0625, 34.0625, 34.151787, 34.419643, 34.723213, 35.232143, 35.5625, 35.8125, 35.9375, 35.9375, 36, 36.125, 36.455357, 37.166664, 37.544643, 38.0625, 38.482143, 38.75, 39.0625, 39.125, 39.28125, 39.46875, 39.65625, 39.84375, 39.9375, 40, 40, 40, 39.741074, 39.104168, 38.5, 38.125, 37.6875, 37.4375, 36.9375, 36.5, 36, 35.25, 34.380951, 33.309525, 32.973213, 32.8125, 32.517857, 31.625, 31.169643, 30.611607, 30.09375, 29.763393, 29.383928, 28.726189, 27.976191, 27.083334, 26.928572, 26.919643, 27.1875, 27.136906, 26.6875, 26.554762, 13, 12.791667, 12.49375, 12.011905, 11.875, 11.78125, 11.90625, 12, 12, 12, 12, 12, 12
-10, -10, -10, -10, -10, -10, -10, -10, -10, 53, 52.833336, 52.6875, 52.4375, 52.1875, 52.0625, 52, 52, 51.875, 51.625, 51.375, 51.125, 51, 50.9375, 50.875, 50.75, 50.5625, 50.375, 50.1875, 50.0625, 50, 49.9375, 49.8125, 49.5625, 49.3125, 49.125, 49, 49, 48.875, 48.6875, 48.4375, 48.25, 48.1875, 48.125, 47.9375, 47.580357, 47.375, 47.25, 47.25, 47.241074, 46.916668, 46.696426, 46.5, 46.3125, 46.1875, 46.0625, 46, 45.9375, 45.6875, 45.375, 45.026787, 44.875, 44.875, 44.9375, 45, 45, 44.8125, 44.625, 44.375, 44.125, 44.0625, 43.8125, 43.59375, 43.28125, 43.03125, 42.96875, 42.9375, 43, 42.9375, 42.6875, 42.4375, 42.25, 42.0625, 42.0625, 42.0625, 41.9375, 41.6875, 41.4375, 41.1875, 41, 41, 41, 40.8125, 40.625, 40.375, 40.125, 40.0625, 40, 39.875, 39.8125, 39.5625, 39.3125, 39.1875, 39, 38.8125, 38.5625, 38.375, 38.1875, 38.1875, 38.1875, 38.125, 37.96875, 37.71875, 37.53125, 37.375, -10, -10, -10, 7, 7, 7, 7, 7, 7, 7, 7, 7, 7, 7.0625, 7.125, 7.1875, 7.25, 7.1875, 7.125, 7.0625, 7, 7, 7, 7, 7, 7, 7, 7.25, 7.3333335, -10, -10, -10, -10, 16, 16, 16, 16, 15.875, 15.6875, 15.625, 15.5, 15.5, 15.5625, 15.625, 15.839286, 16.169643, 16.303572, 16.3125, 16.25, 16.3125, 16.5625, 16.875, 17.232143, 17.25, 17.383928, 17.770834, 17.92857, 18.09375, 18.28125, 18.28125, 18.5, 18.875, 19.125, 19.4375, 19.6875, 19.6875, 19.616072, 19.3125, 19.125, 19.008928, 18.803572, 18.348215, 18.285715, 18.517857, 19, 19.04018, 19.03125, 19.03125, 18.973213, 18.830357, 18.952381, 19.408333, 19.375, 19.508928, 19.375, 19.375, 19.5, 19.857143, 20.452381, 20.616072, 20.642857, 20.767857, 21.252977, 21.818451, 22.254463, 22.5, 22.5625, 22.6875, 22.901787, 23.091667, -10, -10, -10, 23.527777, 25.291666, 25.517857, 26, 26.125, 26.125, 26.1875, 26.517857, 26.806549, 27.125, 27.375, 27.453125, 27.609375, 27.854912, 28.247768, 28.553572, 28.96875, 29.1875, 29.4375, 29.6875, 29.875, 30, 30.0625, 30.21875, 30.375, 30.625, 31, 31.477678, 32.089287, 32.1875, 32.375, 32.1875, 32.3125, 32.59375, 32.90625, 33.15625, 33.34375, 33.5625, 33.75, 34.125, 34.125, 34.245537, 34.513393, 34.691963, 35.09375, 35.4375, 35.6875, 35.875, 35.9375, 35.9375, 36.0625, 36.392857, 37.041664, 37.419643, 37.875, 38.294643, 38.669643, 39, 39.125, 39.25, 39.375, 39.5, 39.6875, 39.8125, 39.9375, 40, 40, 39.741074, 39.166668, 38.607143, 37.979168, 37.571426, 37.3125, 36.875, 36.5, 36, 35.25, 34.369045, 33.494049, 33.142857, 32.875, 32.455357, 31.392857, 30.857143, 30.34375, 30.09375, 29.78125, 29.446428, 28.663689, 27.895834, 27.142857, 27.0625, 27.044643, 27.1875, 27.178572, 26.916666, 26.717262, 13, 12.583334, 12.4, 12.083333, 11.96875, 11.90625, 11.96875, 12, 12, 12, 12, 12, 12, 12, 12.0625, 12.0625, 12.0625, 12.1875, 12.3125, 12.3125, 12.25, 12.1875, 12.0625, 12.357143, 12.625, 12.8125, 13, 13.0625, 13.035714, 13.026786, 13.035714, 12.901786, 13, 12.9375, 13, 13, -10, -10, -10, -10, -10, -10, -10, -10, -10, -10, -10, -10, -10, -10, -10, -10, -10, -10, -10, -10, -10, -10, -10, -10, -10, -10, -10, -10, -10, -10, -10, -10, -10, -10, -10, 53, 52.833336, 52.6875, 52.4375, 52.1875, 52.0625, 52, 52, 51.803574, 51.4375, 51.25, 51, 51, 50.9375, 50.875, 50.75, 50.625, 50.4375, 50.25, 50.125, 50, 49.9375, 49.8125, 49.5625, 49.3125, 49.125, 49, 48.9375, 48.875, 48.75, 48.5, 48.3125, 48.1875, 48.0625, 47.875, 47.580357, 47.375, 47.25, 47.25, 47.241074, 46.916668, 46.696426, 46.5625, 46.375, 46.25, 46.125, 46, 46, 45.8125, 45.5, 45.214287, 45, 44.9375, 45, 45, 45, 44.75, 44.5625, 44.3125, 44.0625, 44.0625, 43.8125, 43.59375, 43.34375, 43.09375, 43.03125, 43, 43, 43, 42.8125, 42.5625, 42.3125, 42.0625, 42, 42, 42, 41.75, 41.5, 41.25, 41, 41, 41, 40.75, 40.5, 40.25, 40, 40, 40, 39.875, 39.75, 39.5, 39.25, 39.125, 38.9375, 38.75, 38.5, 38.3125, 38.25, 38.25, 38.25, 38.1875, 37.96875, 37.78125, 37.65625, 37.604168, -10, -10, -10, 7, 7, 7, 7, 7, 7, 7, 7, 7, 7, 7, 7, 7, 7, 7, 7, 7, 7, 7, 7, 7, 7, 7, 7, 7.21875, 7.291667, -10, -10, -10, -10, 16, 15.916667, 15.875, 15.8125, 15.625, 15.4375, 15.375, 15.3125, 15.3125, 15.375, 15.375, 15.526786, 15.857143, 16.053572, 16.1875, 16.125, 16.1875, 16.4375, 16.75, 17.169643, 17.25, 17.375, 17.5625, 17.723213, 17.9375, 18.125, 18.125, 18.25, 18.5625, 18.75, 19.0625, 19.4375, 19.473213, 19.428572, 19.1875, 18.875, 18.839287, 18.785713, 18.339287, 18.339287, 18.392857, 19, 19.075893, 19.03125, 18.90625, 18.8125, 18.8125, 18.973215, 19.325001, 19.196428, 19.258928, 19.125, 19.1875, 19.3125, 19.732143, 20.389881, 20.616072, 20.767857, 20.875, 21.107143, 21.577379, 21.910713, 22.15625, 22.28125, 22.40625, 22.589287, 22.654167, -10, -10, -10, 22.799318, 25, 25.401787, 26, 26.0625, 26, 26, 26.267857, 26.619049, 27.0625, 27.4375, 27.609375, 27.765625, 28.011162, 28.341518, 28.616072, 29.09375, 29.3125, 29.5625, 29.8125, 29.9375, 30, 30.0625, 30.21875, 30.375, 30.625, 31.0625, 31.53125, 32.089287, 32.3125, 32.4375, 32.375, 32.4375, 32.625, 32.875, 33.0625, 33.25, 33.5, 33.78125, 34.1875, 34.3125, 34.495537, 34.732143, 34.834824, 35.09375, 35.375, 35.625, 35.875, 36, 36, 36.205357, 36.571426, 36.958332, 37.303574, 37.5625, 37.982143, 38.357143, 38.75, 39, 39.125, 39.25, 39.3125, 39.5, 39.6875, 39.875, 40, 40, 39.741074, 39.229168, 38.776787, 38.095238, 37.550594, 37.258926, 36.8125, 36.5, 36, 35.25, 34.357143, 33.678574, 33.3125, 32.9375, 32.50893, 31.622025, 31.035715, 30.416666, 30, 29.625, 29.366072, 28.684523, 28.020834, 27.392857, 27.125, 27, 27, 27, 26.928572, 26.5625, 25.599998, 12.333334, 12.25, 12.125, 12, 12, 12, 12, 12, 12, 12, 11.9375, 11.9375
-10, -10, -10, -10, -10, -10, -10, -10, -10, 53, 52.833336, 52.6875, 52.4375, 52.1875, 52.0625, 52, 52, 51.803574, 51.428574, 51.125, 50.9375, 50.9375, 50.9375, 50.875, 50.8125, 50.6875, 50.5, 50.3125, 50.125, 50, 50, 49.875, 49.625, 49.375, 49.125, 49, 48.875, 48.8125, 48.75, 48.5, 48.375, 48.1875, 48, 47.875, 47.625, 47.4375, 47.3125, 47.25, 47.241074, 46.854168, 46.696426, 46.625, 46.4375, 46.375, 46.1875, 45.9375, 45.9375, 45.75, 45.5, 45.3125, 45.0625, 45, 45, 45, 45, 44.75, 44.5625, 44.3125, 44.0625, 44.0625, 43.875, 43.71875, 43.53125, 43.28125, 43.15625, 43.0625, 43, 43, 42.875, 42.625, 42.375, 42.125, 41.9375, 41.9375, 41.9375, 41.6875, 41.5, 41.25, 41, 41, 41, 40.8125, 40.5625, 40.3125, 40.0625, 40, 39.9375, 39.75, 39.5625, 39.3125, 39.125, 39, 38.8125, 38.5625, 38.3125, 38.1875, 38.25, 38.375, 38.375, 38.3125, 38.09375, 37.90625, 37.84375, 37.916668, 38.333332, 7, 7, 7, 7, 7, 7, 7, 7, 7, 6.9375, 6.875, 6.875, 6.875, 6.9375, 7, 7, 7, 7, 7, 7, 7, 7, 7, 7, 7, 7, 7.15625, 7.2083335, -10, -10, -10, -10, 16, 15.666667, 15.625, 15.5625, 15.375, 15.25, 15.1875, 15.0625, 15.0625, 15.0625, 15, 15.214286, 15.544643, 15.803572, 16.0625, 16.0625, 16.125, 16.3125, 16.625, 17.044643, 17.1875, 17.3125, 17.4375, 17.5625, 17.8125, 18, 17.96875, 17.96875, 18.15625, 18.28125, 18.625, 19.0625, 19.223213, 19.3125, 19.25, 18.9375, 18.964287, 18.848213, 18.401787, 18.482143, 18.654762, 19.065477, 19.169643, 18.9375, 18.6875, 18.5625, 18.625, 18.955357, 19.387501, 19.321428, 19.321428, 19.125, 19.25, 19.40625, 19.75, 20.098213, 20.3125, 20.53125, 20.75, 21.0625, 21.285713, 21.5, 21.625, 21.6875, 21.6875, 21.839287, 21.945833, 21.1875, 21.1875, 21.0625, 22.226189, 24.666668, 25.285715, 26, 26, 25.9375, 25.9375, 26.142857, 26.583334, 27.125, 27.5625, 27.8125, 28, 28.214287, 28.544643, 28.803572, 29.1875, 29.4375, 29.625, 29.9375, 30, 29.9375, 30, 30.125, 30.388393, 30.65625, 31.09375, 31.46875, 31.982143, 32.3125, 32.5, 32.5625, 32.625, 32.75, 32.8125, 33, 33.395832, 33.625, 34.03125, 34.375, 34.5, 34.71875, 34.8125, 34.90625, 35.15625, 35.4375, 35.6875, 35.9375, 36.125, 36.125, 36.419643, 36.785713, 36.875, 37.1875, 37.3125, 37.732143, 38.107143, 38.5, 38.75, 38.875, 39, 39.125, 39.375, 39.625, 39.875, 40, 40, 39.741074, 39.291668, 38.946426, 38.211311, 37.529762, 37.205357, 36.8125, 36.625, 36.178574, 35.354168, 34.464287, 33.741074, 33.330357, 32.875, 32.491074, 31.934525, 31.357143, 30.583332, 30, 29.5, 29.1875, 28.642857, 28.083334, 27.580357, 27.25, 27.125, 27, 27, 26.857143, 26.229166, 25.533333, 12.166667, 12.125, 12.0625, 12, 12, 11.9375, 11.875, 11.875, 11.875, 11.9375, 12, 12.0625, 12.1875, 12.357143, 12.4375, 12.5, 12.625, 12.607143, 12.166667, 12.142857, 12.0625, 12.169643, 12.4375, 12.6875, 12.8125, 13, 13, 13, 13, 13, 13, 13, 13, 13, 13, -10, -10, -10, -10, -10, -10, -10, -10, -10, -10, -10, -10, -10, -10, -10, -10, -10, -10, -10, -10, -10, -10, -10, -10, -10, -10, -10, -10, -10, -10, -10, -10, -10, -10, -10, 53, 52.833336, 52.6875, 52.4375, 52.1875, 52.0625, 52, 52, 51.866074, 51.491074, 51.1875, 51, 50.9375, 51, 51, 50.9375, 50.875, 50.6875, 50.4375, 50.25, 50.0625, 50, 49.875, 49.625, 49.375, 49.125, 49, 48.8125, 48.6875, 48.625, 48.4375, 48.375, 48.25, 48.0625, 47.875, 47.625, 47.375, 47.1875, 47, 47, 46.8125, 46.6875, 46.6875, 46.4375, 46.375, 46.1875, 45.875, 45.875, 45.6875, 45.4375, 45.3125, 45.0625, 45, 45, 45, 45, 44.75, 44.5625, 44.3125, 44.0625, 44.0625, 43.9375, 43.84375, 43.71875, 43.46875, 43.34375, 43.1875, 43.0625, 43.0625, 42.9375, 42.6875, 42.4375, 42.1875, 41.875, 41.8125, 41.8125, 41.5625, 41.4375, 41.25, 41, 41, 41, 40.875, 40.6875, 40.5, 40.25, 40.0625, 39.830357, 39.5625, 39.3125, 39.125, 39, 38.9375, 38.75, 38.5, 38.25, 38.1875, 38.25, 38.3125, 38.3125, 38.1875, 38.0625, 37.9375, 37.875, 37.958332, 38.333332, 7, 7, 7, 7, 7, 6.9375, 6.9375, 6.9375, 6.9375, 6.9375, 6.875, 6.875, 6.875, 6.9375, 7, 7, 7, 7, 7, 7, 7, 7, 7, 7, 7, 7, 7.09375, 7.125, -10, -10, -10, -10, -10, 15.416667, 15.375, 15.3125, 15.1875, 15.125, 15.0625, 14.9375, 14.9375, 14.9375, 14.875, 15.089286, 15.357143, 15.553572, 15.8125, 15.8125, 15.875, 16.0625, 16.375, 16.794643, 17, 17.1875, 17.3125, 17.5, 17.75, 17.9375, 17.9375, 17.875, 17.9375, 18, 18.25, 18.6875, 18.973213, 19.0625, 19.0625, 18.75, 18.651787, 18.625, 18.383928, 18.660713, 18.869047, 18.875, 18.955357, 18.6875, 18.5625, 18.5625, 18.625, 18.883928, 19.1875, 19.25, 19.3125, 19.1875, 19.3125, 19.40625, 19.5625, 19.8125, 20, 20.21875, 20.4375, 20.625, 20.75, 20.875, 21, 20.964285, 21.035715, 21.25, 21.458334, 21.291666, 21.458334, 21.583332, 22.435373, 24.773811, 25.401785, 26, 26, 26, 26.125, 26.375, 26.6875, 27.1875, 27.5625, 27.8125, 28.0625, 28.1875, 28.3125, 28.517857, 28.958334, 29.3125, 29.5625, 29.875, 30, 29.9375, 30, 30.1875, 30.482143, 30.75, 31.1875, 31.4375, 31.875, 32.25, 32.5, 32.6875, 32.75, 32.9375, 32.910713, 32.892857, 33.291664, 33.666668, 34.03125, 34.3125, 34.3125, 34.53125, 34.6875, 34.84375, 35.15625, 35.4375, 35.6875, 36, 36.1875, 36.1875, 36.419643, 36.723213, 36.8125, 37.125, 37.458332, 37.803574, 38.169643, 38.5, 38.75, 38.875, 39.0625, 39.1875, 39.4375, 39.6875, 39.875, 40, 40, 39.75, 39.5, 39.125, 38.461311, 37.761906, 37.285713, 36.875, 36.6875, 36.285713, 35.434525, 34.642857, 33.848213, 33.517857, 32.946426, 32.395832, 32.017857, 31.464287, 30.708332, 30.142857, 29.416666, 29.053572, 28.625, 28.4375, 27.9375, 27.479166, 27.125, 26.90625, 26.90625, 26.638393, 25.989582, 25.733334, 12.25, 12.208333, 12.15625, 12.09375, 12.03125, 12, 12, 12, 12, 11.9375, 11.875, 11.9375
-10, -10, -10, -10, -10, -10, -10, -10, -10, 53, 52.833336, 52.6875, 52.5, 52.25, 52.125, 52.0625, 52, 51.866074, 51.491074, 51.1875, 51, 50.9375, 51, 51, 50.875, 50.75, 50.625, 50.375, 50.25, 50.125, 50, 49.8125, 49.5625, 49.3125, 49.0625, 48.9375, 48.6875, 48.5, 48.375, 48.25, 48.25, 48.1875, 48.0625, 47.9375, 47.75, 47.5, 47.3125, 47.0625, 47, 46.875, 46.75, 46.6875, 46.4375, 46.3125, 46.125, 45.875, 45.875, 45.75, 45.5, 45.375, 45.125, 45, 45, 45, 45, 44.8125, 44.5625, 44.3125, 44.0625, 44, 44, 44, 44, 43.75, 43.5625, 43.3125, 43.0625, 43.0625, 42.9375, 42.6875, 42.4375, 42.1875, 41.8125, 41.6875, 41.625, 41.375, 41.3125, 41.1875, 41, 41, 41, 40.9375, 40.75, 40.625, 40.375, 40.0625, 39.723213, 39.4375, 39.1875, 39.0625, 39, 38.875, 38.625, 38.375, 38.1875, 38.1875, 38.3125, 38.375, 38.3125, 38.1875, 38, 37.901787, 37.875, 37.916664, -10, -10, 7, 7, 6.9375, 6.875, 6.75, 6.6875, 6.75, 6.8125, 6.875, 6.875, 6.8125, 6.8125, 6.875, 6.9375, 7, 7, 7, 7, 7, 7, 7, 6.9375, 6.9375, 6.9375, 6.9375, 7.03125, 7.0416665, -10, -10, -10, -10, -10, 15.166667, 15.125, 15.0625, 15, 15, 15, 14.875, 14.8125, 14.75, 14.75, 15, 15.1875, 15.375, 15.5625, 15.625, 15.75, 15.9375, 16.25, 16.5625, 16.8125, 17.125, 17.25, 17.5, 17.75, 17.875, 17.9375, 17.8125, 17.8125, 17.8125, 18, 18.4375, 18.785713, 18.875, 18.875, 18.6875, 18.5, 18.4375, 18.375, 18.517857, 18.744047, 18.6875, 18.767857, 18.633928, 18.637501, 18.508928, 18.508928, 18.625, 18.8125, 18.9375, 19.0625, 19.0625, 19.125, 19.15625, 19.25, 19.375, 19.5625, 19.71875, 19.8125, 19.96875, 20.09375, 20.21875, 20.40625, 20.633928, 20.875, 21.0625, 21.25, 21.34375, 21.59375, 22.409721, 23.166666, 24.773811, 25.473213, 26, 26, 26, 26.1875, 26.5, 26.848213, 27.25, 27.5625, 27.75, 27.9375, 28, 28.116072, 28.497025, 28.895834, 29.3125, 29.5, 29.75, 29.9375, 29.96875, 30.125, 30.4375, 30.732143, 30.90625, 31.25, 31.375, 31.821428, 32.395832, 32.678574, 32.9375, 32.9375, 33.0625, 32.973213, 32.830357, 33.193451, 33.648811, 34.022324, 34.25, 34.25, 34.5, 34.65625, 34.875, 35.258926, 35.666668, 35.84375, 36.15625, 36.21875, 36.1875, 36.357143, 36.598213, 36.6875, 37.053574, 37.6875, 38.044643, 38.3125, 38.5625, 38.75, 38.875, 39.0625, 39.25, 39.5, 39.75, 39.9375, 40, 40, 39.75, 39.5, 39.1875, 38.723213, 37.857143, 37.452381, 37.087502, 36.8125, 36.452381, 35.514881, 34.821426, 34.080357, 33.767857, 33.1875, 32.583332, 32.3125, 31.776787, 31.083332, 30.267857, 29.505953, 29.022322, 28.65625, 28.482143, 27.9375, 27.452381, 27.03125, 26.75, 26.6875, 26.450893, 25.989582, 25.866667, 12.5, 12.458333, 12.34375, 12.21875, 12.09375, 11.9375, 11.964286, 12.035714, 12, 12, 11.875, 11.9375, 12.0625, 12.232143, 12.375, 12.5625, 12.6875, 12.732143, 12.416667, 12.330357, 12.3125, 12.544643, 12.6875, 12.875, 12.9375, 13, 13, 13.0625, 13.0625, 13.0625, 13.0625, 13, 13, 12.9375, 12.916667, -10, -10, -10, -10, -10, -10, -10, -10, -10, -10, -10, -10, -10, -10, -10, -10, -10, -10, -10, -10, -10, -10, -10, -10, -10, -10, -10, -10, -10, -10, -10, -10, -10, -10, -10, 53, 52.833336, 52.625, 52.4375, 52.1875, 52.0625, 52.0625, 51.9375, 51.8125, 51.553574, 51.1875, 51.0625, 50.9375, 51, 51, 50.8125, 50.625, 50.5, 50.25, 50.1875, 50.125, 50, 49.8125, 49.5625, 49.3125, 49, 48.8125, 48.5625, 48.3125, 48.1875, 48.125, 48.125, 48.125, 48.0625, 48, 47.875, 47.6875, 47.5625, 47.25, 47.125, 46.9375, 46.75, 46.625, 46.375, 46.25, 46.0625, 45.8125, 45.75, 45.625, 45.375, 45.3125, 45.125, 45, 45, 45, 45, 44.875, 44.625, 44.375, 44.125, 44, 44, 44, 44, 43.75, 43.5625, 43.3125, 43.0625, 43, 42.8125, 42.5625, 42.3125, 42.125, 41.8125, 41.6875, 41.5625, 41.3125, 41.25, 41.125, 41, 41, 41, 40.9375, 40.75, 40.625, 40.375, 40, 39.660713, 39.375, 39.125, 39.0625, 39, 38.8125, 38.59375, 38.40625, 38.28125, 38.34375, 38.375, 38.375, 38.25, 38.1875, 38.035713, 37.866074, 37.875, 37.770832, -10, -10, 7, 6.875, 6.7708335, 6.6875, 6.5625, 6.4375, 6.5, 6.5625, 6.625, 6.625, 6.5625, 6.5625, 6.625, 6.6875, 6.8125, 6.875, 6.9375, 7, 6.9375, 6.875, 6.8125, 6.6875, 6.6875, 6.75, 6.75, 6.8125, 6.8333335, -10, -10, -10, -10, -10, 14.875, 14.833333, 14.875, 14.875, 15, 15.09375, 14.90625, 14.78125, 14.59375, 14.5625, 14.8125, 15, 15.1875, 15.3125, 15.4375, 15.625, 15.8125, 16.1875, 16.5, 16.8125, 17.1875, 17.28125, 17.46875, 17.65625, 17.78125, 17.875, 17.8125, 17.75, 17.75, 17.875, 18.1875, 18.5, 18.5625, 18.5625, 18.5, 18.3125, 18.3125, 18.3125, 18.330357, 18.556547, 18.4375, 18.455357, 18.415178, 18.450001, 18.258928, 18.258928, 18.34375, 18.5, 18.75, 18.875, 18.875, 18.875, 18.78125, 18.8125, 18.875, 19.0625, 19.15625, 19.25, 19.46875, 19.59375, 19.78125, 19.90625, 20.008928, 20.357143, 20.5, 20.785715, 21.025511, 21.614584, 22.358631, 23.178574, 24.940477, 25.544641, 26, 26, 26, 26.25, 26.625, 27.008928, 27.3125, 27.5, 27.5625, 27.71875, 27.78125, 27.959822, 28.403275, 28.770834, 29.1875, 29.375, 29.625, 29.875, 29.96875, 30.1875, 30.5, 30.794643, 30.96875, 31.1875, 31.3125, 31.696428, 32.208332, 32.491074, 32.6875, 32.6875, 32.875, 32.848213, 32.705357, 33.095238, 33.630951, 33.982143, 34.1875, 34.125, 34.375, 34.5625, 34.8125, 35.321426, 35.729168, 35.90625, 36.15625, 36.21875, 36.25, 36.370537, 36.504463, 36.616074, 37.098213, 37.9375, 38.357143, 38.625, 38.71875, 38.8125, 38.875, 39, 39.3125, 39.5625, 39.8125, 40, 40, 40, 39.75, 39.5, 39.1875, 38.723213, 37.857143, 37.523811, 37.337502, 37.145832, 36.577381, 35.666668, 35, 34.3125, 33.955357, 33.3125, 32.601189, 32.3125, 31.848215, 31.345238, 30.434523, 29.630953, 29.084822, 28.78125, 28.535715, 27.854166, 27.470238, 27.052084, 26.666666, 26.583334, 26.363096, 25.989582, 26.1, 12.5, 12.5, 12.375, 12.25, 12.125, 11.9375, 11.964286, 12.035714, 12, 12, 11.9375, 12
-10, -10, -10, -10, -10, -10, -10, -10, -10, 53, 52.916668, 52.6875, 52.5, 52.25, 52.0625, 52.0625, 51.875, 51.6875, 51.4375, 51.1875, 51.125, 51.0625, 51.0625, 51.0625, 50.75, 50.5625, 50.4375, 50.1875, 50.1875, 50.125, 50, 49.8125, 49.5625, 49.3125, 49, 48.8125, 48.5625, 48.3125, 48.125, 48.0625, 48.0625, 48.0625, 48, 47.875, 47.75, 47.5625, 47.5, 47.25, 47.125, 47, 46.8125, 46.625, 46.375, 46.125, 45.875, 45.6875, 45.5625, 45.5, 45.3125, 45.25, 45.125, 45, 45, 45, 45, 44.9375, 44.6875, 44.4375, 44.1875, 44, 44, 43.9375, 43.9375, 43.6875, 43.5, 43.3125, 43.0625, 42.9375, 42.6875, 42.4375, 42.1875, 42.0625, 41.875, 41.75, 41.625, 41.4375, 41.3125, 41.25, 41.125, 41.0625, 41.0625, 40.9375, 40.75, 40.625, 40.375, 40, 39.723213, 39.4375, 39.1875, 39.125, 39, 38.875, 38.71875, 38.59375, 38.53125, 38.46875, 38.4375, 38.3125, 38.125, 38.125, 37.973213, 37.866074, 37.875, 37.708332, -10, -10, -10, 6.625, 6.5208335, 6.4375, 6.3125, 6.1875, 6.3125, 6.375, 6.5, 6.5625, 6.4375, 6.4375, 6.4375, 6.4375, 6.5625, 6.625, 6.6875, 6.75, 6.6875, 6.625, 6.5625, 6.5, 6.5625, 6.625, 6.625, 6.625, 6.5833335, -10, -10, -10, -10, -10, 14.625, 14.583333, 14.65625, 14.71875, 14.821428, 14.772322, 14.611607, 14.46875, 14.28125, 14.3125, 14.5, 14.732143, 14.9375, 15, 15.1875, 15.46875, 15.78125, 16.28125, 16.59375, 16.875, 17.25, 17.34375, 17.46875, 17.59375, 17.59375, 17.65625, 17.65625, 17.65625, 17.71875, 17.8125, 18.0625, 18.25, 18.1875, 18.1875, 18.125, 18, 18.125, 18.25, 18.25, 18.285713, 18.142857, 18.080357, 18.165178, 18.325001, 18.196428, 18.196428, 18.21875, 18.3125, 18.5, 18.625, 18.625, 18.5625, 18.4375, 18.375, 18.375, 18.5, 18.571428, 18.895834, 19.084822, 19.21875, 19.40625, 19.53125, 19.758928, 19.964285, 20, 20.291666, 20.559525, 21.619049, 22.660715, 23.505953, 25.107143, 25.61607, 26, 26, 26, 26.25, 26.625, 26.946428, 27.1875, 27.3125, 27.3125, 27.40625, 27.46875, 27.709822, 28.260418, 28.708334, 29.1875, 29.4375, 29.6875, 30, 30.15625, 30.3125, 30.5625, 30.75, 30.90625, 31.0625, 31.25, 31.571428, 32.020832, 32.303574, 32.4375, 32.4375, 32.625, 32.723213, 32.580357, 32.886906, 33.714283, 33.964287, 34.1875, 34.0625, 34.258926, 34.625, 34.875, 35.383926, 35.729168, 35.90625, 36.15625, 36.21875, 36.25, 36.28125, 36.34375, 36.491074, 37.035713, 38, 38.419643, 38.75, 38.71875, 38.8125, 38.875, 38.9375, 39.3125, 39.5625, 39.8125, 40, 40, 40, 39.75, 39.5, 39.125, 38.461311, 37.690475, 37.327381, 37.150002, 36.958332, 36.434525, 35.642857, 35, 34.375, 34.0625, 33.375, 32.619045, 32.3125, 31.857143, 31.491072, 30.577379, 29.755953, 29.209822, 28.96875, 28.651787, 27.791666, 27.416666, 26.989584, -10, -10, -10, 25.822916, 26.333334, 12.416667, 12.46875, 12.40625, 12.28125, 12.15625, 12, 12.089286, 12.160714, 12.125, 12.0625, 11.875, 11.875, 11.875, 11.9375, 12, 12.25, 12.5, 12.75, 13, 12.9375, 12.9375, 12.9375, 12.9375, 13, 13, 12.9375, 12.875, 12.9375, 12.9375, 13, 13.0625, 13.0625, 13.0625, 13, 13, -10, -10, -10, -10, -10, -10, -10, -10, -10, -10, -10, -10, -10, -10, -10, -10, -10, -10, -10, -10, -10, -10, -10, -10, -10, -10, -10, -10, -10, -10, -10, -10, -10, -10, -10, 52.875, 52.833332, 52.625, 52.4375, 52.25, 52.0625, 52.0625, 51.875, 51.625, 51.375, 51.125, 51.125, 51.125, 51.125, 51.0625, 50.6875, 50.4375, 50.25, 50.0625, 50.0625, 50.0625, 49.9375, 49.75, 49.5, 49.25, 49, 48.75, 48.5, 48.25, 48.0625, 48, 48, 48, 47.9375, 47.8125, 47.6875, 47.5, 47.4375, 47.3125, 47.1875, 47.125, 47, 46.75, 46.5, 46.1875, 45.875, 45.75, 45.5625, 45.5, 45.3125, 45.1875, 45.125, 45, 45, 45, 45, 45, 44.75, 44.5, 44.25, 44, 44, 43.875, 43.8125, 43.5625, 43.3125, 43.1875, 43, 42.875, 42.625, 42.375, 42.125, 42, 41.9375, 41.875, 41.75, 41.625, 41.5, 41.375, 41.25, 41.125, 41.0625, 40.9375, 40.75, 40.5625, 40.3125, 40, 39.830357, 39.5625, 39.3125, 39.1875, 39, 38.875, 38.78125, 38.71875, 38.71875, 38.65625, 38.5625, 38.375, 38.125, 38.125, 37.973213, 37.928574, 38, 37.875, -10, -10, -10, 6.375, 6.2708335, 6.1875, 6.125, 6, 6.1875, 6.3125, 6.375, 6.4375, 6.25, 6.1875, 6.1875, 6.1875, 6.3125, 6.375, 6.4375, 6.5, 6.4375, 6.375, 6.3125, 6.25, 6.3125, 6.375, 6.375, 6.375, 6.3333335, -10, -10, -10, -10, -10, 14.375, 14.333333, 14.40625, 14.46875, 14.571428, 14.522322, 14.424107, 14.28125, 14.09375, 14.125, 14.25, 14.482143, 14.75, 14.875, 15.1875, 15.53125, 15.84375, 16.28125, 16.46875, 16.75, 17.1875, 17.450893, 17.59375, 17.65625, 17.53125, 17.5, 17.5, 17.5, 17.5625, 17.6875, 17.991072, 18.160713, 18.0625, 17.955357, 17.9375, 17.8125, 17.9375, 18.0625, 17.9375, 18, 17.9375, 17.875, 17.915178, 17.950001, 17.758928, 17.758928, 17.84375, 18, 18.21875, 18.21875, 18.21875, 18.15625, 18.0625, 18.125, 18.0625, 18.0625, 18.089285, 18.408333, 18.501488, 18.825893, 18.96875, 19.15625, 19.321428, 19.71875, 19.785713, 20.041666, 20.419643, 21.492065, 22.325396, 23.150793, 25.25, 25.67857, 26, 26, 26.0625, 26.3125, 26.75, 27.133928, 27.3125, 27.4375, 27.375, 27.40625, 27.53125, 27.897322, 28.555059, 28.982143, 29.375, 29.5, 29.625, 29.875, 30.03125, 30.3125, 30.59375, 30.75, 30.84375, 30.875, 31.09375, 31.428572, 31.958332, 32.303574, 32.4375, 32.5, 32.625, 32.8125, 32.8125, 33.116074, 33.735119, 33.901787, 34.125, 34.0625, 34.196426, 34.5625, 34.875, 35.42857, 35.791668, 36.03125, 36.21875, 36.34375, 36.375, 36.40625, 36.46875, 36.553574, 37.098213, 37.791668, 38.178574, 38.5, 38.46875, 38.625, 38.75, 38.8125, 39.25, 39.5, 39.75, 40, 40, 40, 39.75, 39.5, 39.125, 38.190475, 37.404762, 37.122025, 37.025002, 36.770832, 36.202381, 35.5625, 34.9375, 34.5, 34.125, 33.482143, 32.702381, 32.3125, 31.875, 31.553572, 30.622023, 30.026787, 29.424107, 29.15625, 28.714287, 27.827381, 27.333332, 26.989584, -10, -10, -10, 25.479166, 11.25, 11.916667, 12.072917, 12.125, 12.125, 12.125, 11.9375, 11.964286, 12.035714, 12, 12.0625, 12, 12
-10, -10, -10, -10, -10, -10, -10, -10, -10, 52.875, 52.75, 52.5625, 52.3125, 52.125, 52, 52, 51.875, 51.625, 51.375, 51.125, 51.125, 51.125, 51.125, 51.0625, 50.75, 50.5625, 50.375, 50.1875, 50.125, 50, 49.8125, 49.625, 49.375, 49.1875, 49, 48.8125, 48.625, 48.375, 48.1875, 48.0625, 48, 48, 47.9375, 47.8125, 47.6875, 47.5, 47.375, 47.25, 47.125, 47, 46.875, 46.625, 46.375, 46.125, 45.875, 45.75, 45.5625, 45.4375, 45.25, 45.125, 45.0625, 45, 44.9375, 44.9375, 44.9375, 44.9375, 44.8125, 44.5625, 44.3125, 44.0625, 44, 43.8125, 43.6875, 43.4375, 43.1875, 43.125, 43, 42.875, 42.625, 42.375, 42.125, 42, 42, 42, 41.9375, 41.875, 41.75, 41.5625, 41.375, 41.1875, 41.0625, 40.9375, 40.75, 40.5, 40.25, 40, 39.9375, 39.75, 39.5, 39.3125, 39.0625, 38.9375, 38.90625, 38.90625, 38.90625, 38.84375, 38.75, 38.5, 38.25, 38.1875, 38.035713, 37.964287, 37.9375, 37.833336, -10, -10, -10, 6.125, 6.0833335, 6.0625, 6.0625, 6, 6.125, 6.1875, 6.1875, 6.1875, 6.0625, 6, 6, 6, 6.0625, 6.125, 6.1875, 6.25, 6.1875, 6.125, 6.0625, 6.0625, 6.125, 6.1875, 6.1875, 6.125, 6.0833335, 6, -10, -10, -10, -10, 14.166667, 14.083333, 14.15625, 14.21875, 14.321428, 14.272322, 14.236607, 14.15625, 14.03125, 14.0625, 14.125, 14.294643, 14.5, 14.6875, 15, 15.40625, 15.78125, 16.15625, 16.40625, 16.6875, 16.982143, 17.138393, 17.21875, 17.21875, 17.21875, 17.1875, 17.25, 17.1875, 17.25, 17.4375, 17.714285, 17.848213, 17.75, 17.642857, 17.6875, 17.625, 17.75, 17.8125, 17.75, 17.8125, 17.75, 17.625, 17.53125, 17.4375, 17.3125, 17.3125, 17.40625, 17.5, 17.71875, 17.75, 17.8125, 17.8125, 17.78125, 17.875, 17.8125, 17.8125, 17.839285, 18.095833, 18.095238, 18.357143, 18.4375, 18.625, 18.75, 18.90625, 18.910713, 19, 20.059525, -10, -10, -10, 25.5, 25.785713, 26, 26, 26.125, 26.375, 26.8125, 27.223213, 27.4375, 27.5625, 27.5, 27.53125, 27.65625, 27.96875, 28.450893, 28.857143, 29.25, 29.5, 29.625, 29.8125, 29.875, 30.125, 30.34375, 30.5625, 30.6875, 30.75, 31.09375, 31.464287, 31.8125, 32.125, 32.25, 32.375, 32.625, 32.9375, 33.0625, 33.401787, 33.877975, 33.973213, 34.1875, 34.125, 34.258926, 34.6875, 35.044643, 35.482143, 35.65625, 35.90625, 36.03125, 36.34375, 36.5, 36.59375, 36.71875, 36.741074, 37.232143, 37.625, 37.9375, 38.25, 38.21875, 38.4375, 38.625, 38.75, 39.25, 39.5, 39.75, 40, 40, 40, 39.75, 39.5, 39.0625, 38.136906, 37.488094, 36.99107, 36.416668, 36.127975, 35.598213, 35.263393, 34.78125, 34.46875, 34.0625, 33.459824, 32.733631, 32.21875, 31.705357, 31.366072, 30.684523, 30.133928, 29.434525, 29.1875, 28.794643, 28.077381, 27.447618, 27.333334, -10, -10, -10, 25.166666, 11.166667, 11.416667, 11.572917, 11.75, 11.875, 12, 12, 12, 12, 12, 12, 12, 12, 12.0625, 12.0625, 12.0625, 12.1875, 12.3125, 12.4375, 12.5625, 12.5625, 12.5, 12.625, 12.625, 12.75, 12.875, 12.9375, 13.125, 13.1875, 13.3125, 13.375, 13.375, 13.5, 13.375, 13.25, 13.249999, -10, -10, -10, -10, -10, -10, -10, -10, -10, -10, -10, -10, -10, -10, -10, -10, -10, -10, -10, -10, -10, -10, -10, -10, -10, -10, -10, -10, -10, -10, -10, -10, -10, -10, -10, 52.875, 52.666668, 52.5, 52.25, 52.0625, 52, 52, 51.9375, 51.75, 51.5625, 51.375, 51.375, 51.3125, 51.25, 51.125, 50.8125, 50.625, 50.4375, 50.25, 50.125, 50, 49.75, 49.5, 49.25, 49.0625, 49, 48.9375, 48.8125, 48.625, 48.375, 48.1875, 48.0625, 47.9375, 47.875, 47.75, 47.625, 47.4375, 47.25, 47.125, 46.96875, 46.84375, 46.71875, 46.46875, 46.25, 46.0625, 45.875, 45.8125, 45.6875, 45.5, 45.3125, 45.125, 45, 45, 44.875, 44.875, 44.875, 44.84375, 44.78125, 44.53125, 44.28125, 44.0625, 44, 43.75, 43.5625, 43.3125, 43.0625, 43.0625, 43, 42.9375, 42.6875, 42.4375, 42.1875, 42, 42, 42, 42, 41.9375, 41.8125, 41.625, 41.375, 41.1875, 41, 40.875, 40.6875, 40.4375, 40.25, 40.0625, 40, 39.875, 39.625, 39.375, 39.1875, 39.035713, 38.892857, 38.821426, 38.75, 38.6875, 38.625, 38.4375, 38.25, 38.125, 38, 38, 37.875, 37.833336, -10, -10, -10, 6, 6, 6, 6, 6, 6.125, 6.1875, 6.1875, 6.1875, 6.0625, 6, 6, 6, 6, 6, 6, 6, 6, 6, 6, 6.0625, 6.125, 6.125, 6.125, 6.0625, 6, 6, 6.125, -10, -10, -10, -10, 14, 14.03125, 14.09375, 14.008928, 13.866072, 13.767857, 13.6875, 13.6875, 13.75, 13.875, 14.044643, 14.25, 14.5, 14.8125, 15.21875, 15.65625, 15.96875, 16.21875, 16.4375, 16.607143, 16.732143, 16.8125, 16.8125, 16.875, 16.8125, 16.8125, 16.75, 16.75, 17, 17.339285, 17.535713, 17.5, 17.392857, 17.375, 17.3125, 17.4375, 17.4375, 17.5, 17.625, 17.598213, 17.4375, 17.276787, 17.1875, 17.0625, 17.0625, 17.0625, 17.125, 17.28125, 17.4375, 17.5625, 17.5625, 17.53125, 17.4375, 17.3125, 17.25, 17.339285, 17.720833, 17.782738, 18.107143, 18.1875, 18.375, 18.4375, 18.53125, 18.255102, 18.214285, -10, -10, -10, -10, 25.75, 25.892857, 26, 26, 26.1875, 26.4375, 26.875, 27.3125, 27.5625, 27.75, 27.75, 27.75, 27.8125, 28.0625, 28.482143, 28.919643, 29.375, 29.625, 29.75, 29.875, 29.875, 30.0625, 30.28125, 30.5, 30.625, 30.8125, 31.15625, 31.526787, 31.875, 32.125, 32.3125, 32.5, 32.75, 33.125, 33.3125, 33.625, 34.020832, 34.044643, 34.25, 34.25, 34.383926, 34.8125, 35.044643, 35.357143, 35.53125, 35.825893, 35.96875, 36.34375, 36.5, 36.625, 36.8125, 36.8125, 37.1875, 37.5, 37.75, 38.0625, 38.0625, 38.3125, 38.5625, 38.75, 39.25, 39.5, 39.75, 40, 40, 40, 39.8125, 39.5625, 39.0625, 38.101192, 37.602676, 37.004463, 36.172619, 35.747448, 35.433674, 35.191963, 34.78125, 34.40625, 33.955357, 33.459824, 32.778275, 32.28125, 31.705357, 31.25, 30.660713, 30.133928, 29.434525, 29.1875, 28.794643, 27.994047, 27.161905, 27.142857, -10, -10, -10, 25.125, 11.166667, 11.416667, 11.53125, 11.71875, 11.84375, 11.96875, 12, 12, 12, 12, 12, 12, 12
