-10, -10, 28.8125, 28.875, 28.90625, 29, 29, 28.9375, 28.875, 28.8125, 28.875, 29, 29.125, 29.1875, 29.1875, 29.1875, 29.125, 29.0625, 28.9375, 29.008928, 29.395834, 29.678572, 30, 30.1875, 30.3125, 30.3125, 30.25, 30.1875, 30.25, 30.375, 30.6875, 30.839287, 30.612499, 30.696428, 30.616072, 30.5625, 30.482143, 30.125, 30.0625, 30.1875, 30.5, 30.75, 31, 31, 31.03125, 31.041666, -10, -10, -10, -10, 21, 20.958334, 20.875, 20.75, 20.875, 21.03125, 21.125, 21, 20.008928, 19.428572, 19.125, 18.875, 18.875, 18.9375, 18.696428, 18.184523, 18.080357, 18.044643, 18.125, 18.071428, 17.642857, 17.4375, 17.1875, 17.125, 17.03125, 16.9375, 16.8125, 16.65625, 16.59375, 16.53125, 16.46875, 16.375, 16.053572, 15.466667, 15.428572, 15.169643, 15.125, 14.9375, 14.75, 14.625, 14.821428, 15.625, -10, -10, -10, -10, 21.375, 21.583332, 21.6875, 21.75, 21.6875, 21.5625, 21.375, 21.3125, 21.25, 21.25, 21.3125, 21.375, 21.446428, 21.5, 21.3125, 21.3125, 21.098213, 20.964287, 21, 21, 21, 21.0625, 21.0625, 21.0625, 21.1875, 21.3125, 21.5, 21.5, 21.625, 21.6875, 21.6875, 21.8125, 21.75, 21.5625, 21.375, 21.1875, 21.125, 21.25, 21.375, 21.589287, 21.8125, 21.875, 22.0625, 21.9375, 21.9375, 21.9375, 21.9375, 22, 22, 22.125, 22.125, 22.25, 22.25, 22.125, 22.125, 22, 21.875, 21.6875, 21.5625, 21.5, 21.625, 21.8125, 21.96875, 22.21875, 22.191963, 21.915178, 21.6875, 21.401787, 21.4375, 21.575893, 21.828571, -10, -10, -10, -10, -10, 15.416666, 15.041667, -10, -10, -10, -10, -10, -10, 7.5, 7.583333, 8.1125002, 8.2321434, 8.375, 8.5, 8.625, 8.75, 9.0714283, 9.3779764, 9.020834, 8.6220236, 8.1875, 7.9553571, 8.510417, 8.625, 8.9375, 9.1875, 9.21875, 9.4553566, 9.6607141, 9.75, 10, 10.1875, 10.5, 10.75, 10.9375, 11, 11, 11, 10.9375, 10.9375, 10.9375, 10.9375, 11, 11, 10.875, 10.482143, 9.6190472, 9.2678566, 9, 9, 9, 9.25, 9.5, 9.75, 10, 10, 10, 10.1875, 10.4375, 10.6875, 10.9375, 11, 11.25, 11.5, 11.75, 12, 12.0625, 12.25, 12.5, 12.75, 12.9375, 13.1875, 13.4375, 13.6875, 13.9375, 14, 14, 14, 14.25, 14.5, 14.75, 15, 15.0625, 15.25, 15.5, 15.75, 15.9375, 16.125, 16.375, 16.625, 16.875, 17, 17.1875, 17.4375, 17.6875, 17.9375, 18, 18, 18.25, 18.5, 18.75, 19, 19.0625, 19.125, 19.375, 19.625, 19.8125, 20.0625, 20.1875, 20.4375, 20.6875, 20.875, 21.0625, 21.1875, 21.375, 21.625, 21.8125, 22.0625, 22.375, 22.5625, 22.8125, 22.9375, 22.9375, 23.125, 23.25, 23.5, 23.75, 23.875, 24, 24.1875, 24.375, 24.625, 24.875, 25, 25.25, 25.375, 25.625, 25.8125, 26, 26.25, 26.375, 26.625, 26.8125, 27.044643, 27.3125, 27.5625, 27.75, 27.9375, 28, 28.25, 28.5, 28.6875, 28.9375, 29, 29.0625, 29.1875, 29.4375, 29.625, 29.8125, 30, 30.125, 30.375, 30.625, 30.875, 31.0625, 31.125, 31.25, 31.5, 31.723213, 31.833332, -10, -10, -10, -10, -10, -10, -10, -10, -10, -10, -10, -10, -10, -10, -10, 16.375, 16.583332, 16.8125, 17.4375, 18.418156, 18.488096, 18.06875, -10, 16.9375, 16.9375, 16.90625, 16.833334, -10, -10, -10, -10, -10, -10, -10, -10, -10, 28.9375, 28.958334, 28.96875, 29, 29, 28.9375, 28.8125, 28.6875, 28.6875, 28.75, 28.875, 29, 29.125, 29.25, 29.375, 29.375, 29.3125, 29.375, 29.5, 29.75, 30, 30.1875, 30.25, 30.25, 30.1875, 30.125, 30.1875, 30.3125, 30.625, 30.848213, 30.8125, 30.705357, 30.5625, 30.375, 30.303572, 30.125, 30.0625, 30.25, 30.5, 30.75, 31, 31, 31, 31, -10, -10, -10, -10, 20.9375, 21, 21, 21, 21.25, 21.5, 21.625, 21.455357, 20.154762, 19.535713, 19.15625, 18.90625, 18.875, 18.875, 18.723215, 18.327381, 18.151785, 18.125, 18.1875, 18.196428, 17.875, 17.6875, 17.375, 17.25, 17.09375, 16.9375, 16.6875, 16.46875, 16.34375, 16.21875, 16.28125, 16.25, 15.991072, 15.529167, 15.553572, 15.357143, 15.3125, 15, 14.642857, 14.46875, 14.65625, 15.375, -10, -10, -10, -10, 21.5, 21.666666, 21.75, 21.8125, 21.6875, 21.625, 21.5, 21.5625, 21.473213, 21.267857, 21.125, 21.0625, 21.196428, 21.3125, 21.25, 21.25, 21.0625, 21, 21.0625, 21.1875, 21.125, 21.1875, 21.1875, 21.125, 21.3125, 21.4375, 21.5625, 21.5625, 21.625, 21.625, 21.625, 21.8125, 21.75, 21.625, 21.4375, 21.1875, 21.0625, 21.25, 21.46875, 21.745537, 22.03125, 22.03125, 22.125, 21.9375, 21.9375, 21.9375, 21.9375, 22.0625, 22.0625, 22.125, 22.1875, 22.3125, 22.375, 22.3125, 22.25, 22.0625, 21.9375, 21.8125, 21.6875, 21.5625, 21.625, 21.8125, 22.044643, 22.232143, 21.952381, 21.580357, 21.375, 21.1875, 21.1875, 21.169643, 20.512697, -10, -10, -10, -10, -10, 15.420635, 14.991667, -10, -10, -10, -10, -10, -10, 7.6666665, 7.6666665, 7.9625001, 8.0535717, 8.125, 8.1875, 8.25, 8.3125, 8.5, 8.7653065, 8.229167, 8.2678566, 8.0982141, 8, 8.34375, 8.4375, 8.6875, 8.9375, 9.03125, 9.1428566, 9.3482141, 9.5, 9.75, 10, 10.3125, 10.5625, 10.8125, 10.9375, 11, 11, 10.9375, 10.9375, 10.9375, 10.9375, 11, 11, 10.767857, 10.053572, 9.3095236, 9.0089283, 8.875, 8.9375, 9.0625, 9.3125, 9.5625, 9.8125, 10, 10, 10, 10.1875, 10.4375, 10.6875, 10.9375, 11, 11.25, 11.5, 11.75, 12, 12, 12.1875, 12.4375, 12.6875, 12.9375, 13.125, 13.375, 13.625, 13.875, 14, 14, 14.0625, 14.3125, 14.5625, 14.8125, 15, 15.0625, 15.1875, 15.4375, 15.6875, 15.875, 16.125, 16.375, 16.625, 16.875, 17, 17.125, 17.3125, 17.5, 17.75, 17.875, 17.9375, 18.25, 18.5, 18.75, 19, 19.125, 19.25, 19.5, 19.75, 19.875, 20, 20.125, 20.375, 20.625, 20.875, 21.0625, 21.25, 21.5, 21.75, 21.9375, 22.125, 22.3125, 22.4375, 22.6875, 22.8125, 22.875, 23.0625, 23.1875, 23.4375, 23.6875, 23.875, 24.0625, 24.25, 24.4375, 24.6875, 24.875, 25, 25.3125, 25.5, 25.75, 25.9375, 26.0625, 26.25, 26.4375, 26.6875, 26.875, 27.107143, 27.375, 27.625, 27.8125, 28, 28, 28.1875, 28.4375, 28.625, 28.875, 28.9375
-10, 29, 29, 29.0625, 29.125, 29.125, 29.125, 28.9375, 28.6875, 28.5625, 28.5625, 28.6875, 28.9375, 29.0625, 29.25, 29.4375, 29.5, 29.5, 29.4375, 29.5, 29.625, 29.875, 30.0625, 30.1875, 30.1875, 30.1875, 30.125, 30.0625, 30.125, 30.3125, 30.625, 30.848213, 30.875, 30.705357, 30.5625, 30.375, 30.3125, 30.25, 30.125, 30.3125, 30.5, 30.75, 31, 31, 31, 30.857143, 20, 22.523809, 22.166666, 21.222221, 21.080357, 20.875, 20.9375, 20.9375, 21.232143, 21.875, 22.080357, 21.919643, 20.488096, 19.75, 19.28125, 19.03125, 18.96875, 19.03125, 19.004465, 18.595238, 18.193453, 18.071428, 18.0625, 18.1875, 18.1875, 18, 17.642857, 17.34375, 17.03125, 16.84375, 16.59375, 16.46875, 16.34375, 16.15625, 16.21875, 16.125, 15.928572, 15.529167, 15.553572, 15.4375, 15.4625, 14.928572, 14.5, 14.28125, 14.459822, 15.041667, -10, -10, -10, -10, 21.5, 21.666666, 21.75, 21.875, 21.8125, 21.8125, 21.75, 21.8125, 21.723213, 21.392857, 21.125, 20.9375, 20.946428, 21.125, 21.125, 21.1875, 21.0625, 21, 21.125, 21.25, 21.1875, 21.25, 21.25, 21.1875, 21.375, 21.4375, 21.464287, 21.607143, 21.678572, 21.6875, 21.75, 21.9375, 21.857143, 21.604166, 21.383928, 21.125, 21.0625, 21.1875, 21.40625, 21.620537, 21.90625, 21.96875, 22.0625, 21.875, 21.875, 21.875, 21.875, 22.125, 22.125, 22.125, 22.1875, 22.25, 22.3125, 22.3125, 22.25, 22.0625, 22, 21.9375, 21.8125, 21.625, 21.625, 21.6875, 21.919643, 22.107143, 21.889881, 21.642857, 21.4375, 21.25, 21.0625, 20.556122, 19.810884, 18.833332, 17.333332, 16.857143, 16.125, 15.678572, 15.315476, 14.908334, -10, -10, -10, -10, -10, -10, 7.75, 7.75, 7.8125, 7.8125, 7.8125, 7.8125, 7.8125, 7.8125, 7.875, 7.7857141, 7.8125, 7.9375, 7.9375, 7.9375, 8.03125, 8.0625, 8.2678566, 8.645833, 8.96875, 9.125, 9.25, 9.5, 9.6875, 9.9375, 10.1875, 10.4375, 10.6875, 10.875, 11, 11, 10.9375, 10.9375, 10.9375, 10.9375, 11, 10.857143, 10.184524, 9.4107141, 8.8928566, 8.8125, 8.8125, 8.9375, 9.125, 9.375, 9.625, 9.875, 10, 10, 10.0625, 10.25, 10.5, 10.75, 10.9375, 11.0625, 11.3125, 11.5625, 11.8125, 12, 12, 12.125, 12.375, 12.625, 12.875, 13.0625, 13.25, 13.5, 13.75, 13.9375, 14, 14.125, 14.375, 14.625, 14.875, 15.0625, 15.125, 15.25, 15.5, 15.6875, 15.875, 16.125, 16.375, 16.625, 16.875, 17, 17.0625, 17.1875, 17.375, 17.625, 17.8125, 18, 18.3125, 18.5625, 18.8125, 19, 19.125, 19.3125, 19.5625, 19.8125, 19.9375, 20.0625, 20.25, 20.5, 20.75, 20.9375, 21.0625, 21.25, 21.5, 21.75, 21.9375, 22.0625, 22.1875, 22.25, 22.5, 22.6875, 22.8125, 23, 23.125, 23.375, 23.625, 23.875, 24.125, 24.3125, 24.5, 24.75, 24.875, 24.9375, 25.25, 25.5, 25.75, 26, 26.0625, 26.25, 26.5, 26.75, 26.9375, 27, 27.1875, 27.375, 27.625, 27.875, 27.9375, 28.125, 28.375, 28.5625, 28.8125, 28.9375, 28.9375, 29.0625, 29.3125, 29.5625, 29.8125, 30, 30.125, 30.375, 30.625, 31, 31.25, 31.4375, 31.6875, 31.875, 32.035713, 32.083332, -10, -10, -10, -10, -10, -10, -10, -10, -10, -10, -10, -10, -10, -10, -10, 16.5, 16.875, 16.958334, 17.196428, 17.619047, 17.702381, 17.4375, 17.25, 17.020834, 17.020834, 17.03125, 16.962797, 16.877779, -10, -10, -10, -10, -10, -10, -10, 28.888887, 28.9375, 29.125, 29.25, 29.25, 29.25, 29, 28.6875, 28.5625, 28.5625, 28.75, 29.0625, 29.1875, 29.4375, 29.625, 29.625, 29.625, 29.5625, 29.625, 29.785713, 30, 30.0625, 30.0625, 30.0625, 30.0625, 30.0625, 30, 30, 30.1875, 30.5, 30.785713, 30.9375, 30.830357, 30.6875, 30.5625, 30.4375, 30.3125, 30.125, 30.214287, 30.482143, 30.741072, 31, 31, 31, 30.785715, 28.833334, 26.095236, 23.5625, 21.624998, 21.017857, 20.75, 20.854166, 20.916666, 21.226191, 22, 22.455357, 22.148214, 20.613096, 19.821428, 19.28125, 19.09375, 19.03125, 19.15625, 19.272322, 19.032738, 18.559523, 18.130953, 18.008928, 18.0625, 18.125, 17.9375, 17.642857, 17.40625, 17.075893, 16.84375, 16.59375, 16.4375, 16.375, 16.25, 16.25, 16.125, 15.991072, 15.675, 15.741072, 15.607143, 15.355357, 14.8125, 14.375, 14.28125, 14.477678, 14.833334, -10, -10, -10, -10, 21.5, 21.666666, 21.75, 21.866072, 21.737499, 21.866072, 21.866072, 22, 21.910713, 21.580357, 21.1875, 20.9375, 20.821428, 20.9375, 20.9375, 21, 20.9375, 20.9375, 21.125, 21.25, 21.3125, 21.4375, 21.5625, 21.535713, 21.517857, 21.375, 21.303572, 21.589287, 21.669643, 21.75, 21.8125, 21.875, 21.732143, 21.479166, 21.321428, 21.125, 21, 20.892857, 21.03125, 21.34375, 21.691963, 21.84375, 21.875, 21.6875, 21.75, 21.75, 21.8125, 22.0625, 22.0625, 22.125, 22.1875, 22.1875, 22.25, 22.25, 22.1875, 22.125, 22.0625, 22, 21.875, 21.625, 21.625, 21.625, 21.857143, 21.982143, 21.764881, 21.580357, 21.375, 21.25, 21.0625, 20.526787, 19.292858, 18.555555, 17.222221, 16.761904, 16.083334, 15.619048, 15.190476, 14.700001, -10, -10, -10, -10, -10, 7.75, 7.8333335, 7.8125, 7.8125, 7.8125, 7.8125, 7.6875, 7.5625, 7.5, 7.4375, 7.2857141, 7.5, 7.625, 7.75, 7.875, 7.9375, 8, 8.2053566, 8.520833, 8.8125, 9, 9.0625, 9.375, 9.625, 9.8125, 10.0625, 10.3125, 10.5625, 10.8125, 11, 11, 10.9375, 10.9375, 10.9375, 10.9375, 10.928572, 10.440476, 9.522109, 8.719388, 8.5625, 8.625, 8.75, 8.9375, 9.1875, 9.4375, 9.6875, 9.9375, 10, 10, 10.0625, 10.25, 10.5, 10.75, 10.9375, 11.125, 11.3125, 11.5, 11.75, 11.875, 11.9375, 12.1875, 12.4375, 12.6875, 12.9375, 13, 13.125, 13.375, 13.625, 13.875, 14, 14.1875, 14.4375, 14.6875, 14.9375, 15.0625, 15.0625, 15.1875, 15.4375, 15.625, 15.875, 16.1875, 16.4375, 16.6875, 16.9375, 17, 17, 17.0625, 17.25, 17.5625, 17.919643, 18.1875, 18.5, 18.6875, 18.875, 19, 19.125, 19.375, 19.625, 19.875, 20, 20.0625, 20.25, 20.5, 20.75, 20.9375, 21.0625, 21.25, 21.5, 21.75, 21.9375, 22, 22.125, 22.1875, 22.4375, 22.6875, 22.8125, 23, 23.1875, 23.4375, 23.6875, 23.9375, 24.125, 24.25, 24.4375, 24.6875, 24.8125, 24.9375, 25.25, 25.4375, 25.6875, 25.9375, 25.9375, 26.125, 26.375, 26.625, 26.875, 27, 27.125, 27.25, 27.5, 27.75, 27.875, 28.0625, 28.3125, 28.5, 28.75, 28.9375
28.5, 28.888887, 28.9375, 29.125, 29.3125, 29.3125, 29.3125, 29.0625, 28.75, 28.6875, 28.6875, 28.875, 29.125, 29.25, 29.5, 29.6875, 29.6875, 29.625, 29.625, 29.6875, 29.848213, 30.0625, 30.0625, 30, 29.9375, 29.9375, 29.9375, 29.9375, 30, 30.125, 30.3125, 30.5, 30.6875, 30.6875, 30.625, 30.5625, 30.375, 30.25, 30.0625, 30.151787, 30.482143, 30.741072, 31, 31, 30.9375, 30.598215, 29.174604, 26.690475, 21.642857, 20.90476, 20.892857, 20.5625, 20.6875, -10, -10, -10, 22.955357, 22.75238, 21.190477, 20.428572, 19.642857, 19.125, 19.041666, 19.208334, 19.46875, 19.532738, 19.175594, 18.809525, 18.363094, 18.258928, 18.125, 17.9375, 17.705357, 17.5, 17.200893, 16.96875, 16.71875, 16.59375, 16.5625, 16.4375, 16.4375, 16.25, 16.25, 15.982143, 15.776786, 15.75, 15.3375, 14.729167, 14.321428, 14.21875, 14.40625, 14.583334, -10, -10, -10, -10, 21.375, 21.583334, 21.625, 21.741072, 21.612499, 21.741072, 21.803572, 22, 22.035713, 21.830357, 21.5, 21.25, 21.0625, 20.9375, 20.9375, 20.9375, 20.9375, 20.9375, 21.125, 21.1875, 21.25, 21.375, 21.5, 21.473213, 21.392857, 21.1875, 21.053572, 21.401787, 21.544643, 21.625, 21.6875, 21.6875, 21.544643, 21.354166, 21.321428, 21.169643, 20.9375, 20.830357, 20.84375, 21.09375, 21.379463, 21.53125, 21.625, 21.625, 21.75, 21.75, 21.75, 21.9375, 21.9375, 22.0625, 22.1875, 22.125, 22.1875, 22.1875, 22.0625, 22, 21.875, 21.875, 21.875, 21.8125, 21.9375, 21.875, 22.044643, 21.982143, 21.729166, 21.758928, 21.625, 21.625, 21.4375, 20.857143, 19.391836, 18.5, 17.202381, 16.665178, 16.03125, 15.589286, 15.107143, 14.700001, -10, -10, -10, -10, -10, 7.75, 7.5833335, 7.6458335, 7.6875, 7.75, 7.75, 7.5, 7.2142859, 7.0625, 6.9375, 7, 7.0625, 7.25, 7.5, 7.75, 7.875, 8, 8.2053566, 8.458333, 8.6875, 8.875, 8.875, 9.1875, 9.5, 9.7321434, 9.9375, 10.1875, 10.4375, 10.6875, 10.875, 10.9375, 10.9375, 10.9375, 11, 11, 10.866072, 10.261905, 9.1964283, 8.4196424, 8.2321434, 8.4375, 8.6875, 8.9375, 9.25, 9.5, 9.75, 10, 10, 10, 10.0625, 10.25, 10.4375, 10.696428, 11, 11.1875, 11.4375, 11.5625, 11.8125, 11.875, 11.9375, 12.1875, 12.4375, 12.6875, 12.9375, 13, 13.125, 13.375, 13.625, 13.875, 14, 14.25, 14.5, 14.75, 15, 15.0625, 15.0625, 15.1875, 15.4375, 15.6875, 16, 16.3125, 16.5625, 16.75, 16.9375, 17, 17, 17, 17.1875, 17.5, 17.919643, 18.3125, 18.625, 18.8125, 18.9375, 19, 19.0625, 19.3125, 19.5625, 19.8125, 20, 20.0625, 20.3125, 20.5625, 20.8125, 21, 21, 21.1875, 21.4375, 21.6875, 21.9375, 22, 22.125, 22.25, 22.5, 22.75, 22.875, 23, 23.25, 23.5, 23.75, 24, 24.125, 24.25, 24.5, 24.75, 24.875, 25.0625, 25.3125, 25.4375, 25.6875, 25.875, 25.875, 26.0625, 26.3125, 26.5625, 26.8125, 27, 27.125, 27.25, 27.5, 27.75, 27.875, 28, 28.1875, 28.4375, 28.6875, 29, 29.125, 29.3125, 29.5625, 29.75, 29.9375, 30.0625, 30.3125, 30.5625, 30.8125, 31.125, 31.25, 31.4375, 31.625, 31.75, 31.875, 31.916666, -10, -10, -10, -10, -10, -10, -10, -10, -10, -10, -10, -10, -10, -10, -10, -10, 17.041666, 17.020834, 16.9375, 16.732143, 16.723213, 16.6875, 16.8125, 16.9375, 16.875, 16.78125, 16.608631, 16.544443, -10, -10, -10, -10, -10, -10, -10, -10, 28.916666, 29.166666, 29.416666, 29.1875, 29.229166, 29.0625, 28.875, 28.875, 28.9375, 29.0625, 29.1875, 29.25, 29.544643, 29.741072, 29.75, 29.6875, 29.6875, 29.75, 29.910713, 30.0625, 30.125, 30.125, 30.125, 30.1875, 30.1875, 30.125, 30.125, 30.125, 30.1875, 30.3125, 30.4375, 30.5, 30.5, 30.5, 30.375, 30.25, 30.0625, 30.151787, 30.482143, 30.741072, 31, 30.9375, 30.8125, 30.410715, 29.380955, 29.095238, 21.714285, 20.952379, 21.098213, 21.095236, 21.314285, -10, -10, -10, 23.184525, 23.259523, 23.126984, 22.714285, 21.200001, -10, -10, -10, 19.541666, 19.662697, 19.532738, 19.083334, 18.550594, 18.276785, 18.0625, 17.875, 17.767857, 17.5625, 17.263393, 17.03125, 16.78125, 16.71875, 16.75, 16.6875, 16.6875, 16.5, 16.5, 16.160715, 15.776786, 15.75, 15.257143, 14.583334, 14.321428, 14.208333, 14.333333, 14.444446, -10, -10, -10, -10, 21.25, 21.416666, 21.4375, 21.553572, 21.424999, 21.633928, 21.803572, 21.830357, 22.0625, 21.973213, 21.8125, 21.6875, 21.4375, 21.3125, 21.1875, 21.0625, 21, 20.875, 21, 21, 21.0625, 21.3125, 21.5, 21.517857, 21.267857, 21, 20.866072, 21.214287, 21.357143, 21.5, 21.5625, 21.5625, 21.482143, 21.291666, 21.321428, 21.205357, 20.901787, 20.767857, 20.6875, 20.875, 21.035713, 21.1875, 21.419643, 21.553572, 21.75, 21.75, 21.75, 21.875, 21.875, 22, 22.125, 22.0625, 22.0625, 22.0625, 21.9375, 21.9375, 21.8125, 21.839287, 22.044643, 22.044643, 22.125, 21.901787, 21.875, 21.8125, 21.75, 21.8125, 21.6875, 21.517857, 21.285715, 20.683674, 19.560001, 18.178572, 16.952381, 16.450891, 15.875, 15.46875, 15.03125, 14.750001, -10, -10, -10, -10, -10, -10, 7.4583335, 7.5625, 7.625, 7.75, 7.6875, 7.375, 7.0535717, 6.9375, 6.875, 7, 7.0625, 7.1875, 7.4375, 7.6875, 7.8125, 7.9375, 8.1428566, 8.333333, 8.5, 8.75, 8.75, 9.125, 9.5, 9.7321434, 9.9375, 10.125, 10.3125, 10.5, 10.625, 10.75, 10.8125, 10.875, 11, 11, 10.803572, 10.083333, 8.7619047, 8.2410717, 8.1875, 8.5, 8.75, 9, 9.1875, 9.4375, 9.6875, 9.9375, 10, 10, 10.0625, 10.1875, 10.375, 10.633928, 10.9375, 11.25, 11.5, 11.625, 11.875, 11.875, 12, 12.25, 12.5, 12.75, 12.9375, 13, 13.125, 13.375, 13.625, 13.875, 14, 14.25, 14.5, 14.75, 15, 15.0625, 15.125, 15.3125, 15.5625, 15.875, 16.1875, 16.375, 16.625, 16.75, 16.875, 17, 17, 17.0625, 17.3125, 17.625, 18.044643, 18.4375, 18.6875, 18.875, 19, 19, 19.03125, 19.28125, 19.53125, 19.78125, 20, 20.0625, 20.3125, 20.5625, 20.8125, 21, 21, 21.1875, 21.4375, 21.6875, 21.9375, 22, 22.125, 22.3125, 22.5625, 22.8125, 22.9375, 23.0625, 23.3125, 23.5625, 23.8125, 24, 24.0625, 24.1875, 24.4375, 24.6875, 24.875, 25.125, 25.375, 25.5, 25.75, 25.875, 25.875, 26.125, 26.375, 26.625, 26.875, 27, 27.125, 27.25, 27.5, 27.75, 27.875, 28, 28.125, 28.375, 28.625, 28.9375
-10, -10, -10, -10, -10, 28.6875, 28.770832, 28.8125, 28.857143, 28.9375, 29.125, 29.21875, 29.21875, 29.28125, 29.450893, 29.553572, 29.625, 29.5625, 29.625, 29.75, 29.910713, 30.0625, 30.1875, 30.25, 30.3125, 30.4375, 30.4375, 30.3125, 30.25, 30.125, 30.0625, 30.0625, 30.125, 30.1875, 30.1875, 30.25, 30.1875, 30.125, 30.0625, 30.214287, 30.544643, 30.803572, 31, 30.9375, 30.8125, 30.491072, 29.922619, 29.642857, 21, 20.666666, 22.091837, 23.966665, 24.380001, -10, -10, -10, 23.815475, 24.426189, 24.170069, 23.639454, 22.925001, -10, -10, -10, -10, -10, 19.866072, 19.595238, 19.050594, 18.422619, 18.107143, 17.875, 17.8125, 17.65625, 17.419643, 17.125, 17, 16.9375, 17, 17, 16.9375, 16.78125, 16.8125, 16.473215, 15.860119, 15.785715, 15.169643, 14.654762, 14.357142, 14.229166, -10, -10, -10, -10, -10, -10, 21.125, 21.392857, 21.375, 21.428572, 21.299999, 21.446428, 21.553572, 21.580357, 21.883928, 22.119047, 22.044643, 22, 21.75, 21.5625, 21.4375, 21.3125, 21.25, 21.125, 21.25, 21.223213, 21.142857, 21.330357, 21.4375, 21.392857, 21.107143, 20.9375, 20.901787, 21.169643, 21.241072, 21.3125, 21.25, 21.1875, 21.125, 21.125, 21.25, 21.205357, 20.964287, 20.892857, 20.8125, 21.03125, 21.098213, 21.1875, 21.419643, 21.584822, 21.8125, 21.8125, 21.8125, 21.75, 21.75, 21.875, 22, 22.0625, 22.0625, 22.0625, 21.9375, 21.9375, 21.8125, 21.901787, 22.169643, 22.232143, 22.25, 21.848215, 21.75, 21.723213, 21.625, 21.6875, 21.491072, 21.059525, 20, 19.482143, 18.785715, 17.940475, 16.785713, 16.200893, 15.6875, 15.34375, 15.03125, 14.833334, -10, -10, -10, -10, -10, -10, 7.5952382, 7.8125, 7.7678571, 7.875, 7.75, 7.375, 7.0178576, 6.875, 6.8125, 7, 7.0625, 7.125, 7.375, 7.625, 7.8125, 8.0625, 8.3125, 8.3125, 8.3125, 8.4375, 8.3125, 8.6875, 9.1875, 9.5892859, 9.875, 10.0625, 10.1875, 10.375, 10.4375, 10.625, 10.75, 10.8125, 11, 11, 10.741072, 10.047619, 8.8035707, 8.2767859, 8.25, 8.5, 8.75, 9, 9.125, 9.3125, 9.5625, 9.8125, 9.9375, 10, 10.0625, 10.1875, 10.375, 10.633928, 10.9375, 11.1875, 11.4375, 11.5625, 11.8125, 11.875, 12.0625, 12.375, 12.625, 12.875, 13, 13, 13.1875, 13.4375, 13.6875, 13.9375, 14, 14.25, 14.5, 14.75, 15, 15, 15.125, 15.375, 15.625, 16, 16.3125, 16.5, 16.75, 16.875, 16.9375, 17, 17, 17.125, 17.375, 17.6875, 18.107143, 18.4375, 18.6875, 18.875, 19, 19, 19.03125, 19.28125, 19.53125, 19.78125, 20, 20.0625, 20.3125, 20.5625, 20.8125, 21, 21, 21.1875, 21.4375, 21.6875, 21.9375, 22, 22.125, 22.375, 22.625, 22.875, 23, 23.0625, 23.3125, 23.5625, 23.8125, 24, 24, 24.0625, 24.3125, 24.5625, 24.8125, 25.125, 25.375, 25.4375, 25.6875, 25.8125, 25.8125, 26.0625, 26.3125, 26.5625, 26.8125, 27, 27.1875, 27.375, 27.625, 27.875, 27.9375, 28, 28.0625, 28.25, 28.5, 28.8125, 29.0625, 29.375, 29.625, 29.8125, 30.0625, 30.25, 30.5, 30.75, 30.9375, 31, 31.0625, 31.1875, 31.3125, 31.4375, 31.571428, 31.75, -10, -10, -10, -10, -10, -10, -10, -10, -10, -10, -10, -10, -10, -10, -10, 16.5, 16.75, 16.8125, 16.9375, 16.75, 16.75, 16.8125, 16.848213, 17, 16.8125, 16.229168, 15.995832, -10, -10, -10, -10, -10, -10, -10, -10, -10, -10, -10, -10, 28.416666, 28.145832, 28.25, 28.428572, 28.770834, 29.125, 29.21875, 29.15625, 29.21875, 29.263393, 29.366072, 29.571428, 29.770834, 29.833334, 29.8125, 29.875, 29.9375, 30.125, 30.25, 30.3125, 30.5, 30.5625, 30.4375, 30.4375, 30.25, 30.125, 30.0625, 29.9375, 29.901787, 29.875, 29.9375, 30, 30.03125, 30.125, 30.375, 30.625, 30.84375, 31, 30.9375, 30.8125, 30.5, 30.214287, 30.041666, 29.875, 29.625, 27.714285, 28.233332, 28.24, 28.357143, 27.547619, 27.080357, 25.569443, 25.445238, 25.107143, 24.488094, 24.078571, -10, -10, -10, -10, -10, 19.9375, 19.828571, 19.145832, 18.494047, 18.107143, 17.875, 17.8125, 17.71875, 17.669643, 17.5, 17.4375, 17.375, 17.375, 17.348213, 17.142857, 16.977678, 16.9375, 16.598215, 15.815476, 15.741072, 15.276787, 14.770834, 14.482142, 14.25, -10, -10, -10, 20.333332, 21.299999, 21.616667, 21.214287, 21.476191, 21.375, 21.5, 21.4375, 21.392857, 21.4375, 21.330357, 21.633928, 21.931547, 21.982143, 22, 21.8125, 21.6875, 21.625, 21.5625, 21.5625, 21.4375, 21.5, 21.535713, 21.455357, 21.5625, 21.4375, 21.419643, 21.214287, 21.080357, 21.080357, 21.1875, 21.25, 21.25, 21.125, 21.0625, 21, 21.0625, 21.1875, 21.142857, 20.964287, 21, 20.9375, 21.09375, 21.09375, 21.21875, 21.513393, 21.741072, 21.9375, 21.9375, 21.9375, 21.9375, 21.9375, 22, 22.0625, 22.0625, 22, 22, 21.9375, 21.910713, 21.8125, 21.964287, 22.232143, 22.357143, 22.375, 21.910715, 21.6875, 21.598213, 21.375, 21.3125, 21.053572, 20.282314, 19.5, 18.964285, 18.5, 17.815475, 16.785713, 16.120537, 15.580357, 15.21875, 14.90625, 14.75, -10, -10, -10, -10, -10, -10, 8.75, 8.333333, 8.2053566, 8.125, 7.8125, 7.3125, 6.9553576, 6.8125, 6.8125, 7, 7, 7, 7.125, 7.3392859, 7.6696429, 7.9910717, 8.3125, 8.375, 8.4375, 8.5625, 8.375, 8.6517859, 9.1696434, 9.5803566, 9.875, 10, 10.0625, 10.25, 10.3125, 10.5625, 10.75, 10.8125, 11, 11, 10.75, 10.339286, 9.125, 8.3809519, 8.3303566, 8.5, 8.75, 9, 9.0625, 9.1875, 9.4375, 9.6875, 9.875, 10.0625, 10.1875, 10.3125, 10.5, 10.696428, 10.9375, 11.125, 11.4375, 11.625, 11.875, 12, 12.1875, 12.4375, 12.6875, 12.9375, 13, 13, 13.1875, 13.4375, 13.6875, 13.9375, 14.0625, 14.3125, 14.5625, 14.8125, 15, 15.0625, 15.25, 15.5, 15.75, 16.0625, 16.3125, 16.5, 16.75, 16.875, 16.9375, 17, 17, 17.1875, 17.4375, 17.6875, 18, 18.25, 18.5, 18.75, 18.9375, 19, 19.03125, 19.21875, 19.46875, 19.71875, 19.9375, 20.0625, 20.25, 20.5, 20.75, 20.9375, 21, 21.125, 21.3125, 21.5625, 21.8125, 21.9375, 22.0625, 22.25, 22.5, 22.75, 22.875, 23, 23.25, 23.544643, 23.8125, 24, 24, 24.0625, 24.3125, 24.5625, 24.8125, 25.125, 25.375, 25.5, 25.75, 25.875, 25.875, 26.0625, 26.3125, 26.5625, 26.8125, 27, 27.25, 27.5, 27.75, 28, 28, 28, 28, 28.125, 28.3125, 28.5625
-10, -10, -10, -10, -10, -10, 27.583332, 27.6875, 27.991072, 28.449406, 29.166666, 29.325893, 29.28125, 29.15625, 29.075893, 29.178572, 29.428572, 29.770834, 29.895834, 29.875, 29.9375, 29.9375, 30.125, 30.25, 30.375, 30.5625, 30.625, 30.5, 30.4375, 30.25, 30.125, 30.0625, 29.9375, 29.901787, 29.875, 29.9375, 30.0625, 30.15625, 30.3125, 30.5625, 30.75, 30.90625, 31, 30.9375, 30.8125, 30.5625, 30.3125, 30.125, 29.833334, 29.583334, 28.153061, 28.452379, 28.457142, 28.571428, 27.948412, 27.553572, 26.630951, 26.24375, 25.982143, 25.108843, 24.975, -10, 25.75, -10, -10, -10, 20.666668, 20.6, 19.279167, 18.422619, 18.169643, 17.9375, 17.875, 17.875, 17.982143, 18.044643, 18.044643, 17.822916, 17.758928, 17.660713, 17.455357, 17.352678, 17, 16.654762, 15.801587, 15.654762, 15.226192, 14.729167, 14.494047, 14.333333, -10, -10, -10, 20.388887, 21.033333, 21.244444, 21.089287, 21.205357, 21.15625, 21.3125, 21.3125, 21.330357, 21.3125, 21.142857, 21.383928, 21.744047, 21.919643, 22, 21.875, 21.8125, 21.6875, 21.625, 21.625, 21.5, 21.625, 21.723213, 21.767857, 21.875, 21.75, 21.669643, 21.339287, 21.205357, 21.205357, 21.375, 21.5, 21.4375, 21.25, 21.1875, 21.125, 21.1875, 21.25, 21.160713, 21.026787, 21, 21, 21.09375, 21.15625, 21.34375, 21.638393, 21.866072, 22, 21.9375, 21.9375, 21.991072, 22.1625, 22.0625, 22.133928, 22.0625, 21.9375, 21.9375, 21.9375, 21.973213, 22, 22.151787, 22.357143, 22.357143, 22.25, 21.785715, 21.5625, 21.535713, 21.303572, 21.0625, 20.741072, 19.997025, 19.133928, 18.517857, 18.125, 17.660713, 16.666666, 16.098215, 15.611607, 15.272322, 14.90625, 14.833333, -10, -10, -10, -10, -10, -10, 9.3571424, 8.8999996, 8.4970236, 8.2589283, 7.8125, 7.375, 7.0535717, 6.875, 6.875, 7, 6.9375, 6.9642859, 7.1696429, 7.3928576, 7.7321429, 7.9285717, 8.125, 8.25, 8.520833, 8.6875, 8.625, 8.8392859, 9.2946434, 9.6607141, 9.9375, 10, 10, 10.125, 10.1875, 10.40625, 10.65625, 10.78125, 10.96875, 11, 10.8125, 10.455357, 9.4880953, 8.5178566, 8.4107141, 8.5, 8.75, 9, 9, 9.0625, 9.3125, 9.5625, 9.8125, 10.0625, 10.25, 10.4375, 10.6875, 10.875, 10.9375, 11.0625, 11.3125, 11.5625, 11.8125, 12, 12.1875, 12.4375, 12.6875, 12.9375, 13, 13, 13.1875, 13.4375, 13.6875, 13.9375, 14.0625, 14.3125, 14.5625, 14.8125, 15, 15.0625, 15.3125, 15.5625, 15.8125, 16.0625, 16.1875, 16.375, 16.625, 16.8125, 16.9375, 17, 17, 17.25, 17.5, 17.75, 18, 18.125, 18.3125, 18.5625, 18.8125, 18.9375, 19.03125, 19.15625, 19.40625, 19.65625, 19.875, 20.0625, 20.1875, 20.4375, 20.6875, 20.875, 21, 21.125, 21.25, 21.4375, 21.6875, 21.875, 22.107143, 22.3125, 22.5625, 22.75, 22.875, 23, 23.25, 23.544643, 23.8125, 24, 24, 24.0625, 24.3125, 24.5625, 24.8125, 25.0625, 25.3125, 25.5, 25.75, 25.9375, 25.9375, 26.0625, 26.25, 26.5, 26.75, 27, 27.3125, 27.5625, 27.8125, 28, 28, 28, 28, 28.0625, 28.25, 28.4375, 28.6875, 29.125, 29.482143, 29.75, 30.0625, 30.1875, 30.4375, 30.6875, 30.875, 31, 31.0625, 31.125, 31.25, 31.375, 31.508928, 31.75, -10, -10, -10, -10, -10, -10, -10, -10, -10, -10, -10, -10, -10, -10, -10, 16.291668, 16.566666, 16.678572, 16.9375, 16.875, 16.9375, 16.9375, 16.910713, 16.9375, 16.75, 16.322918, 16.266666, 17, 17.339287, 17.5, -10, -10, -10, -10, -10, -10, -10, -10, -10, -10, 27.222221, 27.25, 27.491072, 28.056549, 28.904165, 28.971727, 29.28125, 29.084822, 29.03125, 29.125, 29.366072, 29.770834, 29.895834, 29.875, 29.9375, 29.9375, 30.0625, 30.125, 30.1875, 30.3125, 30.375, 30.3125, 30.25, 30.151787, 30.160713, 30.0625, 30, 29.964287, 29.9375, 30, 30.1875, 30.28125, 30.5, 30.75, 30.9375, 31.03125, 31.0625, 31, 30.8125, 30.5625, 30.25, 29.9375, 29.589287, 29.375, 29.125, 29, 28.8125, 28.553572, 28.023809, 27.602678, 27.21875, 26.90625, 26.553572, 26.194443, 25.771427, 26.25, 25.833334, 26, 25.732143, 25.083332, 23.305555, 23.405556, 20.158335, 19.391157, 19.193878, 18.826529, 18.202381, 18.258928, 18.285715, 19.02721, 19.301022, 18.62619, 18.479593, 18.326529, 17.989796, 17.915178, -10, -10, -10, -10, -10, 14.8125, 14.60119, 14.499999, -10, -10, -10, 20.388887, 20.9, 21.1, 20.964287, 21.142857, 21.09375, 21.125, 21.125, 21.0625, 20.9375, 20.9375, 21.071428, 21.520834, 21.732143, 21.9375, 21.9375, 21.9375, 21.9375, 21.857143, 21.729166, 21.705357, 21.8125, 21.973213, 22.080357, 22, 21.8125, 21.75, 21.464287, 21.392857, 21.455357, 21.5625, 21.75, 21.625, 21.375, 21.3125, 21.25, 21.375, 21.375, 21.25, 21.125, 21, 21.03125, 21.125, 21.3125, 21.5625, 21.78125, 21.9375, 22, 21.9375, 21.875, 21.928572, 22.1, 22, 22.071428, 22, 21.875, 21.875, 21.9375, 21.973213, 22.0625, 22.1875, 22.25, 22.25, 22.1875, 21.821428, 21.625, 21.598213, 21.294643, 20.9375, 20.571428, 19.5625, 18.991072, 18.348213, 18, 17.482143, 16.625, 16.026785, 15.37755, 15.020409, 14.553572, 14.583333, -10, -10, -10, -10, -10, -10, 9.375, 9.0666656, 8.6220236, 8.2589283, 7.8125, 7.4375, 7.1517859, 6.9375, 6.9375, 7, 7, 7.0892859, 7.3571429, 7.5803576, 7.8571429, 7.9910717, 8.0625, 8.25, 8.583333, 8.75, 8.75, 8.9017859, 9.2946434, 9.6607141, 9.9375, 10, 10, 10.125, 10.125, 10.28125, 10.53125, 10.700893, 10.90625, 11, 10.8125, 10.508928, 9.8422613, 8.875, 8.5982141, 8.625, 8.75, 9, 9, 9, 9.1875, 9.4375, 9.6875, 10, 10.3125, 10.5625, 10.8125, 11, 11, 11.0625, 11.3125, 11.5625, 11.8125, 12, 12.125, 12.375, 12.625, 12.875, 13, 13, 13.1875, 13.4375, 13.6875, 13.9375, 14.0625, 14.3125, 14.5625, 14.8125, 15, 15.0625, 15.25, 15.508928, 15.875, 16, 16.125, 16.25, 16.4375, 16.6875, 16.875, 16.9375, 17, 17.25, 17.5, 17.75, 18, 18.0625, 18.1875, 18.4375, 18.6875, 18.875, 19, 19.125, 19.375, 19.625, 19.875, 20.125, 20.1875, 20.4375, 20.6875, 20.8125, 21, 21.125, 21.25, 21.4375, 21.6875, 21.875, 22.169643, 22.375, 22.625, 22.8125, 22.875, 22.9375, 23.1875, 23.482143, 23.75, 24.0625, 24.125, 24.25, 24.5, 24.6875, 24.875, 25, 25.25, 25.4375, 25.6875, 25.9375, 25.9375, 26, 26.125, 26.375, 26.625, 26.9375, 27.25, 27.5, 27.75, 27.9375, 28, 28.0625, 28.125, 28.1875, 28.375, 28.5
-10, -10, -10, -10, -10, -10, -10, 27, 27.178572, 27.244049, 28.390474, 28.306549, 28.854166, 29.032738, 29.178572, 29.375, 29.553572, 29.958334, 30.020834, 29.9375, 30.0625, 30, 30.125, 30.125, 30.0625, 30.125, 30.125, 30.125, 30.125, 30.089287, 30.160713, 30.125, 30.0625, 30.026787, 30, 30, 30.1875, 30.34375, 30.5625, 30.8125, 31.0625, 31.09375, 31.125, 31.0625, 30.75, 30.5, 30.1875, 29.9375, 29.6875, 29.357143, 29.089287, 28.90625, 28.71875, 28.553572, 28.166666, 27.821428, 27.5, 27.1875, 26.875, 26.4375, 26.25, 26.416666, 26, 26.083334, 25.738096, 25.222221, 24.333332, 24.228573, 23.019445, 22.797617, 22.75, 22.303572, 20.216665, 19.295918, 19.207483, 19.82313, 20.62245, 21.002777, 20.767857, 20.523809, 20.107141, 18.724489, -10, -10, -10, -10, -10, 14.8125, 14.708333, 14.666666, -10, -10, -10, -10, 21, 21, 20.964287, 21, 20.96875, 20.9375, 20.875, 20.875, 20.8125, 20.875, 21.0625, 21.3125, 21.5625, 21.75, 21.8125, 21.9375, 22.044643, 22.044643, 21.979166, 21.955357, 22, 22.125, 22.25, 22, 21.875, 21.875, 21.6875, 21.705357, 21.705357, 21.75, 21.9375, 21.75, 21.5, 21.375, 21.25, 21.375, 21.375, 21.3125, 21.1875, 21.0625, 21.15625, 21.21875, 21.4375, 21.6875, 21.84375, 21.96875, 22, 21.9375, 21.8125, 21.928572, 22.1, 22, 22.133928, 22, 21.875, 21.875, 21.9375, 21.973213, 22.0625, 22.125, 22.125, 22.125, 22.125, 22, 21.875, 21.8125, 21.473215, 20.875, 20.553572, 19.431547, 18.883928, 18.191963, 17.796875, 17.287947, 16.651041, 16.14509, 15.224489, 14.734694, 14.553572, 14.520833, 13.031746, 12.166666, 11.452381, -10, -10, -10, 9.1071434, 8.8166656, 8.479167, 8.1339283, 7.75, 7.5, 7.25, 7.0625, 7.125, 7.125, 7.1875, 7.3392859, 7.6071429, 7.8303576, 8.0446434, 8.1160717, 8.0625, 8.25, 8.645833, 8.875, 9, 9.1517859, 9.4821434, 9.7410717, 10, 10, 10, 10.125, 10.098214, 10.120536, 10.34375, 10.513393, 10.78125, 11, 10.9375, 10.75, 10.383928, 9.375, 8.8273811, 8.75, 8.75, 9, 9, 9, 9.125, 9.375, 9.625, 9.9375, 10.3125, 10.5625, 10.8125, 11, 11, 11.125, 11.375, 11.625, 11.875, 12, 12.0625, 12.25, 12.4375, 12.6875, 12.8125, 12.875, 13.125, 13.419643, 13.6875, 13.9375, 14.125, 14.375, 14.625, 14.875, 15, 15.0625, 15.1875, 15.446428, 15.8125, 15.9375, 16.0625, 16.125, 16.3125, 16.5625, 16.8125, 16.9375, 17, 17.25, 17.5, 17.75, 18, 18, 18.125, 18.375, 18.625, 18.875, 19.0625, 19.1875, 19.4375, 19.6875, 19.875, 20.0625, 20.0625, 20.3125, 20.5625, 20.75, 21, 21.125, 21.1875, 21.375, 21.625, 21.8125, 22.169643, 22.3125, 22.5625, 22.75, 22.8125, 22.9375, 23.1875, 23.482143, 23.75, 24.125, 24.25, 24.375, 24.5625, 24.6875, 24.8125, 24.9375, 25.25, 25.5, 25.75, 26, 26, 26, 26.125, 26.375, 26.625, 26.9375, 27.1875, 27.4375, 27.6875, 27.875, 28, 28.125, 28.1875, 28.25, 28.4375, 28.5, 28.6875, 29.125, 29.482143, 29.75, 30, 30, 30.25, 30.5, 30.75, 31, 31, 31, 31.125, 31.375, 31.625, 31.833332, -10, -10, -10, -10, -10, -10, -10, -10, -10, -10, -10, -10, -10, -10, -10, 15.958334, 16.549999, 16.696428, 16.941963, 16.96875, 16.96875, 16.875, 16.875, 16.875, 16.8125, 16.6875, 16.625, 16.625, 16.669643, 16.75, 16.267857, 16.625, 16.666668, -10, -10, -10, -10, -10, -10, -10, -10, -10, -10, 26.653061, 27.116667, 27.503403, 28.470238, 29.011904, 29.357143, 29.5625, 29.607143, 29.75, 29.875, 30.044643, 30.1875, 30.1875, 30.25, 30.1875, 30.125, 30.125, 30, 30, 29.9375, 29.964287, 30.035713, 29.9375, 29.9375, 29.9375, 29.9375, 30, 30.1875, 30.375, 30.625, 30.9375, 31.25, 31.25, 31.25, 31.125, 30.75, 30.5, 30.1875, 29.9375, 29.625, 29.294643, 29.089287, 28.96875, 28.825893, 28.541666, 28.321428, 27.9375, 27.6875, 27.375, 27.125, 26.9375, 26.6875, 26.4375, 26.1875, 26.0625, 25.741072, 25.291666, 25.104166, 25, 24.207142, 24, 24, 23.581633, 22.652777, 22.339285, 21.799601, 22.123016, 21.989796, 22.038097, 21.642857, 21.357143, 21.010204, 20.875, -10, -10, -10, -10, -10, 15.142858, 15.047619, 14.833333, 15, -10, -10, -10, -10, -10, 20.75, 20.75, 20.78125, 20.6875, 20.6875, 20.75, 20.75, 20.875, 21.0625, 21.3125, 21.5625, 21.75, 21.875, 21.9375, 21.982143, 21.982143, 21.916666, 22.0625, 22.1875, 22.241072, 22.125, 21.892857, 21.8125, 21.875, 21.723213, 21.776787, 21.8125, 21.8125, 22, 21.75, 21.4375, 21.276787, 21.1875, 21.3125, 21.4375, 21.4375, 21.375, 21.3125, 21.40625, 21.46875, 21.59375, 21.78125, 21.875, 21.9375, 22, 21.9375, 21.75, 21.803572, 21.975, 21.875, 22.071428, 22, 21.9375, 21.9375, 22, 22, 22.0625, 22.0625, 22, 22, 22, 21.9375, 21.9375, 21.875, 21.598215, 21.0625, 20.651787, 19.285713, 18.714285, 18.017857, 17.65625, 17.147322, 16.510416, 16.066965, 15.241072, 14.75, 14.491072, 14.5, 13.780952, 12.166667, 11.492063, 11, 10.660714, 9.625, 9.0535717, 8.5547619, 8.1934528, 7.8839283, 7.625, 7.5625, 7.3125, 7.1875, 7.25, 7.25, 7.375, 7.5892859, 7.9196429, 8.1785717, 8.25, 8.25, 8.125, 8.25, 8.645833, 8.8125, 8.9375, 9.0803566, 9.458333, 9.7410717, 10, 10, 10, 10.125, 10.098214, 10.183036, 10.46875, 10.700893, 11.03125, 11.25, 11.1875, 11, 10.696428, 9.958333, 9.3720245, 9.1875, 8.9553566, 9.0625, 9, 9.0625, 9.1875, 9.4375, 9.6875, 9.875, 10.1875, 10.4375, 10.6875, 10.9375, 11, 11.1875, 11.4375, 11.6875, 11.9375, 12, 12, 12.125, 12.25, 12.5, 12.6875, 12.8125, 13.125, 13.419643, 13.6875, 13.9375, 14.125, 14.375, 14.625, 14.875, 15, 15, 15.125, 15.383928, 15.75, 15.9375, 16.0625, 16.0625, 16.25, 16.5, 16.75, 16.9375, 17.0625, 17.3125, 17.5625, 17.8125, 18, 18, 18.125, 18.375, 18.625, 18.875, 19.0625, 19.25, 19.5, 19.75, 19.9375, 20.0625, 20.0625, 20.3125, 20.5625, 20.75, 21, 21.125, 21.1875, 21.3125, 21.5625, 21.75, 22.169643, 22.4375, 22.75, 22.9375, 23, 23.0625, 23.25, 23.5, 23.75, 24.125, 24.25, 24.375, 24.5625, 24.6875, 24.8125, 25, 25.3125, 25.5625, 25.8125, 26, 26, 26.0625, 26.1875, 26.4375, 26.6875, 26.9375, 27.125, 27.375, 27.625, 27.8125, 28, 28.125, 28.1875, 28.3125, 28.5625, 28.6875
-10, -10, -10, -10, -10, -10, -10, -10, -10, 26.357143, 26.800001, 27.074406, 28.011904, 29.05357, 29.598215, 29.8125, 29.75, 29.8125, 29.8125, 29.982143, 30.125, 30.125, 30.25, 30.25, 30.1875, 30.1875, 30.0625, 30.071428, 30.137501, 30.035715, 30.107141, 29.875, 29.8125, 29.75, 29.75, 29.875, 30.0625, 30.3125, 30.5625, 30.90625, 31.34375, 31.34375, 31.34375, 31.1875, 30.8125, 30.625, 30.3125, 30.0625, 29.6875, 29.294643, 29.089287, 28.96875, 28.825893, 28.541666, 28.383928, 27.991072, 27.541666, 27.258928, 26.9375, 26.875, 26.6875, 26.4375, 26.25, 26.0625, 25.8125, 25.5625, 25.3125, 25.0625, 25.03125, 25, 25, 24.571428, 23.845236, 23.469387, 22.863943, 23.044218, 23, 22.762501, 22.294641, 22, 21.633928, 21.535715, 21.75, 21.5, 21.25, 21.125, 20.571428, 16.828571, 15.714286, 15.214286, 15.083333, -10, -10, -10, -10, -10, 20.875, 20.9375, 20.9375, 20.8125, 20.75, 20.75, 20.75, 20.875, 21.125, 21.375, 21.625, 21.875, 22, 22.0625, 22.107143, 22.107143, 22.104166, 22.285713, 22.4375, 22.428572, 22.125, 21.892857, 21.6875, 21.75, 21.660713, 21.714287, 21.8125, 21.8125, 22, 21.8125, 21.625, 21.589287, 21.333332, 21.333334, 21.357143, 21.3125, 21.25, 21.276787, 21.513393, 21.575893, 21.65625, 21.78125, 21.8125, 21.875, 22, 22.0625, 21.9375, 21.9375, 21.9375, 21.875, 22, 22, 22, 22, 22.0625, 22.0625, 22.0625, 22.0625, 22, 22, 22, 21.9375, 21.9375, 21.8125, 21.544643, 21.0625, 20.526787, 19.107141, 18.535713, 17.875, 17.4375, 16.9375, 16.4375, 15.964286, 15.053572, 14.464285, 14.303572, 14.3125, 13.619048, 12.166667, 11.511904, 11, 10.678571, 9.5277777, 8.6607151, 8.0476189, 7.9017859, 7.6875, 7.625, 7.625, 7.375, 7.25, 7.25, 7.3125, 7.5625, 7.8125, 8.0625, 8.1785717, 8, 8, 7.9375, 8.1875, 8.4732141, 8.625, 8.75, 8.9553566, 9.4404755, 9.8035717, 10.0625, 10.0625, 10.0625, 10.125, 10.098214, 10.223214, 10.708333, 10.973215, 11.3125, 11.46875, 11.34375, 11.15625, 10.90625, 10.5, 9.916667, 9.625, 9.1607141, 9.125, 9, 9.0625, 9.1875, 9.4375, 9.6875, 9.875, 10.1875, 10.4375, 10.6875, 10.9375, 11, 11.25, 11.5, 11.75, 12, 12, 12, 12.0625, 12.125, 12.375, 12.5625, 12.8125, 13.1875, 13.482143, 13.75, 13.9375, 14.125, 14.375, 14.625, 14.875, 15, 15, 15.125, 15.383928, 15.75, 15.9375, 16.0625, 16, 16.1875, 16.4375, 16.6875, 16.9375, 17.125, 17.375, 17.625, 17.875, 18, 18, 18.1875, 18.4375, 18.6875, 18.9375, 19.125, 19.375, 19.625, 19.875, 20, 20.0625, 20.0625, 20.3125, 20.5625, 20.75, 21, 21.125, 21.1875, 21.3125, 21.5625, 21.75, 22.169643, 22.4375, 22.8125, 23.0625, 23.1875, 23.3125, 23.4375, 23.625, 23.8125, 24.125, 24.25, 24.3125, 24.5, 24.625, 24.75, 25, 25.25, 25.4375, 25.6875, 25.875, 25.9375, 26.125, 26.3125, 26.5625, 26.8125, 27, 27.125, 27.375, 27.625, 27.8125, 28, 28.125, 28.1875, 28.375, 28.625, 28.75, 28.9375, 29.125, 29.375, 29.625, 29.875, 30.0625, 30.3125, 30.5625, 30.8125, 31, 31, 31, 31.0625, 31.1875, 31.455357, 31.916666, -10, -10, -10, -10, -10, -10, -10, -10, -10, -10, -10, -10, -10, -10, -10, 16.041668, 16.483334, 16.642857, 16.879463, 16.96875, 16.96875, 16.875, 16.8125, 16.6875, 16.5625, 16.375, 16.25, 16.1875, 16.125, 16.258928, 16.788691, 17.479166, 18.014967, 18.333334, -10, -10, -10, -10, -10, -10, -10, -10, -10, 26.571428, 26.690477, 27.151785, 27.726191, 28.982141, 29.535715, 29.8125, 29.75, 29.8125, 29.8125, 29.982143, 30.125, 30.125, 30.25, 30.3125, 30.3125, 30.3125, 30.1875, 30.214285, 30.450001, 30.258928, 30.214285, 30, 29.875, 29.84375, 29.84375, 29.90625, 29.96875, 30.1875, 30.375, 30.71875, 31.15625, 31.21875, 31.28125, 31.125, 30.8125, 30.625, 30.375, 30.25, 29.910713, 29.482143, 29.214287, 28.96875, 28.888393, 28.666666, 28.571428, 28.232143, 27.666666, 27.383928, 26.9375, 26.830357, 26.625, 26.375, 26.25, 26.0625, 25.8125, 25.625, 25.375, 25.0625, 25, 24.875, 24.875, 24.6875, 24.375, 24.089287, 23.604166, 23.517857, 23.375, 23.0625, 22.660713, 22.4375, 22.1875, 22, 21.690475, 21.416666, 21.166666, 21.083334, 20.714285, 19.047619, 16.952381, 16.061224, 15.738095, 16.761904, 16.861113, -10, -10, -10, 20.9375, 21, 21, 20.9375, 20.9375, 20.9375, 20.9375, 21, 21.1875, 21.4375, 21.6875, 21.875, 21.9375, 21.9375, 21.919643, 22, 22.25, 22.455357, 22.625, 22.553572, 22.125, 21.955357, 21.75, 21.8125, 21.785713, 21.776787, 21.8125, 21.75, 21.875, 21.75, 21.6875, 21.785713, 21.945238, 21.324406, 21.276787, 21.25, 21.3125, 21.464287, 21.732143, 21.669643, 21.625, 21.6875, 21.6875, 21.8125, 22, 22.0625, 22, 22, 22, 21.9375, 22, 22, 22, 22, 22.0625, 22.125, 22.125, 22.125, 22.0625, 22, 22, 21.9375, 21.9375, 21.8125, 21.544643, 21.0625, 20.511904, 19.198412, 18.571428, 17.916666, 17.416666, 16.916666, 16.3125, 16, 15.404762, 14.714286, 14.5, 14.375, 13.910714, 12.104167, 11.553572, 10.964286, 10.544643, 9.5029764, 8.6071434, 7.8571429, 7.7142859, 7.5, 7.5, 7.5625, 7.3125, 7.25, 7.3125, 7.4375, 7.6875, 7.9375, 8.0625, 8.1160717, 7.9375, 7.875, 7.875, 8.0625, 8.2857141, 8.4375, 8.5, 8.7053566, 9.2529755, 9.7946434, 10.169643, 10.1875, 10.1875, 10.1875, 10.160714, 10.357142, 11.041666, 11.294643, 11.625, 11.71875, 11.625, 11.46875, 11.21875, 10.883928, 10.385417, 9.9375, 9.3660717, 9.1875, 9, 9.0625, 9.25, 9.5, 9.75, 9.9375, 10.1875, 10.4375, 10.6875, 10.9375, 11, 11.25, 11.5, 11.75, 12, 12, 12, 12, 12.0625, 12.3125, 12.5625, 12.9375, 13.3125, 13.607143, 13.8125, 13.9375, 14.125, 14.375, 14.625, 14.875, 15, 15, 15.1875, 15.4375, 15.6875, 15.9375, 16, 16, 16.25, 16.5, 16.75, 17.0625, 17.25, 17.5, 17.75, 17.9375, 18, 18, 18.25, 18.5, 18.75, 19, 19.125, 19.375, 19.625, 19.875, 20, 20.0625, 20.125, 20.375, 20.625, 20.8125, 21, 21.125, 21.1875, 21.3125, 21.5625, 21.75, 22.107143, 22.375, 22.75, 23, 23.1875, 23.375, 23.5, 23.6875, 23.875, 24.0625, 24.125, 24.125, 24.3125, 24.5, 24.6875, 25.0625, 25.3125, 25.4375, 25.6875, 25.8125, 25.9375, 26.25, 26.5, 26.75, 26.9375, 27.0625, 27.125, 27.375, 27.625, 27.8125, 28, 28.0625, 28.0625, 28.25, 28.5, 28.6875
-10, -10, -10, -10, -10, -10, -10, 30, 30.041668, 28.5, 28.063492, 27.660713, 27.997023, 28.940475, 29.419643, 29.6875, 29.75, 29.875, 29.875, 29.982143, 29.9375, 29.9375, 30, 30.125, 30.3125, 30.375, 30.375, 30.464285, 30.700001, 30.446428, 30.339285, 30.0625, 29.9375, 29.96875, 29.96875, 30.03125, 30.03125, 30.125, 30.3125, 30.65625, 31.03125, 31.15625, 31.21875, 31, 30.75, 30.5625, 30.3125, 30.1875, 29.8125, 29.5, 29.3125, 29.0625, 28.982143, 28.729166, 28.633928, 28.357143, 27.854166, 27.633928, 27.125, 26.892857, 26.446428, 26.080357, 25.9375, 25.8125, 25.6875, 25.625, 25.419643, 25.017857, 24.955357, 24.8125, 24.875, 24.6875, 24.375, 24.089287, 23.8125, 23.6875, 23.5, 23.0625, 22.660713, 22.5, 22.25, 22.125, 21.830357, 21.5, 21.25, 21.125, 20.785713, 20.183672, 19.476191, 19.047619, 18.597221, 19.114285, 19.033333, 19.75, 19.875, 20.25, 20.794643, 20.9375, 21.03125, 21.09375, 21.133928, 21.0625, 21.0625, 21, 21.125, 21.3125, 21.5, 21.75, 21.875, 21.875, 21.8125, 21.75, 21.9375, 22.142857, 22.3125, 22.366072, 22.0625, 22.0625, 21.875, 21.9375, 21.910713, 21.901787, 21.919643, 21.666666, 21.767857, 21.6875, 21.75, 22.035713, 22.081549, 21.467262, 21.348215, 21.25, 21.375, 21.589287, 21.857143, 21.732143, 21.625, 21.625, 21.625, 21.8125, 22, 22.0625, 22.0625, 22.0625, 22.0625, 22, 22, 22, 22, 22, 22.0625, 22.1875, 22.25, 22.25, 22.1875, 22.0625, 22, 21.9375, 21.9375, 21.8125, 21.553572, 21.229166, -10, -10, -10, -10, -10, -10, 16.270834, -10, -10, -10, -10, 14.1875, 13.603572, 11.854167, 11.303572, 10.714286, 10.330358, 9.4196424, 8.5714283, 7.8571429, 7.7142859, 7.5, 7.5, 7.5, 7.25, 7.25, 7.3125, 7.5, 7.6875, 7.875, 7.9375, 7.9285717, 7.8125, 7.75, 7.8125, 8, 8.2232141, 8.40625, 8.5, 8.7678566, 9.3154755, 9.8883934, 10.294643, 10.375, 10.375, 10.25, 10.25, 10.580357, 11.363095, 11.638393, 11.84375, 11.75, 11.5625, 11.4375, 11.3125, 11.15625, 10.9375, 10.4375, 9.5952377, 9.2589283, 9.0625, 9.1875, 9.375, 9.5625, 9.75, 9.875, 10.125, 10.4375, 10.6875, 10.9375, 11, 11.25, 11.5, 11.75, 12, 12, 12, 12.0625, 12.1875, 12.4375, 12.8125, 13.1875, 13.5, 13.75, 13.875, 13.9375, 14.0625, 14.3125, 14.5625, 14.8125, 15, 15, 15.1875, 15.4375, 15.6875, 15.9375, 16, 16.0625, 16.3125, 16.5625, 16.8125, 17.125, 17.375, 17.625, 17.875, 18, 18, 18, 18.25, 18.5, 18.75, 19, 19.0625, 19.25, 19.5, 19.75, 19.9375, 20.125, 20.25, 20.5, 20.75, 20.875, 21, 21.1875, 21.3125, 21.375, 21.625, 21.75, 22.107143, 22.5, 22.875, 23.125, 23.25, 23.375, 23.5, 23.6875, 23.875, 24, 23.9375, 23.9375, 24.1875, 24.482143, 24.75, 25.1875, 25.3125, 25.375, 25.625, 25.6875, 25.9375, 26.375, 26.625, 26.875, 27, 27.0625, 27.125, 27.375, 27.625, 27.8125, 28, 28.0625, 28.125, 28.375, 28.625, 28.875, 29.0625, 29.0625, 29.3125, 29.5, 29.75, 30.0625, 30.3125, 30.5625, 30.8125, 31, 31, 31, 31.0625, 31.1875, 31.455357, 31.916666, -10, -10, -10, -10, -10, -10, -10, -10, -10, -10, -10, -10, -10, -10, -10, 16.375, 16.583332, 16.6875, 16.9375, 17, 17, 16.8125, 16.5625, 16.3125, 16.0625, 16, 16, 16.125, 16.333334, 16.595238, 17.301588, 18.444445, 19.739286, 20.15238, -10, -10, -10, -10, -10, -10, 29.75, 29.888887, 29.944445, 29.142857, 28.673468, 28.362244, 28.255953, 28.836309, 29.241072, 29.6875, 29.982143, 30.125, 30.0625, 29.875, 29.6875, 29.625, 29.6875, 29.9375, 30.1875, 30.25, 30.339287, 30.571428, 30.878571, 30.633928, 30.464285, 30.1875, 30.125, 30.21875, 30.21875, 30.21875, 30.09375, 30.0625, 30.1875, 30.46875, 30.78125, 30.96875, 31.09375, 30.9375, 30.75, 30.5625, 30.3125, 30.125, 29.75, 29.4375, 29.1875, 28.875, 28.75, 28.625, 28.5, 28.357143, 27.916666, 27.696428, 27.25, 27.017857, 26.508928, 25.913691, 25.803572, 25.6875, 25.625, 25.6875, 25.482143, 25.142857, 25.080357, 24.9375, 25, 24.8125, 24.491072, 23.943453, 23.705357, 23.5, 23.375, 23, 22.642857, 22.5, 22.3125, 22.1875, 21.892857, 21.625, 21.375, 21.25, 21.125, 20.785713, 20.285715, 20.040817, 19.583332, 19.438776, 19.380953, 19.75, 19.75, 20.023809, 20.627977, 20.9375, 21.15625, 21.200893, 21.050594, 20.955357, 20.9375, 21, 21.1875, 21.3125, 21.4375, 21.625, 21.75, 21.875, 21.9375, 21.875, 22, 22.035713, 22.125, 22.1875, 22.0625, 22.0625, 21.9375, 21.875, 21.875, 22, 21.955357, 21.693451, 21.767857, 21.6875, 21.9375, 22.321428, 22.394049, 21.779762, 21.473215, 21.3125, 21.375, 21.526787, 21.794643, 21.607143, 21.5625, 21.5625, 21.625, 21.875, 22, 22.0625, 22.0625, 22.0625, 22.0625, 22, 22, 22, 22, 22, 22.0625, 22.25, 22.375, 22.4375, 22.375, 22.1875, 22.0625, 22, 22, 21.875, 21.616072, 21.25, -10, -10, -10, -10, -10, -10, -10, -10, -10, -10, -10, 14.166667, 13.305953, 11.5125, 11.053572, 10.357143, 9.6428576, 8.7142859, 8, 7.5357141, 7.5, 7.4375, 7.4375, 7.375, 7.1875, 7.125, 7.1875, 7.4375, 7.625, 7.8125, 7.9375, 7.8660717, 7.75, 7.75, 7.75, 8.0178566, 8.3928576, 8.6473217, 8.875, 9.125, 9.4821434, 9.9598217, 10.357143, 10.4375, 10.4375, 10.3125, 10.25, 10.517857, 11.238095, 11.450893, 11.59375, 11.5, 11.4375, 11.4375, 11.4375, 11.40625, 11.1875, 10.75, 10.014881, 9.625, 9.3125, 9.375, 9.4375, 9.625, 9.75, 9.875, 10.125, 10.4375, 10.6875, 10.9375, 11, 11.25, 11.5, 11.75, 12, 12, 12, 12.0625, 12.25, 12.5, 12.875, 13.3125, 13.625, 13.875, 14, 14, 14, 14.25, 14.5, 14.75, 15, 15, 15.125, 15.375, 15.625, 15.875, 16, 16.125, 16.375, 16.625, 16.875, 17.125, 17.375, 17.625, 17.875, 18, 18, 18.0625, 18.3125, 18.5625, 18.8125, 19, 19.0625, 19.1875, 19.4375, 19.6875, 19.875, 20.1875, 20.375, 20.5625, 20.8125, 20.875, 20.9375, 21.1875, 21.3125, 21.375, 21.625, 21.75, 22.044643, 22.4375, 22.75, 23, 23.1875, 23.3125, 23.4375, 23.625, 23.8125, 23.9375, 23.9375, 23.9375, 24.0625, 24.232143, 24.455357, 25.041666, 25.258928, 25.375, 25.625, 25.6875, 25.9375, 26.375, 26.625, 26.875, 27, 27.0625, 27.125, 27.375, 27.625, 27.8125, 28, 28.0625, 28.1875, 28.4375, 28.6875, 29
21.666666, -10, -10, -10, -10, -10, 29.583334, 29.791666, 29.744049, 29.3125, 28.797619, 28.410713, 28.401787, 28.732143, 29.169643, 29.5625, 29.94643, 30.160713, 30.125, 30, 29.6875, 29.5625, 29.5625, 29.75, 30.125, 30.25, 30.401787, 30.625, 30.678572, 30.526787, 30.392857, 30.285713, 30.375, 30.59375, 30.53125, 30.46875, 30.21875, 30, 30.0625, 30.3125, 30.5625, 30.8125, 31, 30.8125, 30.625, 30.375, 30.125, 29.9375, 29.625, 29.375, 29.125, 28.875, 28.75, 28.5625, 28.375, 28.178572, 27.875, 27.6875, 27.375, 27.205357, 26.705357, 25.934525, 25.741072, 25.625, 25.5625, 25.6875, 25.544643, 25.267857, 25.267857, 25.03125, 25, 24.75, 24.366072, 23.568453, 23.348213, 23.125, 23.125, 22.875, 22.625, 22.4375, 22.21875, 22.125, 21.892857, 21.75, 21.59375, 21.4375, 21.25, 21, 20.839287, 20.875, 20.510416, 20.415178, 20.28125, 20, 19.9375, 20.111607, 20.471727, 20.90625, 21.25, 21.308037, 20.96726, 20.872023, 21.020834, 21.178572, 21.3125, 21.3125, 21.3125, 21.375, 21.5625, 21.75, 21.9375, 21.9375, 22.0625, 22.035713, 21.892857, 21.955357, 21.875, 21.9375, 22, 22, 22.125, 22.3125, 22.1875, 21.755951, 21.767857, 21.625, 21.875, 22.133928, 22.185715, 21.821428, 21.553572, 21.526787, 21.794643, 21.919643, 22, 21.714287, 21.625, 21.625, 21.75, 21.9375, 21.9375, 21.9375, 21.9375, 22, 22.125, 22.107143, 22, 22, 21.9375, 22, 22.125, 22.3125, 22.5, 22.5625, 22.4375, 22.25, 21.991072, 21.799999, 21.928572, 21.866072, 21.741072, 21.428572, -10, -10, -10, -10, -10, -10, -10, -10, -10, -10, -10, -10, 13.122223, 11.294444, 10.880952, 10.023809, 8.7387762, 8.1088438, 7.6428571, 7.4553571, 7.4375, 7.375, 7.3125, 7.1875, 7.0625, 7.0625, 7.1875, 7.4375, 7.625, 7.8125, 7.9375, 7.9375, 7.9375, 7.9375, 7.9375, 8.0803566, 8.6904764, 9.0133934, 9.4285717, 9.4375, 9.6875, 10.084822, 10.419643, 10.5625, 10.5, 10.4375, 10.4375, 10.633928, 11.154762, 11.272322, 11.40625, 11.46875, 11.638393, 11.78125, 11.90625, 11.90625, 11.678572, 11.104167, 10.443452, 10.0625, 9.7410717, 9.625, 9.625, 9.6875, 9.8125, 9.875, 10.0625, 10.375, 10.625, 10.875, 11, 11.25, 11.5, 11.75, 12, 12, 12, 12.125, 12.375, 12.625, 13, 13.375, 13.625, 13.875, 14, 14, 14, 14.1875, 14.4375, 14.6875, 14.9375, 15, 15.125, 15.375, 15.625, 15.875, 16, 16.1875, 16.4375, 16.6875, 16.9375, 17.125, 17.3125, 17.5625, 17.8125, 17.9375, 18, 18.0625, 18.3125, 18.5625, 18.8125, 19.0625, 19.125, 19.25, 19.5, 19.6875, 19.875, 20.1875, 20.4375, 20.625, 20.8125, 20.875, 20.875, 21.0625, 21.25, 21.375, 21.625, 21.75, 22, 22.375, 22.625, 22.875, 23, 23.0625, 23.25, 23.5, 23.75, 23.9375, 23.9375, 23.9375, 24, 24.169643, 24.392857, 24.979166, 25.258928, 25.375, 25.625, 25.6875, 26, 26.4375, 26.6875, 26.9375, 27, 27, 27, 27.25, 27.5, 27.75, 28, 28.0625, 28.25, 28.5, 28.75, 29.0625, 29.125, 29.25, 29.5, 29.625, 29.875, 30, 30.1875, 30.4375, 30.6875, 30.9375, 31, 31.125, 31.3125, 31.5, 31.6875, 31.75, -10, -10, -10, -10, -10, -10, -10, -10, -10, -10, -10, -10, -10, -10, -10, 16.5, 16.624998, 16.729166, 16.9375, 16.9375, 16.875, 16.625, 16.3125, 16.0625, 15.875, 15.875, 15.9375, 16.0625, -10, -10, -10, -10, -10, -10, -10, -10, -10, -10, -10, -10, 29.4375, 29.541666, 29.473213, 29.098213, 28.803572, 28.625, 28.625, 28.9375, 29.232143, 29.5, 29.82143, 29.910713, 29.875, 29.75, 29.5, 29.4375, 29.5, 29.75, 30.125, 30.3125, 30.526787, 30.669643, 30.553572, 30.401787, 30.25, 30.160713, 30.25, 30.5, 30.4375, 30.5, 30.3125, 30.125, 30.1875, 30.375, 30.625, 30.8125, 31, 30.875, 30.75, 30.5, 30.25, 29.9375, 29.5625, 29.3125, 29.0625, 28.8125, 28.625, 28.375, 28.125, 28, 27.8125, 27.625, 27.4375, 27.3125, 26.830357, 26.059525, 25.803572, 25.6875, 25.660713, 25.642857, 25.491072, 25.205357, 25.142857, 24.90625, 24.8125, 24.5625, 24.232143, 23.354166, 23.160713, 22.9375, 23, 22.803572, 22.4375, 22.25, 22.03125, 21.991072, 21.666666, 21.580357, 21.53125, 21.473213, 21.3125, 21, 20.639286, 20.875, 20.772322, 20.84375, 20.71875, 20.375, 20.25, 20.361607, 20.721727, 21.15625, 21.4375, 21.433037, 20.96726, 20.809523, 21.020834, 21.241072, 21.375, 21.3125, 21.1875, 21.1875, 21.4375, 21.6875, 21.9375, 21.9375, 22, 21.973213, 21.767857, 21.830357, 21.875, 21.973213, 22.0625, 22.0625, 22.125, 22.375, 22.3125, 21.880951, 21.785713, 21.625, 21.8125, 22, 22.035713, 21.955357, 21.758928, 21.776787, 22.044643, 22.107143, 22.1875, 22.026787, 21.9375, 21.875, 21.9375, 22, 21.9375, 21.9375, 21.9375, 22, 22.0625, 21.982143, 21.875, 21.875, 21.875, 22, 22.1875, 22.375, 22.5625, 22.625, 22.4375, 22.25, 21.928572, 21.737499, 21.866072, 21.803572, 21.741072, 21.345238, 20.700001, -10, -10, -10, -10, -10, -10, -10, -10, -10, -10, -10, -10, -10, -10, 9.7460318, 8.1285715, 7.7083335, 7.3526783, 7.40625, 7.40625, 7.375, 7.3125, 7.125, 7.0625, 7.0625, 7.15625, 7.40625, 7.59375, 7.78125, 7.9375, 7.9375, 7.9375, 8, 8, 8.2053566, 8.9404764, 9.3705359, 9.6875, 9.875, 10, 10.15625, 10.375, 10.625, 10.660714, 10.6875, 10.75, 10.8125, 11.071428, 11.15625, 11.21875, 11.34375, 11.607143, 11.84375, 12.15625, 12.21875, 12.084822, 11.541667, 10.925595, 10.5625, 10.241072, 10.0625, 9.9375, 9.875, 9.875, 9.875, 10, 10.3125, 10.5625, 10.8125, 11, 11.25, 11.5, 11.75, 12, 12, 12, 12.1875, 12.4375, 12.6875, 13, 13.25, 13.5, 13.75, 13.9375, 14, 14, 14.125, 14.375, 14.625, 14.875, 15, 15.125, 15.375, 15.625, 15.875, 16, 16.1875, 16.4375, 16.6875, 16.9375, 17.125, 17.3125, 17.5625, 17.8125, 17.9375, 18, 18.0625, 18.3125, 18.5625, 18.875, 19.1875, 19.3125, 19.4375, 19.5625, 19.625, 19.75, 20, 20.3125, 20.5625, 20.6875, 20.8125, 20.8125, 20.9375, 21.125, 21.25, 21.5, 21.6875, 22.0625, 22.4375, 22.6875, 22.9375, 23, 23, 23.1875, 23.4375, 23.6875, 23.9375, 23.9375, 23.9375, 24, 24.169643, 24.392857, 24.979166, 25.258928, 25.4375, 25.6875, 25.75, 26.0625, 26.4375, 26.6875, 26.9375, 27, 27, 27, 27.25, 27.5, 27.75, 28, 28.0625, 28.25, 28.4375, 28.696428, 29.125
-10, -10, -10, -10, -10, 29, 29.1875, 29.354166, 29.410713, 29.160713, 28.964287, 28.75, 28.625, 28.875, 29.107143, 29.3125, 29.63393, 29.660713, 29.625, 29.633928, 29.625, 29.5625, 29.75, 29.875, 30.1875, 30.375, 30.526787, 30.669643, 30.553572, 30.464287, 30.3125, 30.223213, 30.25, 30.4375, 30.46875, 30.625, 30.625, 30.5, 30.40625, 30.464287, 30.625, 30.75, 31, 30.9375, 30.875, 30.6875, 30.4375, 30, 29.517857, 29.25, 29, 28.8125, 28.625, 28.375, 28.0625, 27.9375, 27.75, 27.5625, 27.4375, 27.375, 27.008928, 26.291668, 26.053572, 25.9375, 25.883928, 25.660713, 25.455357, 25.3125, 25.1875, 24.90625, 24.6875, 24.375, 24.107143, 23.291666, 23.160713, 22.9375, 23, 22.794643, 22.25, 22.0625, 21.84375, 21.803572, 21.416666, 21.357143, 21.263393, 21.125, 21.125, 20.75, 20.353573, 20.6875, 20.558035, 20.71875, 20.71875, 20.5625, 20.669643, 20.799107, 21.052084, 21.34375, 21.46875, 21.339287, 20.895832, 20.809523, 21.083334, 21.366072, 21.4375, 21.375, 21.1875, 21.1875, 21.4375, 21.6875, 21.9375, 22, 22.0625, 21.973213, 21.705357, 21.758928, 22.041666, 22.139881, 22.104166, 22.125, 22.169643, 22.4375, 22.38393, 22.014286, 21.976191, 21.642857, 21.875, 21.9375, 22.035713, 21.955357, 21.830357, 21.839287, 22.107143, 22.232143, 22.3125, 22.276787, 22.25, 22.125, 22.0625, 21.964287, 21.875, 21.875, 21.9375, 22, 22, 21.857143, 21.6875, 21.6875, 21.75, 21.9375, 22.25, 22.4375, 22.5625, 22.625, 22.375, 22.1875, 21.928572, 21.799999, 21.991072, 21.928572, 21.928572, 21.428572, 20.966667, -10, -10, -10, -10, -10, -10, -10, -10, -10, -10, -10, -10, -10, -10, -10, 7.4499998, 7.375, 7.15625, 7.34375, 7.34375, 7.3125, 7.25, 7.1339283, 7.3125, 7.1875, 7.2455359, 7.40625, 7.59375, 7.84375, 8, 7.96875, 7.875, 7.875, 7.8928571, 8.2767849, 9.0565481, 9.5267859, 9.8125, 9.9375, 10.0625, 10.1875, 10.375, 10.625, 10.723214, 10.8125, 10.875, 10.875, 11, 11.125, 11.25, 11.5, 11.857143, 12.125, 12.4375, 12.482143, 12.157739, 11.613095, 11.258928, 10.991072, 10.678572, 10.366072, 9.979167, 9.8928566, 9.875, 9.9375, 10, 10.25, 10.5, 10.75, 11, 11.25, 11.5, 11.75, 12, 12, 12, 12.125, 12.375, 12.625, 12.875, 13.1875, 13.4375, 13.6875, 13.9375, 14, 14, 14.0625, 14.3125, 14.5625, 14.8125, 15, 15.1875, 15.4375, 15.6875, 15.9375, 16, 16.125, 16.375, 16.625, 16.875, 17.125, 17.3125, 17.5625, 17.8125, 17.9375, 18, 18.125, 18.375, 18.625, 18.9375, 19.1875, 19.375, 19.5625, 19.625, 19.625, 19.6875, 19.8125, 20.125, 20.375, 20.4375, 20.625, 20.6875, 20.8125, 21, 21.1875, 21.4375, 21.6875, 22.0625, 22.3125, 22.5625, 22.8125, 22.9375, 23, 23.1875, 23.4375, 23.6875, 23.9375, 24, 24, 24.0625, 24.1875, 24.392857, 24.979166, 25.321428, 25.5625, 25.8125, 25.875, 26.0625, 26.375, 26.625, 26.875, 27, 27, 27, 27.25, 27.5, 27.75, 28, 28, 28.1875, 28.375, 28.633928, 29.0625, 29.0625, 29.25, 29.4375, 29.625, 29.875, 30, 30.125, 30.375, 30.625, 30.875, 31, 31.1875, 31.375, 31.4375, 31.5625, 31.5, -10, -10, -10, -10, -10, -10, -10, -10, -10, -10, -10, -10, -10, -10, -10, -10, 16.666666, 16.770832, 16.875, 16.9375, 16.875, 16.8125, 16.625, 16.330357, 16.125, 16.041666, 16, 16.111113, -10, -10, -10, -10, -10, -10, -10, -10, -10, -10, 28.875, 29, 29.125, 29.3125, 29.348213, 29.098213, 28.901787, 28.75, 28.625, 28.875, 29.044643, 29.125, 29.401787, 29.392857, 29.299999, 29.633928, 29.708334, 29.714287, 30, 30.035713, 30.3125, 30.5625, 30.6875, 30.75, 30.625, 30.526787, 30.375, 30.285713, 30.25, 30.3125, 30.28125, 30.375, 30.571428, 30.4375, 30.513393, 30.589287, 30.75, 30.8125, 31, 30.9375, 30.875, 30.75, 30.5, 30.0625, 29.535713, 29.25, 29, 28.875, 28.678572, 28.3125, 28.0625, 27.875, 27.75, 27.625, 27.5625, 27.5, 27.1875, 26.5, 26.196428, 26.0625, 26.008928, 25.651785, 25.247025, 25.080357, 24.9375, 24.78125, 24.5625, 24.25, 23.991072, 23.375, 23.267857, 23.125, 23.116072, 22.711309, 22.196428, 22, 21.71875, 21.616072, 21.166666, 21.044643, 21.013393, 20.9375, 21, 20.75, 20.478573, 20.8125, 20.683035, 20.78125, 20.71875, 20.625, 20.857143, 21.09375, 21.254463, 21.40625, 21.40625, 21.232143, 20.979166, 20.916666, 21.270834, 21.428572, 21.4375, 21.375, 21.125, 21.1875, 21.4375, 21.6875, 21.9375, 22, 22, 21.848213, 21.580357, 21.696428, 22.077381, 22.202381, 22.166666, 22.125, 22.169643, 22.375, 22.348215, 22.112499, 22.011906, 21.669643, 21.875, 21.8125, 21.910713, 21.767857, 21.642857, 21.651787, 21.982143, 22.200893, 22.375, 22.495537, 22.53125, 22.375, 22.15625, 21.857143, 21.75, 21.75, 21.875, 22, 22, 21.794643, 21.625, 21.625, 21.6875, 21.9375, 22.1875, 22.3125, 22.375, 22.375, 22.1875, 22.0625, 21.866072, 21.799999, 21.991072, 21.991072, 22.053572, 21.532738, 21.1625, 21.5, -10, -10, -10, -10, -10, -10, -10, -10, -10, -10, -10, -10, -10, -10, 7.2666664, 7.3571429, 7.40625, 7.59375, 7.59375, 7.4375, 7.3125, 7.1339283, 7.3125, 7.3125, 7.4330359, 7.59375, 7.71875, 7.875, 7.90625, 7.8125, 7.65625, 7.6696429, 7.9970236, 8.3839283, 9.0119047, 9.3794641, 9.65625, 9.84375, 10.03125, 10.25, 10.4375, 10.75, 10.910714, 10.9375, 11, 10.9375, 11.0625, 11.25, 11.4375, 11.75, 12.044643, 12.25, 12.5, 12.419643, 12.095239, 11.550595, 11.196428, 11.0625, 10.928572, 10.544643, 9.958334, 9.7857141, 9.75, 9.875, 10, 10.25, 10.5, 10.75, 11, 11.25, 11.5, 11.75, 12, 12, 12, 12.125, 12.375, 12.625, 12.875, 13.1875, 13.4375, 13.6875, 13.9375, 14, 14, 14, 14.1875, 14.4375, 14.6875, 14.9375, 15.1875, 15.4375, 15.6875, 15.9375, 16, 16.0625, 16.25, 16.5, 16.75, 17.0625, 17.25, 17.5, 17.75, 17.875, 18, 18.0625, 18.3125, 18.5625, 18.875, 19.1875, 19.40625, 19.65625, 19.65625, 19.59375, 19.625, 19.625, 20, 20.375, 20.4375, 20.6875, 20.75, 20.875, 21.125, 21.375, 21.625, 21.8125, 22.125, 22.25, 22.5, 22.75, 22.875, 23, 23.1875, 23.4375, 23.6875, 23.9375, 24, 24, 24.1875, 24.4375, 24.6875, 25.0625, 25.25, 25.375, 25.625, 25.75, 26.0625, 26.4375, 26.6875, 26.9375, 27, 27, 27, 27.25, 27.5, 27.75, 28, 28, 28.1875, 28.375, 28.633928, 29.0625
-10, -10, 28.549999, 28.433334, 28.821428, 28.928572, 29.125, 29.3125, 29.4375, 29.410713, 29.214287, 29.125, 28.9375, 29.125, 29.1875, 29.25, 29.375, 29.294643, 29.237499, 29.571428, 29.833334, 29.901787, 30.1875, 30.160713, 30.3125, 30.5625, 30.6875, 30.75, 30.8125, 30.75, 30.5, 30.375, 30.1875, 30.125, 30.15625, 30.3125, 30.357143, 30.625, 30.763393, 30.776787, 30.875, 30.875, 31, 31, 31, 30.9375, 30.6875, 30.196428, 29.452379, 29.125, 28.8125, 28.767857, 28.578571, 28.125, 27.9375, 27.8125, 27.8125, 27.75, 27.6875, 27.482143, 27.032738, 26.488094, 26.258928, 26.1875, 26.133928, 25.714285, 24.976191, 24.785713, 24.625, 24.625, 24.5625, 24.3125, 24.116072, 23.75, 23.625, 23.5, 23.357143, 22.690475, 22.142857, 22, 21.8125, 21.678572, 21.166666, 20.919643, 20.794643, 20.75, 20.8125, 20.6875, 20.451786, 20.678572, 20.580357, 20.354166, 20.258928, 20.25, 20.669643, 21.107143, 21.348213, 21.4375, 21.3125, 21.125, 21.0625, 21, 21.25, 21.375, 21.375, 21.375, 21.125, 21.25, 21.5, 21.75, 22, 22, 21.875, 21.6875, 21.580357, 21.886906, 22.309525, 22.389881, 22.229166, 22.125, 22.107143, 22.25, 22.303572, 22.237499, 22.136906, 21.857143, 21.9375, 21.75, 21.785713, 21.580357, 21.455357, 21.4375, 21.6875, 21.96875, 22.25, 22.53125, 22.59375, 22.4375, 22.15625, 21.857143, 21.8125, 21.8125, 21.9375, 22, 21.875, 21.6875, 21.625, 21.625, 21.75, 21.9375, 22.125, 22.25, 22.25, 22.25, 22.125, 22, 21.9375, 22, 22.0625, 22.0625, 22.053572, 21.541666, 21.35, 21.555555, -10, -10, -10, -10, -10, -10, -10, -10, -10, -10, -10, -10, -10, -10, 22.0625, 22.0625, 7.65625, 7.78125, 7.71875, 7.5, 7.375, 7.2589283, 7.46875, 7.46875, 7.5892859, 7.6875, 7.84375, 8.0625, 7.9776783, 7.7125001, 7.7901783, 7.8035717, 8.2470236, 8.6964283, 9.0535717, 9.3883934, 9.65625, 9.84375, 9.96875, 10.125, 10.3125, 10.625, 10.910714, 11, 11.0625, 11.0625, 11.1875, 11.4375, 11.625, 11.8125, 12, 12.125, 12.3125, 12.169643, 11.791667, 11.446428, 11.125, 11.0625, 10.928572, 10.46131, 9.8511906, 9.7232141, 9.6875, 9.875, 10, 10.25, 10.5, 10.75, 11.0625, 11.3125, 11.5625, 11.8125, 12, 12, 12.0625, 12.1875, 12.4375, 12.6875, 12.9375, 13.1875, 13.4375, 13.6875, 13.875, 14, 14, 14.0625, 14.25, 14.5, 14.75, 15, 15.25, 15.5, 15.75, 15.9375, 16, 16, 16.1875, 16.4375, 16.6875, 17.0625, 17.25, 17.4375, 17.6875, 17.8125, 17.9375, 18.0625, 18.3125, 18.5625, 18.875, 19.125, 19.34375, 19.53125, 19.46875, 19.46875, 19.5, 19.625, 20.0625, 20.4375, 20.5625, 20.75, 20.8125, 20.9375, 21.1875, 21.4375, 21.6875, 21.875, 22.0625, 22.125, 22.3125, 22.5625, 22.75, 22.9375, 23.125, 23.3125, 23.5, 23.758928, 24, 24, 24.3125, 24.5, 24.75, 25.125, 25.3125, 25.5, 25.75, 25.875, 26.125, 26.4375, 26.607143, 26.6875, 26.8125, 26.928572, 27.035713, 27.3125, 27.5625, 27.75, 28, 28, 28.1875, 28.375, 28.633928, 29.0625, 29.0625, 29.125, 29.3125, 29.5, 29.75, 30, 30.1875, 30.4375, 30.6875, 30.9375, 31, 31.0625, 31.125, 31.125, 31.3125, 31.333334, -10, -10, -10, -10, -10, -10, -10, -10, -10, -10, -10, -10, -10, -10, -10, -10, 17.125, 17.25, 17.151787, 16.916666, 16.892857, 16.875, 17, 16.892857, 16.71875, 16.625, -10, -10, -10, -10, -10, -10, -10, -10, -10, 29, 28.588888, 28.455557, 28.758928, 29.011906, 29.303572, 29.5625, 29.625, 29.5625, 29.375, 29.25, 29.0625, 29.125, 29.1875, 29.1875, 29.3125, 29.294643, 29.299999, 29.696428, 29.958334, 30.026787, 30.25, 30.098213, 30.1875, 30.375, 30.4375, 30.5625, 30.6875, 30.6875, 30.5, 30.375, 30.1875, 30.0625, 30.15625, 30.3125, 30.5625, 30.75, 30.888393, 30.901787, 30.9375, 30.9375, 31, 31, 31, 31, 30.8125, 30.383928, 29.648809, 29.020834, 28.705357, 28.705357, 28.578571, 28.1875, 28, 27.8125, 27.8125, 27.75, 27.75, 27.544643, 27.095238, 26.577381, 26.383928, 26.3125, 26.276785, 25.738094, 24.976191, 24.785713, 24.6875, 24.75, 24.75, 24.5, 24.3125, 24.0625, 23.875, 23.875, 23.607143, 22.720238, 22.25, 22, 21.875, 21.6875, 21.375, 21.089287, 20.857143, 20.714287, 20.75, 20.6875, 20.651787, 20.75, 20.580357, 20.020832, 19.830357, 19.8125, 20.294643, 20.839287, 21.098213, 21.1875, 21.1875, 21.0625, 21.0625, 21.0625, 21.25, 21.375, 21.375, 21.375, 21.125, 21.25, 21.5, 21.75, 22, 22, 21.8125, 21.5625, 21.455357, 21.770834, 22.309525, 22.354166, 22.229166, 22.0625, 22.107143, 22.1875, 22.178572, 22.112499, 22.119049, 21.857143, 22, 21.8125, 21.785713, 21.517857, 21.392857, 21.3125, 21.5, 21.78125, 22, 22.34375, 22.46875, 22.375, 22.15625, 21.857143, 21.8125, 21.8125, 21.9375, 22, 21.9375, 21.8125, 21.75, 21.75, 21.8125, 21.9375, 22.0625, 22.125, 22.125, 22.125, 22.0625, 22, 22, 22.0625, 22.125, 22.125, 22.09375, 21.75, 21.583334, 21.555555, -10, -10, -10, -10, -10, -10, -10, -10, -10, -10, -10, -10, -10, -10, 22.208334, 22.208334, 7.8333335, 7.8125, 7.7083335, 7.5, 7.3125, 7.1964283, 7.40625, 7.40625, 7.4955359, 7.65625, 7.875, 8.1294641, 7.9776783, 7.6767859, 7.7901783, 7.9464283, 8.5282736, 9.0401783, 9.3348217, 9.53125, 9.65625, 9.78125, 9.90625, 10.125, 10.3125, 10.5, 10.75, 10.8125, 10.9375, 11.09375, 11.28125, 11.53125, 11.78125, 11.9375, 12.125, 12.1875, 12.25, 12.044643, 11.479167, 11.160714, 10.9375, 10.9375, 10.857143, 10.190476, 9.5476189, 9.4732141, 9.5625, 9.8125, 10, 10.25, 10.5, 10.75, 11.125, 11.375, 11.625, 11.875, 12, 12, 12.125, 12.25, 12.5, 12.75, 12.9375, 13.25, 13.5, 13.75, 13.9375, 14, 14, 14.125, 14.3125, 14.5625, 14.8125, 15.0625, 15.3125, 15.5625, 15.8125, 15.9375, 16, 16.0625, 16.25, 16.5, 16.75, 17, 17.125, 17.3125, 17.5625, 17.75, 17.9375, 18.0625, 18.3125, 18.5625, 18.8125, 19, 19.21875, 19.40625, 19.46875, 19.59375, 19.625, 19.75, 20.0625, 20.3125, 20.5, 20.6875, 20.875, 21.125, 21.375, 21.625, 21.8125, 21.9375, 22, 22, 22.125, 22.375, 22.625, 22.875, 23.0625, 23.25, 23.375, 23.633928, 23.9375, 24, 24.375, 24.5625, 24.8125, 25.0625, 25.1875, 25.375, 25.625, 25.8125, 26.0625, 26.25, 26.357143, 26.375, 26.5625, 26.803572, 26.973213, 27.25, 27.5, 27.6875, 27.9375, 28, 28.25, 28.5, 28.75, 29.0625
-10, 29, 28.608332, 28.529167, 28.758928, 29.119047, 29.491072, 29.75, 29.71875, 29.59375, 29.34375, 29.21875, 29.125, 29.1875, 29.25, 29.3125, 29.375, 29.357143, 29.362499, 29.625, 29.770834, 29.964287, 30.160713, 30.098213, 30.125, 30.1875, 30.25, 30.3125, 30.4375, 30.4375, 30.3125, 30.25, 30.125, 30, 30.0625, 30.1875, 30.375, 30.625, 30.794643, 30.875, 30.9375, 30.9375, 31, 31, 31, 31, 30.803572, 30.321428, 29.693451, 29.020834, 28.767857, 28.767857, 28.703571, 28.3125, 28.125, 27.875, 27.75, 27.625, 27.625, 27.357143, 27.032738, 26.577381, 26.383928, 26.25, 26.116072, 25.657738, 24.90476, 24.785713, 24.75, 24.875, 24.9375, 24.678572, 24.229166, 23.946428, 23.75, 23.8125, 23.575893, 22.729166, 22.375, 22.0625, 21.96875, 21.75, 21.5, 21.25, 21.125, 21.125, 21.0625, 21.0625, 21, 20.9375, 20.732143, 20.083332, 19.767857, 19.625, 20, 20.589287, 21.017857, 21.25, 21.375, 21.241072, 20.979166, 20.955357, 21.0625, 21.3125, 21.375, 21.375, 21.1875, 21.25, 21.5, 21.75, 22, 22, 21.741072, 21.291666, 21.247023, 21.675596, 22.07143, 22.1875, 22.125, 21.875, 21.892857, 21.950001, 21.821428, 21.883928, 21.785713, 21.776787, 21.875, 21.75, 21.75, 21.625, 21.5, 21.4375, 21.5625, 21.71875, 21.9375, 22.28125, 22.34375, 22.25, 22.058037, 21.830357, 21.8125, 21.875, 21.9375, 22, 22, 21.9375, 21.9375, 21.9375, 21.9375, 22, 22, 22, 22, 22, 22, 22, 22, 22, 22, 22, 21.90625, 21.5625, 21.408333, -10, -10, -10, -10, -10, -10, -10, -10, -10, -10, -10, -10, -10, 21.875, 22, 22.09375, 22.15625, 22.25, 7.75, 7.604167, 7.4375, 7.3125, 7.25, 7.34375, 7.40625, 7.46875, 7.65625, 7.9375, 8.1919641, 8.0401783, 7.7705359, 7.9151783, 8.1964283, 8.885417, 9.34375, 9.59375, 9.71875, 9.78125, 9.84375, 9.90625, 10.125, 10.3125, 10.5, 10.75, 10.8125, 10.9375, 11.09375, 11.28125, 11.46875, 11.71875, 11.875, 12.0625, 12.125, 12.125, 11.9375, 11.5625, 11.267857, 10.9375, 10.9375, 10.794643, 10.190476, 9.5476189, 9.4732141, 9.5625, 9.8125, 10, 10.1875, 10.375, 10.625, 11.0625, 11.348214, 11.5625, 11.8125, 11.875, 11.9375, 12.1875, 12.375, 12.625, 12.875, 13, 13.25, 13.5, 13.75, 13.9375, 14, 14, 14.125, 14.3125, 14.5625, 14.875, 15.1875, 15.4375, 15.6875, 15.875, 15.9375, 16, 16.0625, 16.25, 16.5, 16.75, 16.9375, 17.0625, 17.25, 17.5, 17.75, 17.9375, 18.0625, 18.3125, 18.5625, 18.8125, 19, 19.15625, 19.34375, 19.46875, 19.65625, 19.75, 19.875, 20.125, 20.375, 20.625, 20.8125, 21.0625, 21.3125, 21.5625, 21.8125, 21.9375, 22, 22, 22, 22.125, 22.375, 22.625, 22.9375, 23.125, 23.3125, 23.4375, 23.633928, 23.9375, 24.0625, 24.4375, 24.625, 24.875, 25, 25.0625, 25.25, 25.5, 25.8125, 26.125, 26.25, 26.294643, 26.1875, 26.375, 26.678572, 26.910713, 27.1875, 27.4375, 27.625, 27.875, 28, 28.25, 28.5, 28.75, 29.0625, 29.0625, 29.0625, 29.3125, 29.5, 29.75, 30, 30.1875, 30.4375, 30.6875, 30.9375, 31, 31, 31.0625, 31.1875, 31.375, 31.5, -10, -10, -10, -10, -10, -10, -10, -10, -10, -10, -10, -10, -10, -10, -10, -10, 17.555555, 17.508333, 17.380953, 17.104166, 16.892857, 16.714287, 16.8125, 16.875, 16.84375, 16.645834, 16.066668, -10, -10, -10, -10, -10, -10, -10, -10, 29, 28.65, 28.576786, 28.928572, 29.297619, 29.678572, 29.875, 29.736607, 29.21875, 28.959822, 28.84375, 28.9375, 29.125, 29.25, 29.375, 29.375, 29.4375, 29.5, 29.5625, 29.75, 30, 30.223213, 30.25, 30.25, 30.1875, 30.1875, 30.1875, 30.3125, 30.375, 30.375, 30.303572, 29.979166, 29.892857, 29.9375, 30.1875, 30.5, 30.6875, 30.651787, 30.75, 30.794643, 30.875, 31, 31, 31, 31, 30.794643, 30.258928, 29.738094, 29.083334, 29.017857, 29.017857, 28.882143, 28.526787, 28.28125, 28.03125, 27.8125, 27.625, 27.5625, 27.214287, 26.818453, 26.598215, 26.375, 26.25, 25.991072, 25.541666, 25.050594, 24.955357, 24.9375, 24.9375, 24.875, 24.616072, 24.104166, 23.821428, 23.5625, 23.5625, 23.366072, 22.71875, 22.397322, 22.09375, 22.03125, 21.875, 21.625, 21.4375, 21.3125, 21.3125, 21.3125, 21.25, 21.125, 21, 20.732143, 20.083332, 19.767857, 19.625, 20, 20.589287, 21.017857, 21.3125, 21.5, 21.366072, 21.104166, 21.017857, 20.9375, 21.1875, 21.25, 21.25, 21.1875, 21.1875, 21.4375, 21.6875, 21.9375, 22, 21.741072, 21.291666, 21.247023, 21.613096, 21.973215, 22.125, 22.125, 22, 22.080357, 22.137501, 22.008928, 22.008928, 21.875, 21.9375, 21.9375, 21.875, 21.875, 21.8125, 21.75, 21.625, 21.6875, 21.75, 21.875, 22.1875, 22.1875, 22.125, 22.026787, 21.9375, 22, 22.0625, 22, 21.964287, 21.875, 21.8125, 21.8125, 21.8125, 21.875, 21.9375, 22, 22.0625, 22.0625, 22.0625, 22.0625, 22, 22, 22, 22, 22, 21.90625, 21.553572, 21.220833, -10, -10, -10, -10, -10, -10, -10, -10, -10, -10, -10, -10, -10, 22.166666, 22.291666, 22.25, 22.28125, 22.25, 7.5, 7.354167, 7.25, 7.1875, 7.25, 7.40625, 7.46875, 7.4598217, 7.40625, 7.7589283, 8.1232147, 7.9553566, 7.819643, 8.0714283, 8.4464283, 8.90625, 9.40625, 9.65625, 9.875, 9.9375, 9.875, 9.8125, 9.9553566, 10.270833, 10.491072, 10.75, 10.8125, 10.9375, 11.15625, 11.34375, 11.53125, 11.78125, 11.875, 12.0625, 12.125, 12.0625, 11.875, 11.5625, 11.267857, 11, 11, 10.732143, 10.136905, 9.6309528, 9.4553566, 9.5625, 9.75, 9.9375, 10.0625, 10.125, 10.330357, 10.979167, 11.285714, 11.5, 11.75, 11.75, 11.875, 12.25, 12.5, 12.75, 13, 13.0625, 13.25, 13.5, 13.75, 13.9375, 14, 14, 14.125, 14.375, 14.625, 14.9375, 15.3125, 15.5625, 15.8125, 16, 16, 16, 16.125, 16.375, 16.625, 16.875, 17, 17.0625, 17.25, 17.5, 17.75, 17.9375, 18.125, 18.375, 18.625, 18.875, 19, 19.125, 19.25, 19.4375, 19.6875, 19.8125, 20.0625, 20.25, 20.4375, 20.6875, 20.8125, 21.125, 21.375, 21.625, 21.875, 21.9375, 22, 22, 22, 22.125, 22.375, 22.6875, 23.0625, 23.3125, 23.5, 23.5625, 23.696428, 23.9375, 24.125, 24.4375, 24.625, 24.9375, 25.035713, 25.125, 25.3125, 25.5, 25.8125, 26.0625, 26.125, 26.107143, 26, 26.25, 26.616072, 26.910713, 27.125, 27.375, 27.5625, 27.875, 28.125, 28.375, 28.625, 28.8125, 29
-10, 29, 28.833334, 28.901787, 29.1875, 29.619047, 29.866072, 30, 29.754463, 28.84375, 28.575893, 28.321428, 28.669643, 28.875, 29, 29.1875, 29.25, 29.375, 29.5, 29.4375, 29.651787, 30.044643, 30.30357, 30.40625, 30.40625, 30.28125, 30.25, 30.3125, 30.375, 30.4375, 30.5, 30.366072, 30.041666, 29.955357, 29.9375, 30.125, 30.375, 30.5, 30.464287, 30.625, 30.732143, 30.875, 31, 31, 31, 31, 30.794643, 30.3125, 30.008928, 29.395834, 29.424107, 29.28125, 29.013393, 28.683037, 28.34375, 28.09375, 27.875, 27.625, 27.5625, 27.294643, 27.089287, 26.955359, 26.5625, 26.366072, 25.892857, 25.541666, 25.241072, 25.0625, 25.0625, 24.875, 24.75, 24.553572, 24.014881, 23.651785, 23.383928, 23.375, 23.223213, 22.694941, 22.46875, 22.15625, 22.15625, 22.0625, 21.8125, 21.6875, 21.5625, 21.5625, 21.625, 21.5, 21.3125, 21.0625, 20.678572, 20.229166, 19.946428, 19.8125, 20.125, 20.669643, 21.116072, 21.375, 21.5625, 21.366072, 21.104166, 21.080357, 21, 21.169643, 21.125, 21.125, 21.125, 21.375, 21.5625, 21.8125, 21.875, 21.875, 21.616072, 21.104166, 21.068451, 21.386906, 21.794643, 22, 22.0625, 22, 22.080357, 22.137501, 22.008928, 22.008928, 21.875, 21.9375, 21.9375, 21.875, 21.875, 21.875, 21.875, 21.8125, 21.875, 21.875, 21.9375, 22.1875, 22.1875, 22.0625, 22.026787, 22.145834, 22.25, 22.3125, 22.0625, 21.928574, 21.75, 21.625, 21.625, 21.625, 21.75, 21.875, 22, 22.125, 22.1875, 22.21875, 22.21875, 22.15625, 22.09375, 22.0625, 22.0625, 21.9375, 21.78125, 21.366072, 20.908333, -10, -10, -10, -10, -10, -10, -10, -10, -10, -10, 21.75, 22, 22.339287, 22.21875, 22.34375, 22.34375, 22.333334, 7, 7.25, 7.166667, 7.125, 7.0625, 7.125, 7.25, 7.375, 7.3660717, 7.3125, 7.5714283, 7.8107142, 7.7589283, 7.8571429, 8.0625, 8.5, 8.96875, 9.46875, 9.71875, 9.9375, 10, 10, 10, 10.205357, 10.520833, 10.678572, 10.875, 10.875, 10.9375, 11.15625, 11.34375, 11.53125, 11.78125, 11.875, 12.0625, 12.098214, 11.892857, 11.696428, 11.4375, 11.205357, 11, 11, 10.741072, 10.345238, 9.8005953, 9.5803566, 9.625, 9.75, 9.9375, 10.0625, 10.125, 10.330357, 10.916667, 11.223214, 11.4375, 11.6875, 11.75, 11.875, 12.1875, 12.4375, 12.6875, 12.9375, 13, 13.25, 13.5, 13.75, 14, 14, 14, 14.125, 14.375, 14.625, 14.9375, 15.3125, 15.5625, 15.8125, 16, 16, 16, 16.1875, 16.4375, 16.6875, 16.9375, 17.0625, 17.125, 17.375, 17.625, 17.8125, 18, 18.125, 18.375, 18.625, 18.875, 19, 19.0625, 19.1875, 19.4375, 19.6875, 19.9375, 20.1875, 20.25, 20.4375, 20.625, 20.75, 21.125, 21.4375, 21.6875, 21.9375, 22, 22, 21.9375, 21.9375, 22.125, 22.419643, 22.8125, 23.25, 23.4375, 23.625, 23.6875, 23.75, 23.875, 24.125, 24.3125, 24.5, 24.8125, 24.910713, 25, 25.25, 25.4375, 25.75, 26, 26, 26, 26, 26.25, 26.5625, 26.8125, 27, 27.1875, 27.4375, 27.8125, 28.232143, 28.5, 28.75, 28.875, 29, 29, 29.125, 29.375, 29.5625, 29.8125, 29.9375, 30.0625, 30.3125, 30.5625, 30.8125, 30.9375, 31, 31.1875, 31.375, 31.5, 31.666666, -10, -10, -10, -10, -10, -10, -10, -10, -10, -10, -10, -10, -10, -10, -10, -10, -10, 17.299999, 17.25, 17.25, 17.0625, 16.901787, 16.982143, 17.398809, 17.625, 16.887754, 16.676189, 17.339287, 18.107143, -10, -10, -10, -10, -10, -10, 28.9375, 28.958334, 29.120537, 29.450893, 29.785715, 29.875, 29.8125, 29.39732, 28.40625, 28.138393, 28.09375, 28.464287, 28.75, 28.9375, 29.25, 29.375, 29.5625, 29.625, 29.5, 29.714287, 30.151787, 30.42857, 30.53125, 30.46875, 30.34375, 30.3125, 30.375, 30.4375, 30.5, 30.5625, 30.428572, 30.104166, 29.955357, 29.875, 30, 30.25, 30.285713, 30.214287, 30.589287, 30.767857, 30.96875, 31.09375, 31.0625, 31, 31, 30.794643, 30.3125, 30.0625, 29.6875, 29.65625, 29.46875, 29.075893, 28.683037, 28.34375, 28.09375, 27.9375, 27.678572, 27.4375, 27.169643, 26.964287, 26.928572, 26.5, 26.303572, 25.776787, 25.625, 25.357143, 25.1875, 25.125, 24.8125, 24.625, 24.428572, 23.827381, 23.464285, 23.196428, 23.0625, 22.910713, 22.611607, 22.486607, 22.28125, 22.28125, 22.25, 22, 21.8125, 21.75, 21.6875, 21.6875, 21.642857, 21.645834, 21.354166, 20.75, 20.419643, 20.125, 19.9375, 20.0625, 20.491072, 21.095238, 21.375, 21.5625, 21.303572, 21.041666, 21.080357, 21.0625, 21.232143, 21.25, 21.25, 21.3125, 21.5625, 21.6875, 21.875, 21.8125, 21.75, 21.553572, 21.104166, 21.193451, 21.565477, 21.794643, 22, 22, 22.0625, 22.174107, 22.231251, 22.165178, 22.165178, 21.9375, 21.9375, 21.8125, 21.625, 21.625, 21.6875, 21.75, 21.875, 22, 22, 22.0625, 22.125, 22.125, 21.9375, 21.839287, 22.038691, 22.333334, 22.419643, 22.1875, 21.991074, 21.8125, 21.8125, 21.833334, 21.666666, 21.75, 21.8125, 22.0625, 22.25, 22.375, 22.40625, 22.34375, 22.21875, 22.09375, 22.0625, 22.0625, 21.9375, 21.8125, 21.419643, 20.741667, 20.366667, -10, -10, -10, -10, -10, -10, -10, -10, -10, 21.916666, 22, 22.130951, 22.15625, 22.260416, 22.28125, 22.291668, 7, 7.125, 7.0833335, 7.0625, 7.0625, 7.1875, 7.3125, 7.5, 7.5535717, 7.375, 7.5089283, 7.5875001, 7.5714283, 7.7678571, 8.0625, 8.4821434, 8.875, 9.3125, 9.5625, 9.8125, 10, 10.125, 10.1875, 10.392857, 10.708333, 10.928572, 11.0625, 11.0625, 11.125, 11.25, 11.4375, 11.625, 11.75, 11.75, 11.892857, 12.035714, 11.830357, 11.696428, 11.5, 11.303572, 11.0625, 11.0625, 10.75, 10.553572, 10.041667, 9.7678566, 9.75, 9.8125, 9.9375, 10.0625, 10.125, 10.330357, 10.854167, 11.160714, 11.375, 11.625, 11.75, 11.875, 12.125, 12.3125, 12.5625, 12.8125, 12.9375, 13.1875, 13.4375, 13.6875, 13.9375, 14, 14, 14.125, 14.375, 14.625, 14.9375, 15.3125, 15.5625, 15.8125, 16, 16, 16.0625, 16.25, 16.5, 16.75, 16.9375, 17.0625, 17.125, 17.375, 17.625, 17.8125, 18, 18.125, 18.375, 18.625, 18.875, 19, 19, 19.0625, 19.3125, 19.5625, 19.875, 20.1875, 20.3125, 20.5625, 20.75, 20.875, 21.125, 21.3125, 21.5625, 21.8125, 21.9375, 22, 21.9375, 22, 22.25, 22.544643, 22.9375, 23.3125, 23.4375, 23.5625, 23.6875, 23.75, 23.875, 24.1875, 24.25, 24.375, 24.6875, 24.785713, 24.9375, 25.1875, 25.3125, 25.625, 25.875, 26.0625, 26.125, 26.125, 26.392857, 26.6875, 26.875, 27.0625, 27.125, 27.383928, 27.875, 28.232143, 28.5625, 28.75, 28.875, 29
-10, 28.8125, 28.875, 29.058037, 29.388393, 29.785715, 29.8125, 29.75, 29.25, 27.958334, 27.651787, 27.625, 28.151787, 28.607143, 28.875, 29.25, 29.348213, 29.464287, 29.625, 29.535713, 29.776787, 30.151787, 30.330357, 30.46875, 30.40625, 30.34375, 30.3125, 30.375, 30.375, 30.4375, 30.5, 30.366072, 30.104166, 29.955357, 29.8125, 29.875, 30.0625, 30.035713, 30.026787, 30.464287, 30.705357, 30.96875, 31.09375, 31.0625, 31, 30.9375, 30.741072, 30.375, 30.125, 29.803572, 29.510416, 29.21875, 28.790178, 28.53125, 28.15625, 27.995537, 28, 27.761906, 27.333334, 27.089287, 26.776787, 26.803572, 26.4375, 26.303572, 25.901787, 25.75, 25.419643, 25.151787, 25.0625, 24.6875, 24.5, 24.3125, 23.848213, 23.517857, 23.258928, 23.0625, 22.879463, 22.549107, 22.424107, 22.28125, 22.4375, 22.5, 22.205357, 22.008928, 21.875, 21.75, 21.75, 21.767857, 21.833334, 21.568453, 20.991072, 20.4375, 20.205357, 20.0625, 20.21875, 20.647322, 21.081844, 21.28125, 21.375, 21.125, 21.15625, 21.28125, 21.34375, 21.450893, 21.4375, 21.4375, 21.5, 21.75, 21.8125, 21.9375, 21.8125, 21.75, 21.625, 21.4375, 21.526787, 21.732143, 21.803572, 21.9375, 22.0625, 22.294643, 22.388393, 22.28125, 22.34375, 22.21875, 22.0625, 21.9375, 21.75, 21.5625, 21.5625, 21.6875, 21.75, 21.875, 22, 22, 22, 22.0625, 22.0625, 21.9375, 21.9375, 22.163691, 22.458334, 22.482143, 22.25, 21.991074, 21.8125, 21.8125, 21.833334, 21.729166, 21.8125, 21.875, 22.125, 22.25, 22.375, 22.40625, 22.34375, 22.21875, 22.09375, 22.0625, 22.0625, 21.9375, 21.875, 21.544643, 20.854166, 20.633333, -10, -10, -10, -10, -10, -10, -10, -10, -10, 21.875, 21.875, 21.973215, 22.25, 22.34375, 22.375, 22.375002, 7.125, 7.1666665, 7.1875, 7.1875, 7.125, 7.125, 7.125, 7.375, 7.4910717, 7.375, 7.4464283, 7.4000001, 7.3839283, 7.5803571, 7.9375, 8.3571434, 8.6875, 9.0625, 9.3125, 9.5625, 9.8125, 10, 10.1875, 10.455357, 10.770833, 10.928572, 10.9375, 10.9375, 11.0625, 11.357143, 11.625, 11.8125, 11.78125, 11.59375, 11.669642, 11.973214, 11.830357, 11.727678, 11.40625, 11.21875, 11.09375, 11.0625, 10.741072, 10.291667, 10.017857, 9.75, 9.8125, 9.875, 9.9375, 10.125, 10.25, 10.455357, 10.916667, 11.1875, 11.4375, 11.6875, 11.875, 11.9375, 12.125, 12.3125, 12.5625, 12.8125, 12.9375, 13.125, 13.3125, 13.5625, 13.8125, 13.9375, 14, 14.125, 14.375, 14.625, 14.875, 15.1875, 15.4375, 15.6875, 15.9375, 16, 16.0625, 16.25, 16.4375, 16.6875, 16.875, 17, 17.0625, 17.25, 17.5, 17.6875, 17.9375, 18.0625, 18.25, 18.5, 18.75, 18.9375, 19, 19, 19.25, 19.5, 19.8125, 20.1875, 20.375, 20.625, 20.8125, 20.9375, 21.0625, 21.1875, 21.4375, 21.6875, 21.875, 22, 22, 22.125, 22.375, 22.669643, 23, 23.25, 23.375, 23.5, 23.625, 23.75, 23.875, 24.1875, 24.25, 24.375, 24.6875, 24.785713, 24.9375, 25.125, 25.1875, 25.4375, 25.75, 26.035713, 26.125, 26.1875, 26.401787, 26.8125, 26.9375, 27.125, 27.0625, 27.330357, 27.9375, 28.232143, 28.625, 28.75, 28.875, 29, 29.0625, 29.1875, 29.3125, 29.5, 29.6875, 29.8125, 30.125, 30.375, 30.660713, 30.875, 30.9375, 31.0625, 31.3125, 31.5, 31.6875, 31.833334, -10, -10, -10, -10, -10, -10, -10, -10, -10, -10, -10, -10, -10, -10, -10, -10, 16.8125, 17, 16.895834, 16.75, 16.888393, 17.107143, 17.489796, 18.596725, 18.78125, 18.658163, 18.153061, 18.295918, 19.041666, 20.304762, -10, -10, -10, -10, -10, 28.8125, 28.958334, 29.09375, 29.28125, 29.607143, 29.5625, 29.4375, 29.071428, 28.315477, 27.928572, 28, 28.459185, 28.950893, 29.09375, 29.28125, 29.254463, 29.276787, 29.375, 29.223213, 29.464287, 29.839287, 30.0625, 30.21875, 30.21875, 30.21875, 30.25, 30.3125, 30.1875, 30.1875, 30.1875, 30.1875, 30.3125, 30.1875, 30.125, 30.0625, 30.0625, 30.035713, 30.0625, 30.464287, 30.723213, 30.96875, 31.09375, 31.0625, 31, 30.9375, 30.75, 30.5625, 30.3125, 29.991072, 29.572916, 29.107143, 28.870537, 28.629463, 28.205357, 28.026787, 27.9375, 27.699406, 27.208334, 26.982143, 26.8125, 26.803572, 26.5, 26.366072, 25.964287, 25.8125, 25.357143, 24.995537, 24.90625, 24.53125, 24.46875, 24.3125, 23.848213, 23.580357, 23.321428, 23.125, 22.910713, 22.517857, 22.455357, 22.375, 22.625, 22.6875, 22.392857, 22.196428, 22, 21.875, 21.8125, 21.830357, 21.958334, 21.755953, 21.303572, 20.8125, 20.571428, 20.229166, 20.299107, 20.647322, 21.081844, 21.21875, 21.25, 21.0625, 21.15625, 21.40625, 21.65625, 21.763393, 21.75, 21.75, 21.75, 22, 22, 22, 21.8125, 21.6875, 21.625, 21.5625, 21.714287, 21.982143, 21.973215, 21.9375, 22.0625, 22.205357, 22.263393, 22.15625, 22.15625, 22.03125, 21.9375, 21.8125, 21.6875, 21.5625, 21.5625, 21.6875, 21.75, 21.9375, 22.0625, 22.0625, 22.0625, 22.0625, 22.0625, 21.9375, 21.9375, 22.226191, 22.458334, 22.482143, 22.3125, 22.026787, 21.9375, 22, 22.020834, 21.916666, 21.9375, 21.9375, 22.0625, 22.125, 22.25, 22.28125, 22.28125, 22.21875, 22.09375, 22.0625, 22.0625, 21.9375, 21.875, 21.678572, 21.229166, 21.1, 22.166668, 22.267857, 22.25, 22, 21.75, 21.375, 21.166668, -10, -10, 21.75, 21.625, 21.616072, 21.8125, 21.9375, 22.09375, 22.187502, 7.1666665, 7.2916665, 7.3541665, 7.375, 7.3125, 7.1875, 7.125, 7.3125, 7.5, 7.5625, 7.5625, 7.4375, 7.5, 7.6875, 8, 8.3125, 8.625, 8.9375, 9.25, 9.5, 9.75, 10.0625, 10.3125, 10.625, 10.8125, 10.875, 10.8125, 10.8125, 11, 11.401786, 11.6875, 11.9375, 11.84375, 11.71875, 11.857142, 12.080358, 11.809525, 11.674107, 11.28125, 11.15625, 10.96875, 10.8125, 10.446428, 9.979167, 9.8303566, 9.75, 9.875, 10.0625, 10.125, 10.375, 10.625, 10.8125, 11, 11.25, 11.5, 11.75, 12, 12, 12.125, 12.25, 12.5, 12.75, 12.875, 13.0625, 13.25, 13.5, 13.75, 13.9375, 14, 14.1875, 14.4375, 14.6875, 14.9375, 15.1875, 15.4375, 15.6875, 15.9375, 16, 16.0625, 16.1875, 16.375, 16.625, 16.8125, 17, 17.0625, 17.1875, 17.4375, 17.625, 17.875, 18, 18.125, 18.3125, 18.5625, 18.8125, 18.9375, 19.0625, 19.3125, 19.5625, 19.875, 20.125, 20.3125, 20.5625, 20.75, 20.9375, 21, 21.125, 21.375, 21.625, 21.875, 22, 22.0625, 22.25, 22.5, 22.732143, 22.9375, 23.125, 23.294643, 23.4375, 23.625, 23.75, 23.875, 24.1875, 24.3125, 24.4375, 24.6875, 24.75, 24.875, 25.125, 25.25, 25.5, 25.8125, 26.035713, 26.125, 26.125, 26.339287, 26.8125, 26.973213, 27.1875, 27.0625, 27.267857, 27.8125, 28.044643, 28.5, 28.625, 28.8125, 29
29, 28.8125, 28.9375, 29.03125, 29.15625, 29.419643, 29.3125, 29.1875, 28.928572, 28.627977, 28.765306, 29.041666, 29.086735, 29.075893, 29.09375, 29.15625, 29.129463, 29.089287, 29.0625, 28.973213, 29.0625, 29.303572, 29.752977, 29.991072, 30.0625, 30.0625, 30.0625, 30.0625, 29.9375, 29.9375, 29.9375, 30, 30.25, 30.1875, 30.1875, 30.125, 30.0625, 30.035713, 30, 30.401787, 30.660713, 30.90625, 31.09375, 31.0625, 31, 30.875, 30.625, 30.4375, 30.357143, 30.169643, 29.782738, 29.5, 29.026787, 28.723213, 28.285713, 28.089287, 27.875, 27.636906, 27.145834, 26.857143, 26.6875, 26.625, 26.375, 26.3125, 26.035713, 25.705357, 25.392857, 25.120537, 25.013393, 24.65625, 24.53125, 24.25, 23.8125, 23.5625, 23.3125, 23.125, 23, 22.8125, 22.75, 22.6875, 22.75, 22.6875, 22.392857, 22.133928, 22, 21.875, 21.8125, 21.892857, 22.083334, 22.005953, 21.678572, 21.1875, 20.883928, 20.372023, 20.361607, 20.647322, 21.153273, 21.28125, 21.3125, 21.1875, 21.28125, 21.53125, 21.78125, 21.90625, 22, 22, 22, 22, 22, 21.9375, 21.875, 21.875, 21.848213, 21.767857, 21.916666, 22.208334, 22.127977, 21.854166, 21.979166, 22.205357, 22.263393, 22.21875, 22.09375, 21.96875, 21.875, 21.75, 21.6875, 21.625, 21.6875, 21.8125, 21.875, 21.9375, 22, 22, 22.0625, 22.125, 22.125, 22.0625, 21.9375, 22.017857, 22.208334, 22.232143, 22.25, 22, 22.026787, 22.294643, 22.351191, 22.260416, 22.15625, 22.03125, 22, 22, 22.125, 22.160713, 22.1875, 22.125, 22, 22, 22.0625, 22.125, 22.1875, 22.178572, 21.782738, 21.676191, 22.111113, 22.095238, 22.166666, 22, 21.833334, 21.583334, 21.444445, 21.5, 21.5, 21.6875, 21.5, 21.366072, 21.46875, 21.625, 21.84375, 22.041668, 22, 7.2916665, 7.4375, 7.5, 7.4375, 7.3125, 7.1875, 7.3125, 7.5625, 7.6875, 7.75, 7.625, 7.625, 7.75, 7.875, 8.1517859, 8.4821434, 8.7410717, 9.125, 9.375, 9.625, 9.9375, 10.125, 10.446428, 10.8125, 10.875, 10.875, 10.8125, 11.0625, 11.464286, 11.75, 11.9375, 11.78125, 11.71875, 11.830357, 12.044643, 11.708334, 11.602678, 11.15625, 11.03125, 10.71875, 10.4375, 10.071428, 9.604167, 9.5803566, 9.625, 9.875, 10.1875, 10.3125, 10.5, 10.6875, 10.8125, 11, 11.3125, 11.5625, 11.8125, 12, 12, 12.1875, 12.3125, 12.5625, 12.8125, 12.875, 13, 13.1875, 13.4375, 13.6875, 13.9375, 14.0625, 14.25, 14.5, 14.75, 14.9375, 15.125, 15.3125, 15.5, 15.75, 15.875, 16.0625, 16.1875, 16.375, 16.625, 16.75, 17, 17.125, 17.25, 17.5, 17.6875, 17.875, 18, 18.0625, 18.1875, 18.4375, 18.6875, 18.875, 19.125, 19.375, 19.625, 19.9375, 20.125, 20.375, 20.625, 20.8125, 21, 21, 21.125, 21.375, 21.625, 21.875, 22, 22.125, 22.3125, 22.5, 22.696428, 22.9375, 23, 23.294643, 23.4375, 23.6875, 23.875, 23.9375, 24.25, 24.4375, 24.625, 24.875, 24.875, 24.9375, 25.125, 25.25, 25.5, 25.8125, 26.098213, 26.25, 26.25, 26.464287, 26.875, 26.973213, 27.25, 27.125, 27.330357, 27.8125, 27.875, 28.3125, 28.4375, 28.6875, 28.9375, 29.125, 29.25, 29.375, 29.625, 29.75, 29.9375, 30.1875, 30.3125, 30.598213, 30.75, 30.875, 31.125, 31.3125, 31.5625, 31.8125, 31.916666, -10, -10, -10, -10, -10, -10, -10, -10, -10, -10, -10, -10, -10, -10, -10, -10, 16.90625, 16.958334, 16.9375, 17.044643, 17.438393, 17.9375, 18.826532, 19.010416, 19.09375, 19.03125, 19.0625, 19.428572, 20.342262, -10, -10, -10, -10, 29.0625, 29.027779, 28.953125, 29.020834, 29.044643, 29, 29.169643, 29.0625, 29.125, 29.035713, 28.940477, 29.265306, 29.321428, 29.1875, 29.200893, 29.09375, 29.09375, 29.004463, 28.901787, 28.8125, 28.660713, 28.625, 28.758928, 29.252977, 29.616072, 29.875, 29.9375, 30, 30, 29.875, 29.875, 29.875, 29.9375, 30.25, 30.25, 30.25, 30.1875, 30, 30, 30, 30.25, 30.5, 30.75, 31, 31, 31, 30.8125, 30.5, 30.3125, 30.160715, 30.003403, 29.813492, 29.333334, 28.839287, 28.598213, 28.160713, 28.026787, 27.75, 27.458334, 27.038691, 26.732143, 26.625, 26.5, 26.25, 26.080357, 25.848213, 25.517857, 25.267857, 25.058037, 24.950893, 24.65625, 24.53125, 24.25, 23.8125, 23.5625, 23.3125, 23.125, 23.0625, 22.9375, 22.875, 22.8125, 22.875, 22.8125, 22.580357, 22.375, 21.979166, 21.892857, 21.875, 21.9375, 22, 21.964287, 21.866072, 21.455357, 21.133928, 20.559523, 20.611607, 20.90625, 21.34375, 21.46875, 21.5, 21.4375, 21.53125, 21.71875, 21.90625, 21.96875, 22, 22, 22, 21.9375, 21.875, 21.8125, 21.75, 21.892857, 21.973213, 21.785713, 21.979166, 22.083334, 22.002977, 21.729166, 21.854166, 22.080357, 22.107143, 22, 21.875, 21.875, 22.044643, 22.0625, 22.125, 22.0625, 22.0625, 22.0625, 22, 21.875, 21.875, 21.875, 22, 22.1875, 22.1875, 22.1875, 22.0625, 22.125, 22.125, 22.125, 22.125, 21.9375, 22.026787, 22.169643, 22.205357, 22.28125, 22.15625, 22.03125, 21.8125, 21.75, 21.8125, 21.910713, 22, 22, 21.875, 21.84375, 21.96875, 22.03125, 22.15625, 22.25, 22.116072, 21.916666, 22.083334, 22.133928, 22.1875, 22.0625, 21.9375, 21.6875, 21.583334, 21.666666, 21.666666, 21.5625, 21.4375, 21.375, 21.40625, 21.625, 21.78125, 22.020834, 22.111113, 7.2916665, 7.4375, 7.5, 7.375, 7.25, 7.1875, 7.3571429, 7.625, 7.8125, 7.8125, 7.6875, 7.625, 7.6875, 7.6875, 7.9017859, 8.2946434, 8.5982141, 9, 9.3125, 9.5625, 9.8125, 10, 10.321428, 10.6875, 10.75, 10.875, 10.875, 11.125, 11.589286, 11.8125, 11.875, 11.78125, 11.84375, 12.229167, 12.336309, 11.708334, 11.459822, 10.96875, 10.84375, 10.46875, 10.0625, 9.6964283, 9.291667, 9.3928566, 9.5625, 9.875, 10.25, 10.4375, 10.625, 10.8125, 10.875, 11.0625, 11.375, 11.625, 11.875, 12, 12, 12.25, 12.4375, 12.6875, 12.9375, 12.9375, 13, 13.1875, 13.4375, 13.6875, 13.9375, 14.0625, 14.25, 14.5, 14.75, 14.9375, 15.0625, 15.1875, 15.375, 15.625, 15.8125, 16.0625, 16.1875, 16.375, 16.625, 16.75, 17, 17.125, 17.25, 17.5, 17.6875, 17.875, 18, 18, 18.125, 18.375, 18.625, 18.875, 19.1875, 19.4375, 19.6875, 20.0625, 20.25, 20.5, 20.75, 20.875, 21, 21, 21.125, 21.375, 21.625, 21.875, 22, 22.1875, 22.3125, 22.4375, 22.633928, 22.8125, 22.9375, 23.357143, 23.5625, 23.8125, 24, 24, 24.25, 24.5, 24.75, 25, 25, 25, 25.1875, 25.375, 25.625, 26, 26.223213, 26.375, 26.4375, 26.571428, 26.875, 27.035713, 27.3125, 27.3125, 27.508928, 27.8125, 27.875, 28.1875, 28.375, 28.625, 28.875
29.041668, 29.09375, 29.25, 29.294643, 29.1875, 29.1875, 29, 28.9375, 28.964287, 29.294643, 29.553572, 29.625, 29.625, 29.40625, 29.15625, 29.09375, 29.03125, 29, 28.8125, 28.625, 28.5, 28.571428, 29.127977, 29.491072, 29.8125, 30, 30.0625, 30.0625, 30, 29.9375, 30, 30.125, 30.4375, 30.4375, 30.375, 30.25, 30, 30, 30.0625, 30.3125, 30.5625, 30.8125, 31, 31, 30.9375, 30.75, 30.4375, 30.25, 30.098215, 29.649658, 29.469387, 29, 29.0625, 28.6875, 28.223213, 27.9375, 27.5625, 27.25, 27.080357, 26.8125, 26.75, 26.5, 26.125, 25.955357, 25.723213, 25.455357, 25.330357, 25.15625, 25.013393, 24.71875, 24.53125, 24.25, 23.875, 23.6875, 23.4375, 23.25, 23.1875, 23.0625, 23.0625, 23, 23, 22.875, 22.75, 22.616072, 22.166666, 22.017857, 21.901787, 21.875, 21.9375, 21.928572, 21.604166, 21.383928, 20.991072, 20.434523, 20.464285, 20.895834, 21.428572, 21.5625, 21.5625, 21.5625, 21.625, 21.8125, 22, 22, 22, 22, 22, 21.875, 21.75, 21.625, 21.5625, 21.767857, 21.910713, 21.785713, 21.979166, 22.083334, 22.065477, 21.791666, 21.854166, 21.973213, 22.0625, 22.125, 22, 22.125, 22.232143, 22.25, 22.383928, 22.387501, 22.196428, 22.133928, 22, 21.875, 21.875, 21.875, 22, 22.125, 22.125, 22.125, 21.9375, 22, 22, 22, 22.0625, 21.9375, 22.026787, 22.169643, 22.205357, 22.21875, 22.09375, 21.96875, 21.75, 21.75, 21.8125, 21.910713, 21.9375, 21.875, 21.767857, 21.927084, 22.075893, 22.15625, 22.21875, 22.3125, 22.303572, 22.125, 22.125, 22.0625, 22.0625, 22, 21.9375, 21.8125, 21.75, 21.75, 21.75, 21.5625, 21.5, 21.4375, 21.375, 21.625, 21.75, 21.9375, 22.111113, 7.375, 7.4375, 7.4375, 7.25, 7.1517859, 7.2946429, 7.4732141, 7.75, 7.875, 7.875, 7.8125, 7.75, 7.8125, 7.6875, 7.8392859, 8.2321434, 8.5803576, 9, 9.3125, 9.5625, 9.8125, 9.9375, 10.258928, 10.625, 10.75, 11.0625, 11.1875, 11.473214, 11.794643, 12, 12.03125, 12.03125, 12.28125, 12.608631, 12.461309, 11.708334, 11.303572, 10.8125, 10.5, 10.15625, 9.65625, 9.3616066, 9.21875, 9.375, 9.625, 9.9375, 10.25, 10.5, 10.6875, 10.875, 10.9375, 11.125, 11.4375, 11.6875, 11.9375, 12, 12, 12.1875, 12.375, 12.625, 12.875, 12.9375, 13, 13.1875, 13.375, 13.625, 13.875, 14, 14.25, 14.5, 14.75, 14.9375, 15.0625, 15.1875, 15.375, 15.625, 15.8125, 16.0625, 16.25, 16.5, 16.75, 16.875, 17.0625, 17.15625, 17.3125, 17.5625, 17.75, 17.90625, 18.0625, 18.0625, 18.1875, 18.4375, 18.625, 18.875, 19.25, 19.5, 19.75, 20.125, 20.3125, 20.5625, 20.8125, 20.9375, 21, 21, 21.1875, 21.4375, 21.6875, 21.9375, 22, 22.1875, 22.3125, 22.375, 22.571428, 22.75, 22.9375, 23.419643, 23.625, 23.875, 24, 24, 24.1875, 24.4375, 24.6875, 24.9375, 25, 25, 25.25, 25.5, 25.75, 26.0625, 26.25, 26.4375, 26.5625, 26.75, 26.875, 27.098213, 27.375, 27.5, 27.6875, 27.875, 28, 28.1875, 28.4375, 28.625, 28.8125, 29.125, 29.375, 29.625, 29.875, 30.0625, 30.1875, 30.25, 30.375, 30.5625, 30.6875, 30.875, 31.0625, 31.25, 31.4375, 31.6875, 31.833332, -10, -10, -10, -10, -10, -10, -10, -10, -10, -10, -10, -10, -10, -10, -10, -10, 17.4375, 17.625, 17.65625, 17.919643, 18.174999, 18.25, 18.758928, 18.8125, 19.0625, 19.125, 19.333332, -10, -10, -10, -10, -10, -10, 29.1875, 29.135418, 29.125, 29.25, 29.294643, 29.1875, 29.1875, 29, 29, 29, 29.1875, 29.4375, 29.4375, 29.4375, 29.25, 29, 29, 29, 29, 28.875, 28.75, 28.625, 28.633928, 29.083334, 29.428572, 29.75, 30.0625, 30.125, 30.125, 30.125, 30, 30.0625, 30.0625, 30.25, 30.25, 30.25, 30.25, 30.0625, 30.0625, 30.125, 30.375, 30.625, 30.875, 31, 31, 30.875, 30.625, 30.3125, 30.0625, 29.910715, 29.595238, 29.375, 29, 28.8125, 28.5, 28.080357, 27.75, 27.4375, 27.125, 27.017857, 26.8125, 26.75, 26.5, 26.1875, 26.080357, 25.973213, 25.767857, 25.642857, 25.392857, 25.169643, 24.8125, 24.5625, 24.25, 23.9375, 23.6875, 23.4375, 23.25, 23.1875, 23.1875, 23.1875, 23.125, 23.0625, 22.9375, 22.8125, 22.616072, 22.166666, 21.892857, 21.714287, 21.6875, 21.6875, 21.616072, 21.229166, 20.946428, 20.5625, 20.267857, 20.392857, 21.041668, 21.571428, 21.75, 21.6875, 21.625, 21.625, 21.75, 22, 22.125, 22.125, 22.125, 22.0625, 21.875, 21.6875, 21.625, 21.5625, 21.767857, 21.973213, 21.785713, 21.916666, 21.958334, 21.958334, 21.791666, 21.791666, 21.9375, 22.071428, 22.395834, 22.333334, 22.291666, 22.303572, 22.25, 22.383928, 22.387501, 22.196428, 22.071428, 21.875, 21.6875, 21.6875, 21.75, 21.9375, 22.125, 22.1875, 22.1875, 21.9375, 21.758928, 21.651787, 21.6875, 21.857143, 21.875, 22.026787, 22.169643, 22.205357, 22.28125, 22.15625, 22.03125, 21.875, 21.8125, 21.875, 21.910713, 21.8125, 21.75, 21.642857, 21.864584, 22.075893, 22.15625, 22.21875, 22.25, 22.241072, 22.125, 22.125, 22.125, 22.1875, 22.1875, 22.25, 22.178572, 21.916666, 21.857143, 21.84375, 21.71875, 21.71875, 21.75, 21.75, 22, 22.0625, 22.166666, 7.5, 7.25, 7.2708335, 7.3125, 7.1875, 7.1517859, 7.3571429, 7.5357141, 7.75, 7.9375, 7.9375, 7.875, 7.8125, 7.8125, 7.6875, 7.8392859, 8.2321434, 8.5803576, 8.9375, 9.25, 9.5625, 9.8482141, 10, 10.258928, 10.5625, 10.6875, 11, 11.1875, 11.473214, 11.794643, 12.0625, 12.09375, 12.15625, 12.40625, 12.671131, 12.541667, 11.916667, 11.482143, 10.9375, 10.5625, 10.21875, 9.7723217, 9.385417, 9.2276783, 9.375, 9.625, 9.9375, 10.1875, 10.375, 10.5625, 10.75, 10.875, 11.1875, 11.5, 11.75, 12, 12, 12, 12.125, 12.3125, 12.5625, 12.8125, 12.9375, 13, 13.1875, 13.375, 13.625, 13.875, 14, 14.25, 14.5, 14.75, 14.9375, 15, 15.125, 15.3125, 15.5625, 15.8125, 16.0625, 16.25, 16.5, 16.75, 16.875, 17.0625, 17.15625, 17.3125, 17.5625, 17.75, 17.90625, 18.0625, 18.0625, 18.25, 18.5, 18.6875, 18.9375, 19.1875, 19.4375, 19.6875, 20.0625, 20.3125, 20.5625, 20.8125, 20.9375, 21, 21, 21.1875, 21.4375, 21.6875, 21.9375, 22, 22.125, 22.25, 22.3125, 22.571428, 22.8125, 22.9375, 23.375, 23.5625, 23.8125, 24, 24, 24.1875, 24.4375, 24.6875, 24.9375, 25, 25, 25.25, 25.5, 25.8125, 26.125, 26.3125, 26.5625, 26.6875, 26.875, 26.9375, 27.125, 27.4375, 27.625, 27.9375, 28.125, 28.25, 28.375, 28.5625, 28.6875, 28.8125
