51.6875, 51.4375, 51.125, 50.705357, 50.4375, 49.9375, 49.5, 49.1875, 48.875, 48.625, 48.375, 48.1875, 47.75, 47.5, 47.1875, 46.6875, 46.375, 45.892857, 45.5, 45.25, 45.0625, 44.8125, 44.5625, 44.1875, 43.642857, 43.3125, 43.0625, 42.8125, 42.616074, 42.303574, 41.791668, 41.446426, 41.25, 40.8125, 40.5625, 40.3125, 40, 39.75, 39.4375, 39.1875, 38.75, 38.5, 38.125, 37.625, 37.375, 37.125, 36.75, 36.4375, 36.017857, 35.5625, 35.3125, 35.125, 34.75, 34.5, 34.25, 33.75, 33.5, 33.25, 32.8125, 32.5625, 32.3125, 31.9375, 31.625, 31.375, 31, 30.625, 30.3125, 29.8125, 29.4375, 29.1875, 28.8125, 28.5625, 28.3125, 27.8125, 27.5, 27.25, 26.75, 26.5, 26.25, 25.8125, 25.5625, 25.3125, 25.0625, 24.75, 24.5, 24.25, 23.84375, 23.59375, 23.15625, 22.611607, 22.3125, 21.8125, 21.5, 21.25, 21, 20.75, 20.5, 20.25, 19.75, 19.5, 19.1875, 18.75, 18.5, 18.25, 17.875, 17.5625, 17.3125, 17.0625, 17.0625, 17.0625, 17, 17, 16.9375, 16.9375, 17, 17, 17, 17, 17, 17, 17, 17, 17, 17, 17, 17, 17, 17, 17, 16.9375, 16.9375, 16.9375, 16.9375, 17, 17, 17, 17, 17, 16.9375, 16.9375, 16.9375, 16.9375, 17, 17, 17, 17, 17, 17, 17, 17, 17, 17, 17, 17, 17, 17, 17.0625, 17.125, 17.125, 17.125, 17.0625, 17.0625, 17.0625, 17.0625, 17.125, 17.125, 17.1875, 17.375, 17.375, 17.3125, 17.25, 17.0625, 17.0625, 17.0625, 17.0625, 17.125, 17.125, 17.1875, 17.1875, 17.1875, 17.1875, 17.125, 17.125, 17.0625, 17, 17, 17, 9, 9, 9, 9, 9, 9, 9, 9, 9, 9, 9, 9, 9, 9, 9, 8.9375, 8.875, 8.8125, 8.75, 8.75, 8.75, 8.75, 8.8125, 8.875, 8.875, 8.9375, 8.9375, 8.875, 8.8125, 8.8125, 8.8125, 8.854167, 9.083333, -10, -10, -10, 12.708333, 13.033333, 13.160714, 13.375, 13.375, 13.4375, 13.5, 13.5, 13.6875, 13.9375, 14.1875, 14.375, 14.625, 14.8125, 14.96875, 15.427084, 15.790178, 16.691666, 17.415178, 17.928572, 18.3125, 18.53125, 18.763393, 19.25, 19.418367, 19.5625, 19.535713, 19.5, 19.580357, 19.708334, 19.285713, 19.223213, 19.0625, 19.1875, 19.25, 19.25, 19.1875, 19.125, 19.0625, 19.008928, 19.364584, 19.647322, 20.107143, 20.791666, 21.142857, 21.375, 21.5, 21.6875, 21.75, 21.75, 21.6875, 21.6875, 22, 22.464287, 22.84375, 23.3125, 23.5625, 23.75, 23.78125, 23.848213, 24.0625, 24.25, 24.5625, 24.6875, 24.875, 25.125, 25.375, 25.5625, 25.6875, 25.75, 25.8125, 26.125, 26.5, 26.75, 27, 27.0625, 27.3125, 27.5625, 27.8125, 28, 28, 28, 27.875, 27.875, 27.875, 27.875, 28, 28, 28, 28, 28, 28, 28.125, 28.25, 28.25, 28.25, 28.125, 28.125, 28.25, 28.3125, 28.375, 28.3125, 28.25, 28.1875, 28.125, 28.0625, 28, 28, 28, 28.0625, 28.0625, 28.0625, 28.0625, 28.0625, 28.125, 28.1875, 28.25, -10, -10, -10, -10, -10, -10, -10, -10, -10, -10, -10, -10, -10, -10, -10, -10, -10, -10, -10, -10, -10, -10, -10, -10, -10, -10, -10, -10, -10, -10, -10, -10, -10, -10, 52, 51.750004, 51.5625, 51.3125, 51.0625, 50.75, 50.5, 50, 49.5, 49.125, 48.75, 48.5, 48.25, 48.0625, 47.6875, 47.4375, 47.0625, 46.625, 46.3125, 45.830357, 45.5, 45.25, 45.0625, 44.75, 44.5, 44.1875, 43.6875, 43.4375, 43.1875, 42.8125, 42.553574, 42.1875, 41.875, 41.5625, 41.375, 40.9375, 40.6875, 40.4375, 40.125, 39.767857, 39.4375, 39.1875, 38.75, 38.5, 38.1875, 37.6875, 37.4375, 37.125, 36.6875, 36.375, 35.955357, 35.5625, 35.3125, 35.125, 34.75, 34.5, 34.25, 33.75, 33.5, 33.25, 32.8125, 32.5625, 32.3125, 31.875, 31.5625, 31.3125, 31, 30.6875, 30.4375, 29.9375, 29.5, 29.25, 28.875, 28.625, 28.375, 27.875, 27.5, 27.25, 26.75, 26.5, 26.25, 25.8125, 25.5625, 25.3125, 25.0625, 24.75, 24.5, 24.25, 23.8125, 23.5625, 23.1875, 22.642857, 22.375, 21.875, 21.5625, 21.3125, 21, 20.705357, 20.4375, 20.1875, 19.75, 19.5, 19.1875, 18.75, 18.5, 18.25, 17.8125, 17.5, 17.25, 17, 17.0625, 17.0625, 17, 17, 16.9375, 16.9375, 17, 17, 17, 17, 17, 17, 17, 17, 17, 17, 17, 17, 17, 17, 17, 16.9375, 16.9375, 17, 17, 17.0625, 17.0625, 17, 17, 17, 16.9375, 16.9375, 16.9375, 16.9375, 17, 17, 17, 17.0625, 17.0625, 17.0625, 17.0625, 17, 17, 17, 17, 17, 17, 17, 17.0625, 17.1875, 17.1875, 17.1875, 17.125, 17.0625, 17.0625, 17.0625, 17.0625, 17, 17.0625, 17.3125, 17.4375, 17.4375, 17.375, 17.125, 17, 17, 17, 17.0625, 17.125, 17.1875, 17.1875, 17.1875, 17.1875, 17.125, 17.1875, 17.125, 17.125, 17.125, 17.083334, 9, 9, 9, 9, 8.9375, 8.9375, 8.9375, 8.9375, 9, 9, 8.9375, 8.9375, 8.9375, 8.9375, 9, 8.875, 8.75, 8.625, 8.5, 8.5, 8.5, 8.5, 8.5625, 8.6875, 8.75, 8.875, 8.9375, 8.8125, 8.6875, 8.6875, 8.6875, 8.770834, -10, -10, -10, 13, 13.125, 13.083333, 13.125, 13.1875, 13.1875, 13.1875, 13.25, 13.28125, 13.53125, 13.84375, 14.125, 14.40625, 14.65625, 14.84375, 14.96875, 15.09375, 15.540178, 16.99375, 17.821428, 18.428572, 18.6875, 18.875, 19.169643, 19.4375, 19.5625, 19.5, 19.267857, 19, 19.017857, 19.208334, 18.910713, 18.973213, 18.875, 19, 19, 19, 19, 19, 19.0625, 19.258928, 19.815477, 20.178572, 20.607143, 20.8125, 21, 21.1875, 21.3125, 21.4375, 21.464287, 21.5, 21.5625, 21.6875, 22.0625, 22.419643, 22.65625, 23.0625, 23.3125, 23.607143, 23.71875, 23.848213, 24, 24.125, 24.4375, 24.5625, 24.8125, 25.1875, 25.4375, 25.6875, 25.875, 25.875, 25.9375, 26.1875, 26.5, 26.75, 27, 27.125, 27.375, 27.625, 27.875, 28, 28, 28, 27.875, 27.875, 27.875, 27.875, 28, 28, 28, 28, 27.9375, 27.964287, 28.169643, 28.232143, 28.1875, 28.017857, 27.875, 27.883928, 28.208334
51.5625, 51.3125, 51, 50.6875, 50.4375, 49.9375, 49.5, 49.125, 48.6875, 48.4375, 48.1875, 47.9375, 47.625, 47.375, 47, 46.625, 46.3125, 45.892857, 45.625, 45.375, 45.1875, 44.875, 44.5625, 44.3125, 43.8125, 43.5, 43.25, 42.75, 42.5, 42.25, 41.9375, 41.6875, 41.4375, 41.0625, 40.8125, 40.5625, 40.1875, 39.723213, 39.375, 39.125, 38.8125, 38.5625, 38.3125, 37.8125, 37.5, 37.125, 36.625, 36.3125, 35.892857, 35.5625, 35.3125, 35.0625, 34.6875, 34.4375, 34.1875, 33.75, 33.5, 33.25, 32.75, 32.5, 32.25, 31.75, 31.5, 31.25, 31, 30.75, 30.5, 30.0625, 29.5625, 29.3125, 29, 28.6875, 28.4375, 27.9375, 27.5, 27.25, 26.75, 26.5, 26.25, 25.8125, 25.5625, 25.3125, 25.0625, 24.75, 24.5, 24.1875, 23.75, 23.5, 23.1875, 22.705357, 22.4375, 22, 21.6875, 21.5, 21.178572, 20.684523, 20.383928, 20.125, 19.75, 19.5, 19.1875, 18.75, 18.5, 18.25, 17.8125, 17.5, 17.25, 17, 17.0625, 17.0625, 17.0625, 17.0625, 17, 17, 17, 17, 17, 17, 17, 17, 17, 17, 17.0625, 17.125, 17.125, 17.125, 17.0625, 17, 17.0625, 17.125, 17.125, 17.1875, 17.125, 17.0625, 17.0625, 17, 17, 17, 16.9375, 16.9375, 17, 17, 17.0625, 17.0625, 17, 17.0625, 17.0625, 17.0625, 17.0625, 17, 17, 17, 17, 17, 17, 17, 17.0625, 17.1875, 17.1875, 17.1875, 17.125, 17, 17, 17, 17, 17.0625, 17.125, 17.3125, 17.4375, 17.375, 17.3125, 17.125, 17, 17, 17, 17, 17, 17.0625, 17.0625, 17.125, 17.1875, 17.125, 17.25, 17.25, 17.3125, 17.3125, 17.25, 8.75, 8.75, 8.8125, 8.8125, 8.75, 8.75, 8.6875, 8.75, 8.8125, 8.8125, 8.75, 8.6875, 8.6875, 8.6875, 8.75, 8.625, 8.5, 8.375, 8.25, 8.3125, 8.3125, 8.3125, 8.375, 8.4375, 8.5625, 8.75, 8.8125, 8.6875, 8.5625, 8.5625, 8.625, 8.770834, -10, -10, -10, 13, 13, 13, 13.0625, 13.125, 13.125, 13.125, 13.15625, 13.234375, 13.484375, 13.734375, 14.015625, 14.3125, 14.5625, 14.8125, 15.080357, 15.380952, 15.857142, 17.65, 18.321428, 18.803572, 18.875, 18.8125, 18.9375, 19.0625, 19.1875, 19.125, 18.830357, 18.625, 18.553572, 18.8125, 18.785713, 18.910713, 18.9375, 19, 18.9375, 18.9375, 19, 19.107143, 19.25, 19.508928, 20.002977, 20.366072, 20.732143, 20.875, 21, 21.125, 21.25, 21.375, 21.464287, 21.5625, 21.625, 21.6875, 22.017857, 22.395834, 22.616072, 22.96875, 23.09375, 23.325893, 23.53125, 23.758928, 24, 24.125, 24.375, 24.5, 24.75, 25.125, 25.3125, 25.5, 25.75, 25.8125, 25.9375, 26.25, 26.5, 26.75, 27, 27.125, 27.375, 27.625, 27.875, 28, 28, 28, 27.9375, 27.9375, 27.9375, 27.9375, 28, 28, 28, 28.0625, 28.0625, 28.089287, 28.232143, 28.107143, 27.9375, 27.705357, 27.5625, 27.705357, 28.291668, 28.401787, 28.5, 28.375, 28.25, 28.1875, 28.125, 28.0625, 28, 28, 28, 28, 28, 28, 28, 28, 28.0625, 28.1875, 28.25, -10, -10, -10, -10, -10, -10, -10, -10, -10, -10, -10, -10, -10, -10, -10, -10, -10, -10, -10, -10, -10, -10, -10, -10, -10, -10, -10, -10, -10, -10, -10, -10, -10, -10, 52, 51.833336, 51.625, 51.375, 51, 50.625, 50.375, 49.875, 49.5, 49.125, 48.6875, 48.5, 48.25, 47.9375, 47.580357, 47.3125, 46.9375, 46.625, 46.375, 46.0625, 45.75, 45.5, 45.1875, 44.875, 44.625, 44.375, 43.9375, 43.517857, 43.25, 42.75, 42.5, 42.25, 41.9375, 41.6875, 41.4375, 41.0625, 40.8125, 40.5625, 40.1875, 39.785713, 39.4375, 39.1875, 38.875, 38.5625, 38.3125, 37.8125, 37.5, 37.125, 36.6875, 36.4375, 36.0625, 35.642857, 35.375, 35.0625, 34.6875, 34.4375, 34.1875, 33.75, 33.5, 33.25, 32.75, 32.5, 32.25, 31.75, 31.5, 31.25, 30.9375, 30.6875, 30.4375, 30.0625, 29.625, 29.3125, 28.955357, 28.625, 28.375, 27.9375, 27.5, 27.25, 26.75, 26.5, 26.25, 25.8125, 25.5625, 25.3125, 25, 24.6875, 24.4375, 24.125, 23.6875, 23.4375, 23.1875, 22.75, 22.5, 22.125, 21.8125, 21.6875, 21.357143, 20.663689, 20.330357, 20.0625, 19.75, 19.5, 19.25, 18.8125, 18.5625, 18.25, 17.75, 17.4375, 17.1875, 17, 17, 17, 17, 17, 17, 17, 17, 17, 17, 17, 17, 17, 16.9375, 16.9375, 17, 17.0625, 17.125, 17.125, 17.0625, 17, 17.125, 17.25, 17.25, 17.3125, 17.1875, 17.0625, 17.0625, 17, 17, 17.0625, 17, 17, 17.0625, 17, 17.0625, 17.0625, 17, 17, 17, 17, 17, 17, 17, 17, 17, 17, 17, 17, 17.0625, 17.1875, 17.1875, 17.1875, 17.125, 17, 17, 17, 17, 17.0625, 17.125, 17.25, 17.375, 17.3125, 17.25, 17.125, 17, 17, 17, 17, 17, 17, 17, 17.0625, 17.166666, 17.166666, 17.333334, 17.333334, 17.4375, 17.395834, 17.333334, 8.5, 8.5, 8.5625, 8.5625, 8.5, 8.5, 8.4375, 8.5625, 8.625, 8.625, 8.5625, 8.4375, 8.4375, 8.4375, 8.5, 8.375, 8.25, 8.125, 8, 8.0625, 8.0625, 8.0625, 8.125, 8.1875, 8.375, 8.5625, 8.625, 8.5625, 8.4375, 8.4375, 8.5625, 8.708334, -10, -10, -10, 12.857143, 13, 13, 13, 13, 13, 13.0625, 13.15625, 13.359375, 13.752232, 14.148809, 14.579082, 14.928572, 15.142858, 15.392858, 15.62755, 17.055555, 17.476191, 18.25238, 18.5625, 18.803572, 18.75, 18.625, 18.625, 18.75, 18.875, 18.8125, 18.580357, 18.375, 18.1875, 18.3125, 18.5625, 18.6875, 18.875, 18.9375, 18.8125, 18.901787, 19.107143, 19.285715, 19.5, 19.758928, 20.190477, 20.459822, 20.71875, 20.84375, 21.03125, 21.25, 21.3125, 21.4375, 21.464287, 21.5625, 21.75, 21.8125, 22.169643, 22.627977, 22.785715, 23.03125, 23.15625, 23.388393, 23.65625, 23.9375, 24, 24.0625, 24.25, 24.4375, 24.6875, 25.125, 25.3125, 25.5, 25.75, 25.8125, 26, 26.3125, 26.5625, 26.8125, 27, 27.125, 27.375, 27.625, 27.875, 28, 28, 28, 28.0625, 28.0625, 28.0625, 28.0625, 27.9375, 27.9375, 27.9375, 28, 28.0625, 28.089287, 28.232143, 28.107143, 27.9375, 27.642857, 27.5, 27.642857, 28.229168
51.625, 51.3125, 50.830357, 50.5, 50.25, 49.8125, 49.5, 49.1875, 48.8125, 48.625, 48.375, 47.9375, 47.517857, 47.25, 46.875, 46.625, 46.375, 46.125, 45.8125, 45.5625, 45.25, 44.9375, 44.75, 44.455357, 43.833332, 43.392857, 43.125, 42.75, 42.5, 42.25, 41.875, 41.625, 41.375, 41.0625, 40.8125, 40.5625, 40.125, 39.660713, 39.375, 39.0625, 38.8125, 38.5, 38.25, 37.8125, 37.5, 37.125, 36.75, 36.5, 36.1875, 35.767857, 35.4375, 35.0625, 34.625, 34.375, 34.0625, 33.6875, 33.4375, 33.1875, 32.75, 32.5, 32.25, 31.75, 31.5, 31.25, 30.875, 30.625, 30.375, 30.0625, 29.6875, 29.375, 28.955357, 28.5625, 28.3125, 27.9375, 27.625, 27.4375, 26.991072, 26.541666, 26.258928, 25.75, 25.5, 25.25, 24.9375, 24.6875, 24.4375, 24.0625, 23.625, 23.375, 23.0625, 22.6875, 22.4375, 22.125, 21.9375, 21.8125, 21.428572, 20.576189, 20.3125, 20, 19.8125, 19.5, 19.25, 18.8125, 18.5625, 18.1875, 17.6875, 17.375, 17.125, 17, 17, 17, 17, 17, 17, 17, 17, 17, 17, 17, 17, 17, 16.9375, 17, 17.125, 17.1875, 17.25, 17.1875, 17.0625, 17, 17.125, 17.25, 17.25, 17.375, 17.25, 17.125, 17.125, 17, 17, 17, 16.9375, 16.9375, 17, 17, 17.0625, 17.0625, 17, 16.9375, 16.9375, 16.9375, 16.9375, 17, 17, 17, 17, 17, 17, 17, 17, 17.0625, 17.0625, 17.0625, 17.0625, 17, 17, 17, 17, 17.0625, 17.0625, 17.1875, 17.3125, 17.25, 17.25, 17.125, 17, 17, 17.0625, 17.0625, 17.0625, 17.0625, 17, 17, -10, -10, -10, -10, 17.6875, 17.645834, 17.583334, 8.25, 8.25, 8.3125, 8.3125, 8.25, 8.25, 8.1875, 8.3125, 8.375, 8.375, 8.3125, 8.1875, 8.1875, 8.1875, 8.25, 8.1875, 8.125, 8.0625, 8, 8.0625, 8.0625, 8.0625, 8.0625, 8.0625, 8.1875, 8.3125, 8.375, 8.3125, 8.25, 8.25, 8.40625, 8.635417, 8.6875, 9.5, 11.666667, 12.642858, 12.9375, 12.9375, 12.9375, 13, 13, 13.0625, 13.334822, 13.815476, 14.329082, 16.128471, 16.486609, 16.791666, 16.875, 17.041666, 17.178572, 17.619047, 17.938776, 18.395834, 18.5625, 18.625, 18.5, 18.375, 18.375, 18.4375, 18.5625, 18.5625, 18.4375, 18.25, 18.0625, 18.125, 18.3125, 18.4375, 18.6875, 18.8125, 18.8125, 19.026787, 19.294643, 19.535715, 19.75, 19.9375, 20.107143, 20.34375, 20.59375, 20.78125, 21.09375, 21.375, 21.4375, 21.5625, 21.651787, 21.794643, 22, 22.0625, 22.321428, 22.860121, 22.955359, 23.125, 23.1875, 23.357143, 23.625, 23.875, 23.9375, 24, 24.25, 24.5, 24.75, 25.1875, 25.3125, 25.5, 25.75, 25.875, 26.125, 26.375, 26.5625, 26.75, 26.875, 27, 27.3125, 27.5625, 27.8125, 28, 28, 28, 28.125, 28.125, 28.125, 28.125, 27.9375, 27.9375, 27.9375, 28, 28.0625, 28.026787, 28.169643, 28.044643, 27.875, 27.642857, 27.5, 27.580357, 28.041668, 28.151787, 28.1875, 28.0625, 28, 28, 28, 28, 28, 28, 28, 28.0625, 28.125, 28.125, 28.125, 28.0625, 28.0625, 28.125, 28.166666, -10, -10, -10, -10, -10, -10, -10, -10, -10, -10, -10, -10, -10, -10, -10, -10, -10, -10, -10, -10, -10, -10, -10, -10, -10, -10, -10, -10, -10, -10, -10, -10, -10, -10, 51.875, 51.75, 51.5, 51.125, 50.642857, 50.3125, 50.125, 49.75, 49.5, 49.25, 48.875, 48.6875, 48.4375, 48, 47.580357, 47.3125, 46.9375, 46.625, 46.375, 46.125, 45.8125, 45.5625, 45.25, 44.9375, 44.8125, 44.464287, 43.604164, 43.226189, 43.0625, 42.75, 42.517857, 42.25, 41.8125, 41.5625, 41.3125, 41, 40.75, 40.5, 40.0625, 39.642857, 39.375, 39, 38.75, 38.4375, 38.1875, 37.875, 37.553574, 37.125, 36.875, 36.544643, 36.1875, 35.767857, 35.375, 35, 34.5625, 34.3125, 33.9375, 33.625, 33.375, 33.125, 32.75, 32.5, 32.25, 31.75, 31.5, 31.25, 30.8125, 30.5625, 30.3125, 30.0625, 29.75, 29.4375, 28.955357, 28.5, 28.25, 27.875, 27.625, 27.4375, 26.991072, 26.604166, 26.321428, 25.875, 25.625, 25.3125, 25, 24.6875, 24.4375, 24, 23.5625, 23.3125, 23, 22.6875, 22.4375, 22.1875, 22, 21.875, 21.553572, 20.745832, 20.4375, 20.0625, 19.767857, 19.4375, 19.1875, 18.8125, 18.5625, 18.1875, 17.6875, 17.375, 17.125, 17, 17, 17, 17, 17, 17, 17, 17, 17, 17, 17, 17, 17, 16.9375, 17.0625, 17.25, 17.3125, 17.375, 17.25, 17.0625, 17, 17.125, 17.25, 17.25, 17.3125, 17.1875, 17.0625, 17.0625, 17, 17, 16.9375, 16.875, 16.875, 16.9375, 17, 17.0625, 17.0625, 17, 16.875, 16.9375, 16.9375, 16.9375, 17.0625, 17, 17, 17, 17, 17, 17, 17, 17, 17, 17, 17, 17, 17, 17, 17, 17.0625, 17.0625, 17.125, 17.25, 17.1875, 17.25, 17.1875, 17.0625, 17.0625, 17.125, 17.1875, 17.25, 17.3125, 17.25, 17.25, -10, -10, -10, -10, 17.8125, 17.770834, 17.75, 8, 8, 8.0625, 8.0625, 8.0625, 8.0625, 8, 8.125, 8.125, 8.125, 8.125, 8, 8, 8, 8, 8, 8, 8, 8, 8.0625, 8.0625, 8.0625, 8.0625, 8, 8.0625, 8.125, 8.125, 8.125, 8.125, 8.125, 8.3125, 8.5625, 8.791667, 9.9722223, 11.634921, 12.392858, 12.6875, 12.6875, 12.75, 12.875, 13, 13.15625, 13.602678, 15.427083, 16.188988, 16.985119, 17.274235, 17.482143, 17.517857, 17.625, 17.724489, 18.041666, 18.169643, 18.25, 18.25, 18.1875, 18.1875, 18.125, 18.125, 18.1875, 18.3125, 18.375, 18.3125, 18.1875, 18.125, 18.125, 18.25, 18.3125, 18.4375, 18.625, 18.6875, 19.026787, 19.419643, 19.723215, 19.9375, 20.0625, 20.125, 20.34375, 20.59375, 20.78125, 21.15625, 21.4375, 21.5, 21.75, 21.875, 22.044643, 22.25, 22.1875, 22.428572, 23.147619, 23.142859, 23.321428, 23.3125, 23.375, 23.625, 23.875, 23.9375, 24.0625, 24.3125, 24.5625, 24.8125, 25.125, 25.3125, 25.5, 25.75, 26, 26.25, 26.5, 26.6875, 26.8125, 26.875, 26.9375, 27.25, 27.5, 27.75, 28, 28, 28, 28.125, 28.125, 28.125, 28.125, 27.9375, 27.9375, 27.90625, 27.90625, 27.96875, 27.84375, 27.875, 27.8125, 27.75, 27.75, 27.6875, 27.758928, 27.895834
51.5, 51.0625, 50.580357, 50.25, 50.0625, 49.75, 49.5, 49.1875, 48.8125, 48.625, 48.375, 48.0625, 47.642857, 47.375, 46.9375, 46.5625, 46.3125, 46.0625, 45.8125, 45.5625, 45.25, 44.875, 44.75, 44.339287, 43.479164, 43.163689, 43, 42.75, 42.517857, 42.25, 41.75, 41.5, 41.25, 40.875, 40.625, 40.375, 39.9375, 39.625, 39.375, 38.9375, 38.625, 38.3125, 38.0625, 37.8125, 37.553574, 37.1875, 37, 36.660713, 36.237499, 35.913689, 35.321426, 35.071426, 34.625, 34.375, 33.9375, 33.5625, 33.3125, 33, 32.6875, 32.4375, 32.1875, 31.75, 31.5, 31.25, 30.8125, 30.5625, 30.3125, 30, 29.6875, 29.375, 28.830357, 28.4375, 28.125, 27.75, 27.5625, 27.375, 27.053572, 26.729166, 26.446428, 26, 25.642857, 25.3125, 25, 24.6875, 24.4375, 24, 23.5625, 23.3125, 23, 22.6875, 22.4375, 22.1875, 22, 21.8125, 21.5, 20.891666, 20.544643, 19.979166, 19.651785, 19.3125, 19.125, 18.75, 18.5, 18.125, 17.625, 17.375, 17.125, 17, 17, 17, 17, 17, 17, 17, 17, 17, 17, 17, 17, 17, 16.9375, 17.0625, 17.1875, 17.1875, 17.25, 17.125, 17, 17, 17.0625, 17.125, 17.125, 17.1875, 17.125, 17.0625, 17.0625, 17, 17, 16.9375, 16.875, 16.875, 16.875, 16.9375, 17, 17, 17, 16.9375, 17.0625, 17.0625, 17.0625, 17.125, 17, 17, 17, 17, 17, 17, 17, 17, 16.9375, 16.9375, 16.875, 16.875, 16.9375, 16.9375, 17, 17, 17, 17.0625, 17.1875, 17.1875, 17.3125, 17.25, 17.125, 17.125, 17.1875, 17.3125, 17.4375, 17.5, 17.375, 17.333334, -10, -10, -10, -10, 17.625, 17.583334, 17.583334, 8, 8, 8, 8, 8, 8, 8, 8.0625, 8.0625, 8.0625, 8.0625, 8, 8, 8, 8, 8, 8, 8, 8, 8, 8, 8, 8, 8, 8, 8, 8, 8, 8, 8, 8.125, 8.4553566, 9.260417, 10.336309, 11.726191, 12.142858, 12.4375, 12.4375, 12.5625, 12.8125, 13.107143, 13.34375, 13.928572, 15.988096, 16.836735, 17.572916, 17.857143, 18, 18, 18.0625, 18.0625, 18.0625, 17.9375, 17.875, 17.875, 17.875, 18, 18, 18, 18.0625, 18.125, 18.1875, 18.1875, 18.125, 18.125, 18.0625, 18.125, 18.125, 18.25, 18.5, 18.6875, 19.089287, 19.419643, 19.616072, 19.75, 19.883928, 20.208334, 20.459822, 20.71875, 20.90625, 21.28125, 21.5, 21.5, 21.6875, 21.75, 21.982143, 22.3125, 22.25, 22.5, 23.171429, 23.142859, 23.321428, 23.3125, 23.375, 23.5625, 23.8125, 23.875, 24.0625, 24.4375, 24.794643, 25, 25.25, 25.375, 25.5625, 25.8125, 26.125, 26.4375, 26.625, 26.8125, 26.875, 26.875, 26.9375, 27.25, 27.5, 27.75, 28, 28, 28, 28.125, 28.125, 28.125, 28.125, 27.9375, 27.9375, 27.84375, 27.71875, 27.65625, 27.46875, 27.5625, 27.6875, 27.8125, 27.9375, 27.9375, 27.9375, 27.875, 28.026787, 28.098213, 28, 27.892857, 27.75, 27.75, 27.75, 27.875, 27.9375, 27.9375, 28.0625, 28.125, 28.1875, 28.25, 28.1875, 28.3125, 28.375, 28.416666, -10, -10, -10, -10, -10, -10, -10, -10, -10, -10, -10, -10, -10, -10, -10, -10, -10, -10, -10, -10, -10, -10, -10, -10, -10, -10, -10, -10, -10, -10, -10, -10, -10, -10, 51.875, 51.75, 51.5, 51.0625, 50.642857, 50.375, 50.1875, 49.875, 49.517857, 49.125, 48.6875, 48.5, 48.25, 48.0625, 47.75, 47.4375, 46.9375, 46.5, 46.25, 46, 45.8125, 45.5625, 45.25, 44.8125, 44.625, 44.214287, 43.354164, 43.145832, 42.9375, 42.6875, 42.455357, 42.1875, 41.75, 41.5, 41.25, 40.875, 40.625, 40.375, 39.9375, 39.5625, 39.3125, 38.8125, 38.5, 38.25, 37.9375, 37.75, 37.491074, 37.125, 37, 36.651787, 36.174999, 35.958332, 35.321426, 35.133926, 34.625, 34.375, 33.875, 33.5, 33.25, 32.875, 32.625, 32.375, 32.125, 31.75, 31.5, 31.25, 30.8125, 30.5625, 30.3125, 29.9375, 29.625, 29.375, 28.875, 28.5, 28.1875, 27.75, 27.5625, 27.375, 27.053572, 26.791666, 26.571428, 26.169643, 25.684523, 25.321428, 25.0625, 24.75, 24.5, 24.0625, 23.5625, 23.3125, 23, 22.6875, 22.4375, 22.1875, 21.9375, 21.6875, 21.321428, 20.9125, 20.660715, 20.086309, 19.630951, 19.258928, 19.0625, 18.75, 18.5, 18.1875, 17.6875, 17.4375, 17.1875, 17, 17, 17, 17, 17, 17, 17, 17, 17, 17, 17, 17, 17, 17, 17.125, 17.25, 17.25, 17.25, 17.125, 17, 17, 17, 17, 17, 17.0625, 17.0625, 17.0625, 17.0625, 17, 17, 17, 17.03125, 17.03125, 17.03125, 17.03125, 17, 17, 17, 17.0625, 17.1875, 17.1875, 17.1875, 17.125, 17, 17, 17, 17, 17, 17.0625, 17.0625, 17.125, 17.0625, 17, 16.9375, 16.875, 16.9375, 16.9375, 17, 17, 17, 17.0625, 17.1875, 17.1875, 17.3125, 17.25, 17.125, 17.125, 17.1875, 17.25, 17.25, 17.25, 17.232143, 17.233334, -10, -10, -10, -10, 17.5, 17.5, 17.5, 8, 8, 8, 8, 8, 8, 8, 8, 8, 8, 8, 8, 8, 8, 8, 8, 8, 8, 8, 8, 8, 8, 8, 8, 8, 8, 8, 8, 8, 8, 8.0625, 8.4732141, 9.8988104, 10.996599, 11.747025, 11.973214, 12.125, 12.125, 12.3125, 12.705357, 13.607143, 13.75, 14.454082, 16.520834, 17.223213, 17.78125, 17.9375, 18, 18, 18, 17.9375, 17.8125, 17.625, 17.5625, 17.5625, 17.625, 17.75, 17.8125, 17.875, 17.9375, 18, 18, 18, 18, 18.0625, 18.0625, 18.0625, 18.0625, 18.1875, 18.4375, 18.75, 19.125, 19.3125, 19.5, 19.625, 19.883928, 20.333334, 20.616072, 20.875, 21.0625, 21.375, 21.5, 21.5, 21.625, 21.6875, 21.919643, 22.125, 22, 22.160713, 22.751787, 22.892859, 23.133928, 23.1875, 23.25, 23.4375, 23.6875, 23.8125, 24.125, 24.5625, 24.991072, 25.15625, 25.28125, 25.28125, 25.375, 25.625, 26, 26.375, 26.625, 26.8125, 26.875, 26.875, 27, 27.3125, 27.5625, 27.8125, 28, 28, 28.0625, 28.1875, 28.1875, 28.1875, 28.0625, 27.9375, 27.875, 27.75, 27.6875, 27.5625, 27.4375, 27.5625, 27.6875, 27.8125, 28, 28, 28, 27.9375
51.5, 51.125, 50.8125, 50.5, 50.3125, 50, 49.580357, 49.125, 48.580357, 48.375, 48.125, 48.0625, 47.8125, 47.5, 47, 46.5, 46.25, 46, 45.8125, 45.5625, 45.25, 44.75, 44.5, 44.133926, 43.458332, 43.270832, 43.0625, 42.75, 42.517857, 42.25, 41.8125, 41.5, 41.25, 40.8125, 40.5625, 40.3125, 39.875, 39.5625, 39.3125, 38.875, 38.5625, 38.3125, 37.9375, 37.6875, 37.428574, 37.0625, 36.9375, 36.589287, 36.112499, 35.895832, 35.321426, 35.196426, 34.6875, 34.4375, 33.9375, 33.5, 33.25, 32.8125, 32.5625, 32.3125, 32, 31.6875, 31.4375, 31.1875, 30.8125, 30.5625, 30.3125, 29.875, 29.5625, 29.3125, 28.8125, 28.5, 28.1875, 27.75, 27.5, 27.25, 26.875, 26.75, 26.5625, 26.169643, 25.684523, 25.321428, 25, 24.6875, 24.4375, 24.0625, 23.625, 23.375, 23.0625, 22.6875, 22.4375, 22.125, 21.8125, 21.5625, 21.25, 21, 20.678572, 20.148809, 19.568451, 19.258928, 19.0625, 18.75, 18.5, 18.25, 17.75, 17.5, 17.25, 17, 17, 17, 17, 17, 17, 17, 17, 17, 17, 17, 17, 17, 17, 17.0625, 17.125, 17.125, 17.125, 17.0625, 17, 17, 17, 17, 17, 17, 17, 17, 17, 17, 17, 17.0625, 17.09375, 17.09375, 17.09375, 17.03125, 17, 17, 17, 17.125, 17.25, 17.25, 17.25, 17.125, 17, 17, 17, 17, 17, 17.125, 17.125, 17.1875, 17.125, 17, 16.9375, 16.875, 16.9375, 16.9375, 17, 17, 17, 17, 17.0625, 17.0625, 17.1875, 17.1875, 17.125, 17.125, 17.125, 17.1875, 17.1875, 17.071428, 17.232143, 17.233334, -10, -10, -10, -10, 17.375, 17.375, 17.333334, 8, 8, 8, 8, 8, 8, 8, 8, 8, 8, 8, 8, 8, 8, 8, 8, 8, 8, 8, 8, 8, 8, 8, 8, 8, 8, 8, 8, 8, 8, 8.041667, 8.5059519, 10.583334, 11.443453, 11.767857, 11.901786, 12.044643, 12.116072, 12.517857, 13.091836, 14.476192, 15.6875, 16.166666, 16.75, 17.151787, 17.53125, 17.75, 17.875, 17.9375, 17.9375, 17.8125, 17.625, 17.375, 17.3125, 17.3125, 17.375, 17.5, 17.5625, 17.6875, 17.8125, 17.9375, 18, 18, 18, 18.0625, 18.0625, 18.0625, 18.0625, 18.1875, 18.4375, 18.6875, 19, 19.125, 19.3125, 19.5, 19.821428, 20.395834, 20.678572, 20.9375, 21.1875, 21.4375, 21.5, 21.5, 21.5, 21.508928, 21.8125, 21.9375, 21.8125, 21.910713, 22.501787, 22.714285, 23.008928, 23.0625, 23.1875, 23.375, 23.625, 23.8125, 24.1875, 24.625, 25.053572, 25.21875, 25.21875, 25.15625, 25.1875, 25.4375, 25.8125, 26.25, 26.625, 26.875, 27, 27.0625, 27.1875, 27.4375, 27.6875, 27.875, 28, 28, 28.0625, 28.1875, 28.25, 28.232143, 28, 27.9375, 27.8125, 27.8125, 27.875, 27.8125, 27.642857, 27.625, 27.625, 27.75, 27.9375, 28.035713, 28.0625, 28.0625, 28.089287, 28.160713, 28.0625, 27.892857, 27.75, 27.75, 27.75, 27.875, 28, 28.0625, 28.125, 28.25, 28.294643, 28.174107, 28.174107, 28.21875, 28.21875, 28.25, -10, -10, -10, -10, -10, -10, -10, -10, -10, -10, -10, -10, -10, -10, -10, -10, -10, -10, -10, -10, -10, -10, -10, -10, -10, -10, -10, -10, -10, -10, -10, -10, -10, -10, 52, 51.916668, 51.6875, 51.375, 51, 50.625, 50.375, 50.0625, 49.705357, 49.241074, 48.559525, 48.321426, 48.0625, 48.0625, 47.8125, 47.5, 47, 46.5, 46.25, 46, 45.8125, 45.5625, 45.25, 44.75, 44.4375, 44.0625, 43.625, 43.375, 43.0625, 42.75, 42.5, 42.1875, 41.75, 41.4375, 41.1875, 40.75, 40.5, 40.25, 39.875, 39.625, 39.375, 39, 38.625, 38.375, 37.9375, 37.5625, 37.3125, 37.0625, 36.875, 36.607143, 36.174999, 35.895832, 35.383926, 35.258926, 34.75, 34.5, 34.0625, 33.5625, 33.3125, 32.8125, 32.5, 32.25, 31.875, 31.625, 31.375, 31.125, 30.8125, 30.5625, 30.3125, 29.8125, 29.5, 29.25, 28.75, 28.5, 28.1875, 27.8125, 27.5625, 27.3125, 26.9375, 26.6875, 26.4375, 25.982143, 25.497023, 25.196428, 24.875, 24.625, 24.3125, 23.9375, 23.5625, 23.3125, 23, 22.625, 22.375, 22.0625, 21.75, 21.5, 21.1875, 20.9375, 20.678572, 20.148809, 19.568451, 19.258928, 19.0625, 18.75, 18.5, 18.25, 17.75, 17.5, 17.25, 17, 17, 17, 17, 17.0625, 17.0625, 17.0625, 17.0625, 17, 17, 17, 17, 17, 17, 17, 17, 17, 17, 17, 17, 17, 17, 17, 17, 17, 17, 17, 17, 17, 17, 17.125, 17.15625, 17.21875, 17.28125, 17.15625, 17.125, 17.0625, 17, 17.125, 17.1875, 17.1875, 17.1875, 17.0625, 17, 17, 17, 17, 17, 17.1875, 17.25, 17.3125, 17.25, 17.0625, 16.9375, 16.875, 16.9375, 16.9375, 17, 17, 17, 17, 17, 17, 17.0625, 17.0625, 17.0625, 17.0625, 17.0625, 17.0625, 17, 16.9375, 16.982143, 16.983334, 17, 17, 17.125, 17.375, 17.25, 17.3125, 17.333334, 8, 8, 7.9375, 7.875, 7.875, 7.875, 7.9375, 8, 8, 8, 8, 8, 8, 8, 8, 8, 8, 7.9375, 7.875, 7.875, 7.875, 7.9375, 8, 8, 8, 8, 8, 8, 8, 8, -10, -10, 11.333334, 11.714287, 11.875, 11.964286, 12.232143, 12.401786, 12.919642, 14.942459, 16.071428, 16.515306, 16.761225, 17.074406, 17.205357, 17.4375, 17.5625, 17.6875, 17.8125, 17.8125, 17.6875, 17.4375, 17.1875, 17.125, 17.1875, 17.25, 17.3125, 17.375, 17.4375, 17.5625, 17.758928, 18, 18, 18.0625, 18, 18, 18, 18, 18.25, 18.5, 18.75, 19, 19, 19.1875, 19.375, 19.696428, 20.333334, 20.616072, 20.875, 21.125, 21.3125, 21.3125, 21.3125, 21.3125, 21.392857, 21.875, 21.9375, 21.875, 21.866074, 22.276787, 22.651785, 22.9375, 23, 23.125, 23.3125, 23.5625, 23.8125, 24.125, 24.5, 24.866072, 25.03125, 25.15625, 25.200893, 25.25, 25.5, 25.8125, 26.25, 26.625, 26.875, 27.0625, 27.125, 27.3125, 27.5625, 27.75, 27.9375, 28, 28, 28.0625, 28.1875, 28.25, 28.232143, 28, 27.9375, 27.8125, 27.90625, 28.15625, 28.21875, 27.933035, 27.741072, 27.5625, 27.625, 27.8125, 27.973213, 28.0625, 28.1875
51.6875, 51.4375, 51.125, 50.705357, 50.4375, 50.0625, 49.705357, 49.303574, 48.622025, 48.383926, 48.0625, 47.9375, 47.6875, 47.3125, 46.875, 46.4375, 46.1875, 46, 45.8125, 45.553574, 45.041668, 44.571426, 44.3125, 44.0625, 43.6875, 43.4375, 43.125, 42.75, 42.5, 42.1875, 41.75, 41.4375, 41.1875, 40.75, 40.5, 40.25, 39.9375, 39.6875, 39.4375, 39.0625, 38.625, 38.375, 37.9375, 37.5625, 37.3125, 37.0625, 36.8125, 36.553574, 36.1875, 35.75, 35.4375, 35.1875, 34.6875, 34.4375, 34, 33.5625, 33.3125, 32.875, 32.5625, 32.25, 31.767857, 31.5, 31.25, 31, 30.6875, 30.4375, 30.1875, 29.75, 29.5, 29.25, 28.8125, 28.5625, 28.3125, 27.9375, 27.625, 27.375, 26.875, 26.5625, 26.25, 25.794643, 25.416666, 25.196428, 24.910713, 24.580357, 24.1875, 23.8125, 23.5, 23.25, 23, 22.625, 22.375, 22.0625, 21.6875, 21.4375, 21.125, 20.875, 20.6875, 20.294643, 19.639879, 19.321428, 19, 18.6875, 18.4375, 18.1875, 17.75, 17.5, 17.25, 17, 17, 17, 17, 17.0625, 17.0625, 17.0625, 17.0625, 17, 17, 17, 17, 17, 17, 17, 17, 17, 17, 17, 17, 17, 17, 17, 17, 17, 17, 17, 17, 17, 17, 17.125, 17.15625, 17.28125, 17.40625, 17.28125, 17.25, 17.125, 17, 17.0625, 17.0625, 17.0625, 17.125, 17.0625, 17.0625, 17.0625, 17, 17, 17, 17.25, 17.375, 17.4375, 17.4375, 17.1875, 17.0625, 17, 17, 17, 17, 17, 17.0625, 17.0625, 17.0625, 17.0625, 17.0625, 17.125, 17.125, 17.125, 17.0625, 16.9375, 16.8125, 16.8125, 16.919643, 16.9625, 17.083334, 17, 17.166666, 17.333334, 17.3125, 17.4375, 17.416668, 8, 7.9166665, 7.8125, 7.6875, 7.625, 7.6875, 7.8125, 7.9375, 8, 8, 8, 8, 8, 8, 8, 8, 8, 7.875, 7.75, 7.75, 7.75, 7.875, 8, 8, 8, 8, 8, 8, 8, 8, -10, -10, 11.555556, 11.857143, 11.875, 12.026786, 12.419643, 12.818453, 13.707142, 15.748298, 16.642857, 16.910715, 17.018749, 17.147322, 17.138393, 17.25, 17.375, 17.5625, 17.6875, 17.6875, 17.5, 17.1875, 17.026787, 17.107143, 17.241072, 17.3125, 17.25, 17.25, 17.25, 17.375, 17.633928, 17.9375, 18, 18.125, 18.0625, 18.0625, 18.0625, 18, 18.25, 18.5, 18.75, 19, 19, 19.25, 19.5, 19.8125, 20.25, 20.4375, 20.6875, 20.9375, 21.125, 21.1875, 21.1875, 21.25, 21.455357, 22.044643, 22.0625, 22.0625, 22.026787, 22.294643, 22.660713, 22.9375, 22.9375, 23, 23.1875, 23.375, 23.6875, 24, 24.25, 24.508928, 24.71875, 24.90625, 25.075893, 25.25, 25.5, 25.75, 26.1875, 26.5625, 26.8125, 27.125, 27.1875, 27.4375, 27.6875, 27.8125, 28, 28, 28, 28.0625, 28.1875, 28.25, 28.232143, 28, 27.9375, 27.8125, 27.96875, 28.28125, 28.40625, 28.183035, 27.866072, 27.651787, 27.723213, 27.8125, 28.035713, 28.0625, 28.125, 28.125, 28.107143, 28.049999, 28.107143, 27.866072, 27.692856, 27.803572, 27.803572, 28, 28.125, 28.125, 28.3125, 28.294643, 28.111607, 28.111607, 28.09375, 28.125, 28.208334, -10, -10, -10, -10, -10, -10, -10, -10, -10, -10, -10, -10, -10, -10, -10, -10, -10, -10, -10, -10, -10, -10, -10, -10, -10, -10, -10, -10, -10, -10, -10, -10, -10, -10, 51.875, 51.75, 51.625, 51.3125, 50.9375, 50.517857, 50.1875, 49.875, 49.625, 49.303574, 48.684525, 48.383926, 48, 47.75, 47.5, 47.125, 46.75, 46.375, 46.125, 46, 45.875, 45.678574, 45.220242, 44.613098, 44.321426, 44.0625, 43.6875, 43.4375, 43.1875, 42.8125, 42.5625, 42.25, 41.75, 41.4375, 41.1875, 40.75, 40.5, 40.25, 39.9375, 39.6875, 39.4375, 39.125, 38.6875, 38.4375, 38.0625, 37.625, 37.375, 37.125, 36.75, 36.5, 36.25, 35.75, 35.5, 35.125, 34.625, 34.375, 34, 33.625, 33.375, 33, 32.625, 32.25, 31.660713, 31.375, 31.125, 30.875, 30.625, 30.375, 30.125, 29.8125, 29.5625, 29.3125, 28.9375, 28.625, 28.375, 28.0625, 27.6875, 27.4375, 27, 26.5625, 26.133928, 25.395834, 25.142857, 25.053572, 25.010715, 24.571428, 24.098213, 23.625, 23.375, 23.125, 22.9375, 22.625, 22.375, 22.0625, 21.6875, 21.4375, 21.1875, 20.875, 20.625, 20.25, 19.660713, 19.375, 19.0625, 18.6875, 18.4375, 18.1875, 17.75, 17.5, 17.25, 17, 17, 17, 17, 17.0625, 17.0625, 17.0625, 17.0625, 17, 17, 17, 17, 17, 17, 17, 17, 17, 17, 17, 17.0625, 17.0625, 17.0625, 17.0625, 17, 17, 17, 17, 17, 17, 17, 17.0625, 17.125, 17.25, 17.375, 17.3125, 17.25, 17.125, 17, 17, 17, 17.0625, 17.1875, 17.1875, 17.1875, 17.125, 17, 17, 17, 17.25, 17.375, 17.375, 17.375, 17.1875, 17.0625, 17.0625, 17.0625, 17, 17, 17, 17.125, 17.1875, 17.25, 17.3125, 17.3125, 17.375, 17.3125, 17.25, 17.125, 17.0625, 17.0625, 17.1875, 17.25, 17.1875, 17.25, 17.125, 17.25, 17.375, 17.375, 17.5, 17.416668, 7.75, 7.6666665, 7.5625, 7.4375, 7.375, 7.4375, 7.625, 7.8125, 7.9375, 8, 7.9375, 7.9375, 7.875, 7.875, 7.9375, 7.9375, 7.9375, 7.8125, 7.6875, 7.6875, 7.6875, 7.8125, 7.9375, 7.875, 7.875, 7.8125, 7.8125, 7.875, 7.9166665, 8, -10, -10, -10, 12.416667, 12.442857, 12.632653, 13.12245, 13.542518, 14.644642, 16.145832, 16.758928, 17.160715, 17.081249, 17.209822, 17.075893, 17.125, 17.25, 17.4375, 17.625, 17.65625, 17.46875, 17.15625, 17.058037, 17.232143, 17.428572, 17.5, 17.375, 17.25, 17.125, 17.1875, 17.446428, 17.8125, 17.9375, 18.125, 18.0625, 18.0625, 18.0625, 18, 18.25, 18.5, 18.75, 19, 19, 19.25, 19.5, 19.75, 20.125, 20.25, 20.5, 20.75, 20.9375, 21.0625, 21.0625, 21.125, 21.401787, 22.190477, 22.232143, 22.3125, 22.214287, 22.419643, 22.678572, 22.9375, 22.9375, 22.9375, 23.0625, 23.1875, 23.5, 23.8125, 24, 24.25, 24.5, 24.75, 25.044643, 25.25, 25.5, 25.75, 26.1875, 26.5625, 26.8125, 27.125, 27.1875, 27.375, 27.625, 27.75, 27.9375, 28, 28, 27.9375, 28, 28.0625, 28.044643, 28, 28, 27.9375, 28.125, 28.375, 28.5, 28.214285, 27.928572, 27.776787, 27.848213, 27.9375, 28.098213, 28.0625, 28.125
51.5625, 51.1875, 50.75, 50.392857, 50, 49.6875, 49.5, 49.241074, 48.729168, 48.446426, 48.0625, 47.6875, 47.4375, 47.0625, 46.75, 46.5, 46.25, 46.125, 45.9375, 45.678574, 45.220242, 44.613098, 44.321426, 44.0625, 43.6875, 43.4375, 43.1875, 42.75, 42.5, 42.1875, 41.6875, 41.4375, 41.1875, 40.75, 40.5, 40.25, 40, 39.75, 39.5, 39.1875, 38.6875, 38.4375, 38.0625, 37.625, 37.375, 37.125, 36.75, 36.5, 36.25, 35.75, 35.5, 35.0625, 34.5625, 34.3125, 33.9375, 33.625, 33.375, 33, 32.625, 32.25, 31.660713, 31.4375, 31.169643, 30.767857, 30.508928, 30.25, 30.0625, 29.8125, 29.5625, 29.3125, 28.9375, 28.625, 28.375, 28.0625, 27.6875, 27.4375, 27.0625, 26.625, 26.196428, 25.520834, 25.205357, 25.116072, 25.073215, 24.571428, 24.098213, 23.5625, 23.3125, 23.0625, 22.9375, 22.6875, 22.4375, 22.1875, 21.75, 21.5, 21.25, 20.875, 20.625, 20.25, 19.660713, 19.375, 19.0625, 18.6875, 18.4375, 18.1875, 17.75, 17.5, 17.25, 17, 17, 17, 17, 17.0625, 17.0625, 17.0625, 17.0625, 17, 17, 17, 17, 17, 17, 17, 17, 17, 17, 17, 17.0625, 17.0625, 17.125, 17.1875, 17.125, 17.125, 17.0625, 17, 17, 17.0625, 17.125, 17.125, 17.1875, 17.25, 17.3125, 17.3125, 17.25, 17.125, 17, 17, 17, 17.125, 17.3125, 17.3125, 17.3125, 17.1875, 17, 17, 17, 17.1875, 17.3125, 17.3125, 17.3125, 17.1875, 17.0625, 17.0625, 17.0625, 17, 17, 17, 17.125, 17.1875, 17.3125, 17.4375, 17.4375, 17.5, 17.375, 17.25, 17.125, 17.0625, 17, 17.0625, 17.125, 17.0625, 17.21875, 17.21875, 17.34375, 17.46875, 17.5, 17.625, 17.583334, 7.5, 7.4166665, 7.3125, 7.1875, 7.125, 7.1875, 7.375, 7.5625, 7.6875, 7.75, 7.6875, 7.6875, 7.625, 7.625, 7.6875, 7.6875, 7.6875, 7.625, 7.5625, 7.625, 7.625, 7.6875, 7.8125, 7.6875, 7.6875, 7.625, 7.5625, 7.8333335, 7.8888888, -10, -10, -10, -10, 13.190476, 14.866666, 14.904762, 15.166667, 15.301587, 15.439285, 16.395832, 16.696428, 16.910715, 16.831249, 16.959822, 16.888393, 17, 17.125, 17.419643, 17.625, 17.6875, 17.5, 17.1875, 17.089287, 17.232143, 17.428572, 17.5, 17.375, 17.25, 17.0625, 17.0625, 17.258928, 17.625, 17.8125, 18.0625, 18.0625, 18.0625, 18.0625, 18, 18.25, 18.5, 18.75, 19, 19, 19.25, 19.5, 19.75, 20.0625, 20.125, 20.375, 20.5625, 20.75, 20.9375, 20.9375, 21.0625, 21.392857, 22.065477, 22.169643, 22.3125, 22.25, 22.375, 22.625, 22.875, 22.9375, 22.875, 22.9375, 23, 23.3125, 23.5625, 23.6875, 23.955357, 24.333334, 24.678572, 25.044643, 25.25, 25.5, 25.6875, 26.080357, 26.544643, 26.803572, 27.125, 27.125, 27.25, 27.4375, 27.5625, 27.8125, 27.9375, 28, 27.9375, 27.9375, 27.9375, 27.9375, 28, 28.0625, 28.125, 28.1875, 28.3125, 28.3125, 28.071428, 27.866072, 27.839287, 27.973213, 28.107143, 28.1875, 28.125, 28.125, 28.125, 28.107143, 28.049999, 28.169643, 27.991072, 27.817856, 27.866072, 27.866072, 27.9375, 28, 28.125, 28.125, 28.125, 28.125, 28.125, 28.3125, 28.46875, 28.625, -10, -10, -10, -10, -10, -10, -10, -10, -10, -10, -10, -10, -10, -10, -10, -10, -10, -10, -10, -10, -10, -10, -10, -10, -10, -10, -10, -10, -10, -10, -10, -10, -10, -10, 51.875, 51.666668, 51.5625, 51.125, 50.642857, 50.330357, 49.875, 49.5625, 49.25, 48.9375, 48.625, 48.375, 48.0625, 47.625, 47.375, 47, 46.75, 46.5625, 46.3125, 46.1875, 45.9375, 45.678574, 45.220242, 44.613098, 44.321426, 44.0625, 43.6875, 43.4375, 43.1875, 42.75, 42.5, 42.25, 41.8125, 41.5625, 41.3125, 40.875, 40.5625, 40.3125, 40, 39.6875, 39.4375, 39.125, 38.6875, 38.4375, 38.0625, 37.625, 37.375, 37.125, 36.75, 36.5, 36.1875, 35.6875, 35.4375, 35, 34.5625, 34.3125, 33.875, 33.5625, 33.3125, 33, 32.6875, 32.3125, 31.723213, 31.5, 31.294643, 30.875, 30.488094, 30.196428, 30, 29.8125, 29.5625, 29.3125, 29, 28.6875, 28.4375, 28.125, 27.75, 27.5, 27.125, 26.642857, 26.258928, 25.645834, 25.330357, 25.241072, 25.135715, 24.571428, 24.160713, 23.625, 23.375, 23.125, 22.9375, 22.6875, 22.4375, 22.1875, 21.75, 21.5, 21.25, 20.8125, 20.5625, 20.25, 19.705357, 19.4375, 19.125, 18.6875, 18.4375, 18.1875, 17.75, 17.5, 17.25, 17, 17, 17, 17, 17, 17, 17, 16.9375, 16.9375, 16.9375, 16.9375, 17, 17, 17, 17, 17, 17, 17, 17, 17.0625, 17.0625, 17.1875, 17.3125, 17.3125, 17.375, 17.25, 17.125, 17.0625, 17.0625, 17.125, 17.125, 17.1875, 17.1875, 17.1875, 17.1875, 17.125, 17.0625, 17, 17, 17, 17.0625, 17.25, 17.3125, 17.348213, 17.25, 17.0625, 17, 17, 17.125, 17.1875, 17.1875, 17.1875, 17.125, 17.0625, 17.0625, 17.0625, 17.0625, 17.125, 17.125, 17.25, 17.3125, 17.4375, 17.625, 17.6875, 17.75, 17.625, 17.4375, 17.25, 17.125, 17, 17.0625, 17.125, 17.0625, 17.25, 17.296875, 17.484375, 17.609375, 17.609375, 17.6875, 17.583334, 7.25, 7.1666665, 7.125, 7.0625, 7, 7.0625, 7.1875, 7.3125, 7.4375, 7.5, 7.4375, 7.4375, 7.375, 7.375, 7.4375, 7.4375, 7.4375, 7.4375, 7.4375, 7.5625, 7.5625, 7.59375, 7.6875, 7.5625, 7.625, 7.5833335, 7.4166665, -10, -10, -10, -10, -10, -10, 15.361112, 15.742857, 15.739797, 15.892858, 15.880952, 15.975, 16.354166, 16.446428, 16.553572, 16.53125, 16.53125, 16.53125, 16.625, 16.875, 17.232143, 17.4375, 17.5625, 17.375, 17.125, 17.089287, 17.232143, 17.366072, 17.4375, 17.3125, 17.1875, 17.0625, 17.0625, 17.1875, 17.375, 17.5625, 17.75, 17.875, 17.9375, 18, 18.0625, 18.3125, 18.5625, 18.8125, 19, 19, 19.25, 19.5, 19.75, 20, 20.0625, 20.3125, 20.5625, 20.8125, 21, 21, 21.0625, 21.321428, 21.877977, 22.044643, 22.1875, 22.1875, 22.25, 22.508928, 22.958334, 23.044643, 22.9375, 22.9375, 22.9375, 23.25, 23.5, 23.5625, 23.848213, 24.354168, 24.598215, 24.8125, 24.875, 25.071428, 25.458334, 25.883928, 26.419643, 26.678572, 26.9375, 27, 27.0625, 27.25, 27.5, 27.75, 27.9375, 28, 27.9375, 27.9375, 27.9375, 27.9375, 28, 28.0625, 28.125, 28.125, 28.125, 28.0625, 28, 27.9375, 28.026787, 28.160713, 28.294643, 28.3125, 28.1875, 28.125
51.401787, 50.9375, 50.455357, 50.25, 49.75, 49.5, 49.125, 48.75, 48.5, 48.25, 48.0625, 47.6875, 47.4375, 47.125, 46.875, 46.6875, 46.4375, 46.25, 45.875, 45.625, 45.366074, 44.791668, 44.508926, 44.1875, 43.8125, 43.5, 43.25, 42.8125, 42.5, 42.25, 41.8125, 41.5625, 41.3125, 40.9375, 40.625, 40.375, 40.0625, 39.6875, 39.4375, 39.1875, 38.75, 38.5, 38.125, 37.625, 37.375, 37.125, 36.75, 36.5, 36.1875, 35.6875, 35.4375, 35, 34.5625, 34.3125, 33.9375, 33.6875, 33.4375, 33.125, 32.75, 32.375, 31.830357, 31.651787, 31.544643, 31.008928, 30.613094, 30.258928, 30, 29.75, 29.5, 29.25, 29, 28.6875, 28.4375, 28.125, 27.75, 27.5, 27.125, 26.642857, 26.321428, 25.770834, 25.455357, 25.303572, 25.1, 24.553572, 24.160713, 23.625, 23.375, 23.0625, 22.8125, 22.5625, 22.3125, 22.0625, 21.6875, 21.4375, 21.1875, 20.75, 20.5, 20.25, 19.75, 19.5, 19.25, 18.75, 18.5, 18.25, 17.75, 17.5, 17.25, 17, 17, 17, 17, 17, 17, 17, 16.875, 16.875, 16.875, 16.875, 17, 17, 17, 17, 17, 17, 17, 17, 17.0625, 17.0625, 17.1875, 17.375, 17.4375, 17.5625, 17.4375, 17.25, 17.125, 17.0625, 17.125, 17.125, 17.1875, 17.125, 17.0625, 17.0625, 17, 17, 17.0625, 17.0625, 17.125, 17.1875, 17.25, 17.3125, 17.285713, 17.1875, 17.0625, 17, 17, 17.0625, 17.0625, 17.0625, 17.0625, 17.0625, 17, 17, 17, 17.0625, 17.25, 17.232143, 17.1875, 17.3125, 17.482143, 17.75, 17.8125, 17.839287, 17.785713, 17.5, 17.330357, 17.1875, 17, 17, 17.0625, 17, 17.21875, 17.359375, 17.546875, 17.671875, 17.703125, 17.75, 17.666666, 7, 7, 7, 7, 7, 7, 7.0625, 7.125, 7.1875, 7.25, 7.1875, 7.1875, 7.125, 7.125, 7.1875, 7.1875, 7.1875, 7.25, 7.3125, 7.4375, 7.4375, 7.40625, 7.4375, 7.3125, 7.5, 7.4444447, -10, -10, -10, -10, 16, 16, 16, 16.023809, 16.275, 16.241072, 16.3125, 16.125, 16.0625, 16.125, 16.196428, 16.375, 16.375, 16.375, 16.3125, 16.375, 16.5625, 16.919643, 17.1875, 17.375, 17.3125, 17.1875, 17.125, 17.125, 17.1875, 17.1875, 17.125, 17.0625, 17, 17, 17, 17.125, 17.3125, 17.544643, 17.6875, 17.8125, 17.875, 18.0625, 18.375, 18.625, 18.875, 19, 19, 19.25, 19.5, 19.75, 20.0625, 20.1875, 20.4375, 20.75, 21, 21.125, 21.125, 21.0625, 21.196428, 21.645834, 21.857143, 22.0625, 22.0625, 22.196428, 22.654762, 23.136906, 23.294643, 23.25, 23.169643, 23.0625, 23.428572, 23.553572, 23.6875, 23.973213, 24.479168, 24.723215, 24.8125, 24.75, 24.946428, 25.377977, 25.758928, 26.294643, 26.491072, 26.6875, 26.8125, 26.875, 27.125, 27.4375, 27.6875, 27.9375, 28, 27.9375, 27.9375, 27.9375, 27.9375, 28, 28.0625, 28.125, 28.125, 28.125, 28.0625, 28, 28, 28.0625, 28.125, 28.294643, 28.3125, 28.25, 28.1875, 28.0625, 27.9375, 27.875, 28, 28.125, 28.25, 28.25, 28.25, 28.125, 28.0625, 28.125, 27.9375, 27.9375, 27.9375, 28, 28.1875, 28.3125, 28.416666, -10, -10, -10, -10, -10, -10, -10, -10, -10, -10, -10, -10, -10, -10, -10, -10, -10, -10, -10, -10, -10, -10, -10, -10, -10, -10, -10, -10, -10, -10, -10, -10, -10, -10, 51.875, 51.583336, 51.401787, 50.9375, 50.392857, 50.151787, 49.6875, 49.375, 49.026787, 48.625, 48.375, 48.1875, 48.0625, 47.8125, 47.5625, 47.3125, 47.0625, 46.875, 46.625, 46.375, 45.875, 45.5, 45.25, 44.8125, 44.5625, 44.25, 43.875, 43.5625, 43.3125, 42.875, 42.5, 42.1875, 41.75, 41.5, 41.25, 41, 40.6875, 40.4375, 40.0625, 39.625, 39.375, 39.125, 38.75, 38.5, 38.125, 37.625, 37.375, 37.0625, 36.6875, 36.4375, 36.125, 35.6875, 35.4375, 35, 34.5625, 34.3125, 33.875, 33.625, 33.375, 33.0625, 32.75, 32.4375, 32, 31.776787, 31.669643, 31.071428, 30.613094, 30.196428, 29.875, 29.5625, 29.3125, 29.125, 28.875, 28.625, 28.375, 28, 27.6875, 27.4375, 27, 26.580357, 26.3125, 26, 25.6875, 25.4375, 24.9375, 24.5, 24.1875, 23.6875, 23.4375, 23.1875, 22.848213, 22.517857, 22.258928, 22, 21.6875, 21.4375, 21.1875, 20.75, 20.5, 20.25, 19.75, 19.5, 19.1875, 18.6875, 18.5, 18.223213, 17.705357, 17.446428, 17.1875, 17, 17, 17, 17, 17, 17, 17, 16.875, 16.875, 16.8125, 16.8125, 16.9375, 16.9375, 17, 17, 17, 17, 17, 17, 17, 17, 17.125, 17.3125, 17.5, 17.6875, 17.5625, 17.375, 17.1875, 17.0625, 17.125, 17.125, 17.125, 17.0625, 17, 17, 17, 17, 17.0625, 17, 17.089287, 17.232143, 17.232143, 17.3125, 17.223213, 17.125, 17.0625, 17, 17, 17, 17, 17, 17, 17, 16.875, 16.875, 16.875, 17, 17.1875, 17.169643, 17.0625, 17.125, 17.294643, 17.5, 17.5625, 17.589287, 17.669643, 17.575001, 17.339285, 17.196428, 16.9375, 16.875, 16.875, 16.875, 17.09375, 17.359375, 17.609375, 17.796875, 17.890625, 17.9375, 17.916666, 7, 7, 7, 7, 7, 7, 7, 7, 7, 7, 7, 7, 7, 7, 7, 7, 7, 7.0625, 7.125, 7.25, 7.25, 7.21875, 7.25, 7.25, -10, -10, -10, -10, -10, 16, 16, 16, 15.857142, 15.895833, 16, 16.1875, 16.3125, 16.25, 16.125, 16.1875, 16.125, 16.125, 16.125, 16.0625, 16.0625, 16.125, 16.25, 16.482143, 16.625, 16.75, 16.75, 16.75, 16.75, 16.75, 16.8125, 16.875, 16.875, 16.9375, 16.9375, 16.9375, 16.9375, 17, 17.1875, 17.419643, 17.544643, 17.612499, 17.803572, 17.919643, 18.276787, 18.607143, 18.866072, 19, 19, 19.25, 19.5, 19.75, 20.125, 20.3125, 20.5, 20.839287, 21.169643, 21.303572, 21.3125, 21.1875, 21.25, 21.5, 21.857143, 22.0625, 22.125, 22.196428, 22.601191, 23.149405, 23.116072, 23.133928, 22.982143, 22.9375, 23.303572, 23.428572, 23.625, 23.910713, 24.479168, 24.723215, 24.8125, 24.75, 24.946428, 25.377977, 25.696428, 26.232143, 26.428572, 26.625, 26.8125, 26.8125, 27.026787, 27.419643, 27.678572, 27.9375, 28, 28, 28, 28, 28.0625, 28.0625, 28.125, 28.1875, 28.125, 28.125, 28.125, 28.1875, 28.294643, 28.294643, 28.166666, 28.241072, 28.25, 28.25, 28.1875
51.401787, 50.9375, 50.184525, 50.005951, 49.650002, 49.178574, 48.821426, 48.375, 48.1875, 48.0625, 48, 47.8125, 47.5625, 47.3125, 47.0625, 46.8125, 46.5625, 46.25, 45.75, 45.4375, 45.125, 44.75, 44.5, 44.1875, 43.9375, 43.625, 43.375, 43, 42.553574, 42.125, 41.8125, 41.5, 41.3125, 41.0625, 40.6875, 40.4375, 40, 39.5625, 39.3125, 39, 38.6875, 38.4375, 38.125, 37.6875, 37.4375, 37.0625, 36.625, 36.375, 36.0625, 35.6875, 35.4375, 35.0625, 34.625, 34.375, 33.9375, 33.6875, 33.4375, 33.1875, 32.875, 32.5, 32.0625, 31.714287, 31.5625, 31.053572, 30.604166, 30.196428, 29.8125, 29.5, 29.25, 29.0625, 28.9375, 28.6875, 28.4375, 28, 27.625, 27.375, 26.9375, 26.580357, 26.3125, 25.9375, 25.625, 25.375, 24.9375, 24.5625, 24.25, 23.75, 23.4375, 23.1875, 22.785713, 22.455357, 22.196428, 21.9375, 21.6875, 21.4375, 21.1875, 20.8125, 20.5625, 20.3125, 19.875, 19.5625, 19.25, 18.75, 18.5, 18.160713, 17.642857, 17.383928, 17.125, 17, 17, 17, 17, 17, 17, 17, 16.875, 16.875, 16.8125, 16.8125, 16.9375, 16.9375, 17, 17, 17, 17, 17, 17, 17, 17, 17.0625, 17.1875, 17.375, 17.5625, 17.4375, 17.3125, 17.125, 16.9375, 17, 17, 17, 17.0625, 17.0625, 17.0625, 17.0625, 17, 17.0625, 17.0625, 17.214287, 17.357143, 17.294643, 17.3125, 17.160713, 17.0625, 17.0625, 17, 17, 17, 17.071428, 17.200001, 17.071428, 17.071428, 16.875, 16.875, 16.875, 17, 17.25, 17.294643, 17.1875, 17.25, 17.294643, 17.375, 17.4375, 17.464287, 17.607143, 17.575001, 17.339285, 17.196428, 17.0625, 17.125, 17.125, 17.125, 17.25, 17.328125, 17.515625, 17.703125, 17.765625, 17.8125, 17.833332, 7, 7, 7, 7, 7, 7, 7, 7, 7, 7, 7, 7, 7, 7, 7, 7, 7, 7, 7, 7.0625, 7.125, 7.1770835, 7.1666665, -10, -10, -10, -10, -10, 16, 16, 16, 15.892857, 15.476191, 15.145833, 15, 15.5625, 15.75, 15.75, 15.75, 15.8125, 15.875, 16, 16, 15.9375, 15.9375, 15.9375, 16, 16.125, 16.1875, 16.28125, 16.34375, 16.40625, 16.46875, 16.5, 16.5625, 16.625, 16.625, 16.6875, 16.75, 16.8125, 16.875, 16.9375, 17.0625, 17.232143, 17.357143, 17.487499, 17.741072, 17.919643, 18.276787, 18.607143, 18.866072, 19, 19, 19.25, 19.5, 19.75, 20.1875, 20.375, 20.5, 20.839287, 21.107143, 21.303572, 21.4375, 21.3125, 21.375, 21.625, 22.026787, 22.1875, 22.25, 22.258928, 22.601191, 23.149405, 23.116072, 23.133928, 22.982143, 22.9375, 23.241072, 23.428572, 23.6875, 24.017857, 24.520834, 24.732143, 24.8125, 24.8125, 25.008928, 25.502977, 25.866072, 26.25, 26.4375, 26.625, 26.8125, 26.875, 27.151787, 27.544643, 27.803572, 28, 28, 28, 28, 28, 28.0625, 28.0625, 28.125, 28.1875, 28.125, 28.1875, 28.25, 28.3125, 28.419643, 28.25, 28.041666, 28.008928, 28.0625, 28.125, 28.125, 28.0625, 27.875, 27.75, 27.8125, 27.875, 28.0625, 28.1875, 28.3125, 28.3125, 28.3125, 28.25, 28, 27.9375, 27.875, 27.875, 27.9375, 27.9375, 27.916666, -10, -10, -10, -10, -10, -10, -10, -10, -10, -10, -10, -10, -10, -10, -10, -10, -10, -10, -10, -10, -10, -10, -10, -10, -10, -10, -10, -10, -10, -10, -10, -10, -10, -10, 51.75, 51.416668, 51.276787, 50.875, 50.291668, 50.193451, 49.891071, 49.220238, 48.892857, 48.4375, 48.25, 48.125, 48, 47.8125, 47.5625, 47.3125, 47.0625, 46.8125, 46.5625, 46.1875, 45.75, 45.419643, 44.955357, 44.633926, 44.375, 44.1875, 44, 43.6875, 43.4375, 43.0625, 42.616074, 42.1875, 41.875, 41.5625, 41.375, 41.0625, 40.642857, 40.375, 40, 39.625, 39.375, 39, 38.625, 38.375, 38.0625, 37.6875, 37.375, 36.9375, 36.5, 36.25, 36.0625, 35.75, 35.5, 35.125, 34.625, 34.375, 34, 33.75, 33.5, 33.1875, 32.8125, 32.4375, 32.0625, 31.714287, 31.4375, 30.946428, 30.6875, 30.196428, 29.883928, 29.5, 29.25, 29.0625, 28.9375, 28.6875, 28.4375, 27.9375, 27.5, 27.25, 26.8125, 26.5625, 26.3125, 25.9375, 25.625, 25.375, 25, 24.625, 24.3125, 23.8125, 23.5, 23.25, 22.848213, 22.473213, 22.196428, 21.9375, 21.6875, 21.4375, 21.1875, 20.875, 20.625, 20.375, 20, 19.625, 19.3125, 18.8125, 18.5, 18.098213, 17.580357, 17.321428, 17.0625, 17, 17, 17, 17, 17, 17, 17, 16.9375, 16.9375, 16.875, 16.9375, 17, 17, 17.0625, 17, 17, 17, 17, 17, 17, 17, 16.9375, 17, 17.125, 17.25, 17.25, 17.1875, 17.125, 17.0625, 17.1875, 17.1875, 17.125, 17.1875, 17.125, 17.125, 17.125, 16.9375, 17, 17.0625, 17.321428, 17.607143, 17.535715, 17.3125, 17.125, 16.9375, 17, 17, 17, 17, 17.142857, 17.4, 17.142857, 17.142857, 16.875, 16.9375, 17, 17.0625, 17.3125, 17.357143, 17.169643, 17.041666, 17.0625, 17.0625, 17.125, 17.214287, 17.357143, 17.387501, 17.214285, 17.133928, 17.125, 17.25, 17.25, 17.25, 17.28125, 17.3125, 17.5, 17.6875, 17.78125, 17.75, 17.749998, 7, 7, 7, 7, 7, 7, 7, 7, 7, 7, 7, 7, 7, 7, 7, 7, 7, 7, 7, 7, 7.0833335, 7.1111112, -10, -10, -10, -10, 15.5, 15.625, 15.833333, 15.9375, 16, 15.830357, 15.288691, 14.544218, 14.5, 15, 15.1875, 15.3125, 15.4375, 15.669643, 15.8125, 16, 16, 15.9375, 15.9375, 15.9375, 15.9375, 16, 16, 16.03125, 16.09375, 16.21875, 16.34375, 16.375, 16.4375, 16.4375, 16.4375, 16.5, 16.5625, 16.6875, 16.75, 16.875, 17.0625, 17.232143, 17.357143, 17.487499, 17.741072, 17.857143, 18.214287, 18.544643, 18.803572, 19, 19, 19.1875, 19.375, 19.625, 20.125, 20.348213, 20.4375, 20.776787, 21.044643, 21.339287, 21.5, 21.375, 21.446428, 21.895834, 22.258928, 22.375, 22.375, 22.383928, 22.717262, 23.066072, 23.008928, 23.008928, 22.857143, 22.8125, 23.116072, 23.366072, 23.75, 24.1875, 24.5625, 24.8125, 24.9375, 25.0625, 25.375, 25.776787, 26.125, 26.4375, 26.5625, 26.75, 26.9375, 27.0625, 27.339287, 27.669643, 27.866072, 28, 28, 28, 28, 28, 28.0625, 28.0625, 28.1875, 28.25, 28.1875, 28.3125, 28.375, 28.419643, 28.419643, 28.25, 27.979166, 27.946428, 28, 28, 28.026787
51.375, 51, 50.479168, 50.318451, 50.016071, 49.238094, 48.955357, 48.5625, 48.375, 48.1875, 47.892857, 47.6875, 47.5, 47.3125, 47.0625, 46.767857, 46.5625, 46.1875, 45.8125, 45.366074, 44.785713, 44.446426, 44.1875, 44.0625, 43.875, 43.625, 43.375, 43, 42.616074, 42.1875, 41.9375, 41.625, 41.4375, 41.0625, 40.580357, 40.3125, 39.9375, 39.625, 39.375, 38.9375, 38.5625, 38.3125, 37.9375, 37.6875, 37.4375, 36.982143, 36.479168, 36.196426, 36, 35.75, 35.5, 35.1875, 34.6875, 34.4375, 34.0625, 33.6875, 33.4375, 33.0625, 32.6875, 32.375, 32.0625, 31.6875, 31.25, 30.875, 30.6875, 30.142857, 29.955357, 29.5625, 29.3125, 29.125, 28.9375, 28.6875, 28.4375, 27.9375, 27.5, 27.25, 26.8125, 26.5625, 26.3125, 25.9375, 25.625, 25.375, 25.0625, 24.6875, 24.4375, 24, 23.6875, 23.5625, 23.151785, 22.577379, 22.267857, 22, 21.75, 21.5, 21.1875, 20.8125, 20.5625, 20.3125, 20, 19.625, 19.3125, 18.875, 18.5625, 18.098213, 17.535713, 17.258928, 17, 17, 17, 17, 17, 17.0625, 17.1875, 17.285713, 17.25, 17.142857, 17, 17, 17, 17, 17.0625, 17, 17, 17, 17, 17, 17, 17, 16.9375, 16.9375, 16.9375, 16.96875, 16.96875, 16.96875, 17.09375, 17.125, 17.3125, 17.3125, 17.1875, 17.25, 17.125, 17.125, 17.125, 16.875, 16.875, 17, 17.303572, 17.589287, 17.389881, 17.142857, 17, 16.875, 17, 17, 17, 17, 17.214285, 17.599998, 17.214285, 17.214285, 16.9375, 17.0625, 17.1875, 17.25, 17.375, 17.3125, 17.0625, 16.791666, 16.776785, 16.958334, 17.116072, 17.1875, 17.196428, 17.262501, 17.071428, 17.071428, 17.125, 17.25, 17.25, 17.25, 17.25, 17.1875, 17.339287, 17.669643, 17.803572, 17.8125, 17.833332, 7, 7, 7, 7, 7, 7, 7, 7, 7, 7, 7, 7, 7, 7.0625, 7.0625, 7.0625, 7.0625, 7, 7, 7, -10, -10, -10, -10, -10, 15, 15.333333, 15.416667, 15.625, 15.6875, 15.75, 15.580357, 14.976191, 14.413691, 14.375, 14.6875, 15, 15.1875, 15.3125, 15.607143, 15.75, 15.9375, 16, 15.9375, 15.9375, 15.9375, 15.9375, 15.9375, 15.875, 15.84375, 15.84375, 15.96875, 16.15625, 16.1875, 16.25, 16.25, 16.25, 16.375, 16.4375, 16.5625, 16.705357, 16.9375, 17.0625, 17.1875, 17.294643, 17.424999, 17.741072, 17.857143, 18.151787, 18.482143, 18.741072, 19, 19, 19.125, 19.25, 19.5, 19.9375, 20.160713, 20.3125, 20.589287, 20.857143, 21.214287, 21.4375, 21.4375, 21.508928, 21.958334, 22.258928, 22.375, 22.5, 22.5, 22.633928, 22.887501, 22.883928, 23.008928, 23.107143, 23.25, 23.375, 23.5625, 23.75, 24.125, 24.5, 24.75, 25, 25.125, 25.4375, 25.857143, 26.294643, 26.625, 26.8125, 26.9375, 27.0625, 27.125, 27.339287, 27.669643, 27.866072, 28, 28, 28, 28, 28, 28.0625, 28.0625, 28.25, 28.3125, 28.25, 28.3125, 28.339287, 28.526787, 28.526787, 28.375, 28.041666, 27.946428, 27.9375, 27.9375, 27.964287, 28.098213, 28.0625, 28.125, 28.0625, 28, 28, 28, 28.1875, 28.3125, 28.375, 28.375, 28.25, 28.125, 28.0625, 28, 27.9375, 27.9375, 27.916666, -10, -10, -10, -10, -10, -10, -10, -10, -10, -10, -10, -10, -10, -10, -10, -10, -10, -10, -10, -10, -10, -10, -10, -10, -10, -10, -10, -10, -10, -10, -10, -10, -10, -10, 51.75, 51.5, 51.375, 51.125, 50.729168, 50.604168, 50.099403, 49.309525, 48.991074, 48.616074, 48.229168, 48.017857, 47.767857, 47.5625, 47.5, 47.3125, 47.0625, 46.767857, 46.5625, 46.1875, 45.8125, 45.3125, 44.61607, 44.321426, 44.0625, 44, 43.8125, 43.5625, 43.3125, 42.9375, 42.616074, 42.25, 42, 41.6875, 41.5, 41, 40.517857, 40.25, 39.9375, 39.6875, 39.4375, 38.9375, 38.5, 38.25, 37.8125, 37.625, 37.375, 36.919643, 36.479168, 36.196426, 36, 35.75, 35.5, 35.25, 34.75, 34.5, 34.1875, 33.75, 33.5, 33.125, 32.6875, 32.375, 32.0625, 31.6875, 31.25, 30.9375, 30.8125, 30.330357, 30.205357, 29.75, 29.5, 29.25, 29, 28.705357, 28.4375, 27.9375, 27.5, 27.25, 26.875, 26.625, 26.375, 26.0625, 25.6875, 25.4375, 25.1875, 24.8125, 24.5625, 24.1875, 23.875, 23.6875, 23.294643, 22.601189, 22.267857, 22, 21.75, 21.5, 21.1875, 20.875, 20.625, 20.375, 20.0625, 19.625, 19.375, 19, 18.625, 18.125, 17.535713, 17.25, 17, 17, 17, 16.9375, 16.9375, 17, 17.125, 17.285713, 17.25, 17.142857, 17.0625, 17.0625, 17.0625, 17.0625, 17.0625, 17, 17, 17, 17, 17, 17, 17, 16.9375, 16.9375, 16.875, 16.84375, 16.84375, 16.84375, 17.03125, 17.125, 17.3125, 17.3125, 17.1875, 17.25, 17.125, 17.125, 17.125, 16.875, 16.875, 17.0625, 17.276787, 17.357143, 17.157738, 16.892857, 16.875, 16.875, 17, 17, 17, 17, 17.285715, 17.799999, 17.285715, 17.285715, 17, 17.125, 17.25, 17.3125, 17.4375, 17.3125, 17.0625, 16.854166, 16.776785, 16.958334, 17.223215, 17.1875, 17.1875, 17.0625, 17, 17, 17.125, 17.25, 17.25, 17.25, 17.1875, 17.0625, 17.214287, 17.544643, 17.741072, 17.8125, 17.833332, 7, 7, 7, 7, 7, 7, 6.9375, 6.875, 6.875, 6.8125, 6.875, 6.9375, 6.8571429, 6.8125, 6.875, 6.9196429, 7, 7, -10, -10, -10, -10, -10, -10, 15, 15, 15.25, 15.3125, 15.375, 15.4375, 15.5, 15.330357, 14.833333, 14.580357, 14.5, 14.625, 14.875, 15.0625, 15.25, 15.482143, 15.5625, 15.75, 15.875, 15.875, 15.9375, 16, 16, 16.0625, 16.0625, 16.0625, 16.0625, 16.125, 16.330357, 16.520834, 16.520834, 16.291666, 16.196428, 16.25, 16.3125, 16.5, 16.642857, 16.875, 17.0625, 17.098213, 17.1875, 17.625, 17.770834, 17.964287, 18.25, 18.482143, 18.75, 19, 19, 19, 19, 19.205357, 19.708334, 19.964287, 20.25, 20.5, 20.6875, 21.035713, 21.3125, 21.4375, 21.571428, 22.020834, 22.151787, 22.3125, 22.5, 22.625, 22.8125, 22.96875, 23.125, 23.3125, 23.544643, 23.65625, 23.75, 23.8125, 23.875, 24.1875, 24.5, 24.75, 25, 25.1875, 25.5625, 26.089287, 26.544643, 26.8125, 26.9375, 27, 27.0625, 27.1875, 27.4375, 27.6875, 27.875, 28, 28, 28, 28, 28, 28, 28, 28.1875, 28.25, 28.25, 28.3125, 28.339287, 28.464287, 28.357143, 28.267857, 28.0625, 28, 28, 27.9375, 27.964287
51.375, 51.1875, 51.0625, 50.875, 50.261902, 49.523811, 49.196426, 48.803574, 48.354168, 48.080357, 47.767857, 47.5625, 47.5625, 47.375, 47.0625, 46.723213, 46.5625, 46.25, 45.9375, 45.208336, 44.5, 44.196426, 43.9375, 43.9375, 43.75, 43.5, 43.3125, 42.875, 42.5625, 42.3125, 41.9375, 41.6875, 41.4375, 40.9375, 40.517857, 40.25, 39.9375, 39.6875, 39.375, 38.875, 38.4375, 38.1875, 37.75, 37.5625, 37.3125, 36.857143, 36.479168, 36.196426, 35.9375, 35.6875, 35.4375, 35.1875, 34.75, 34.5, 34.25, 33.75, 33.5, 33.125, 32.625, 32.375, 32.1875, 31.848213, 31.392857, 31.133928, 31, 30.517857, 30.392857, 29.875, 29.5625, 29.3125, 28.9375, 28.642857, 28.375, 27.9375, 27.5625, 27.3125, 26.9375, 26.625, 26.375, 26.125, 25.75, 25.5, 25.1875, 24.75, 24.5, 24.125, 23.875, 23.6875, 23.357143, 22.726189, 22.392857, 22.125, 21.8125, 21.5, 21.125, 20.75, 20.5, 20.25, 19.9375, 19.5625, 19.3125, 18.9375, 18.625, 18.125, 17.535713, 17.25, 17, 17, 17, 16.9375, 16.9375, 17, 17.0625, 17.223213, 17.1875, 17.080357, 17.0625, 17.0625, 17.0625, 17.0625, 17.0625, 17, 17, 17, 17, 17, 17, 17, 16.9375, 16.9375, 16.8125, 16.78125, 16.84375, 16.84375, 17.09375, 17.1875, 17.3125, 17.3125, 17.1875, 17.1875, 17.0625, 17.0625, 17.0625, 16.875, 16.875, 17, 17.151787, 17.169643, 16.970238, 16.767857, 16.8125, 16.875, 17, 17, 17, 17.0625, 17.401785, 17.849998, 17.357143, 17.285715, 17, 17.125, 17.25, 17.3125, 17.375, 17.25, 17, 16.791666, 16.776785, 16.958334, 17.223215, 17.1875, 17.1875, 17.0625, 17, 17, 17.0625, 17.125, 17.125, 17.125, 17.0625, 17, 17.151787, 17.482143, 17.741072, 17.875, 17.916666, 7, 7, 7, 7, 7, 6.9375, 6.8125, 6.75, 6.75, 6.6875, 6.75, 6.75, 6.6071429, 6.625, 6.75, 6.8571429, 7, 7, -10, -10, -10, -10, -10, 15, 15, 15, 15, 15.0625, 15.125, 15.1875, 15.25, 15.1875, 15, 14.830357, 14.8125, 14.8125, 15, 15.1875, 15.25, 15.419643, 15.4375, 15.5, 15.6875, 15.8125, 15.9375, 16.125, 16.125, 16.0625, 16.026787, 16, 16, 16.125, 16.267857, 16.458334, 16.458334, 16.291666, 16.321428, 16.4375, 16.5, 16.625, 16.705357, 16.875, 17.09375, 17.098213, 17.15625, 17.53125, 17.645834, 17.870537, 18.1875, 18.482143, 18.75, 19, 19, 19, 19, 19.205357, 19.645834, 19.964287, 20.3125, 20.5625, 20.8125, 21.098213, 21.3125, 21.5, 21.633928, 22.083334, 22.169643, 22.294643, 22.424999, 22.678572, 22.866072, 23.03125, 23.0625, 23.1875, 23.4375, 23.739584, 23.928572, 24, 24, 24.1875, 24.446428, 24.895834, 25.178572, 25.375, 25.6875, 26.151787, 26.544643, 26.8125, 26.9375, 27, 27.0625, 27.125, 27.375, 27.625, 27.8125, 28, 28, 28, 28, 28, 28, 28.0625, 28.25, 28.25, 28.25, 28.1875, 28.151787, 28.339287, 28.294643, 28.4375, 28.3125, 28.25, 28.1875, 28, 27.964287, 28.098213, 28.125, 28.375, 28.4375, 28.375, 28.1875, 27.857143, 27.75, 27.75, 27.875, 27.9375, 28.0625, 28.125, 28.125, 28.125, 28.0625, 28, 28, -10, -10, -10, -10, -10, -10, -10, -10, -10, -10, -10, -10, -10, -10, -10, -10, -10, -10, -10, -10, -10, -10, -10, -10, -10, -10, -10, -10, -10, -10, -10, -10, -10, -10, 51.875, 51.583332, 51.4375, 51.1875, 50.9375, 50.6875, 50.083332, 49.544643, 49.25, 48.928574, 48.407738, 47.934525, 47.589283, 47.375, 47.4375, 47.3125, 47, 46.660713, 46.5, 46.1875, 45.875, 45.101189, 44.482143, 44.1875, 43.875, 43.8125, 43.625, 43.375, 43.1875, 42.75, 42.4375, 42.1875, 41.8125, 41.5625, 41.3125, 40.875, 40.5625, 40.3125, 39.9375, 39.625, 39.25, 38.75, 38.375, 38.125, 37.8125, 37.625, 37.4375, 37.044643, 36.604168, 36.321426, 36, 35.75, 35.5, 35.25, 34.8125, 34.5, 34.25, 33.75, 33.5, 33.1875, 32.6875, 32.4375, 32.25, 31.910713, 31.517857, 31.258928, 31, 30.571428, 30.383928, 29.9375, 29.625, 29.3125, 28.830357, 28.580357, 28.3125, 28, 27.6875, 27.375, 27.0625, 26.6875, 26.4375, 26.1875, 25.75, 25.5, 25.1875, 24.75, 24.5, 24.125, 23.8125, 23.625, 23.357143, 22.770832, 22.455357, 22.1875, 21.8125, 21.5, 21.0625, 20.625, 20.375, 20.0625, 19.75, 19.4375, 19.1875, 18.875, 18.625, 18.1875, 17.598213, 17.3125, 17.0625, 17, 17, 16.9375, 16.9375, 17, 17.0625, 17.223213, 17.1875, 17.080357, 17.0625, 17, 17, 17, 17, 17, 17, 17, 17, 17, 17, 17, 17, 17, 16.875, 16.84375, 16.84375, 16.84375, 17.03125, 17.0625, 17.125, 17.125, 17.0625, 17.0625, 17, 17, 17, 16.9375, 16.9375, 17, 17.044643, 16.982143, 16.791666, 16.767857, 16.8125, 16.9375, 17, 17, 17.0625, 17.1875, 17.580357, 18.025, 17.642857, 17.380953, 17.071428, 17.0625, 17.125, 17.1875, 17.1875, 17.0625, 16.892857, 16.875, 16.883928, 17.083334, 17.285715, 17.1875, 17.1875, 17.0625, 17, 17, 17, 17, 17, 17.0625, 17.125, 17.0625, 17.151787, 17.357143, 17.553572, 17.8125, 17.916666, 7, 7, 6.9375, 6.875, 6.8125, 6.6875, 6.5625, 6.5625, 6.5625, 6.5, 6.5625, 6.5625, 6.4196429, 6.5, 6.6875, 6.7738094, 7, -10, -10, -10, -10, 15, 15, 15, 14.9375, 14.875, 14.8125, 14.8125, 14.8125, 14.875, 14.9375, 14.875, 14.8125, 14.8125, 14.8125, 14.9375, 15.1875, 15.3125, 15.3125, 15.375, 15.375, 15.375, 15.625, 15.75, 15.9375, 16.25, 16.25, 16.25, 16.133928, 15.892857, 15.892857, 15.9375, 16.080357, 16.333334, 16.395834, 16.291666, 16.321428, 16.4375, 16.4375, 16.5625, 16.705357, 16.875, 17.125, 17.098213, 17.125, 17.4375, 17.520834, 17.776787, 18.125, 18.482143, 18.75, 19, 19, 19, 19.0625, 19.267857, 19.645834, 19.928572, 20.3125, 20.5625, 20.8125, 21.0625, 21.1875, 21.401787, 21.705357, 22.035713, 22.133928, 22.098215, 22.216667, 22.636906, 22.857143, 23.03125, 23.0625, 23.125, 23.401787, 23.846727, 24.044643, 24.125, 24.0625, 24.196428, 24.654762, 25.065477, 25.366072, 25.5, 25.6875, 26.044643, 26.419643, 26.6875, 26.8125, 26.875, 26.75, 26.6875, 26.9375, 27.303572, 27.669643, 27.9375, 28, 28, 28.0625, 28.0625, 28.0625, 28.1875, 28.25, 28.25, 28.25, 28.0625, 28.026787, 28.232143, 28.294643, 28.5, 28.5, 28.375, 28.375, 28.25, 28.125
51.5625, 51.294643, 50.830357, 50.571426, 50.020832, 49.589287, 49.3125, 48.991074, 48.470238, 48.059525, 47.821426, 47.625, 47.553574, 47.166668, 46.821426, 46.517857, 46.375, 46.0625, 45.75, 45.092262, 44.526787, 44.25, 43.9375, 43.8125, 43.625, 43.375, 43.125, 42.6875, 42.375, 42.0625, 41.6875, 41.4375, 41.1875, 40.875, 40.625, 40.3125, 39.830357, 39.5, 39.0625, 38.625, 38.3125, 38.0625, 37.8125, 37.5625, 37.3125, 36.9375, 36.625, 36.375, 36.0625, 35.8125, 35.5625, 35.3125, 34.875, 34.5, 34.25, 33.75, 33.5, 33.25, 32.75, 32.5, 32.3125, 31.910713, 31.580357, 31.321428, 30.9375, 30.625, 30.375, 30, 29.6875, 29.3125, 28.723213, 28.455357, 28.1875, 27.9375, 27.6875, 27.375, 27.125, 26.75, 26.5, 26.1875, 25.6875, 25.4375, 25.125, 24.75, 24.5, 24.125, 23.75, 23.5, 23.241072, 22.791666, 22.508928, 22.25, 21.8125, 21.5, 21.125, 20.75, 20.5, 20.125, 19.705357, 19.375, 19.125, 18.8125, 18.5625, 18.1875, 17.642857, 17.375, 17.125, 17, 17, 16.9375, 16.9375, 16.9375, 16.875, 16.9375, 16.9375, 16.9375, 17, 17.0625, 17.0625, 17.0625, 17.0625, 17, 17, 17, 17, 17, 17, 17, 17, 17, 16.9375, 16.9375, 16.9375, 16.9375, 17, 17, 17, 17, 17, 17, 17, 17, 17, 17, 17, 17, 16.9375, 16.875, 16.875, 16.875, 16.9375, 17, 17, 17, 17.125, 17.25, 17.571428, 17.887501, 17.571428, 17.309525, 17.071428, 17, 17, 17, 17, 17, 17, 17.0625, 17.0625, 17, 17.107143, 17, 17.0625, 17, 17, 17, 17, 17, 17.0625, 17.1875, 17.25, 17.3125, 17.375, 17.4375, 17.625, 17.8125, 17.916666, 6.75, 6.75, 6.6875, 6.625, 6.5625, 6.4375, 6.3125, 6.3125, 6.3125, 6.25, 6.3125, 6.3125, 6.1696429, 6.1875, 6.375, 6.6150794, -10, -10, -10, -10, -10, 14.833333, 14.916667, 14.9375, 14.8125, 14.6875, 14.5625, 14.5625, 14.5625, 14.625, 14.6875, 14.625, 14.6875, 14.75, 14.8125, 15, 15.125, 15.25, 15.25, 15.25, 15.25, 15.25, 15.5, 15.6875, 15.9375, 16.25, 16.25, 16.1875, 16.008928, 15.705357, 15.705357, 15.8125, 15.955357, 16.270834, 16.333334, 16.229166, 16.258928, 16.25, 16.276785, 16.473213, 16.5625, 16.75, 17, 16.973213, 17.0625, 17.3125, 17.395834, 17.651787, 18.0625, 18.482143, 18.75, 19, 19, 19.0625, 19.1875, 19.392857, 19.770834, 19.991072, 20.25, 20.5, 20.75, 21.0625, 21.25, 21.464287, 21.892857, 22.133926, 22.089285, 21.991072, 22.029167, 22.627977, 22.964287, 23.15625, 23.125, 23, 23.044643, 23.409227, 23.669643, 23.875, 23.9375, 24.196428, 24.717262, 25.163692, 25.428572, 25.625, 25.75, 26.044643, 26.375, 26.625, 26.75, 26.9375, 26.785713, 26.6875, 27.053572, 27.357143, 27.732143, 27.9375, 28, 28, 28.125, 28.125, 28.125, 28.25, 28.1875, 28.1875, 28.1875, 28.0625, 28.0625, 28.125, 28.1875, 28.375, 28.375, 28.339287, 28.482143, 28.428572, 28.3125, 28.25, 28.0625, 28, 28.03125, 27.96875, 27.78125, 27.450893, 27.375, 27.375, 27.625, 27.8125, 28, 28.25, 28.375, 28.5, 28.5625, 28.375, 28.333332, -10, -10, -10, -10, -10, -10, -10, -10, -10, -10, -10, -10, -10, -10, -10, -10, -10, -10, -10, -10, -10, -10, -10, -10, -10, -10, -10, -10, -10, -10, -10, -10, -10, -10, 52, 51.750004, 51.6875, 51.348217, 50.684525, 50.392853, 50.0625, 49.767857, 49.5, 49.1875, 48.866074, 48.354168, 48.071426, 47.8125, 47.544647, 46.958336, 46.580353, 46.267857, 46.1875, 45.9375, 45.6875, 45.145832, 44.633926, 44.3125, 44, 43.8125, 43.6875, 43.4375, 43.1875, 42.75, 42.375, 42, 41.625, 41.375, 41.125, 40.9375, 40.6875, 40.375, 39.830357, 39.4375, 39, 38.5625, 38.3125, 38, 37.75, 37.5, 37.25, 37, 36.6875, 36.4375, 36.125, 35.8125, 35.5, 35.214287, 34.8125, 34.4375, 34.25, 33.75, 33.5, 33.25, 32.8125, 32.5625, 32.375, 31.973213, 31.580357, 31.321428, 30.9375, 30.625, 30.375, 30, 29.625, 29.25, 28.660713, 28.4375, 28.1875, 27.9375, 27.6875, 27.375, 27.0625, 26.6875, 26.375, 26, 25.5625, 25.3125, 25, 24.625, 24.375, 24, 23.625, 23.375, 23.125, 22.8125, 22.5625, 22.3125, 21.8125, 21.5, 21.0625, 20.625, 20.375, 19.9375, 19.580357, 19.3125, 19.0625, 18.75, 18.5, 18.1875, 17.6875, 17.4375, 17.1875, 17, 17, 17, 17, 17, 16.9375, 16.9375, 16.9375, 16.9375, 16.9375, 17, 17, 17, 17.0625, 17, 17, 17, 17, 17, 17, 17, 17, 17, 16.9375, 16.9375, 16.9375, 16.9375, 17, 17, 17, 17, 17, 17, 17, 17, 17, 17, 17, 17, 17, 17, 17, 17, 17, 17, 17, 17, 17.125, 17.25, 17.5, 17.6875, 17.5, 17.238094, 17.071428, 17, 17, 17, 17, 17.0625, 17.0625, 17.0625, 17.0625, 17, 17, 17, 17, 17, 17, 17.0625, 17.125, 17.1875, 17.3125, 17.375, 17.375, 17.4375, 17.4375, 17.5, 17.6875, 17.8125, 17.916666, 6.5, 6.5, 6.4375, 6.375, 6.3125, 6.1875, 6.125, 6.1875, 6.1875, 6.1875, 6.1875, 6.125, 6.125, 6.375, 6.6125002, -10, -10, -10, -10, 14, 14.166666, 14.625, 14.6875, 14.6875, 14.5, 14.375, 14.25, 14.3125, 14.375, 14.4375, 14.5, 14.375, 14.5, 14.625, 14.75, 14.9375, 15, 15.0625, 15.0625, 15.125, 15.25, 15.3125, 15.5625, 15.8125, 16, 16.25, 16.1875, 16, 15.758928, 15.392857, 15.455357, 15.625, 15.75, 15.9375, 15.9375, 16, 16.125, 16.125, 16.285713, 16.548214, 16.517857, 16.8125, 16.875, 16.9375, 17.0625, 17.125, 17.3125, 17.625, 18.0625, 18.5, 18.75, 19, 19.03125, 19.21875, 19.46875, 19.71875, 19.9375, 20, 20.151787, 20.482143, 20.741072, 21.125, 21.3125, 21.589287, 22.080357, 22.24107, 22.089285, 21.928572, 21.904167, 22.627977, 23, 23.1875, 23.125, 22.875, 22.857143, 23.190477, 23.419643, 23.6875, 23.8125, 24.133928, 24.717262, 25.226192, 25.491072, 25.625, 25.6875, 25.8125, 26.1875, 26.5, 26.6875, 26.9375, 26.785713, 26.75, 27.116072, 27.419643, 27.794643, 27.9375, 28, 28, 28.125, 28.125, 28.125, 28.25, 28.1875, 28.1875, 28.1875, 28.0625, 28, 28, 28, 28.125, 28.125, 28.089287, 28.294643, 28.303572, 28.25
51.75, 51.410717, 50.684525, 50.330353, 50.0625, 49.8125, 49.5625, 49.3125, 48.928574, 48.416668, 48.133926, 47.875, 47.607147, 47.011906, 46.497025, 46.196426, 46, 45.75, 45.5625, 45.25, 44.8125, 44.455357, 44.0625, 43.8125, 43.625, 43.375, 43.125, 42.6875, 42.375, 41.9375, 41.5625, 41.3125, 41.0625, 41, 40.8125, 40.5, 39.955357, 39.455357, 39.0625, 38.625, 38.375, 38, 37.6875, 37.4375, 37.125, 36.9375, 36.625, 36.375, 36.1875, 35.875, 35.5625, 35.276787, 34.8125, 34.4375, 34.1875, 33.6875, 33.4375, 33.1875, 32.875, 32.625, 32.375, 31.9375, 31.5625, 31.3125, 30.9375, 30.625, 30.375, 30, 29.625, 29.25, 28.723213, 28.5625, 28.3125, 28.0625, 27.75, 27.375, 27, 26.625, 26.3125, 25.875, 25.5, 25.25, 24.9375, 24.625, 24.375, 24.0625, 23.6875, 23.4375, 23.1875, 22.75, 22.5, 22.25, 21.75, 21.5, 21.125, 20.6875, 20.4375, 20, 19.580357, 19.3125, 19.0625, 18.75, 18.5, 18.25, 17.75, 17.5, 17.25, 17, 17, 17, 17, 17, 17, 17, 17, 17, 16.9375, 17, 17, 17.0625, 17.125, 17.0625, 17.0625, 17, 17, 17, 17, 17, 17, 17, 17, 17, 17, 17, 17, 17, 17, 17, 17, 17, 17, 17, 17, 17, 17, 17, 17, 17.0625, 17.0625, 17.125, 17.125, 17.0625, 17.0625, 17, 17.125, 17.1875, 17.3125, 17.4375, 17.357143, 17.166666, 17.071428, 17, 17, 17, 17.0625, 17.0625, 17.0625, 17.0625, 17, 17, 17, 17, 17, 17, 17, 17.125, 17.1875, 17.25, 17.375, 17.375, 17.375, 17.4375, 17.4375, 17.4375, 17.625, 17.75, 17.833332, 6.25, 6.25, 6.1875, 6.125, 6.0625, 6, 6, 6.0625, 6.0625, 6.0625, 6.0625, 6.0625, 6.1964283, 6.5625, 6.6500001, -10, -10, -10, 14, 14, 14.111111, 14.375, 14.4375, 14.4375, 14.1875, 14, 13.875, 14, 14.160714, 14.25, 14.375, 14.1875, 14.375, 14.5625, 14.6875, 14.9375, 15, 14.9375, 14.875, 14.9375, 15.125, 15.419643, 15.6875, 15.9375, 16, 16.125, 16.0625, 15.9375, 15.723215, 15.255358, 15.446428, 15.553572, 15.875, 16.125, 16.1875, 16.25, 16.21875, 16.09375, 16.214285, 16.506546, 16.410713, 16.75, 16.71875, 16.875, 17.03125, 17.21875, 17.4375, 17.71875, 18.125, 18.5, 18.75, 19, 19.03125, 19.21875, 19.46875, 19.71875, 19.875, 19.901787, 20.205357, 20.616072, 20.866072, 21.25, 21.375, 21.651787, 22.142857, 22.17857, 21.928572, 21.758928, 21.854166, 22.574406, 23.008928, 23.1875, 23.1875, 23, 22.964287, 23.107143, 23.303572, 23.5625, 23.8125, 24.258928, 24.833334, 25.205357, 25.375, 25.5, 25.625, 25.75, 26.125, 26.375, 26.5625, 26.8125, 26.723213, 26.8125, 27.178572, 27.482143, 27.857143, 27.9375, 28, 28, 28.0625, 28.0625, 28.0625, 28.125, 28.0625, 28.0625, 28.0625, 28, 28, 28, 28, 28.0625, 28, 27.964287, 28.169643, 28.241072, 28.25, 28.25, 28, 27.71875, 27.53125, 27.40625, 27.40625, 27.4375, 27.5625, 27.625, 27.6875, 27.8125, 28, 28.25, 28.5, 28.625, 28.625, 28.4375, 28.333332, -10, -10, -10, -10, -10, -10, -10, -10, -10, -10, -10, -10, -10, -10, -10, -10, -10, -10, -10, -10, -10, -10, -10, -10, -10, -10, -10, -10, -10, -10, -10, -10, -10, -10, 52, 51.833336, 51.75, 51.473217, 50.747025, 50.392853, 50.125, 49.8125, 49.5625, 49.3125, 48.9375, 48.625, 48.375, 48.125, 47.794647, 47.136906, 46.622025, 46.321426, 46.116074, 45.729168, 45.580357, 45.375, 45.044643, 44.559525, 44.196426, 43.9375, 43.75, 43.5, 43.25, 42.75, 42.4375, 42, 41.5625, 41.3125, 41.0625, 41, 40.875, 40.5625, 40.017857, 39.473213, 39.125, 38.6875, 38.4375, 38, 37.5625, 37.3125, 37, 36.875, 36.625, 36.375, 36.125, 35.75, 35.4375, 35.151787, 34.75, 34.4375, 34.1875, 33.6875, 33.4375, 33.1875, 32.875, 32.625, 32.375, 31.875, 31.5, 31.25, 30.9375, 30.6875, 30.4375, 30, 29.5625, 29.25, 28.830357, 28.625, 28.4375, 28.125, 27.75, 27.291666, 26.875, 26.5, 26.25, 25.75, 25.4375, 25.1875, 24.84375, 24.59375, 24.34375, 24.09375, 23.75, 23.5, 23.25, 22.75, 22.5, 22.25, 21.75, 21.5, 21.1875, 20.75, 20.5, 20.125, 19.705357, 19.428572, 18.979166, 18.633928, 18.375, 18.1875, 17.75, 17.5, 17.25, 17, 17, 17, 17, 17, 17, 17, 17, 17, 16.9375, 17, 17, 17.0625, 17.125, 17.0625, 17.0625, 17, 17, 17, 17, 17, 17, 17, 17, 17, 17, 17, 17, 17, 17, 17, 17, 17, 17, 17, 17, 17, 17, 17, 17, 17.0625, 17.0625, 17.125, 17.125, 17.0625, 17.0625, 17, 17.0625, 17.0625, 17.0625, 17.0625, 17, 17, 17, 17, 17, 17, 17.125, 17.125, 17.125, 17.125, 17, 17, 17, 17, 17, 17, 17, 17.125, 17.1875, 17.25, 17.375, 17.3125, 17.25, 17.3125, 17.3125, 17.375, 17.5625, 17.625, 17.666666, 6, 6, 6, 6, 6, 6, 6, 6, 6, 6, 6, 6, 6.1785712, 6.5833335, -10, -10, -10, 14, 14, 14, 14.020833, 14, 14, 13.9375, 13.75, 13.625, 13.5625, 13.6875, 13.848214, 13.8125, 13.9375, 14.020833, 14.25, 14.5625, 14.6875, 14.9375, 15, 14.875, 14.75, 14.75, 14.875, 15.232143, 15.5, 15.75, 15.75, 15.8125, 15.8125, 15.6875, 15.616072, 15.3625, 15.553572, 15.616072, 15.8125, 15.9375, 15.875, 16, 16.09375, 16.066963, 16.276785, 16.506546, 16.223213, 16.5, 16.4375, 16.803572, 17.107143, 17.375, 17.5625, 17.6875, 18.017857, 18.458334, 18.741072, 19, 19.03125, 19.21875, 19.46875, 19.78125, 19.9375, 19.901787, 20.321428, 20.669643, 20.928572, 21.25, 21.5, 21.8125, 22.1875, 22.142857, 21.928572, 22.163691, 22.294643, 22.866072, 23.205357, 23.3125, 23.375, 23.3125, 23.25, 23.25, 23.375, 23.625, 23.9375, 24.375, 24.75, 25.160713, 25.3125, 25.5, 25.6875, 25.75, 26.0625, 26.25, 26.5, 26.8125, 26.910713, 27.125, 27.491072, 27.678572, 27.9375, 28, 28, 28, 27.9375, 27.9375, 27.9375, 27.9375, 28, 28, 28, 28, 28, 27.9375, 27.9375, 27.9375, 27.8125, 27.839287, 27.982143, 28.053572, 28.125
51.625, 51.366074, 50.791668, 50.446426, 50.1875, 49.8125, 49.5625, 49.3125, 48.875, 48.5625, 48.3125, 48, 47.741074, 47.282738, 46.738094, 46.446426, 46.116074, 45.666668, 45.486607, 45.21875, 44.950893, 44.465775, 44.133926, 43.9375, 43.8125, 43.5625, 43.3125, 42.767857, 42.4375, 42.0625, 41.625, 41.375, 41.125, 41, 40.875, 40.625, 40.125, 39.535713, 39.25, 38.75, 38.5, 38, 37.424999, 37.294643, 36.9375, 36.9375, 36.625, 36.375, 36.125, 35.6875, 35.375, 35.089287, 34.6875, 34.4375, 34.125, 33.625, 33.375, 33.125, 32.875, 32.625, 32.375, 31.875, 31.5, 31.25, 30.9375, 30.6875, 30.4375, 30, 29.5625, 29.3125, 28.9375, 28.6875, 28.5, 28.125, 27.75, 27.291666, 26.8125, 26.4375, 26.125, 25.625, 25.375, 25.125, 24.84375, 24.59375, 24.34375, 24.09375, 23.75, 23.5, 23.25, 22.75, 22.5, 22.25, 21.75, 21.5, 21.125, 20.625, 20.375, 20.0625, 19.75, 19.491072, 18.979166, 18.571428, 18.3125, 18.125, 17.75, 17.5, 17.25, 17, 17, 17, 17.0625, 17.0625, 17.0625, 17.0625, 17, 17, 16.9375, 16.9375, 16.9375, 17, 17.0625, 17.0625, 17.0625, 17, 17, 17, 17, 17, 17, 17, 17, 17, 17, 17, 17, 17, 17, 17, 17, 17, 17, 17, 17, 17, 17, 17, 17, 17.0625, 17.0625, 17.125, 17.125, 17.0625, 17.0625, 17, 17, 17, 17, 17, 17, 17, 17, 17, 17, 17, 17.125, 17.125, 17.125, 17.125, 17, 17, 17, 17, 17, 17, 17, 17.125, 17.25, 17.375, 17.4375, 17.3125, 17.1875, 17.125, 17.125, 17.1875, 17.3125, 17.375, 17.416666, 6, 6, 6, 6, 6, 6, 6, 6, 6, 6, 6, 6, -10, -10, -10, -10, 13.833334, 13.916667, 13.9375, 13.875, 13.75, 13.625, 13.5625, 13.5, 13.375, 13.3125, 13.3125, 13.4375, 13.598214, 13.5625, 13.75, 13.895833, 14.125, 14.5, 14.625, 14.875, 15, 14.8125, 14.625, 14.625, 14.6875, 15.044643, 15.3125, 15.5, 15.5, 15.5625, 15.625, 15.625, 15.678572, 15.4875, 15.553572, 15.455358, 15.5625, 15.625, 15.625, 15.8125, 15.96875, 16.066963, 16.25, 16.345833, 16.035713, 16.1875, 16.1875, 16.616072, 17.044643, 17.482143, 17.625, 17.6875, 17.910713, 18.416668, 18.732143, 19, 19.03125, 19.21875, 19.53125, 19.950893, 20.125, 20.151787, 20.571428, 20.857143, 21.053572, 21.3125, 21.5, 21.8125, 22.125, 22.107143, 22.098215, 22.458334, 22.642857, 23.0625, 23.285713, 23.375, 23.5, 23.5, 23.5, 23.5, 23.5625, 23.75, 24.0625, 24.4375, 24.75, 25.125, 25.25, 25.4375, 25.6875, 25.75, 26, 26.1875, 26.4375, 26.6875, 26.875, 27.125, 27.375, 27.625, 27.875, 28, 28, 28, 27.875, 27.875, 27.875, 27.875, 28, 28, 28, 28, 28, 27.9375, 27.9375, 27.9375, 27.875, 27.875, 27.875, 27.875, 27.9375, 28, 27.8125, 27.59375, 27.3125, 27.133928, 27.375, 27.4375, 27.53125, 27.46875, 27.40625, 27.5, 27.75, 28, 28.28125, 28.40625, 28.321428, 28.1875, 28.083334, -10, -10, -10, -10, -10, -10, -10, -10, -10, -10, -10, -10, -10, -10, -10, -10, -10, -10, -10, -10, -10, -10, -10, -10, -10, -10, -10, -10, -10, -10, -10, -10, -10, -10, 51.875, 51.666668, 51.5, 51.25, 50.8125, 50.5, 50.25, 49.8125, 49.5625, 49.3125, 48.875, 48.625, 48.366074, 47.854168, 47.633926, 47.428574, 46.952381, 46.589287, 46.116074, 45.541668, 45.361607, 45.03125, 44.888393, 44.465775, 44.133926, 43.9375, 43.625, 43.267857, 43, 42.517857, 42.3125, 42, 41.625, 41.375, 41.125, 41, 40.875, 40.625, 40.125, 39.535713, 39.25, 38.75, 38.5, 38.0625, 37.549999, 37.419643, 37.0625, 37, 36.625, 36.375, 36.125, 35.75, 35.5, 35.25, 34.8125, 34.5, 34.125, 33.625, 33.375, 33.125, 32.8125, 32.5625, 32.3125, 31.8125, 31.5, 31.25, 30.875, 30.625, 30.375, 29.9375, 29.5625, 29.3125, 28.9375, 28.6875, 28.5, 28.125, 27.75, 27.291666, 26.875, 26.5, 26.25, 25.75, 25.4375, 25.125, 24.78125, 24.53125, 24.28125, 24.09375, 23.75, 23.5, 23.25, 22.75, 22.5, 22.25, 21.75, 21.5, 21.125, 20.625, 20.375, 20.125, 19.8125, 19.553572, 18.979166, 18.508928, 18.25, 18, 17.6875, 17.4375, 17.1875, 17, 17, 17.0625, 17.1875, 17.1875, 17.1875, 17.125, 17, 17, 17, 17, 17, 17.0625, 17.0625, 17.0625, 17.0625, 17, 17, 17, 17, 17, 17.0625, 17.0625, 17.0625, 17.0625, 17, 17, 17, 17, 17, 17, 17, 17, 17, 17, 17, 17, 17, 17, 17, 17.0625, 17.0625, 17.125, 17.125, 17.0625, 17.0625, 17, 17, 17.0625, 17.125, 17.125, 17.125, 17.0625, 17, 17, 17, 17, 17.125, 17.125, 17.125, 17.125, 17, 17, 17, 17, 17, 17, 17, 17.0625, 17.1875, 17.3125, 17.375, 17.375, 17.25, 17.125, 17.0625, 17, 17.0625, 17.125, 17.166666, 6, 6, 6, 6, 6, 6, 6, 6, 6, 6, -10, -10, -10, -10, -10, 13.25, 13.555556, 13.6875, 13.6875, 13.625, 13.5, 13.375, 13.3125, 13.25, 13.1875, 13.125, 13.125, 13.1875, 13.285714, 13.25, 13.5, 13.770833, 14, 14.4375, 14.5625, 14.8125, 14.9375, 14.75, 14.5625, 14.5625, 14.5625, 14.857143, 15.0625, 15.125, 15.125, 15.1875, 15.375, 15.535714, 15.678572, 15.55, 15.428572, 15.205358, 15.25, 15.3125, 15.544643, 15.8125, 16.03125, 16.129463, 16.107143, 15.945833, 15.75, 15.6875, 15.892857, 16.449406, 16.973215, 17.482143, 17.625, 17.6875, 17.910713, 18.416668, 18.732143, 19, 19, 19.125, 19.446428, 20.065477, 20.303572, 20.464287, 20.857143, 21, 21.125, 21.3125, 21.5, 21.75, 22, 22, 22.160715, 22.583334, 22.830357, 23.1875, 23.375, 23.4375, 23.625, 23.6875, 23.6875, 23.8125, 23.875, 24, 24.3125, 24.5625, 24.8125, 25.125, 25.25, 25.5, 25.75, 25.875, 26, 26.125, 26.375, 26.625, 26.875, 27.0625, 27.3125, 27.5625, 27.8125, 28, 28, 28, 27.875, 27.875, 27.875, 27.875, 28, 28, 28, 28, 28, 27.9375, 27.9375, 27.9375, 27.9375, 28.0625, 28.125, 28.125, 28.125
51.5, 51.1875, 50.776787, 50.5, 50.25, 49.875, 49.5625, 49.3125, 48.9375, 48.6875, 48.428574, 47.916668, 47.633926, 47.428574, 47.035713, 46.705357, 46.241074, 45.729168, 45.424107, 45.15625, 45.013393, 44.572918, 44.205357, 43.892857, 43.5, 43.080357, 42.8125, 42.392857, 42.25, 42.0625, 41.75, 41.5, 41.25, 41, 40.75, 40.4375, 39.9375, 39.455357, 39.1875, 38.8125, 38.5625, 38.1875, 37.674999, 37.482143, 37.1875, 37.125, 36.75, 36.5, 36.125, 35.6875, 35.4375, 35.1875, 34.8125, 34.5, 34.1875, 33.6875, 33.4375, 33.1875, 32.75, 32.5, 32.25, 31.75, 31.5, 31.25, 30.8125, 30.5625, 30.3125, 29.875, 29.5625, 29.3125, 28.9375, 28.625, 28.4375, 28, 27.625, 27.229166, 26.8125, 26.5, 26.25, 25.75, 25.4375, 25.125, 24.84375, 24.59375, 24.34375, 24.15625, 23.75, 23.5, 23.25, 22.75, 22.5, 22.25, 21.75, 21.5, 21.125, 20.625, 20.375, 20.125, 19.8125, 19.553572, 18.916666, 18.446428, 18.1875, 17.875, 17.625, 17.375, 17.125, 17, 17, 17.0625, 17.1875, 17.1875, 17.1875, 17.125, 17, 17, 17, 17, 17, 17, 17, 17, 17, 17, 17, 17, 17.0625, 17.0625, 17.125, 17.125, 17.0625, 17.125, 17.0625, 17.0625, 17.0625, 17, 17, 17, 17, 17, 17, 17, 17, 16.9375, 16.9375, 17, 17.107143, 17.1875, 17.1875, 17.125, 17.0625, 17, 17, 17, 17, 17.0625, 17.1875, 17.1875, 17.1875, 17.125, 17, 17, 17, 17, 17.125, 17.1875, 17.1875, 17.1875, 17.0625, 17, 17, 17, 17, 17, 17, 17, 17.125, 17.25, 17.375, 17.4375, 17.3125, 17.1875, 17.0625, 17.0625, 17.125, 17.125, 17.166666, 6, 6, 6, 6, 6, 6, 6, 6, 6, 6, -10, -10, -10, -10, -10, 13.166667, 13.416667, 13.4375, 13.4375, 13.375, 13.25, 13.125, 13.0625, 13, 13, 13.0625, 13.0625, 13.0625, 13.125, 13, 13.1875, 13.583333, 13.8125, 14.357143, 14.5625, 14.75, 14.8125, 14.625, 14.5, 14.5625, 14.5625, 14.75, 14.875, 14.875, 14.9375, 15.0625, 15.3125, 15.535714, 15.6875, 15.625, 15.25, 14.901786, 14.830357, 15.020833, 15.285714, 15.5625, 15.78125, 15.910714, 15.803572, 15.51875, 15.294643, 15.09375, 15.299107, 15.869047, 16.806547, 17.392857, 17.625, 17.6875, 17.910713, 18.416668, 18.732143, 19, 19, 19.0625, 19.321428, 19.940477, 20.303572, 20.607143, 20.866072, 20.928572, 21, 21.125, 21.375, 21.625, 21.875, 21.9375, 22.160715, 22.752977, 23.00893, 23.375, 23.5625, 23.5625, 23.8125, 23.875, 23.875, 24.0625, 24.0625, 24.1875, 24.4375, 24.625, 24.84375, 24.96875, 25.03125, 25.232143, 25.645834, 25.866072, 26, 26.1875, 26.4375, 26.6875, 26.9375, 27, 27.25, 27.5, 27.75, 28, 28, 28, 27.9375, 27.9375, 28, 28, 28.0625, 28.0625, 28, 28, 28, 27.875, 27.875, 27.875, 27.875, 28.0625, 28.125, 28.125, 28.125, 28.0625, 27.875, 27.75, 27.5625, 27.383928, 27.4375, 27.34375, 27.254463, 27.058037, 27.15625, 27.3125, 27.625, 27.9375, 28.15625, 28.28125, 28.258928, 28.125, 28.083334, -10, -10, -10, -10, -10, -10, -10, -10, -10, -10, -10, -10, -10, -10, -10, -10, -10, -10, -10, -10, -10, -10, -10, -10, -10, -10, -10, -10, -10, -10, -10, -10, -10, -10, 51.875, 51.75, 51.5625, 51.25, 50.901787, 50.5625, 50.3125, 49.9375, 49.5625, 49.3125, 48.9375, 48.6875, 48.428574, 47.916668, 47.633926, 47.428574, 47.035713, 46.642857, 46.1875, 45.875, 45.46875, 45.21875, 45.03125, 44.65625, 44.205357, 43.785713, 43.4375, 42.99107, 42.642857, 42.276787, 42.125, 42, 41.8125, 41.5625, 41.3125, 41.0625, 40.6875, 40.3125, 39.767857, 39.375, 39.125, 38.875, 38.616074, 38.104168, 37.692856, 37.482143, 37.25, 37.1875, 36.75, 36.5, 36.1875, 35.75, 35.5, 35.1875, 34.75, 34.4375, 34.125, 33.6875, 33.4375, 33.1875, 32.75, 32.5, 32.25, 31.75, 31.5, 31.25, 30.75, 30.5, 30.25, 29.8125, 29.5625, 29.3125, 28.875, 28.5625, 28.3125, 27.8125, 27.5, 27.25, 26.8125, 26.5625, 26.25, 25.75, 25.4375, 25.125, 24.875, 24.6875, 24.4375, 24.1875, 23.705357, 23.4375, 23.125, 22.6875, 22.4375, 22.1875, 21.75, 21.5, 21.125, 20.625, 20.375, 20.125, 19.75, 19.5, 19.0625, 18.5625, 18.3125, 17.9375, 17.625, 17.375, 17.125, 17, 17, 17.0625, 17.1875, 17.1875, 17.1875, 17.125, 17, 17, 17, 17, 17, 17, 17, 17, 17, 17, 17, 17, 17.0625, 17.0625, 17.125, 17.125, 17.0625, 17.1875, 17.1875, 17.1875, 17.1875, 17.0625, 17, 17, 17, 17.0625, 17.125, 17.125, 17.125, 17, 16.9375, 17.0625, 17.232143, 17.375, 17.5, 17.410713, 17.205357, 17.071428, 17, 17, 17, 17.125, 17.3125, 17.375, 17.375, 17.25, 17.0625, 17, 17.0625, 17.125, 17.25, 17.375, 17.3125, 17.25, 17.125, 17, 17, 17, 17, 17, 17, 17, 17.125, 17.25, 17.3125, 17.401787, 17.419643, 17.294643, 17.1875, 17.1875, 17.25, 17.291666, 17.222221, 6, 6, 5.9375, 5.875, 5.875, 5.875, 5.9375, 6, 6, 6, -10, -10, -10, -10, 13, 13.125, 13.166667, 13.1875, 13.1875, 13.125, 13.0625, 13, 13.0625, 13.0625, 13.0625, 13.125, 13.0625, 13.0625, 13.125, 13.0625, 13.25, 13.5, 13.8125, 14.357143, 14.625, 14.8125, 14.75, 14.625, 14.5625, 14.625, 14.625, 14.6875, 14.75, 14.75, 14.875, 15, 15.1875, 15.348214, 15.375, 15.3125, 14.9375, 14.604911, 14.658482, 14.911458, 15.238839, 15.5625, 15.65625, 15.6875, 15.553572, 15.20625, 15.178572, 15.239584, 15.30102, 15.789116, 16.730656, 17.299107, 17.53125, 17.71875, 18.017857, 18.440477, 18.741072, 19, 19, 19.0625, 19.321428, 19.877977, 20.303572, 20.732143, 20.875, 21, 21, 21.125, 21.375, 21.625, 21.875, 21.9375, 22.151787, 22.482143, 22.776787, 23.1875, 23.375, 23.4375, 23.6875, 23.75, 23.8125, 24.0625, 24.0625, 24.1875, 24.4375, 24.625, 24.78125, 24.78125, 24.78125, 24.919643, 25.395834, 25.741072, 25.9375, 26.25, 26.5, 26.75, 27, 27, 27.25, 27.5, 27.75, 28, 28, 28, 28, 27.9375, 28.026787, 28.098213, 28.0625, 28.125, 28, 28, 28, 27.9375, 27.9375, 27.9375, 27.9375, 28.0625, 28.125, 28.125, 28.125
51.5625, 51.3125, 50.964287, 50.5, 50.142857, 49.8125, 49.4375, 49.1875, 48.875, 48.625, 48.366074, 47.916668, 47.633926, 47.428574, 47.098213, 46.705357, 46.3125, 46.0625, 45.625, 45.4375, 45.1875, 44.75, 44.267857, 43.723213, 43.3125, 42.86607, 42.580357, 42.321426, 42.1875, 42.0625, 41.8125, 41.5625, 41.3125, 41.0625, 40.678574, 40.104168, 39.589287, 39.25, 39.0625, 38.9375, 38.741074, 38.282738, 37.892857, 37.5625, 37.3125, 37.125, 36.75, 36.5, 36.1875, 35.8125, 35.5, 35.125, 34.6875, 34.375, 34.0625, 33.6875, 33.4375, 33.1875, 32.75, 32.5, 32.1875, 31.6875, 31.4375, 31.1875, 30.75, 30.5, 30.25, 29.75, 29.5, 29.25, 28.875, 28.625, 28.375, 27.875, 27.5, 27.25, 26.875, 26.625, 26.375, 25.9375, 25.5625, 25.25, 24.9375, 24.6875, 24.4375, 24.1875, 23.767857, 23.491072, 22.979166, 22.571428, 22.3125, 22.125, 21.75, 21.5, 21.1875, 20.6875, 20.4375, 20.1875, 19.8125, 19.5625, 19.1875, 18.6875, 18.375, 18, 17.625, 17.375, 17.125, 17, 17, 17.0625, 17.125, 17.125, 17.125, 17.0625, 17, 17, 17, 17, 17, 17, 17, 17, 17, 17, 17, 17, 17.0625, 17.0625, 17.125, 17.125, 17.0625, 17.1875, 17.25, 17.25, 17.25, 17.125, 17, 16.9375, 16.875, 16.955357, 17.208334, 17.208334, 17.125, 17, 16.875, 17.0625, 17.294643, 17.4375, 17.642857, 17.660713, 17.276785, 17.142857, 17, 17, 17, 17.1875, 17.4375, 17.5625, 17.5625, 17.375, 17.125, 17, 17.125, 17.25, 17.375, 17.5, 17.375, 17.25, 17.125, 17, 17, 17, 17, 17, 17, 17, 17.0625, 17.125, 17.1875, 17.276787, 17.419643, 17.419643, 17.375, 17.4375, 17.4375, 17.458332, 5.5, 5.75, 5.75, 5.6875, 5.6875, 5.6875, 5.6875, 5.8125, 5.8125, 5.8333335, 6, -10, -10, -10, -10, 12.666667, 12.75, 12.8125, 12.8125, 12.8125, 12.875, 12.875, 12.9375, 13, 13, 13, 13.0625, 13.0625, 13.0625, 13.125, 13.0625, 13.25, 13.5, 13.875, 14.419643, 14.6875, 14.875, 14.75, 14.625, 14.625, 14.6875, 14.8125, 14.9375, 15.0625, 15.098214, 15.017857, 15.071428, 15.125, 15.223214, 15.1875, 15.125, 14.875, 14.609375, 14.627232, 14.817708, 15.020089, 15.3125, 15.40625, 15.4375, 15.366072, 15.08125, 15.116072, 15.177084, 15.563775, 15.977891, 16.386906, 16.848213, 17.15625, 17.522322, 18.017857, 18.388393, 18.71875, 18.96875, 19, 19, 19.196428, 19.645834, 20.053572, 20.544643, 20.75, 21, 21.0625, 21.125, 21.375, 21.5625, 21.8125, 21.9375, 22.017859, 22.094643, 22.419643, 22.8125, 23.0625, 23.125, 23.401787, 23.607143, 23.741072, 24.125, 24.1875, 24.375, 24.625, 24.75, 24.84375, 24.71875, 24.71875, 24.794643, 25.270834, 25.886906, 26.044643, 26.375, 26.5625, 26.75, 27, 27, 27.25, 27.5, 27.75, 28, 28, 28, 28, 27.9375, 28.026787, 28.098213, 28.0625, 28.125, 28, 28, 28, 27.9375, 27.9375, 27.9375, 27.9375, 28.0625, 28.125, 28.125, 28.125, 28.0625, 27.875, 27.75, 27.625, 27.4375, 27.3125, 27.375, 27.196428, 26.857143, 26.848213, 26.946428, 27.502977, 27.866072, 28.0625, 28.0625, 28.0625, 28, 28, -10, -10, -10, -10, -10, -10, -10, -10, -10, -10, -10, -10, -10, -10, -10, -10, -10, -10, -10, -10, -10, -10, -10, -10, -10, -10, -10, -10, -10, -10, -10, -10, -10, -10, 51.625, 51.666664, 51.5, 51.25, 50.964287, 50.5, 50.080357, 49.6875, 49.3125, 49, 48.6875, 48.4375, 48.1875, 47.9375, 47.6875, 47.428574, 47, 46.6875, 46.375, 46.1875, 45.75, 45.625, 45.3125, 44.8125, 44.330357, 43.785713, 43.4375, 43.035713, 42.660713, 42.383926, 42.1875, 42.0625, 41.8125, 41.5625, 41.3125, 41, 40.616074, 40.041668, 39.526787, 39.25, 39.0625, 39, 38.803574, 38.345238, 37.892857, 37.4375, 37.080357, 36.875, 36.5625, 36.375, 36.125, 35.75, 35.4375, 35, 34.5625, 34.25, 33.875, 33.5625, 33.3125, 33.125, 32.75, 32.5, 32.1875, 31.6875, 31.4375, 31.1875, 30.75, 30.5, 30.25, 29.8125, 29.5625, 29.3125, 29, 28.6875, 28.4375, 27.9375, 27.5, 27.25, 26.875, 26.625, 26.375, 26, 25.625, 25.375, 25.0625, 24.75, 24.5, 24.1875, 23.767857, 23.491072, 22.916666, 22.508928, 22.25, 22.0625, 21.75, 21.5, 21.25, 20.75, 20.5, 20.25, 19.8125, 19.5625, 19.25, 18.75, 18.4375, 18.125, 17.6875, 17.4375, 17.1875, 17, 17, 17, 17, 17, 17, 17, 17, 17, 17, 17, 17, 17, 17, 17, 17, 17, 17, 17, 17.0625, 17.0625, 17.0625, 17.0625, 17, 17.125, 17.3125, 17.3125, 17.3125, 17.1875, 17, 16.9375, 16.875, 16.955357, 17.208334, 17.208334, 17.125, 17, 16.875, 17.0625, 17.294643, 17.4375, 17.642857, 17.660713, 17.276785, 17.142857, 17, 17.0625, 17.035713, 17.125, 17.419643, 17.4375, 17.5, 17.3125, 17.125, 17, 17.125, 17.25, 17.375, 17.5, 17.375, 17.25, 17.125, 17, 17, 17, 17, 17, 17, 17, 17, 17, 17, 17.042412, 17.310268, 17.435268, 17.515625, 17.6875, 17.6875, 17.708332, 5.3333335, 5.5, 5.5, 5.5, 5.5625, 5.5625, 5.5625, 5.625, 5.625, 5.666667, -10, -10, -10, -10, 12, 12.5, 12.4375, 12.5, 12.5, 12.5, 12.6875, 12.75, 12.8125, 12.875, 12.875, 12.875, 13, 13.0625, 13.0625, 13.125, 13.0625, 13.1875, 13.446428, 14.020833, 14.535714, 14.8125, 14.9375, 14.8125, 14.6875, 14.6875, 14.75, 14.9375, 15.125, 15.25, 15.285714, 15.080357, 15.008928, 14.9375, 14.9375, 14.9375, 14.9375, 14.875, 14.703125, 14.658482, 14.786458, 14.819197, 15.0625, 15.15625, 15.1875, 15.1875, 15.03125, 15.008928, 15.177084, 15.241072, 15.450893, 15.958334, 16.348213, 16.71875, 17.191965, 17.705357, 18.346727, 18.709822, 18.96875, 19, 19, 19.1875, 19.4375, 19.8125, 20.357143, 20.625, 20.9375, 21.0625, 21.0625, 21.3125, 21.5, 21.75, 21.9375, 21.883928, 21.719643, 22.044643, 22.428572, 22.794643, 22.9375, 23.276787, 23.544643, 23.803572, 24.1875, 24.3125, 24.5625, 24.75, 24.875, 24.90625, 24.71875, 24.71875, 24.705357, 25.125, 25.886906, 26.044643, 26.4375, 26.5625, 26.75, 27, 27, 27.25, 27.5, 27.75, 28, 28, 28, 28, 27.9375, 28.026787, 28.098213, 28.0625, 28.125, 27.9375, 27.875, 27.875, 27.75, 27.75, 27.8125, 27.8125, 27.9375, 28, 28, 28
51.4375, 51.25, 51, 50.5625, 50.205357, 49.794643, 49.354168, 48.9375, 48.625, 48.4375, 48.169643, 47.791668, 47.508926, 47.1875, 46.875, 46.5625, 46.3125, 46.125, 45.75, 45.5625, 45.25, 44.75, 44.383926, 43.955357, 43.6875, 43.339287, 42.702381, 42.392857, 42.125, 42, 41.8125, 41.625, 41.366074, 40.916668, 40.5625, 39.979168, 39.526787, 39.25, 39.0625, 39, 38.803574, 38.345238, 37.892857, 37.4375, 37.080357, 36.875, 36.5625, 36.375, 36.1875, 35.803574, 35.375, 34.9375, 34.4375, 34.125, 33.6875, 33.4375, 33.1875, 33.0625, 32.75, 32.5, 32.125, 31.625, 31.375, 31.0625, 30.6875, 30.4375, 30.1875, 29.8125, 29.5625, 29.3125, 29, 28.6875, 28.4375, 27.9375, 27.5, 27.25, 26.9375, 26.6875, 26.4375, 26.125, 25.6875, 25.4375, 25.0625, 24.6875, 24.4375, 24.0625, 23.705357, 23.428572, 22.854166, 22.508928, 22.25, 22, 21.6875, 21.4375, 21.1875, 20.75, 20.5, 20.25, 19.875, 19.625, 19.375, 18.875, 18.5, 18.25, 17.75, 17.5, 17.25, 17, 17, 17, 17, 17, 17, 17, 17, 17, 17, 17, 17, 17, 17, 17, 17, 17, 17, 17, 17, 17, 17, 17, 17, 17.0625, 17.3125, 17.3125, 17.3125, 17.25, 17, 16.9375, 16.875, 16.955357, 17.208334, 17.208334, 17.125, 17.0625, 16.9375, 17, 17.125, 17.1875, 17.392857, 17.535713, 17.214285, 17.142857, 17, 17.125, 17.160713, 17.25, 17.482143, 17.4375, 17.4375, 17.25, 17.125, 17, 17.125, 17.25, 17.3125, 17.375, 17.25, 17.125, 17.0625, 17, 17, 17, 17.0625, 17.125, 17.125, 17.125, 17.0625, 17, 16.9375, 17.011162, 17.341518, 17.466518, 17.671875, 17.8125, 17.75, 17.833332, 5.3333335, 5.25, 5.25, 5.25, 5.3125, 5.3125, 5.3125, 5.375, 5.4375, 5.5000005, -10, -10, -10, -10, 12, 12.25, 12.1875, 12.25, 12.25, 12.25, 12.375, 12.375, 12.4375, 12.5, 12.5625, 12.625, 12.75, 12.875, 12.9375, 13, 13, 13.125, 13.392857, 14.033333, 14.345238, 14.803572, 14.928572, 14.9375, 14.875, 14.9375, 14.910714, 14.892857, 14.946428, 15, 15.035714, 14.830357, 14.696428, 14.5625, 14.5, 14.5, 14.5625, 14.5625, 14.515625, 14.515625, 14.560268, 14.640625, 14.9375, 15.125, 15.25, 15.3125, 15.25, 15.290178, 15.489584, 15.553572, 15.428572, 15.410714, 15.589286, 16.09375, 16.629465, 17.321428, 18.078869, 18.522322, 18.84375, 18.9375, 19, 19.1875, 19.4375, 19.75, 20.25, 20.5625, 20.875, 21.0625, 21.0625, 21.3125, 21.5, 21.75, 22, 21.919643, 21.549999, 21.830359, 22.294643, 22.741072, 23, 23.339287, 23.607143, 23.928572, 24.3125, 24.4375, 24.6875, 24.8125, 24.875, 24.9375, 24.8125, 24.9375, 24.973213, 25.229166, 25.958334, 26.044643, 26.375, 26.5, 26.6875, 26.9375, 27, 27.25, 27.5, 27.75, 28, 28, 28, 28, 27.9375, 27.964287, 28.035713, 28.0625, 28.125, 28, 27.9375, 27.875, 27.75, 27.6875, 27.6875, 27.6875, 27.8125, 27.9375, 28, 28, 28, 27.75, 27.5, 27.25, 27, 27, 27.125, 27.160713, 26.955357, 26.848213, 26.946428, 27.377977, 27.678572, 27.9375, 28, 28, 28, 28, -10, -10, -10, -10, -10, -10, -10, -10, -10, -10, -10, -10, -10, -10, -10, -10, -10, -10, -10, -10, -10, -10, -10, -10, -10, -10, -10, -10, -10, -10, -10, -10, -10, -10, 51.375, 51.5, 51.357143, 51.017857, 50.758926, 50.4375, 50.11607, 49.6875, 49.300598, 48.875, 48.6875, 48.5625, 48.294643, 47.916668, 47.571426, 47.1875, 46.8125, 46.5, 46.25, 46, 45.6875, 45.4375, 45.125, 44.6875, 44.4375, 44.125, 43.75, 43.428574, 42.872025, 42.508926, 42.25, 42.0625, 41.8125, 41.616074, 41.157738, 40.675598, 40.3125, 39.791668, 39.446426, 39.1875, 39.0625, 39, 38.8125, 38.553574, 38.0625, 37.5625, 37.142857, 36.9375, 36.660713, 36.392857, 36.125, 35.741074, 35.3125, 34.875, 34.4375, 34.0625, 33.4375, 33.25, 33.0625, 33.125, 32.919643, 32.541668, 32.0625, 31.5625, 31.3125, 31, 30.6875, 30.4375, 30.1875, 29.8125, 29.5625, 29.3125, 29, 28.6875, 28.4375, 27.9375, 27.5, 27.25, 26.9375, 26.6875, 26.4375, 26.1875, 25.8125, 25.5625, 25.125, 24.580357, 24.375, 24.035713, 23.705357, 23.4375, 22.916666, 22.571428, 22.3125, 22, 21.625, 21.375, 21.125, 20.75, 20.5, 20.25, 19.875, 19.625, 19.375, 18.875, 18.5, 18.25, 17.75, 17.5, 17.25, 17, 17, 17, 17, 17, 17, 17, 17, 17, 17, 17, 17, 17, 17.03125, 17.0625, 17.125, 17.1875, 17.21875, 17.1875, 17.125, 17.0625, 17, 17, 17, 17.0625, 17.3125, 17.3125, 17.3125, 17.25, 17, 16.9375, 16.875, 16.892857, 17.083334, 17.083334, 17, 17, 16.90625, 16.84375, 16.90625, 16.90625, 17.017857, 17.25, 17.071428, 17.071428, 17, 17.1875, 17.285713, 17.3125, 17.482143, 17.3125, 17.25, 17.125, 17.0625, 17, 17.0625, 17.125, 17.1875, 17.25, 17.1875, 17.125, 17.0625, 17, 17, 17.0625, 17.1875, 17.25, 17.25, 17.1875, 17.0625, 17, 17, 17.046875, 17.296875, 17.421875, 17.609375, 17.8125, 17.75, 17.854166, 18, 5, 5, 5.0625, 5.1875, 5.1875, 5.1875, 5.1875, 5.2589283, 5.5000005, -10, -10, -10, 12, 12, 11.9375, 11.8125, 11.875, 11.875, 11.9375, 12.0625, 12.0625, 12.125, 12.125, 12.25, 12.3125, 12.4375, 12.6875, 12.8125, 12.9375, 13, 13.0625, 13.330357, 13.908333, 14.157738, 14.616072, 14.678572, 14.75, 14.6875, 14.8125, 14.848214, 14.830357, 14.946428, 14.785714, 14.734694, 14.580357, 14.321428, 14.125, 14.0625, 14.1875, 14.25, 14.28125, 14.28125, 14.21875, 14.325893, 14.5, 14.75, 14.9375, 15.151786, 15.25, 15.071428, 15.040178, 14.90625, 14.875, 14.9375, 14.90625, 15.03125, 15.375, 15.901787, 16.946428, 17.793156, 18.334822, 18.71875, 18.875, 19, 19.125, 19.375, 19.625, 20.0625, 20.375, 20.6875, 20.9375, 21, 21.3125, 21.5, 21.75, 22, 21.857143, 21.487499, 21.767859, 22.294643, 22.839287, 23.0625, 23.401787, 23.607143, 23.928572, 24.3125, 24.4375, 24.625, 24.75, 24.8125, 24.9375, 24.9375, 25.0625, 25.098213, 25.291666, 25.958334, 26.044643, 26.25, 26.3125, 26.5, 26.794643, 26.9375, 27.25, 27.5, 27.75, 28, 28, 28, 28, 28, 28.0625, 28.0625, 28.125, 28.125, 28, 27.9375, 27.875, 27.75, 27.75, 27.8125, 27.8125, 27.9375, 28, 28, 28
