-10, -10, -10, -10, -10, -10, 23.708334, 23.533333, 23.5, 23.25, 23.1875, 23.125, 23.0625, 23.0625, 23.0625, 23, 23, 22.9375, 22.875, 22.75, 22.5625, 22.4375, 22.3125, 22.25, 22.1875, 21.9375, 21.642857, 21.4375, 21.25, 21.3125, 21.4375, 21.348213, 21.214287, 21.125, 20.9375, 20.9375, 20.75, 20.5, 20.25, 20.0625, 20, 20, 20, 20, 20, 19.8125, 19.625, 19.4375, 19.1875, 19.125, 19.0625, 19, 18.9375, 18.8125, 18.75, 18.625, 18.4375, 18.4375, 18.3125, 18.3125, 18.3125, 18.125, 17.830357, 17.625, 17.5, 17.375, 17.3125, 17.25, 17.125, 17.0625, 16.9375, 16.6875, 16.5, 16.25, 16.125, 16.0625, 16, 16, 16, 16, 16, 15.875, 15.75, 15.5, 15.25, 15.125, 15.0625, 15.035714, 14.892857, 14.75, 14.6875, 14.5625, 14.375, 14.25, 14, 14, 14.0625, 14.0625, 14.0625, 13.964286, 13.75, 13.5, 13.3125, 13.0625, 13, 13, 12.875, 12.75, 12.5625, 12.3125, 12.1875, 12.1875, 12.125, 12, 12.026786, 11.9375, 11.758928, 11.883928, 11.9375, 12.175, 11.861111, -10, -10, -10, -10, -10, -10, -10, -10, -10, -10, -10, -10, -10, -10, -10, -10, -10, -10, -10, -10, -10, 28.722221, 28.416666, 28.282738, 27.747025, 27.401785, 27.0625, 26.875, 26.8125, 26.6875, 26.5625, 26.464287, 26.4375, 26.5, 26.625, 26.678572, 26.625, 26.6875, 26.5625, 26.5, 26.4375, 26.392859, 26.263887, 26.366072, 26.174107, 26.149553, 26.03125, 26.07143, 26.428572, 26.485714, 26.738094, 27.120537, 27.410713, 28.294643, 28.651787, 28.875, 28.75, 28.375, 27.848213, 27.104166, 26.633928, 26.526787, 26.5625, 26.59375, 26.625, 26.375, 26.196428, 26.330357, 26.413691, 26.434523, 26.083334, 25.9375, 25.8125, 25.8125, 26, 26.1875, 26.348213, 26.375, 26.4375, 26.5, 26.482143, 26.424999, 26.553572, 26.678572, 26.848213, 26.875, 26.9375, 27.0625, 27.321426, 27.4375, 27.5625, 27.375, 27.3125, 27.241072, 27.120237, -10, -10, -10, 27.75, -10, -10, -10, -10, -10, -10, -10, -10, -10, 19.875, 19.916668, 19.875, 19.8125, 19.5, 19.095982, 18.78125, 18.65625, 18.71875, 18.828125, 18.836309, 18.317459, 18.539682, 18.654762, 18.738096, 18.388887, 18.027779, 17.533335, 17.422224, -10, -10, -10, -10, -10, -10, -10, -10, -10, -10, -10, -10, -10, -10, 15.75, 13.371428, 12.178572, 11.044643, 10.895833, 11.03125, 11.258928, 12.055952, 14.079365, 15.285714, 16.222223, 17.333332, 17.285713, 17.142857, 17, -10, 17.447916, 17.4625, 17.229166, 17.258928, 17.464285, 17.535715, 17.678572, 17.4375, 17.28125, 17.080357, 17.03125, 17.28125, 17.53125, 17.78125, 18, 18, 7, 7, 7, 7, 7, 7, 7, 7, 7, 7, 7, 7, 7, 7, 7, 7, 7, 7, 7, 7, 7, 7, 7, 7.0625, 7.0625, 7.125, 7.3125, 7.5, 7.75, 7.9375, 8, 8, 8, 8, 8, 8.0625, 8.125, 8.3125, 8.5625, 8.75, 8.9375, 9, 9, 9, 9, 9, 9.0625, 9.0625, 9.1875, 9.375, 9.5, 9.75, 9.8125, 9.875, 9.9375, 9.9375, 10, 10.0625, 10.0625, 10.0625, 10.0625, 10.1875, 10.375, 10.482143, 10.4875, 10.616072, 10.678572, 10.8125, 10.916667, -10, -10, -10, -10, -10, -10, -10, -10, -10, -10, -10, -10, -10, -10, -10, -10, -10, -10, -10, 23.875, 23.833334, 23.75, 23.5625, 23.375, 23.25, 23.125, 23.0625, 23.0625, 23, 23, 22.96875, 22.90625, 22.84375, 22.65625, 22.5, 22.375, 22.25, 22.1875, 21.875, 21.517857, 21.25, 21.0625, 21.1875, 21.375, 21.285713, 21.089287, 20.9375, 20.75, 20.75, 20.5625, 20.375, 20.125, 20, 20, 20, 20, 20, 20, 19.875, 19.6875, 19.5, 19.3125, 19.1875, 19.125, 19.0625, 18.9375, 18.8125, 18.75, 18.625, 18.4375, 18.4375, 18.3125, 18.3125, 18.3125, 18.125, 17.830357, 17.625, 17.4375, 17.25, 17.1875, 17.125, 17.0625, 17.0625, 16.9375, 16.625, 16.4375, 16.25, 16.125, 16.125, 16.0625, 16, 16, 16, 16, 15.875, 15.6875, 15.4375, 15.1875, 15.0625, 15, 15, 15, 15, 15, 14.8125, 14.625, 14.375, 14.0625, 14.125, 14.1875, 14.169643, 13.979167, 13.785714, 13.5625, 13.375, 13.25, 13.0625, 13, 13, 12.9375, 12.875, 12.75, 12.5, 12.3125, 12.1875, 12.0625, 12, 12.026786, 12, 11.758928, 11.696428, 11.5625, 11.625, 11.645833, 11.25, 11.333334, -10, -10, -10, -10, -10, -10, -10, -10, -10, -10, -10, -10, -10, -10, -10, -10, -10, -10, -10, -10, 28.305555, 28.095238, 27.6875, 27.401785, 27.0625, 26.8125, 26.6875, 26.53125, 26.40625, 26.34375, 26.291666, 26.416666, 26.583334, 26.616072, 26.5625, 26.666666, 26.416666, 26.416666, 26.333334, -10, -10, 26.080357, 26.03125, 26.078125, 26.09375, 26.178572, 26.654762, 26.592857, 26.675594, 26.763393, 27, 28.035713, 28.535715, 28.875, 28.75, 28.375, 27.776787, 27.068453, 26.633928, 26.526787, 26.625, 26.59375, 26.65625, 26.40625, 26.227678, 26.290178, 26.017857, 26.017857, 25.8125, 25.6875, 25.625, 25.625, 25.75, 25.875, 26, 26, 26.0625, 26.1875, 26.169643, 26.112499, 26.366072, 26.491072, 26.723213, 26.8125, 26.90625, 27.09375, 27.290176, 27.34375, 27.5, 27.4375, 27.4375, 27.258928, 27.004166, -10, -10, -10, 28.071428, -10, -10, -10, -10, -10, -10, -10, -10, -10, 19.25, 19.229168, 19.1875, 19.125, 18.875, 18.564732, 18.40625, 18.40625, 18.53125, 18.609375, 18.513393, 18.238094, 18.279762, 18.454082, 18.507654, 18.104166, 17.770834, 16.690477, 16.146667, -10, -10, -10, -10, -10, 14.875, 14.875, 14.875, 15.017857, 15.666666, 15.857143, 16, 16.125, 16.375, 15.916667, 15.225714, 12.992857, 11.87245, 11.642858, 11.547618, 11.612245, 12.363946, 14.340774, 15.464286, 16.666668, 17.305555, 17.315475, 17.178572, 17.083334, 17.125, 17.260416, 17.375, 17.3125, 17.4375, 17.53125, 17.5625, 17.6875, 17.625, 17.40625, 17.236607, 17.15625, 17.34375, 17.59375, 17.665178, 17.619047, 17.357143, 7.333333, 7.25, 7, 7, 7, 7, 7, 7, 7, 7, 7, 7, 7, 7, 7, 7, 7, 7, 7, 7, 7, 7, 7, 7, 7, 7.125, 7.3125, 7.5625, 7.8125, 7.9375, 8, 8, 8, 8, 8, 8.0625, 8.125, 8.3125
-10, -10, -10, -10, -10, -10, 24, 24, 23.9375, 23.8125, 23.625, 23.375, 23.1875, 23.0625, 23, 23, 23, 22.96875, 22.90625, 22.78125, 22.59375, 22.4375, 22.3125, 22.25, 22.1875, 21.9375, 21.642857, 21.4375, 21.3125, 21.3125, 21.375, 21.223213, 20.964287, 20.875, 20.75, 20.75, 20.5625, 20.375, 20.125, 20, 20, 20, 20, 20, 20, 19.9375, 19.75, 19.5625, 19.375, 19.1875, 19.125, 19.0625, 18.9375, 18.8125, 18.75, 18.5625, 18.375, 18.3125, 18.1875, 18.1875, 18.1875, 18.0625, 17.830357, 17.6875, 17.5, 17.3125, 17.1875, 17.0625, 17, 17, 16.875, 16.625, 16.4375, 16.25, 16.1875, 16.1875, 16.125, 16.0625, 16, 16, 16, 15.875, 15.625, 15.375, 15.125, 15, 15, 15, 15, 15, 15, 14.8125, 14.6875, 14.4375, 14.125, 14.1875, 14.116072, 13.919643, 13.729167, 13.473214, 13.3125, 13.1875, 13.125, 13, 13, 13, 13, 13, 12.9375, 12.6875, 12.4375, 12.1875, 12, 11.9375, 11.964286, 11.9375, 11.696428, 11.633928, 11.4375, 11.4375, 11.375, 11.166667, 11.222222, 11.125, 11.166666, -10, -10, -10, -10, -10, -10, -10, -10, -10, -10, -10, -10, -10, -10, -10, -10, -10, -10, -10, 27.666666, 27.520834, 27.330357, 27.0625, 26.8125, 26.6875, 26.5, 26.3125, 26.1875, 26.145832, -10, -10, 26.571428, 26.416666, -10, -10, -10, -10, -10, -10, 26.1875, 26.239584, 26.234375, 26.1875, 26.334822, 26.739584, 26.580357, 26.758928, 26.59375, 26.892857, 27.857143, 28.428572, 28.8125, 28.75, 28.375, 27.705357, 26.961309, 26.571428, 26.401787, 26.5, 26.397322, 26.416666, 26.147959, 26.045918, 26.117346, 25.642857, 25.642857, 25.4375, 25.375, 25.3125, 25.3125, 25.375, 25.5625, 25.660713, 25.580357, 25.642857, 25.6875, 25.732143, 25.737499, 26.053572, 26.241072, 26.410713, 26.4375, 26.5625, 26.8125, 27.071426, 27.1875, 27.375, 27.375, 27.410713, 27.285713, 27.0875, 26.875, 26.875, 26.875, 27.770834, 28.200001, -10, -10, -10, -10, 18.25, 18.208332, 18.208332, 18.75, 19.083334, 19.027779, 18.96875, 18.775, 18.487499, 18.348213, 18.15625, 18.223213, 18.107143, 18.081633, 17.9375, 17.665178, 17.864584, 17.637754, 17.655613, 17.791666, 17.431547, 16.187075, 15.982313, -10, -10, -10, 16, 16, 15.25, 15.25, 15.25, 15.345238, 15.777778, 15.904762, 16, 16, 16, 15.6875, 15.283674, 14.809524, 14.654762, 14.386905, 13.722221, 13.571429, 13.642858, 14.769344, 15.940476, 16.928572, 17.229166, 17.236607, 17.133928, 17.0625, 17.083334, 17.135416, 17.208334, 17.1875, 17.3125, 17.375, 17.375, 17.375, 17.25, 17.125, 17.15625, 17.21875, 17.46875, 17.71875, 17.584822, 16.222221, 15, 8.5555553, 7.5, 7, 6.9375, 6.875, 6.8125, 6.75, 6.75, 6.8125, 6.875, 6.9375, 7, 7, 7, 7, 7, 7, 7, 7, 7, 7, 7, 7, 7.0625, 7.125, 7.3125, 7.5, 7.6875, 7.875, 7.9375, 8, 8, 8, 8, 8, 8.0625, 8.125, 8.375, 8.625, 8.8125, 9, 9, 9, 9, 9, 9, 9.125, 9.1875, 9.375, 9.5, 9.4375, 9.625, 9.625, 9.75, 9.9375, 9.9375, 10, 10.125, 10.125, 10.125, 10.125, 10.1875, 10.375, 10.482143, 10.55, 10.741072, 10.803572, 10.9375, 11, -10, -10, -10, -10, -10, -10, -10, -10, -10, -10, -10, -10, -10, -10, -10, -10, -10, -10, -10, 24, 24, 24, 23.9375, 23.8125, 23.5625, 23.3125, 23.125, 23, 23, 23, 22.96875, 22.84375, 22.71875, 22.46875, 22.25, 22.125, 22, 22, 21.875, 21.75, 21.625, 21.5, 21.375, 21.3125, 21.098213, 20.839287, 20.8125, 20.75, 20.75, 20.5625, 20.375, 20.125, 20.0625, 20.0625, 20.0625, 20.0625, 20, 20, 20, 19.8125, 19.625, 19.4375, 19.1875, 19.125, 19.0625, 19, 18.9375, 18.875, 18.625, 18.375, 18.1875, 18, 18, 18, 18, 17.9375, 17.8125, 17.6875, 17.4375, 17.25, 17.125, 16.9375, 16.875, 16.75, 16.5, 16.4375, 16.375, 16.375, 16.366072, 16.041668, 15.955357, 15.875, 15.9375, 16, 15.875, 15.625, 15.375, 15.125, 15, 15, 15, 15, 15, 15, 14.875, 14.75, 14.5, 14.25, 14.25, 14.107143, 13.732143, 13.479167, 13.160714, 13.125, 13.0625, 13.0625, 13, 13, 13, 13, 13, 13, 12.75, 12.5, 12.25, 12, 12, 12.026786, 12, 11.758928, 11.571428, 11.375, 11.3125, 11.1875, 11.1875, 11.166667, 11.083333, 11.111111, 11, -10, -10, -10, -10, -10, -10, -10, -10, -10, -10, -10, -10, -10, -10, -10, -10, -10, -10, 27.388887, 27.277779, 27.25, 27.0625, 26.9375, 26.875, 26.75, 26.5, 26.3125, 26.229166, -10, -10, -10, -10, -10, -10, -10, -10, -10, -10, 26.09375, 26.229168, 26.328125, 26.375, 26.549107, 26.989584, 26.767857, 26.915178, 26.625, 26.82143, 27.8125, 28.392859, 28.8125, 28.75, 28.321428, 27.351191, 26.595238, 26.196428, 26.0625, 26.125, 26.022322, 25.493055, 25.199404, 24.979166, 24.818453, 24.955357, 25.017857, 25, 25.0625, 25.0625, 25.0625, 25.125, 25.3125, 25.410713, 25.330357, 25.330357, 25.3125, 25.375, 25.5, 25.75, 26, 26.223213, 26.3125, 26.5, 26.6875, 26.848213, 27, 27.1875, 27.3125, 27.303572, 27.178572, 26.9625, 26.583334, 26.583334, 26.583334, 27.433334, -10, -10, -10, -10, 18, 18.25, 17.472221, 17.566666, -10, -10, -10, 18.142857, 17.909523, 17.735714, 17.806122, 17.780613, 17.918367, 17.25, 17.198978, 16.928572, 17.040178, 16.869047, 16.709185, 16.655613, 16.666666, 16.556547, 15.726191, 15.630358, 15.625, 15.875, 16, 16, 16, 15.642858, 15.642858, 15.642858, 15.508928, 15.833333, 15.928572, 16, 16, 15.9375, 15.8125, 15.723215, 15.428572, 15.561225, 15.331633, 14.590476, 14.632653, 14.510205, 15.186011, 16.047619, 16.803572, 17.104166, 17.111607, 17.071428, 17.0625, 17.0625, 17.09375, 17.125, 17.0625, 17.125, 17.09375, 17.0625, 17.0625, 17, 17.0625, 17.21875, 17.40625, 17.65625, 17.84375, 17.584822, 16.231293, 14.619048, 9.6111107, 8.083333, 7.25, 6.875, 6.75, 6.625, 6.5, 6.5, 6.625, 6.75, 6.875, 7, 7, 7, 7, 7, 7, 7, 7, 7, 7, 7, 7, 7.125, 7.25, 7.5, 7.75, 7.875, 8, 8, 8, 8, 8, 8, 8, 8.0625, 8.125, 8.375
-10, -10, -10, -10, -10, -10, 24, 23.916666, 23.9375, 23.875, 23.75, 23.5625, 23.3125, 23.125, 23, 23, 23, 22.96875, 22.90625, 22.84375, 22.59375, 22.375, 22.1875, 22, 22, 21.9375, 21.8125, 21.75, 21.625, 21.4375, 21.3125, 21, 20.8125, 20.75, 20.6875, 20.75, 20.5625, 20.4375, 20.25, 20.125, 20.125, 20.0625, 20.0625, 20, 20, 19.9375, 19.8125, 19.5625, 19.375, 19.1875, 19.0625, 19.0625, 19, 19, 18.9375, 18.6875, 18.4375, 18.1875, 18, 18, 18, 18, 18, 17.9375, 17.875, 17.625, 17.375, 17.1875, 16.875, 16.75, 16.625, 16.375, 16.4375, 16.5625, 16.625, 16.508928, 16.113096, 15.955357, 15.875, 15.9375, 16, 15.875, 15.625, 15.375, 15.125, 15, 15, 15, 15, 15, 15, 14.9375, 14.8125, 14.5625, 14.3125, 14.1875, 13.982143, 13.544643, 13.291667, 13.071428, 13.125, 13.125, 13.125, 13.0625, 13, 13, 13, 13, 13, 12.8125, 12.5625, 12.3125, 12.0625, 12.0625, 12.0625, 12, 11.9375, 11.6875, 11.5, 11.3125, 11.125, 11.0625, 11, 11.0625, 11.083333, 11, 11, -10, -10, -10, -10, -10, -10, -10, -10, -10, -10, -10, -10, -10, -10, -10, -10, -10, -10, -10, -10, 27, 27, 26.75, 26.916666, 26.666666, 26.416666, 26.166666, -10, -10, -10, -10, -10, -10, -10, -10, -10, -10, 26, 26.083334, 26.245537, 26.450893, 26.620535, 26.927084, 26.794643, 26.736607, 26.46875, 26.57143, 27.708334, 28.357143, 28.8125, 28.75, 28.258928, 27.244047, 26.678572, 26.196428, 25.708334, 25.571428, 25.366072, 25.135416, 24.915178, 24.71875, 24.59375, 24.625, 24.75, 24.875, 25, 25, 25, 24.9375, 25.03125, 25.066963, 24.924107, 24.924107, 24.9375, 25.125, 25.482143, 25.75, 26, 26.125, 26.1875, 26.4375, 26.535713, 26.526787, 26.6875, 26.848213, 27.237499, 26.845238, 26.452381, 26.229166, 26.270834, 26.366072, 26.4375, -10, -10, -10, -10, -10, -10, -10, 16.880953, 16.069445, -10, -10, -10, 16.166666, 15.877778, 15.866666, 15.928571, 16.050596, 16.321428, 16.25, 16.270407, 16.071428, 16.035715, 16.035715, 15.928572, 15.892858, 16.035715, 15.973214, 15.601191, 15.667857, 15.666667, 15.916667, 16, 16, 16, 15.9375, 15.9375, 15.9375, 15.9375, 16, 16, 16, 15.9375, 15.8125, 15.75, 15.919643, 16.0625, 16.375, 16.258928, 15.516666, 15.553572, 15.303572, 15.602678, 16.083334, 16.366072, 16.589285, 16.825893, 16.928572, 17.0625, 17.0625, 17.0625, 17.0625, 17, 17.0625, 17.0625, 17.0625, 17.0625, 17, 17.0625, 17.28125, 17.4375, 17.6875, 17.875, 17.553572, 16.309525, 14.375, 12.412698, 9.0952377, 7.833333, 7.125, 6.6875, 6.5, 6.3125, 6.25, 6.4375, 6.625, 6.8125, 7, 7, 7, 7, 7, 7, 7, 7, 7, 7, 7, 7, 7.125, 7.25, 7.5, 7.75, 7.875, 8, 8, 8, 8, 8, 8, 8, 8, 8, 8.25, 8.5, 8.75, 9, 9, 9, 9, 9, 9, 9.0625, 9.125, 9.1875, 9.1875, 9.125, 9.3125, 9.4375, 9.6875, 9.9375, 9.9375, 10, 10.0625, 10.0625, 10.0625, 10.0625, 10.1875, 10.375, 10.625, 10.875, 10.9375, 11, 10.9375, 10.916667, -10, -10, -10, -10, -10, -10, -10, -10, -10, -10, -10, -10, -10, -10, -10, -10, -10, -10, -10, 24, 23.833332, 23.875, 23.75, 23.625, 23.5, 23.25, 23.125, 23, 23, 23, 23, 23, 22.9375, 22.6875, 22.4375, 22.1875, 22, 22, 22, 21.9375, 21.9375, 21.8125, 21.5625, 21.3125, 20.9375, 20.75, 20.6875, 20.625, 20.75, 20.625, 20.5625, 20.5, 20.3125, 20.25, 20.125, 20.0625, 20, 20, 19.875, 19.8125, 19.5625, 19.375, 19.25, 19.0625, 19.0625, 19, 19, 18.875, 18.625, 18.375, 18.125, 18, 18, 18, 18, 18, 17.9375, 17.9375, 17.75, 17.5, 17.3125, 16.9375, 16.75, 16.625, 16.4375, 16.5625, 16.625, 16.541666, 16.383928, 15.988096, 15.955357, 15.875, 15.9375, 16, 15.875, 15.625, 15.375, 15.0625, 14.9375, 14.9375, 14.9375, 15, 15, 15, 14.9375, 14.75, 14.5, 14.25, 14.0625, 13.857143, 13.4375, 13.375, 13.1875, 13.3125, 13.3125, 13.25, 13.1875, 13.0625, 12.9375, 12.875, 12.875, 12.875, 12.75, 12.5625, 12.3125, 12.0625, 12, 12, 11.9375, 11.9375, 11.8125, 11.625, 11.4375, 11.1875, 11.0625, 11, 11, 11, 11, 11, 11, 11, -10, -10, -10, -10, -10, -10, -10, -10, -10, -10, -10, -10, -10, -10, -10, -10, -10, -10, -10, -10, 26.666666, -10, -10, -10, 26.166666, -10, -10, -10, -10, -10, -10, -10, -10, -10, -10, 26, 26.083334, 26.308037, 26.575893, 26.736609, 26.78125, 26.5, 26.254463, 26.03125, 26.107143, 27.401361, 28.202381, 28.732143, 28.75, 28.290178, 27.391369, 26.75, 25.925594, 25.261906, 24.946428, 24.678572, 24.479166, 24.294643, 24.053572, 24.03125, 24.09375, 24.34375, 24.625, 24.875, 24.9375, 24.9375, 24.875, 24.90625, 24.816963, 24.611607, 24.549107, 24.5625, 24.8125, 25.232143, 25.4375, 25.625, 25.6875, 25.75, 26.03125, 26.049107, 25.849701, 25.915178, 26.2551, 26.699999, 26.251699, 25.639881, 25.40476, 25.806547, 25.991072, 26.041666, -10, -10, -10, -10, -10, -10, -10, 16.270832, 15.209524, -10, -10, -10, 15.428572, 15.252381, 15.314285, 15.367347, 15.436225, 15.632653, 15.464286, 15.642857, 15.578125, 15.65625, 15.78125, 15.78125, 15.703125, 15.8125, 15.598214, 15.392857, 15.410714, 15.392857, 15.770833, 15.928572, 16, 16, 16, 16, 16, 16, 16, 16, 16, 15.9375, 15.75, 15.6875, 15.857143, 16, 16.3125, 16.258928, 15.808332, 15.875, 15.678572, 15.821428, 16.083334, 16.116072, 16.214285, 16.357143, 16.508928, 16.833334, 16.928572, 17, 17, 17, 17.0625, 17.125, 17.1875, 17.25, 17.1875, 17.1875, 17.3125, 17.375, 17.625, 17.8125, 17.607143, 17.068027, 15.214286, 13.591836, 12.031746, 9.2777777, 7, 6.4375, 6.3125, 6.1875, 6.1875, 6.4375, 6.625, 6.8125, 7, 7, 7, 7, 7, 7, 7, 7, 7, 7, 7, 7, 7.125, 7.25, 7.4375, 7.6875, 7.8125, 7.9375, 8, 8, 8, 8, 8, 8, 8, 8.0625, 8.3125
-10, -10, -10, -10, -10, -10, 23.875, 23.666666, 23.75, 23.5625, 23.4375, 23.375, 23.125, 23.0625, 23.0625, 23.125, 23.125, 23.125, 23.0625, 22.9375, 22.6875, 22.4375, 22.1875, 22, 22, 22, 21.9375, 21.9375, 21.75, 21.5, 21.25, 20.8125, 20.6875, 20.5625, 20.4375, 20.625, 20.5, 20.5, 20.5, 20.3125, 20.25, 20.125, 20, 19.875, 19.875, 19.6875, 19.6875, 19.5, 19.375, 19.375, 19.1875, 19.1875, 19.0625, 18.9375, 18.75, 18.5, 18.3125, 18.125, 18.0625, 18.0625, 18, 18, 18, 17.9375, 17.875, 17.6875, 17.4375, 17.25, 16.9375, 16.75, 16.625, 16.5, 16.6875, 16.8125, 16.729166, 16.508928, 16.050596, 15.955357, 15.875, 15.9375, 16, 15.9375, 15.6875, 15.4375, 15.1875, 15, 15, 15, 15, 15, 14.9375, 14.8125, 14.5625, 14.3125, 14.125, 14, 13.928572, 13.6875, 13.625, 13.4375, 13.4375, 13.4375, 13.375, 13.3125, 13.1875, 12.9375, 12.6875, 12.625, 12.732143, 12.741072, 12.625, 12.375, 12.125, 12, 12, 12, 12, 11.875, 11.6875, 11.4375, 11.1875, 11.0625, 11, 11, 11, 11, 10.9375, 10.833333, 10.75, 10.5, 10.625, -10, -10, -10, -10, -10, -10, -10, -10, -10, -10, -10, -10, -10, -10, -10, -10, -10, -10, -10, -10, -10, -10, -10, -10, -10, -10, -10, -10, -10, -10, -10, -10, -10, 26, 26, 26.214287, 26.482143, 26.580359, 26.625, 26.25, 25.879463, 25.65625, 25.82143, 26.909521, 28.309523, 28.857143, 28.75, 28.191965, 27.069941, 26.690475, 25.52976, 24.940477, 24.508928, 24.25, 24.3125, 24.223213, 24.053572, 24.03125, 24.03125, 24.21875, 24.5, 24.75, 24.875, 24.9375, 24.875, 24.84375, 24.78125, 24.65625, 24.53125, 24.5, 24.5625, 24.857143, 25.0625, 25.3125, 25.4375, 25.464287, 25.6875, 25.517857, 25.287201, 25.117346, 25.023809, 25.324999, 25.123016, 25.088436, 25.229166, 25.494047, 25.741072, 25.833332, -10, -10, -10, -10, -10, -10, -10, 15.458333, 14.683333, 14.267857, 14.125, 14.375, 14.8125, 14.770834, 14.875, 14.875, 14.991072, 15.160714, 15.1875, 15.25, 15.25, 15.3125, 15.375, 15.4375, 15.4375, 15.5, 15.375, 15.3125, 15.267857, 15.330357, 15.708333, 15.866072, 16, 16, 16, 16, 16, 16, 16, 16, 16, 16, 15.9375, 15.9375, 16, 15.9375, 16.125, 16.125, 15.975, 16.25, 16.116072, 16.15625, 16.15625, 16.09375, 16.120535, 16.232143, 16.383928, 16.708334, 16.866072, 16.9375, 16.9375, 16.9375, 16.9375, 17, 17.0625, 17.125, 17.125, 17.1875, 17.25, 17.25, 17.4375, 17.5625, 17.5, 17.267857, 15.982143, 14.476191, 13.292518, 12.222222, 7.75, 6.7857141, 6.4166665, 6.3125, 6.3125, 6.5, 6.625, 6.8125, 6.9375, 7, 7, 6.9375, 6.9642859, 7.0357141, 7, 7.0625, 7, 7, 7, 7, 7.0625, 7.125, 7.3125, 7.5625, 7.75, 7.9375, 8, 8, 8, 8, 8, 8, 8.0625, 8.125, 8.3125, 8.5, 8.6875, 8.875, 8.9375, 9, 9, 9, 9, 9, 9, 9, 9, 9.0625, 9.25, 9.4375, 9.625, 9.8125, 9.875, 9.9375, 10, 10, 10, 10, 10.0625, 10.125, 10.3125, 10.4375, 10.5625, 10.6875, 10.625, 10.666667, -10, -10, -10, -10, -10, -10, -10, -10, -10, -10, -10, -10, -10, -10, -10, -10, -10, -10, -10, 23.875, 23.583332, 23.625, 23.375, 23.1875, 23.1875, 23, 23, 23.0625, 23.125, 23.125, 23.0625, 22.9375, 22.75, 22.5, 22.3125, 22.125, 22, 22, 22, 21.9375, 21.875, 21.625, 21.375, 21.125, 20.75, 20.6875, 20.5625, 20.4375, 20.5625, 20.4375, 20.375, 20.375, 20.1875, 20.125, 20.0625, 19.9375, 19.8125, 19.75, 19.5, 19.5625, 19.4375, 19.375, 19.4375, 19.1875, 19.1875, 19.125, 19, 18.8125, 18.5625, 18.3125, 18.125, 18.0625, 18.0625, 18, 18, 18, 17.875, 17.75, 17.5625, 17.3125, 17.1875, 17, 16.875, 16.8125, 16.75, 16.875, 16.875, 16.729166, 16.455357, 16.196428, 16.125, 15.9375, 15.9375, 15.875, 15.875, 15.6875, 15.4375, 15.25, 15, 14.9375, 14.9375, 14.875, 14.8125, 14.75, 14.5625, 14.375, 14.1875, 14.0625, 14, 14, 13.9375, 13.875, 13.75, 13.625, 13.5625, 13.5, 13.375, 13.25, 12.9375, 12.5625, 12.5, 12.607143, 12.741072, 12.75, 12.5, 12.25, 12.0625, 12, 12, 12, 11.875, 11.6875, 11.4375, 11.1875, 11.0625, 11, 11, 11, 10.9375, 10.8125, 10.6875, 10.5625, 10.333333, 10.416667, 10.166666, -10, -10, -10, -10, -10, -10, -10, -10, -10, -10, -10, -10, -10, -10, -10, -10, -10, -10, -10, -10, -10, -10, -10, -10, -10, -10, -10, -10, -10, -10, -10, -10, 26, 25.916666, 26.026787, 26.232143, 26.366072, 26.375, 26, 25.535713, 25.3125, 25.57143, 27.605442, 28.416666, 28.982143, 28.75, 28.120537, 26.736607, 26.261904, 25.09226, 24.565477, 24.196428, 24, 24.125, 24.160713, 24.053572, 24.09375, 24.09375, 24.21875, 24.5, 24.75, 24.8125, 24.75, 24.625, 24.700893, 24.638393, 24.53125, 24.34375, 24.25, 24.3125, 24.544643, 24.75, 24.9375, 25, 25.089287, 25.1875, 25.080357, 24.912201, 24.852678, 24.941963, 24.992857, 25.041666, 24.979166, 25.104166, 25.369047, 25.657738, 25.777777, -10, -10, -10, -10, -10, -10, -10, 15.125, 14.558333, 14.345238, 14.25, 14.5, 14.8125, 14.854167, 14.9375, 14.875, 14.8125, 14.875, 14.9375, 15.0625, 15.25, 15.375, 15.4375, 15.5, 15.5, 15.5, 15.375, 15.25, 15.080357, 15.205357, 15.583333, 15.803572, 16, 16, 16, 16, 16, 16.0625, 16.0625, 16.0625, 16.0625, 16, 16, 16.0625, 16.125, 16, 16, 16, 16, 16.1875, 16.1875, 16.21875, 16.28125, 16.28125, 16.245535, 16.232143, 16.258928, 16.520834, 16.741072, 16.875, 16.9375, 17, 17.0625, 17.107143, 17.0625, 17.125, 17.0625, 17.125, 17.125, 17.0625, 17.1875, 17.3125, 17.3125, 17.232143, 16.297621, 14.809525, 14, 13.261905, 11, 8.125, 6.4375, 6.4553571, 6.6458335, 6.8660717, 6.9285717, 6.7916665, 6.8303571, 6.875, 6.9375, 6.9375, 6.9642859, 7.0357141, 7, 7.0625, 7, 7, 7, 7, 7, 7.0625, 7.25, 7.5, 7.75, 7.9375, 8, 8, 8, 8, 8, 8, 8.0625, 8.125, 8.3125
-10, -10, -10, -10, -10, -10, 23.75, 23.5, 23.5, 23.25, 23.125, 23.125, 23, 23, 23.0625, 23.125, 23.0625, 23, 22.875, 22.6875, 22.5, 22.375, 22.1875, 22.0625, 22.0625, 22, 22, 21.9375, 21.6875, 21.4375, 21.125, 20.8125, 20.75, 20.625, 20.5625, 20.625, 20.5625, 20.5, 20.5, 20.3125, 20.1875, 20.125, 19.875, 19.6875, 19.5625, 19.3125, 19.375, 19.3125, 19.3125, 19.375, 19.125, 19.125, 19.125, 19, 18.839287, 18.6875, 18.375, 18.25, 18.125, 18.0625, 18, 18, 18, 17.8125, 17.625, 17.4375, 17.1875, 17.125, 17.0625, 17, 17, 17, 17.0625, 16.875, 16.604166, 16.375, 16.125, 16.0625, 15.8125, 15.6875, 15.5625, 15.5625, 15.4375, 15.3125, 15.1875, 15, 14.9375, 14.9375, 14.875, 14.75, 14.625, 14.375, 14.1875, 14.0625, 14, 14, 14, 14, 14, 13.875, 13.6875, 13.5625, 13.5, 13.375, 13.3125, 12.9375, 12.4375, 12.375, 12.482143, 12.678572, 12.8125, 12.5625, 12.3125, 12.125, 12, 12, 12, 11.9375, 11.8125, 11.5625, 11.3125, 11.125, 11, 11, 11, 10.9375, 10.75, 10.625, 10.4375, 10.3125, 10.375, 10.111111, 10.125, 10.166666, -10, -10, -10, -10, -10, -10, -10, -10, -10, -10, -10, -10, -10, -10, -10, -10, -10, -10, -10, -10, -10, -10, -10, -10, -10, -10, -10, -10, -10, -10, 26.0625, 26.0625, 26.0625, 26.125, 26.1875, 26.1875, 25.875, 25.455357, 25.080357, 25.392857, 27.605442, 28.452381, 29.075893, 28.84375, 28.129465, 26.02976, 25.482992, 24.520832, 24.357143, 24.125, 24, 24.125, 24.160713, 24.053572, 24.09375, 24.09375, 24.21875, 24.5, 24.6875, 24.625, 24.455357, 24.375, 24.482143, 24.482143, 24.4375, 24.25, 24.125, 24.125, 24.1875, 24.375, 24.5625, 24.625, 24.776787, 24.8125, 24.669643, 24.635416, 24.540178, 24.59375, 24.71875, 24.78125, 25, 25.3125, 25.410713, 25.604166, -10, -10, -10, -10, -10, -10, -10, 14.833334, 14.75, 14.433333, 14.321428, 14.1875, 14.4375, 14.6875, 14.875, 15, 15.0625, 15.0625, 15.0625, 15.125, 15.1875, 15.375, 15.5, 15.5625, 15.5, 15.4375, 15.375, 15.25, 15.125, 14.955357, 15.142857, 15.520833, 15.803572, 16, 16, 16, 16, 16, 16.0625, 16.0625, 16.0625, 16.0625, 16, 16, 16, 16, 15.8125, 15.776786, 15.919643, 16.053572, 16.25, 16.25, 16.28125, 16.28125, 16.34375, 16.28125, 16.1875, 16.142857, 16.333334, 16.553572, 16.6875, 16.8125, 17, 17.098213, 17.07143, 17.0625, 17.0625, 17.0625, 17.125, 17.0625, 17, 17.125, 17.25, 17.25, 17.25, 16.642859, 14.75, 14.142857, 13.6875, 11.714286, 8.3809519, 6.5625, 6.4642859, 6.979167, 7.2321434, 7.2321434, 6.8541665, 6.8303571, 6.8125, 6.9375, 6.9375, 6.9642859, 7.0357141, 7, 7.0625, 7, 7, 7, 7.0625, 7.125, 7.25, 7.4375, 7.625, 7.8125, 7.9375, 8, 8, 8, 8, 8, 8, 8.0625, 8.125, 8.3125, 8.5, 8.6875, 8.875, 8.9375, 9, 9, 9.0625, 9.125, 9.125, 9.125, 9.125, 9.125, 9.3125, 9.4375, 9.625, 9.75, 9.8125, 9.9375, 9.9375, 10, 10, 10, 10, 10, 10, 10.0625, 10.0625, 10.25, 10.4375, 10.5625, 10.75, -10, -10, -10, -10, -10, -10, -10, -10, -10, -10, -10, -10, -10, -10, -10, -10, -10, -10, -10, 23.625, 23.416668, 23.375, 23.125, 23.0625, 23.0625, 23, 23, 23.0625, 23.125, 22.991072, 22.75, 22.625, 22.375, 22.3125, 22.25, 22.125, 22.0625, 22, 21.9375, 21.9375, 21.8125, 21.625, 21.375, 21.125, 20.9375, 20.9375, 20.875, 20.8125, 20.8125, 20.625, 20.4375, 20.375, 20.25, 20.1875, 20.1875, 19.875, 19.625, 19.4375, 19.1875, 19.25, 19.1875, 19.1875, 19.25, 19.0625, 19, 19, 18.8125, 18.651787, 18.5625, 18.3125, 18.25, 18.125, 18.0625, 18, 17.9375, 17.9375, 17.6875, 17.4375, 17.25, 17, 17, 17, 17, 17, 17, 17, 16.8125, 16.6875, 16.4375, 16.1875, 16.0625, 15.75, 15.5, 15.276786, 15.25, 15.1875, 15.1875, 15.1875, 15.0625, 15, 15, 14.875, 14.6875, 14.5, 14.25, 14.0625, 14, 14, 14, 14, 14, 14, 13.9375, 13.6875, 13.5, 13.4375, 13.25, 13.25, 13, 12.5625, 12.4375, 12.482143, 12.678572, 12.8125, 12.6875, 12.5, 12.25, 12, 11.9375, 11.9375, 11.875, 11.8125, 11.5625, 11.3125, 11.125, 11, 11, 11, 10.9375, 10.6875, 10.5, 10.25, 10.0625, 10.125, 10.083333, 10.083333, 10.111111, 10, -10, -10, -10, -10, -10, -10, -10, -10, -10, -10, -10, -10, -10, -10, -10, -10, -10, -10, -10, -10, -10, -10, -10, -10, -10, -10, -10, 26.5, 26, 25.84375, 26.026787, 25.928572, 26, 25.9375, 25.875, 25.625, 25.3125, 25.160713, 25.829929, 28.065477, 28.785715, 29.21875, 28.84375, 28.035715, 25.666666, 25.047619, 24.166666, 24.178572, 24, 23.9375, 24, 24.0625, 24.125, 24.1875, 24.3125, 24.375, 24.5625, 24.5625, 24.375, 24.142857, 24.0625, 24.232143, 24.294643, 24.3125, 24.1875, 24.0625, 24, 24, 24.125, 24.3125, 24.375, 24.526787, 24.520834, 24.416666, 24.625, 24.625, 24.791666, 24.958334, 25.041666, 25.25, 25.375, 25.291666, 25.395832, -10, -10, -10, -10, -10, -10, 14.083334, 14.622223, 14.416667, 14.395833, 14.25, 14.25, 14.5, 14.75, 14.9375, 15, 15.0625, 15.0625, 15.0625, 15.1875, 15.25, 15.4375, 15.5625, 15.5, 15.375, 15.3125, 15.1875, 15.125, 15.1875, 15.1875, 15.4375, 15.6875, 15.875, 15.9375, 15.9375, 15.9375, 15.9375, 16, 16.0625, 16.125, 16.125, 16.125, 16.0625, 16, 16, 16, 15.8125, 15.776786, 15.982143, 16.178572, 16.4375, 16.5, 16.46875, 16.40625, 16.40625, 16.34375, 16.375, 16.375, 16.375, 16.5, 16.5, 16.633928, 17.083334, 17.205357, 17.13393, 17, 16.875, 16.875, 17, 17, 17, 17.125, 17.25, 17.25, 17.25, 16.642859, 14.666667, 14, 13.5, 12.5, 8.666666, 6.75, 6.4017859, 6.854167, 7.0446434, 7.1071434, 6.7291665, 6.7678571, 6.8125, 6.9375, 6.9375, 6.9642859, 7.0357141, 7, 7.0625, 7, 7, 7, 7.0625, 7.1875, 7.375, 7.625, 7.8125, 7.875, 7.9375, 7.875, 7.875, 7.9375, 7.9375, 8, 8, 8.0625, 8.0625, 8.1875
-10, -10, -10, -10, -10, -10, 23.625, 23.416668, 23.3125, 23.0625, 23, 23, 23, 23, 23, 23, 22.803572, 22.5, 22.375, 22.1875, 22.125, 22.125, 22.0625, 22, 22, 21.9375, 21.875, 21.6875, 21.5, 21.25, 21.0625, 21, 21, 21, 21, 20.9375, 20.75, 20.5, 20.375, 20.3125, 20.25, 20.25, 20, 19.75, 19.5625, 19.3125, 19.25, 19.125, 19.0625, 19.0625, 18.9375, 18.8125, 18.8125, 18.6875, 18.526787, 18.5, 18.25, 18.1875, 18, 17.9375, 17.9375, 17.8125, 17.8125, 17.5625, 17.3125, 17.1875, 17, 17, 17, 17, 17, 16.9375, 16.9375, 16.6875, 16.5, 16.3125, 16.0625, 16, 15.75, 15.4375, 15.214286, 15.1875, 15.125, 15.1875, 15.125, 15, 14.9375, 14.9375, 14.875, 14.625, 14.4375, 14.1875, 14, 14, 14, 14, 14, 14, 14, 14, 13.75, 13.5, 13.375, 13.125, 13.125, 13, 12.75, 12.6875, 12.5625, 12.625, 12.75, 12.625, 12.5, 12.3125, 11.928572, 11.6875, 11.75, 11.732143, 11.75, 11.5625, 11.3125, 11.125, 11, 11, 11, 10.9375, 10.6875, 10.5625, 10.3125, 10.125, 10.0625, 9.9375, 10, 10.020833, 10, 10, -10, -10, -10, -10, -10, -10, -10, -10, -10, -10, -10, -10, -10, -10, -10, -10, -10, -10, -10, -10, -10, -10, -10, -10, -10, -10, -10, 25.833334, 25.760416, 25.964287, 25.866072, 26, 25.9375, 25.84375, 25.59375, 25.28125, 25.24107, 26.653061, 28.065477, 28.732143, 29.03125, 28.71875, 28.102678, 25.90476, 25.040817, 24.458334, 24.25, 23.96875, 23.90625, 23.916666, 24.083334, 24.166666, 23.9375, 24.0625, 24.125, 24.3125, 24.3125, 24.125, 23.892857, 23.8125, 23.982143, 24.044643, 24.125, 24.0625, 24, 24, 24, 24.083334, 24.166666, 24.166666, 24.416666, 24.444445, 6, 6, 6, 6, 6, 6, 6.4285717, 25.333334, 25.222221, 25.277777, -10, -10, -10, -10, -10, -10, 13.638889, 14.32381, 14.229167, 14.3125, 14.1875, 14.25, 14.5, 14.75, 14.9375, 15, 15.0625, 15.0625, 15.125, 15.3125, 15.375, 15.625, 15.6875, 15.5625, 15.4375, 15.25, 15.1875, 15.1875, 15.3125, 15.4375, 15.625, 15.8125, 15.9375, 15.9375, 15.9375, 15.9375, 15.9375, 16, 16.0625, 16.0625, 16, 15.9375, 15.875, 15.875, 15.9375, 16, 15.875, 15.839286, 16.044643, 16.178572, 16.3125, 16.4375, 16.375, 16.3125, 16.3125, 16.25, 16.375, 16.4375, 16.5, 16.5625, 16.5625, 16.696428, 17.145834, 17.267857, 17.19643, 17.0625, 16.875, 16.875, 16.9375, 16.9375, 17, 17.1875, 17.375, 17.375, 17.375, 16.714287, 14.583333, 13.857143, 13.3125, 12.285714, 8.666666, 6.9761906, 6.4642859, 6.916667, 7.1071434, 7.2321434, 6.7916665, 6.8303571, 6.8125, 6.9375, 7, 7, 7, 7, 7, 7, 7, 7, 7.0625, 7.25, 7.5, 7.75, 7.9375, 7.875, 7.875, 7.8125, 7.8125, 7.9375, 7.9375, 8, 8.0625, 8.125, 8.125, 8.25, 8.375, 8.5625, 8.8125, 8.875, 8.875, 8.875, 8.9375, 9.125, 9.1875, 9.25, 9.3125, 9.3125, 9.5, 9.625, 9.75, 9.875, 9.9375, 10, 9.9375, 9.9642859, 10.035714, 10, 9.9553566, 9.9375, 10, 10.107143, 10.25, 10.5, 10.6875, 10.875, 11, -10, -10, -10, -10, -10, -10, -10, -10, -10, -10, -10, -10, -10, -10, -10, -10, -10, -10, -10, 23.5, 23.333334, 23.25, 23.0625, 23.0625, 23.125, 23.125, 23.0625, 23.0625, 22.9375, 22.678572, 22.375, 22.25, 22.125, 22.1875, 22.160713, 21.955357, 21.892857, 21.875, 21.875, 21.875, 21.6875, 21.5, 21.25, 21.0625, 21, 21, 21, 21, 21, 20.8125, 20.625, 20.5, 20.375, 20.3125, 20.25, 20, 19.8125, 19.6875, 19.5, 19.375, 19.1875, 19.0625, 19, 18.9375, 18.75, 18.625, 18.4375, 18.214287, 18.25, 18.125, 18.125, 17.9375, 17.8125, 17.8125, 17.6875, 17.75, 17.5625, 17.3125, 17.1875, 17.0625, 17.035713, 16.964287, 17, 16.875, 16.875, 16.875, 16.6875, 16.5, 16.3125, 16.0625, 15.9375, 15.8125, 15.5, 15.339286, 15.3125, 15.1875, 15.25, 15.125, 15, 15, 15, 15, 14.8125, 14.5625, 14.375, 14.125, 14.0625, 14.0625, 14, 14, 13.9375, 13.9375, 13.9375, 13.75, 13.625, 13.4375, 13.1875, 13.125, 13, 12.875, 12.8125, 12.6875, 12.625, 12.625, 12.5, 12.375, 12.25, 11.866072, 11.5625, 11.625, 11.669643, 11.6875, 11.5625, 11.3125, 11.0625, 11, 11, 11, 11, 10.8125, 10.75, 10.5, 10.25, 10.125, 9.9375, 9.9375, 9.9375, 10, 10, 10, 10, -10, -10, -10, -10, -10, -10, -10, -10, -10, -10, -10, -10, -10, -10, -10, -10, -10, -10, -10, -10, -10, -10, -10, -10, -10, 25.875, 25.760416, 25.964287, 25.928572, 26.035713, 25.830357, 25.665178, 25.40625, 25.15625, 25.25, 26.97279, 27.976191, 28.600447, 28.828125, 28.609375, 28.03125, 26.633335, 25.97143, 24.708334, 24.4375, 24.03125, 23.870537, 23.770832, -10, -10, 23.75, 23.916666, 24, 23.75, 23.8125, 23.866072, 23.830357, 23.776787, 23.875, 23.875, 24, 24, 24, 24, 6, 6, 5.875, 5.75, 5.625, 5.5, 5.6666665, 5.75, 5.8333335, 5.9166665, 6, 6, 6.5714288, 10, 11.142858, 12.125, -10, -10, -10, -10, 11.833334, 12.466667, 13.479167, 14.01131, 14.098214, 14.25, 14.125, 14.1875, 14.4375, 14.6875, 14.9375, 15, 15.0625, 15.0625, 15.1875, 15.375, 15.4375, 15.6875, 15.75, 15.625, 15.5, 15.25, 15.1875, 15.25, 15.4375, 15.6875, 15.8125, 15.9375, 15.9375, 15.875, 15.875, 15.875, 15.9375, 16, 16, 16, 15.9375, 15.9375, 15.9375, 15.9375, 16, 16, 15.9375, 15.964286, 16.169643, 16.303572, 16.375, 16.5, 16.4375, 16.375, 16.3125, 16.25, 16.4375, 16.5625, 16.6875, 16.6875, 16.5625, 16.633928, 17.020834, 17.080357, 17.089287, 17.125, 16.910713, 16.830357, 16.758928, 16.758928, 17.083334, 17.366072, 17.625, 17.5625, 17.5, 16.785715, 14.5, 13.714285, 13.125, 12.071428, 8.583333, 7.2142859, 6.4464283, 6.7083335, 6.8660717, 7.0535717, 6.875, 6.9375, 6.9375, 7, 7, 7, 7, 7, 7, 7, 7, 7, 7.0625, 7.25, 7.4375, 7.6875, 7.875, 7.8125, 7.875, 7.8125, 7.8125, 7.9375, 7.9375, 8, 8.125, 8.1875, 8.1875, 8.3125
-10, -10, -10, -10, -10, -10, 23.5, 23.333334, 23.25, 23.0625, 23.0625, 23.125, 23.125, 23.0625, 23, 22.8125, 22.553572, 22.1875, 22.0625, 21.9375, 22.0625, 22.035713, 21.892857, 21.892857, 21.741072, 21.674999, 21.803572, 21.544643, 21.4375, 21.1875, 21, 21, 21, 21, 21, 21, 20.8125, 20.625, 20.4375, 20.3125, 20.25, 20.1875, 20.0625, 19.9375, 19.875, 19.75, 19.5625, 19.375, 19.1875, 19.0625, 19.0625, 18.8125, 18.625, 18.375, 18.1875, 18.125, 18.0625, 18.0625, 17.8125, 17.75, 17.75, 17.5625, 17.625, 17.4375, 17.1875, 17.1875, 17.1875, 17.142857, 16.964287, 17, 16.75, 16.8125, 16.8125, 16.6875, 16.5625, 16.375, 16.125, 16, 15.9375, 15.75, 15.651786, 15.5625, 15.375, 15.3125, 15.125, 15, 15, 15, 14.9375, 14.75, 14.5, 14.3125, 14.125, 14.0625, 14.0625, 14, 14, 13.875, 13.8125, 13.75, 13.5625, 13.5, 13.3125, 13.125, 13.0625, 13, 13, 12.9375, 12.8125, 12.6875, 12.5625, 12.4375, 12.3125, 12.1875, 11.803572, 11.4375, 11.4375, 11.419643, 11.4375, 11.375, 11.1875, 11, 11, 11, 11, 11, 10.875, 10.8125, 10.5625, 10.3125, 10.125, 9.9375, 9.875, 9.8125, 9.8125, 9.8125, 9.833333, 9.833333, 9.875, 9.875, -10, -10, -10, -10, -10, -10, -10, -10, -10, -10, -10, -10, -10, -10, -10, -10, -10, -10, -10, -10, -10, -10, -10, 26.041666, 25.864582, 26.026787, 26.053572, 26.098213, 25.830357, 25.558035, 25.28125, 25.03125, 25.357143, 27.125, 27.892857, 28.46875, 28.59375, 28.40625, 27.888393, 26.142857, 25.571428, 24.994049, 24.616072, 24.239584, 23.827383, 23.694443, -10, -10, -10, -10, -10, 23.200001, 23.5, 23.738096, 23.916666, 23.869049, 24, 23.916666, 24, 5.5, 5.5, 5.625, 5.8333335, 5.9166665, 5.9166665, 5.75, 5.6666665, 5.5833335, 5.6875, 5.8125, 5.875, 5.9375, 6, 6, 6.6428576, 10, 11.142858, 12.166667, 12.541666, -10, -10, -10, 12.28889, 12.882541, 13.282739, 13.907143, 14.035714, 14.1875, 14.125, 14.1875, 14.4375, 14.6875, 14.9375, 15, 15, 15, 15.125, 15.3125, 15.375, 15.625, 15.6875, 15.5625, 15.5, 15.3125, 15.3125, 15.375, 15.625, 15.8125, 15.875, 15.96875, 15.84375, 15.78125, 15.84375, 15.910714, 16, 16.0625, 16, 16, 15.9375, 16, 16, 16, 16.0625, 16, 16, 16, 16.0625, 16.125, 16.1875, 16.4375, 16.5, 16.5, 16.4375, 16.375, 16.5, 16.6875, 16.875, 16.875, 16.75, 16.758928, 17.020834, 17.107143, 17.1875, 17.25, 17.160713, 17.017857, 17.008928, 17.008928, 17.333334, 17.553572, 17.75, 17.625, 17.5, 16.75, 14.333334, 13.5, 12.660714, 11.557823, 8.3571424, 7.1517859, 6.625, 6.625, 6.625, 6.75, 6.75, 6.8125, 6.9375, 7, 7, 7, 7, 7, 7, 7, 7, 7, 7, 7.125, 7.25, 7.5, 7.75, 7.75, 7.875, 7.8125, 7.8125, 7.9375, 7.9375, 8, 8.125, 8.1875, 8.25, 8.375, 8.4375, 8.625, 8.875, 8.9107141, 8.7678566, 8.7678566, 8.75, 8.9375, 9.0625, 9.125, 9.1875, 9.25, 9.375, 9.5625, 9.75, 9.875, 9.875, 9.875, 9.6875, 9.6517859, 9.8482141, 9.8125, 9.8928566, 10.0625, 10.25, 10.482143, 10.75, 10.875, 10.9375, 11, 11, -10, -10, -10, -10, -10, -10, -10, -10, -10, -10, -10, -10, -10, -10, -10, -10, -10, -10, -10, 23.5625, 23.458334, 23.34375, 23.1875, 23.125, 23.125, 23.0625, 22.875, 22.714287, 22.5, 22.3125, 22.1875, 22.0625, 22, 22.125, 22.098213, 21.955357, 21.955357, 21.741072, 21.612499, 21.678572, 21.419643, 21.3125, 21.125, 21, 21, 21, 21, 21, 21, 20.875, 20.75, 20.491072, 20.104166, 20.017857, 19.9375, 20, 20, 20, 19.875, 19.625, 19.4375, 19.1875, 19.0625, 19.0625, 18.875, 18.75, 18.5625, 18.375, 18.25, 18.125, 18.125, 17.9375, 17.875, 17.875, 17.6875, 17.6875, 17.491072, 17.125, 17.125, 17.125, 17.080357, 16.901787, 16.9375, 16.625, 16.75, 16.75, 16.625, 16.5625, 16.375, 16.125, 16, 16, 15.9375, 15.9375, 15.8125, 15.625, 15.4375, 15.1875, 15.0625, 15, 15, 14.875, 14.6875, 14.5, 14.375, 14.25, 14.1875, 14.125, 14, 14, 13.8125, 13.6875, 13.5625, 13.375, 13.375, 13.25, 13.125, 13.0625, 13, 13, 13, 12.9375, 12.8125, 12.625, 12.375, 12.1875, 12.0625, 11.803572, 11.4375, 11.375, 11.294643, 11.25, 11.1875, 11.0625, 10.9375, 10.9375, 11, 11, 11, 10.9375, 10.9375, 10.6875, 10.4375, 10.1875, 9.9375, 9.875, 9.8125, 9.8125, 9.8125, 9.875, 9.8125, 9.75, 9.666667, 9.458334, -10, -10, -10, -10, -10, -10, -10, -10, -10, -10, -10, -10, -10, -10, -10, -10, -10, -10, -10, -10, -10, -10, 26.25, 26.166666, 26.125, 26.0625, 25.973213, 25.705357, 25.433035, 25.21875, 25.03125, 25.285715, 26.875, 27.67857, 28.290178, 28.4375, 28.3125, 27.78125, 26.09524, 25.821428, 24.994049, 24.678572, 24.385418, -10, -10, -10, -10, -10, -10, -10, -10, -10, -10, 5.5, 5.3333335, 5.25, 5, 5, 5.3333335, 5.3333335, 5.4166665, 5.625, 5.6875, 5.6875, 5.5625, 5.5625, 5.5625, 5.625, 5.8125, 5.875, 5.9375, 6, 6.2142859, 7.3061228, 10.285714, 11.419642, 12.3125, 12.837302, 13.714286, 14, 13.982143, 12.841667, 13.286905, 13.553572, 14.044643, 14.160714, 14.1875, 14.1875, 14.28125, 14.59375, 14.90625, 15.09375, 15.125, 15.0625, 15, 15.125, 15.25, 15.3125, 15.5625, 15.6875, 15.723214, 15.625, 15.464286, 15.5, 15.5625, 15.8125, 15.9375, 15.9375, 15.96875, 15.84375, 15.84375, 15.84375, 15.910714, 16, 16, 16, 15.9375, 15.875, 15.9375, 15.9375, 16, 16.125, 16.0625, 16.0625, 16.0625, 16, 16.0625, 16.0625, 16.25, 16.375, 16.375, 16.375, 16.4375, 16.5625, 16.75, 17, 17, 16.9375, 16.9375, 16.9375, 17, 17.0625, 17.25, 17.285713, 17.205357, 17.258928, 17.321428, 17.708334, 17.866072, 18, 17.75, 17.541666, 16.714285, 13.04762, 12.32653, 11.255952, 9.4404755, 7.8988099, 7.0892859, 6.75, 6.6875, 6.625, 6.625, 6.6875, 6.75, 6.875, 7, 7, 7, 7, 7, 7, 7, 7, 7, 7, 7.0625, 7.1875, 7.4375, 7.6875, 7.8125, 7.9375, 7.9375, 7.9375, 8, 8, 8.0625, 8.1875, 8.25, 8.375, 8.5
-10, -10, -10, -10, -10, -10, 23.5625, 23.541668, 23.40625, 23.3125, 23.1875, 23.125, 23.0625, 22.8125, 22.589287, 22.3125, 22.1875, 22.125, 22.125, 22.125, 22.25, 22.285713, 22.053572, 21.910713, 21.5625, 21.362499, 21.491072, 21.294643, 21.25, 21.125, 21, 21, 21, 21, 21, 21, 20.9375, 20.8125, 20.553572, 20.104166, 19.955357, 19.875, 19.9375, 20, 20, 19.9375, 19.6875, 19.5, 19.25, 19.0625, 19.0625, 18.9375, 18.875, 18.75, 18.5625, 18.375, 18.25, 18.25, 18.125, 18.0625, 18, 17.8125, 17.875, 17.714285, 17.267857, 17.196428, 17.125, 17.080357, 16.839287, 16.8125, 16.4375, 16.625, 16.6875, 16.625, 16.625, 16.375, 16.125, 16, 16, 16, 16, 15.8125, 15.6875, 15.4375, 15.1875, 15.125, 15, 15, 14.875, 14.75, 14.625, 14.5625, 14.4375, 14.3125, 14.1875, 14, 14, 13.75, 13.5625, 13.375, 13.1875, 13.3125, 13.3125, 13.25, 13.1875, 13.0625, 13, 12.9375, 12.9375, 12.8125, 12.5625, 12.375, 12.125, 12, 11.875, 11.6875, 11.5625, 11.375, 11.25, 11.125, 11, 10.9375, 10.9375, 11, 10.9375, 10.9375, 10.9375, 10.9375, 10.75, 10.5, 10.25, 10, 9.9375, 9.875, 9.7410717, 9.5625, 9.625, 9.5, 9.5625, 9.5, 9.3888893, 9.333333, -10, -10, -10, -10, -10, -10, -10, -10, -10, -10, -10, -10, -10, -10, -10, -10, -10, -10, -10, -10, -10, 26.375, 26.25, 26.25, 26.1875, 26.035713, 25.705357, 25.339285, 25.125, 25.008928, 25.476191, 26.691666, 27.571428, 28.220238, 28.416666, 28.333334, 27.416666, 25.533333, 25.142859, 24.660713, 24.616072, 24.604168, -10, -10, -10, -10, -10, -10, -10, -10, -10, -10, 5.3333335, 5.2222228, 5.1666665, 5, 5, 5.25, 5.25, 5.3125, 5.375, 5.4375, 5.4375, 5.3125, 5.375, 5.4375, 5.5625, 5.8125, 6.0535717, 6.4523811, 6.6938777, 7.0663266, 9.1428576, 10.785714, 11.696428, 12.5, 12.985119, 13.809525, 14.083333, 14.113095, 13.759523, 13.859821, 14.084822, 14.375, 14.348214, 14.3125, 14.3125, 14.40625, 14.75, 15.0625, 15.25, 15.28125, 15.1875, 15.0625, 15.0625, 15.125, 15.1875, 15.375, 15.5625, 15.723214, 15.6875, 15.651786, 15.6875, 15.6875, 15.875, 15.9375, 15.9375, 15.96875, 15.84375, 15.90625, 15.879464, 15.875, 16, 15.9375, 16, 16, 16, 16.125, 16.125, 16.125, 16.25, 16.1875, 16.1875, 16.1875, 16.0625, 16.0625, 16.0625, 16.1875, 16.3125, 16.3125, 16.3125, 16.4375, 16.5625, 16.75, 17, 17, 16.9375, 16.9375, 16.9375, 17, 17.0625, 17.25, 17.348213, 17.267857, 17.321428, 17.446428, 17.833334, 17.991072, 18.125, 17.8125, 17.583332, 6, 7.5333338, 8.3809519, 8.0238094, 7.4960313, 7.0034018, 6.7589283, 6.625, 6.5625, 6.4375, 6.375, 6.5, 6.625, 6.8125, 7, 7, 7, 7, 7, 7, 7, 7, 7, 7, 7, 7.125, 7.375, 7.625, 7.875, 8, 8, 8, 8, 8, 8.125, 8.1875, 8.1875, 8.3125, 8.375, 8.5625, 8.8125, 9, 9.0357141, 8.8928566, 8.8928566, 8.8125, 8.8125, 8.875, 8.875, 9.0625, 9.3125, 9.4375, 9.625, 9.75, 9.8125, 9.75, 9.8125, 9.6875, 9.625, 9.8125, 9.8125, 9.9375, 10.25, 10.5, 10.6875, 10.9375, 10.9375, 10.9375, 11, 11, -10, -10, -10, -10, -10, -10, -10, -10, -10, -10, -10, -10, -10, -10, -10, -10, -10, -10, -10, 23.6875, 23.625, 23.46875, 23.3125, 23.125, 22.9375, 22.875, 22.6875, 22.464287, 22.375, 22.3125, 22.3125, 22.3125, 22.25, 22.25, 22.3125, 22.196428, 21.910713, 21.508928, 21.174999, 21.241072, 21.107143, 21.125, 21.0625, 21, 21, 21, 21, 21, 21, 21, 20.875, 20.616072, 20.166666, 19.955357, 19.875, 19.9375, 20, 20, 19.9375, 19.75, 19.5625, 19.3125, 19.125, 19.0625, 19, 19, 18.9375, 18.8125, 18.625, 18.4375, 18.375, 18.25, 18.1875, 18.125, 17.9375, 18, 17.8125, 17.285713, 17.205357, 17.125, 17.107143, 16.875, 16.705357, 16.4375, 16.5625, 16.6875, 16.625, 16.5625, 16.3125, 16, 15.9375, 15.9375, 15.9375, 16, 15.75, 15.625, 15.375, 15.125, 15.125, 15, 15, 14.8125, 14.6875, 14.625, 14.5, 14.4375, 14.3125, 14.125, 13.9375, 13.875, 13.625, 13.375, 13.1875, 13, 13.125, 13.1875, 13.1875, 13.1875, 13.0625, 12.9375, 12.8125, 12.75, 12.625, 12.4375, 12.3125, 12.125, 12, 11.9375, 11.8125, 11.6875, 11.5, 11.3125, 11.125, 11, 10.9375, 10.9375, 11, 10.9375, 10.875, 10.8125, 10.75, 10.5625, 10.375, 10.1875, 10, 9.9375, 9.875, 9.7410717, 9.5, 9.5, 9.3125, 9.3125, 9.25, 9.354167, 9.333333, -10, -10, -10, -10, -10, -10, -10, -10, -10, -10, -10, -10, -10, -10, -10, -10, -10, -10, -10, 26, 26, 26.375, 26.25, 26.1875, 26, 25.875, 25.59375, 25.375, 25.392857, 25.290178, 25.821428, 26.644445, -10, -10, -10, -10, 26.77211, 25.033333, 24.892859, 24.598213, 24.678572, 24.791668, -10, -10, -10, -10, -10, -10, -10, -10, -10, -10, 5.25, 5.166667, 5.125, 5, 5, 5, 5, 5.0625, 5.125, 5.1875, 5.25, 5.1875, 5.4553571, 5.9000001, 6.3095241, 6.6734695, 6.954082, 9.0555563, 9.5357141, 10.059524, 10.809524, 11.469388, 11.973214, 12.625, 13.258928, 13.857143, 14.125, 14.147322, 14.14375, 14.272322, 14.459822, 14.625, 14.5, 14.4375, 14.4375, 14.53125, 14.875, 15.125, 15.25, 15.28125, 15.1875, 15.0625, 15, 15, 15, 15.125, 15.3125, 15.598214, 15.6875, 15.776786, 15.8125, 15.75, 15.875, 15.875, 15.9375, 15.96875, 15.90625, 16.03125, 15.977678, 15.830358, 15.892857, 15.8125, 15.9375, 16, 16, 16.0625, 16.0625, 16.0625, 16.25, 16.3125, 16.3125, 16.25, 16.026787, 16, 16, 16.125, 16.125, 16, 16, 16.1875, 16.410713, 16.625, 16.875, 16.875, 16.9375, 17, 17, 17.0625, 17.0625, 17.1875, 17.3125, 17.375, 17.4375, 17.5, 17.642857, 17.895834, 18.053572, 17.875, 17.611111, 6, 7.0952382, 6.9591837, 6.734694, 6.4047618, 6.5446429, 6.4375, 6.5, 6.4375, 6.25, 6.125, 6.3125, 6.5, 6.75, 7, 7, 7, 7, 7, 7, 7, 7, 7, 7, 7, 7.125, 7.375, 7.625, 7.875, 8, 8, 8.0625, 8.125, 8.125, 8.25, 8.1875, 8.125, 8.25, 8.3125
-10, -10, -10, -10, -10, -10, 23.6875, 23.625, 23.46875, 23.3125, 23.1875, 22.973213, 22.839287, 22.6875, 22.401787, 22.375, 22.3125, 22.3125, 22.3125, 22.25, 22.1875, 22.25, 22.196428, 21.883926, 21.544643, 21.375, 21.1875, 21.125, 21.0625, 21, 21, 21, 21, 21, 21, 20.9375, 20.875, 20.6875, 20.428572, 20.041666, 19.892857, 19.875, 19.875, 19.9375, 19.9375, 19.875, 19.8125, 19.5625, 19.3125, 19.125, 19, 19, 19, 19, 18.875, 18.75, 18.5625, 18.4375, 18.375, 18.25, 18.1875, 18.0625, 18.0625, 17.875, 17.379463, 17.236607, 17.09375, 17.09375, 17, 16.74107, 16.455357, 16.446428, 16.5, 16.4375, 16.375, 16.1875, 15.9375, 15.9375, 15.875, 15.875, 15.9375, 15.6875, 15.625, 15.375, 15.125, 15.125, 14.9375, 14.875, 14.6875, 14.5625, 14.5625, 14.5625, 14.5, 14.375, 14.1875, 13.9375, 13.875, 13.6875, 13.5, 13.3125, 13.125, 13.1875, 13.1875, 13.1875, 13.1875, 13.0625, 12.9375, 12.75, 12.6875, 12.5, 12.375, 12.3125, 12.125, 12.0625, 12, 11.9375, 11.875, 11.6875, 11.4375, 11.1875, 11, 10.9375, 10.9375, 11, 10.9375, 10.875, 10.75, 10.625, 10.4375, 10.25, 10.125, 10, 10, 10, 9.9285717, 9.625, 9.5, 9.25, 9.125, 9.0625, 9.2589283, 9.5, -10, -10, -10, -10, -10, -10, -10, -10, -10, -10, -10, -10, -10, -10, -10, -10, -10, -10, -10, 26, 26, 26.125, 26.145834, 26.098213, 25.696428, 25.604166, 25.34375, 25.148809, 25.508928, 25.602678, 26.154762, -10, -10, -10, -10, -10, 24.873016, 24.533333, 24.464287, 24.3125, 24.5625, 24.666668, -10, -10, -10, -10, -10, -10, -10, -10, -10, 5, 5.125, 5.0833335, 5.0833335, 5, 5, 5, 5, 5, 5, 5, 5, 5, 5.4464283, 7.3222222, 8.4246035, 9.2380953, 9.7023811, 10.261905, 10.744898, 11.193878, 11.714286, 11.785714, 12.258928, 12.9375, 13.607142, 14.09375, 14.28125, 14.21875, 14.28125, 14.28125, 14.53125, 14.625, 14.5, 14.5, 14.5, 14.71875, 15.0625, 15.25, 15.3125, 15.28125, 15.1875, 15.0625, 15, 15, 15, 15.0625, 15.1875, 15.410714, 15.5, 15.651786, 15.75, 15.8125, 15.9375, 15.9375, 16, 16, 16, 16.125, 16.008928, 15.732143, 15.767857, 15.6875, 15.875, 16, 16, 16, 16, 16, 16.1875, 16.375, 16.348213, 16.142857, 15.919643, 15.875, 15.9375, 16, 15.875, 15.6875, 15.6875, 16, 16.392857, 16.625, 16.875, 16.875, 16.9375, 16.9375, 16.875, 16.875, 16.875, 17, 17.125, 17.1875, 17.125, 17.0625, 17.142857, 17.574406, 17.875, 17.854166, 6.25, 6.125, 6.09375, 6.09375, 6.125, 6.21875, 6.40625, 6.5, 6.5, 6.4375, 6.25, 6.125, 6.25, 6.4375, 6.6875, 6.9375, 7, 6.9375, 6.9375, 6.9375, 6.9375, 7, 7.0625, 7.0625, 7.0625, 7.0625, 7.125, 7.375, 7.625, 7.875, 8, 8.0625, 8.1875, 8.25, 8.25, 8.3125, 8.1875, 8.1875, 8.3125, 8.375, 8.625, 8.8125, 8.9375, 8.9375, 8.875, 8.8125, 8.75, 8.75, 8.8125, 8.875, 9.0625, 9.375, 9.5625, 9.75, 9.875, 9.875, 9.875, 9.9375, 9.9375, 9.9375, 10, 10, 10.0625, 10.1875, 10.375, 10.4375, 10.625, 10.75, 10.8125, 11, 11, -10, -10, -10, -10, -10, -10, -10, -10, -10, -10, -10, -10, -10, -10, -10, -10, -10, -10, -10, 23.75, 23.583334, 23.526787, 23.4375, 23.267857, 23.151787, 22.866074, 22.875, 22.5625, 22.5625, 22.4375, 22.3125, 22.3125, 22.25, 22.125, 22.1875, 22.196428, 21.857143, 21.5, 21.321428, 21.125, 21.125, 21.0625, 21, 21, 21, 21, 21, 21, 20.9375, 20.875, 20.625, 20.375, 20.1875, 20, 20, 19.9375, 19.875, 19.875, 19.875, 19.875, 19.6875, 19.4375, 19.1875, 18.9375, 18.9375, 18.875, 18.875, 18.875, 18.75, 18.625, 18.4375, 18.25, 18.125, 18.0625, 18, 18, 17.821428, 17.441963, 17.236607, 17.15625, 17.15625, 17.0625, 16.74107, 16.455357, 16.321428, 16.3125, 16.25, 16.125, 16, 15.8125, 15.875, 15.875, 15.875, 15.9375, 15.75, 15.625, 15.375, 15.125, 15.0625, 14.9375, 14.8125, 14.625, 14.5, 14.4375, 14.5, 14.4375, 14.3125, 14.1875, 13.9375, 13.875, 13.75, 13.625, 13.5, 13.3125, 13.3125, 13.1875, 13.125, 13.125, 13, 12.9375, 12.6875, 12.5625, 12.3125, 12.1875, 12.1875, 12.0625, 12.0625, 12, 12, 12, 11.875, 11.625, 11.375, 11.125, 11, 11, 11, 10.875, 10.6875, 10.392857, 10.1875, 10.0625, 10, 10, 10, 10, 10, 9.9285717, 9.5625, 9.375, 9.125, 9, 9, 9.2678566, 9.666666, -10, -10, -10, -10, -10, -10, -10, -10, -10, -10, -10, -10, -10, -10, -10, -10, -10, -10, -10, 25.9375, 26, 26, 26, 25.910713, 25.633928, 25.541666, 25.34375, 25.273809, 25.633928, 25.790178, 26.333334, -10, -10, -10, -10, -10, 24.238094, 24.200001, 24.258928, 24.25, 24.5, 24.633333, 10, 10, -10, -10, -10, -10, -10, -10, -10, -10, 5, 5, -10, -10, -10, -10, -10, 5, 5, 5, 5, 5, 5.6589289, 8.0142851, 9.2568035, 10.239797, 10.744898, 11.380953, 11.651786, 12, 12.0625, 12.0625, 12.321428, 12.9375, 13.607142, 14.09375, 14.28125, 14.15625, 14.049107, 14.03125, 14.28125, 14.473214, 14.4375, 14.5, 14.508928, 14.8125, 15.03125, 15.15625, 15.15625, 15.15625, 15.0625, 15.026786, 15.035714, 15, 15.0625, 14.9375, 14.9375, 15.0625, 15.1875, 15.4375, 15.5625, 15.625, 15.6875, 15.75, 15.875, 15.875, 15.875, 16, 16.008928, 15.901785, 15.955357, 15.875, 15.9375, 16, 16, 16, 16, 16, 16.125, 16.3125, 16.285713, 16.017857, 15.857143, 15.75, 15.8125, 15.9375, 15.8125, 15.6875, 15.6875, 16, 16.392857, 16.625, 16.875, 16.8125, 16.8125, 16.75, 16.625, 16.6875, 16.75, 16.875, 17, 17, 16.803572, 16.416668, 16.434525, 17.03274, 17.428572, 17.604166, 6.5, 6.375, 6.28125, 6.28125, 6.3125, 6.28125, 6.40625, 6.375, 6.3125, 6.3839283, 6.3874998, 6.1964283, 6.2589283, 6.375, 6.625, 6.875, 7, 6.9375, 6.9375, 6.9375, 6.9375, 7, 7.0625, 7.0625, 7.0625, 7.125, 7.1875, 7.4375, 7.6875, 7.875, 8, 8.125, 8.3125, 8.375, 8.375, 8.3125, 8.125, 8.125, 8.1875, 8.25
-10, -10, -10, -10, -10, -10, 23.875, 23.666666, 23.651787, 23.5625, 23.392857, 23.276787, 22.928574, 22.9375, 22.6875, 22.6875, 22.5625, 22.5, 22.544643, 22.482143, 22.229166, 22.0625, 22.098213, 21.839287, 21.49107, 21.383928, 21.125, 21.125, 21.0625, 21, 21, 21, 21, 21, 21, 21, 21, 20.794643, 20.416666, 20.196428, 19.9375, 19.875, 19.8125, 19.75, 19.75, 19.8125, 19.875, 19.6875, 19.5, 19.25, 18.9375, 18.875, 18.75, 18.75, 18.75, 18.6875, 18.5625, 18.3125, 18.125, 18, 18, 18, 17.9375, 17.723213, 17.486607, 17.290178, 17.21875, 17.21875, 17.125, 16.86607, 16.580357, 16.383928, 16.3125, 16.1875, 16.0625, 16, 15.8125, 15.875, 15.875, 15.875, 15.875, 15.6875, 15.5, 15.25, 15.0625, 15, 14.9375, 14.8125, 14.5625, 14.375, 14.25, 14.25, 14.25, 14.1875, 14.125, 13.9375, 13.875, 13.8125, 13.75, 13.625, 13.4375, 13.375, 13.125, 13, 12.892857, 12.8125, 12.75, 12.5, 12.339286, 12.125, 12.0625, 12.0625, 12, 11.9375, 11.875, 11.9375, 11.9375, 11.9375, 11.75, 11.5, 11.25, 11.0625, 11, 11, 10.875, 10.6875, 10.3125, 9.9642859, 9.875, 9.75, 9.875, 9.9375, 9.9375, 10, 10, 9.75, 9.5, 9.25, 9, 9, 9.2991066, 9.708333, -10, -10, -10, -10, -10, -10, -10, -10, -10, -10, -10, -10, -10, -10, -10, -10, -10, 25.5, 25.958332, 25.979166, 26.03125, 26, 26, 25.785713, 25.508928, 25.416666, 25.34375, 25.434523, 25.785715, 25.96875, 26.071428, -10, -10, -10, -10, -10, 24.03125, 24.285713, 24.294643, 24.225, 24.491072, 24.533335, 10, 10, -10, -10, -10, -10, -10, -10, -10, -10, 5, 5, -10, -10, -10, -10, -10, 5, 5, 14.25, 14.125, 5, 6.7224493, 8.8816328, 10.255953, 11.084822, 11.4375, 11.6875, 11.875, 12, 12.0625, 12.0625, 12.321428, 12.9375, 13.607142, 14.09375, 14.28125, 14.125, 13.955357, 13.875, 14.125, 14.410714, 14.5, 14.6875, 14.758928, 15, 15.125, 15.125, 15, 15, 14.9375, 14.964286, 15.035714, 15, 15.0625, 14.875, 14.875, 15, 15.0625, 15.214286, 15.3125, 15.3125, 15.4375, 15.5625, 15.75, 15.8125, 15.875, 15.9375, 16.035713, 16, 16.017857, 16, 15.9375, 16, 16.0625, 16.125, 16.125, 16.125, 16.125, 16.1875, 16.160713, 15.892857, 15.794643, 15.75, 15.8125, 15.9375, 15.8125, 15.6875, 15.6875, 15.9375, 16.330357, 16.5625, 16.75, 16.6875, 16.625, 16.5, 16.375, 16.4375, 16.5, 16.65625, 16.84375, 16.90625, 16.834822, 16.479168, 16.318027, 17.03274, 17.303572, 17.5, 6.625, 6.625, 6.53125, 6.53125, 6.5625, 6.46875, 6.46875, 6.375, 6.25, 6.3839283, 6.5437498, 6.4776783, 6.5401783, 6.59375, 6.6875, 6.8125, 6.9375, 6.875, 6.9375, 6.9375, 6.9375, 7, 7.0625, 7.0625, 7.0625, 7.1875, 7.25, 7.5625, 8.166667, 8.291667, 8.208333, 8.2321434, 8.3125, 8.375, 8.375, 8.25, 8.0625, 8.0625, 8.125, 8.25, 8.4375, 8.5, 8.625, 8.7053566, 8.8125, 8.8125, 8.875, 8.875, 8.9375, 9, 9, 9.125, 9.375, 9.625, 9.875, 10, 10, 9.9375, 9.9375, 9.9375, 9.9375, 10, 10.125, 10.125, 10.1875, 10.1875, 10.1875, 10.4375, 10.625, 10.875, 11, -10, -10, -10, -10, -10, -10, -10, -10, -10, -10, -10, -10, -10, -10, -10, -10, -10, -10, -10, 23.875, 23.75, 23.776787, 23.75, 23.580357, 23.464287, 23.053574, 23, 22.75, 22.625, 22.4375, 22.375, 22.544643, 22.607143, 22.309523, 22.071428, 22.0625, 21.883926, 21.544643, 21.446428, 21.125, 21.125, 21.0625, 21.0625, 21.0625, 21.0625, 21.0625, 20.9375, 20.9375, 20.875, 20.8125, 20.669643, 20.291666, 20.133928, 19.875, 19.8125, 19.75, 19.6875, 19.6875, 19.6875, 19.75, 19.625, 19.5, 19.3125, 19, 18.8125, 18.625, 18.5625, 18.5625, 18.5, 18.4375, 18.25, 18.125, 18.0625, 18.0625, 18.0625, 17.875, 17.625, 17.46875, 17.28125, 17.15625, 17.15625, 17.125, 16.973213, 16.705357, 16.508928, 16.3125, 16.125, 16, 15.9375, 15.875, 15.9375, 15.9375, 15.9375, 15.875, 15.6875, 15.5, 15.1875, 15, 14.9375, 14.875, 14.8125, 14.5625, 14.3125, 14.125, 14.125, 14.125, 14.125, 14.125, 14, 14, 14, 14, 13.875, 13.6875, 13.5625, 13.25, 13.0625, 12.892857, 12.8125, 12.8125, 12.5625, 12.401786, 12.1875, 12.0625, 12.0625, 12, 11.9375, 11.875, 11.9375, 11.9375, 11.9375, 11.8125, 11.5625, 11.3125, 11.125, 11, 11, 10.875, 10.75, 10.4375, 10.089286, 10, 9.8125, 9.875, 9.9375, 10, 10.035714, 9.9642859, 9.75, 9.4375, 9.25, 9, 9, 9.2991066, 9.708333, -10, -10, -10, -10, -10, -10, -10, -10, -10, -10, -10, -10, -10, 27, 27, -10, -10, -10, 26.138887, 26.0625, 26.03125, 25.875, 25.875, 25.723213, 25.491072, 25.208332, 25.169643, 25.171129, 25.339287, 25.642857, 25.404762, 23.875, 23.785713, 23.767857, 24.416668, 24.857143, 24.65625, 24.678572, 24.1875, 23.995834, 24.324406, 24.433334, 10, 10, -10, -10, -10, -10, -10, -10, -10, -10, 15.666666, 15.75, -10, -10, -10, -10, -10, 14.125, 13.875, 14, 13.75, 12.458334, 9.8261909, 10.440476, 10.589286, 11.15625, 11.375, 11.5, 11.65625, 11.75, 11.84375, 11.9375, 12.165178, 12.625, 13.232142, 14.010417, 14.21875, 14.15625, 13.955357, 13.8125, 14, 14.285714, 14.4375, 14.607143, 14.621428, 14.991072, 15.053572, 15.125, 15, 15, 14.9375, 14.964286, 15.035714, 15, 15.0625, 14.875, 14.9375, 15.0625, 15.0625, 15.151786, 15.1875, 15.1875, 15.375, 15.5, 15.6875, 15.75, 15.8125, 15.875, 16.0625, 16.232143, 16.375, 16.410713, 16.142857, 16.071428, 16.0625, 16.1875, 16.25, 16.25, 16.1875, 16.125, 16.035713, 15.892857, 15.955357, 15.9375, 16, 16, 15.9375, 15.9375, 15.9375, 16.1875, 16.482143, 16.6875, 16.8125, 16.6875, 16.4375, 16.1875, 16.125, 16.223213, 16.3125, 16.46875, 16.65625, 16.78125, 16.897322, 16.729168, 16.952381, 17.199406, 17.375, 17.333334, 6.8333335, 6.8333335, 6.78125, 6.6979165, 6.6875, 6.53125, 6.46875, 6.40625, 6.3125, 6.5089283, 6.7937498, 6.8214283, 6.9151783, 7.03125, 7.0357141, 6.9553571, 7.0089283, 6.875, 6.9375, 6.9375, 6.9375, 7, 7.0625, 7.125, 7.1875, 7.375, 7.5, 7.8125, 8.6088438, 8.7041664, 8.3869047, 8.3392859, 8.25, 8.25, 8.25, 8.125, 8, 8.0625, 8.125, 8.1875
-10, -10, -10, -10, -10, -10, 24, 23.916666, 23.964287, 24, 23.705357, 23.553572, 23.151787, 23, 22.875, 22.75, 22.5625, 22.5, 22.607143, 22.607143, 22.309523, 22.071428, 22, 21.848213, 21.517857, 21.383928, 21.125, 21.0625, 21.0625, 21.0625, 21.0625, 21.0625, 21.0625, 20.9375, 20.9375, 21, 21, 20.919643, 20.541666, 20.196428, 19.839287, 19.75, 19.75, 19.6875, 19.625, 19.5625, 19.5625, 19.5625, 19.5, 19.3125, 18.964287, 18.75, 18.5, 18.4375, 18.375, 18.25, 18.25, 18.125, 18.0625, 18.125, 18.125, 18.125, 18, 17.6875, 17.5, 17.25, 17.0625, 17.0625, 17, 16.9375, 16.8125, 16.6875, 16.5625, 16.3125, 16.125, 16, 15.875, 15.9375, 16, 16.0625, 16, 15.8125, 15.333333, 14.946428, 14.75, 14.6875, 14.75, 14.8125, 14.625, 14.4375, 14.25, 14.125, 14.1875, 14.169643, 13.955357, 13.892857, 13.875, 13.9375, 14, 13.9375, 13.8125, 13.6875, 13.375, 13.125, 12.892857, 12.8125, 12.8125, 12.553572, 12.214286, 12.0625, 11.9375, 12.0625, 12.0625, 12, 11.9375, 11.875, 11.8125, 11.875, 11.8125, 11.625, 11.4375, 11.1875, 11, 11, 10.875, 10.75, 10.5, 10.151786, 10.0625, 9.875, 9.8125, 9.8125, 9.875, 9.8482141, 9.8392859, 9.6875, 9.375, 9.25, 9, 9, 9.2901783, 9.541666, -10, -10, -10, -10, -10, -10, -10, -10, -10, -10, 25.666666, 26.6, 26.714285, 27, 27, -10, -10, -10, 26.229166, 26.145834, 26.03125, 25.767857, 25.625, 25.4375, 25.357143, 25.041666, 24.982143, 25.004463, 24.910715, 24.785715, 24.653061, 23.916666, 23.857141, 23.928572, 24.486113, 24.904762, 25.178572, 25.053572, 24.59375, 24.4125, 24.349207, 24.466667, 9.859375, 9.895833, -10, -10, -10, -10, -10, -10, -10, 14.875, 15.388888, 15.458333, 15.1875, 15.0625, 14.8125, 14.4375, 14.107143, 13.75, 13.488095, 13.392857, 13.133928, 10.976191, 10.74898, 10.853742, 10.8125, 11.09375, 11.125, 11.1875, 11.34375, 11.4375, 11.59375, 11.6875, 11.84375, 12, 12.589285, 13.833334, 14.160714, 14.21875, 13.982142, 13.875, 14.107143, 14.410714, 14.625, 14.669643, 14.621428, 14.928572, 14.928572, 15.125, 15.125, 15.125, 15.125, 15.089286, 15.098214, 15.0625, 15.0625, 14.875, 14.9375, 15.125, 15.125, 15.151786, 15.125, 15.0625, 15.3125, 15.607143, 15.8125, 15.875, 15.875, 15.875, 16.0625, 16.357143, 16.5, 16.535713, 16.267857, 16.071428, 16.0625, 16.25, 16.375, 16.375, 16.3125, 16.125, 16, 16, 16.0625, 16.0625, 16.125, 16.1875, 16.25, 16.375, 16.375, 16.5, 16.625, 16.6875, 16.625, 16.330357, 16, 15.8125, 15.9375, 16.205357, 16.3125, 16.40625, 16.53125, 16.65625, 16.897322, 16.979168, 17.380953, 17.458334, 17.553572, -10, -10, -10, 6.9375, 6.770833, 6.6875, 6.4375, 6.25, 6.1875, 6.125, 6.3839283, 6.7937498, 6.9151783, 7.1026783, 7.3571429, 7.0982141, 6.9553571, 6.9464283, 6.875, 7, 7, 7, 7, 7, 7.0625, 7.1875, 7.4375, 7.6875, 8.0625, 8.7738104, 9.1166668, 8.5654764, 8.3125, 8.0625, 8.0625, 8.0625, 8.125, 8.0625, 8.0625, 8.0625, 8.0625, 8.1875, 8.3125, 8.5, 8.7053566, 8.9375, 9, 9.0625, 9, 9, 9, 9, 9, 9.125, 9.25, 9.375, 9.5625, 9.5625, 9.5, 9.625, 9.6875, 9.8125, 10.0625, 10.25, 10.375, 10.4375, 10.375, 10.25, 10.375, 10.5625, 10.8125, 11, -10, -10, -10, -10, -10, -10, -10, -10, -10, -10, -10, -10, -10, -10, -10, -10, -10, -10, -10, 23.875, 23.916666, 23.9375, 23.875, 23.6875, 23.4375, 23.1875, 23, 23, 22.875, 22.75, 22.75, 22.857143, 22.794643, 22.434523, 22.133928, 21.9375, 21.8125, 21.625, 21.5625, 21.375, 21.25, 21.1875, 21.125, 21.0625, 21.0625, 21.0625, 20.9375, 20.9375, 21, 20.9375, 20.919643, 20.541666, 20.196428, 19.901787, 19.75, 19.6875, 19.625, 19.5, 19.375, 19.4375, 19.410713, 19.339287, 19.25, 18.964287, 18.75, 18.5, 18.4375, 18.25, 18.1875, 18.1875, 18.0625, 18.0625, 18.1875, 18.1875, 18.1875, 18.125, 17.8125, 17.625, 17.375, 17.125, 17.0625, 17, 17, 16.9375, 16.8125, 16.75, 16.5625, 16.375, 16.25, 16.0625, 16, 16, 16.0625, 16, 15.8125, 15.324405, 14.821428, 14.625, 14.5, 14.625, 14.75, 14.6875, 14.625, 14.4375, 14.1875, 14.1875, 14.107143, 13.892857, 13.892857, 13.875, 13.875, 13.9375, 13.875, 13.8125, 13.75, 13.5, 13.25, 12.955357, 12.875, 12.8125, 12.616072, 12.276786, 12.1875, 12.0625, 12.125, 12.125, 12, 11.9375, 11.8125, 11.6875, 11.625, 11.5625, 11.4375, 11.3125, 11.1875, 11, 11, 10.9375, 10.9375, 10.857143, 10.589286, 10.4375, 10.125, 9.9375, 9.8125, 9.875, 9.8482141, 9.8392859, 9.75, 9.5, 9.375, 9.125, 9.0625, 9.28125, 9.374999, -10, -10, -10, -10, -10, -10, -10, -10, -10, -10, 25.611109, 26.288889, 26.392859, 26.75, 26.75, -10, -10, -10, 26.3125, 26.386906, 26.239584, 25.726191, 25.544643, 25.375, 25.419643, 25.1875, 24.877977, 24.535715, 24.535715, 24.357143, 24.508928, 24.223213, 24.142857, 24.160715, 24.505209, 24.803572, 25.21875, 25.241072, 24.953125, 24.808332, 9, 9.208334, 9.703125, 9.770833, -10, -10, -10, -10, -10, -10, -10, 14.5, 14.979166, 15.03125, 14.708333, 14.625, 14.458333, 14.041667, 13.595238, 13.375, 13.044643, 12.210885, 11.92347, 11.369048, 11.267857, 11.017857, 10.875, 10.8125, 10.75, 10.8125, 10.96875, 11.0625, 11.21875, 11.3125, 11.46875, 11.598214, 12.178572, 13.750001, 14.098214, 14.3125, 14.214286, 14.125, 14.357143, 14.625, 14.8125, 14.857143, 14.8, 14.928572, 14.928572, 15, 15, 15, 15.0625, 15.0625, 15.0625, 15.0625, 15, 14.9375, 15, 15.1875, 15.1875, 15.214286, 15.160714, 14.955357, 15.270833, 15.794643, 15.979166, 16, 16, 15.9375, 16.125, 16.25, 16.375, 16.410713, 16.205357, 16.071428, 16.0625, 16.3125, 16.5, 16.5625, 16.5, 16.1875, 15.964286, 16, 16.0625, 16.125, 16.1875, 16.25, 16.4375, 16.660713, 16.6875, 16.75, 16.678572, 16.416668, 16.125, 15.830357, 15.625, 15.607143, 15.9375, 16.267857, 16.3125, 16.40625, 16.46875, 16.59375, 16.96875, 17.375, 17.5625, 17.75, 17.791666, -10, -10, -10, 6.75, 6.583333, 6.5625, 6.375, 6.1875, 6.21875, 6.1875, 6.4375, 6.78125, 7.0625, 7.28125, 7.40625, 7.2232141, 7.0178571, 6.9464283, 6.875, 7, 7, 7, 7.25, 7.666667, 7.9285712, 8.1785717, 8.3571424, 8.5816326, 9, 9.741498, 10.169047, 9.5034018, 9.1428576, 8.7857141, 8.7857141, 8.6836729, 8.4523811, 8.4910717, 8.3125, 8.3125, 8.3125
-10, -10, -10, -10, -10, -10, 23.75, 23.833332, 23.875, 23.732143, 23.5, 23.3125, 23.0625, 23, 23, 22.9375, 22.8125, 22.75, 22.75, 22.6875, 22.455357, 22.258928, 22.0625, 21.9375, 21.8125, 21.75, 21.625, 21.4375, 21.3125, 21.1875, 21.0625, 21.0625, 21.0625, 20.9375, 20.9375, 21, 20.848213, 20.705357, 20.446428, 20.125, 19.964287, 19.875, 19.8125, 19.6875, 19.5, 19.25, 19.3125, 19.410713, 19.339287, 19.3125, 18.964287, 18.6875, 18.4375, 18.3125, 18.25, 18.1875, 18.1875, 18.125, 18.0625, 18.1875, 18.1875, 18.25, 18.25, 18, 17.8125, 17.5, 17.1875, 17.0625, 17, 16.9375, 16.9375, 16.8125, 16.75, 16.6875, 16.4375, 16.3125, 16.125, 16, 16, 16.0625, 16.0625, 15.875, 15.449405, 14.946428, 14.6875, 14.5, 14.5625, 14.6875, 14.625, 14.625, 14.4375, 14.125, 14.125, 14.044643, 13.830357, 13.892857, 13.875, 13.8125, 13.8125, 13.8125, 13.8125, 13.75, 13.5625, 13.3125, 13.0625, 13, 13, 12.866072, 12.5625, 12.5, 12.375, 12.375, 12.3125, 12.1875, 12, 11.75, 11.5625, 11.375, 11.3125, 11.25, 11.1875, 11.1875, 11.0625, 11.0625, 11.0625, 11, 11, 10.8125, 10.5625, 10.3125, 10, 9.875, 9.9375, 9.8482141, 9.8392859, 9.8125, 9.5625, 9.4375, 9.1875, 9.0625, 9.1875, 9.312499, -10, -10, -10, -10, -10, -10, -10, -10, -10, -10, 25.458332, 25.966665, 26.044643, 26.25, 26.25, -10, -10, 25.375, 26.125, 26.34524, 26.333334, 25.882441, 25.700893, 25.46875, 25.325893, 24.892857, 24.471727, 24.263393, 24.165178, 24.21875, 24.375, 24.441963, 24.453125, 24.52009, 24.677084, 24.787947, 25.03125, 24.955357, 24.890625, 24.994047, 9, 9.2222223, 9.578125, 9.645833, -10, -10, -10, -10, -10, 13.25, 13.333334, 14.1875, 14.354166, 14.46875, 14.59375, 14.46875, 14.052083, 13.566964, 13.071428, 12.392858, 11.943878, 11.210885, 11.030612, 10.916667, 10.821428, 10.75, 10.5625, 10.4375, 10.375, 10.375, 10.53125, 10.625, 10.65625, 10.8125, 11.28125, 11.517858, 12.178572, 13.750001, 14.098214, 14.3125, 14.214286, 14.1875, 14.419643, 14.6875, 14.875, 14.794643, 14.675, 14.803572, 14.803572, 14.875, 14.8125, 14.714286, 14.8125, 14.919643, 15, 15.0625, 15, 15, 15.0625, 15.1875, 15.25, 15.375, 15.348214, 15.299107, 15.583333, 16.107143, 16.211309, 16.0625, 16, 15.875, 16.0625, 16.1875, 16.3125, 16.348213, 16.205357, 16.071428, 16, 16.125, 16.3125, 16.375, 16.375, 16.1875, 15.964286, 16.0625, 16.125, 16.1875, 16.28125, 16.3125, 16.5625, 16.848213, 16.90625, 17, 16.794643, 16.208334, 15.821428, 15.392857, 15.276786, 15.464286, 15.9375, 16.392857, 16.4375, 16.5625, 16.5625, 16.625, 16.9375, 17.1875, 17.339287, 17.669643, 17.816666, -10, -10, -10, 6.5, 6.333333, 6.375, 6.3125, 6.1875, 6.28125, 6.28125, 6.46875, 6.78125, 7, 7.4017859, 7.7000003, 7.4375, 7.2946429, 7.2232141, 7.5, 7.734694, 7.8571429, 7.8928571, 8.2142859, 10.216667, 11.375, 11.625, 11.541667, 11.672619, 12.083333, 12.238095, 12.633334, 12.238095, 12.095239, 11.958333, 11.875, 11.434525, 9.9861116, 9.0267859, 8.6875, 8.625, 8.5625, 8.625, 8.75, 8.875, 8.9375, 9, 9, 9, 9.0625, 9.125, 9.125, 9.1875, 9.1875, 9.125, 9.1875, 9.25, 9.375, 9.5, 9.5, 9.625, 9.6875, 9.8125, 10.125, 10.3125, 10.5625, 10.6875, 10.6875, 10.625, 10.625, 10.75, 10.875, 11, -10, -10, -10, -10, -10, -10, -10, -10, -10, -10, -10, -10, -10, -10, -10, -10, -10, -10, -10, 23.75, 23.833332, 23.875, 23.732143, 23.5625, 23.375, 23.125, 23.0625, 23, 23, 22.9375, 22.875, 22.75, 22.5625, 22.375, 22.25, 22.125, 22.0625, 22, 21.9375, 21.875, 21.6875, 21.5, 21.25, 21.0625, 21, 21, 21.0625, 21.125, 21.3125, 21.285713, 21.080357, 20.758928, 20.196428, 19.919643, 19.75, 19.625, 19.4375, 19.25, 19.0625, 19.125, 19.348213, 19.339287, 19.3125, 18.964287, 18.642857, 18.375, 18.25, 18.1875, 18.1875, 18.1875, 18.125, 18.0625, 18.125, 18.125, 18.125, 18.125, 17.9375, 17.8125, 17.5625, 17.3125, 17.125, 17, 16.9375, 16.9375, 16.75, 16.75, 16.75, 16.5625, 16.5, 16.25, 16.0625, 16, 16.0625, 16.0625, 15.9375, 15.511905, 15.071428, 14.8125, 14.5625, 14.625, 14.6875, 14.6875, 14.75, 14.625, 14.3125, 14.25, 14.107143, 13.830357, 13.892857, 13.875, 13.8125, 13.8125, 13.8125, 13.8125, 13.6875, 13.5, 13.25, 13, 13, 13, 12.928572, 12.6875, 12.6875, 12.625, 12.5625, 12.4375, 12.25, 12, 11.75, 11.5, 11.25, 11.125, 11.0625, 11.0625, 11.1875, 11.1875, 11.1875, 11.1875, 11.0625, 10.9375, 10.75, 10.5, 10.25, 10, 9.875, 9.875, 9.8125, 9.8125, 9.75, 9.5625, 9.375, 9.1875, 9.0625, 9.125, 9.229166, 9.291666, -10, -10, -10, -10, -10, -10, -10, -10, -10, 25.388887, 25.566666, 25.574406, 25.464285, 25.464285, 24.8125, 24.75, 25.138887, 26, 26.349207, 26.333334, 25.965775, 25.763393, 25.46875, 25.28125, 25.007441, 24.614584, 24.419643, 24.34375, 24.40625, 24.5, 24.629463, 24.546875, 24.542412, 24.4375, 24.453125, 24.625, 24.71875, 25.109375, 25.254463, 25.166668, 9.291667, 9.494792, 9.5625, -10, -10, -10, -10, 12.75, 12.833333, 12.888889, 13.508928, 13.552083, 13.6875, 13.910714, 13.714286, 13.020833, 12.535714, 11.836734, 11.428572, 11.020409, 10.622025, 10.526786, 10.5, 10.5, 10.5, 10.3125, 10.1875, 10.125, 10.1875, 10.3125, 10.3125, 10.25, 10.401786, 11.375, 11.964286, 12.803572, 14.020834, 14.285714, 14.34375, 14.276786, 14.3125, 14.607143, 14.875, 15, 14.9375, 14.8125, 14.8125, 14.8125, 14.8125, 14.8125, 14.714286, 14.8125, 14.919643, 15, 15.0625, 15, 14.9375, 14.875, 14.9375, 15, 15.25, 15.379464, 15.330357, 15.552083, 16.075893, 16.148809, 16.0625, 16.0625, 15.875, 16, 16.0625, 16.0625, 16.0625, 16.0625, 16, 16, 16, 16.125, 16.1875, 16.25, 16.1875, 16.089287, 16.1875, 16.125, 16.1875, 16.299107, 16.5, 16.75, 17.035713, 17.03125, 16.991072, 16.523809, 15.842262, 15.383928, 15.017857, 15.026786, 15.348214, 16.020834, 16.535715, 16.625, 16.75, 16.75, 16.75, 16.9375, 17.0625, 17.151787, 17.482143, 17.65, -10, -10, -10, 6.25, 6.1666665, 6.4642859, 6.8095241, 6.8673468, 7.0816321, 7.1547618, 7.3520408, 7.6428571, 7.7857141, 8.1377554, 9.21, 8.030612, 8.030612, 8.030612, 9.75, 10.714286, 11, 11.166667, 11.5, 12.277779, 12.714286, 12.811225, 12.5, 12.57653, 12.821428, 12.959184, 13.271429, 13.102041, 13.091837, 13.107142, 12.964286, 12.331633, 10.226191, 9.2053576, 8.75, 8.75, 8.75
-10, -10, -10, -10, -10, -10, 23.75, 23.833332, 23.8125, 23.607143, 23.4375, 23.25, 23, 23, 22.9375, 22.9375, 23, 23, 22.875, 22.6875, 22.4375, 22.3125, 22.1875, 22.125, 22.125, 22, 22, 21.875, 21.625, 21.375, 21.125, 21, 21, 21.0625, 21.125, 21.25, 21.223213, 21.017857, 20.758928, 20.321428, 20.017857, 19.705357, 19.5, 19.25, 19.125, 19, 19, 19.160713, 19.214287, 19.25, 18.964287, 18.705357, 18.357143, 18.041666, 18.017857, 18.0625, 18.125, 18.125, 18.0625, 18, 18, 18, 18, 18, 17.9375, 17.6875, 17.5, 17.25, 17.0625, 17, 16.9375, 16.6875, 16.625, 16.625, 16.4375, 16.4375, 16.25, 16.0625, 16, 16, 16, 15.9375, 15.741072, 15.375, 15.125, 14.8125, 14.8125, 14.8125, 14.75, 14.8125, 14.6875, 14.4375, 14.3125, 14.0625, 13.901786, 13.9375, 13.9375, 13.875, 13.75, 13.6875, 13.625, 13.5, 13.375, 13.1875, 13, 13, 13, 13, 12.9375, 12.875, 12.75, 12.5, 12.3125, 12.125, 11.9375, 11.8125, 11.5625, 11.25, 11.0625, 10.9375, 10.9375, 11.1875, 11.25, 11.25, 11.1875, 10.9375, 10.8125, 10.625, 10.4375, 10.25, 10.0625, 10, 10, 10, 9.9375, 9.875, 9.6875, 9.4375, 9.25, 9.0625, 9.0625, 9.145833, 9.1944437, 9.5, 9.9642859, 10.166667, -10, -10, -10, -10, -10, -10, -10, 25.222221, 25.145834, 25.15625, 25.15625, 24.875, 24.75, 25.138887, -10, -10, 26.083334, 25.906252, 25.763393, 25.53125, 25.34375, 25.069941, 24.739584, 24.575893, 24.53125, 24.53125, 24.5625, 24.660713, 24.546875, 24.55134, 24.614584, 24.560268, 24.59375, 24.625, 24.921875, 25.025297, 25.055557, 9.416667, 9.59375, 9.635417, -10, -10, -10, -10, 13, 12.875, 12.604167, 12.571428, 12.46875, 12.59375, 12.357142, 11.934525, 11.607142, 11.086734, 10.724489, 10.535714, 10.491072, 10.229167, 10.142857, 10.1875, 10.1875, 10.1875, 10.125, 10, 10, 10.0625, 10.125, 10.125, 10, 10.214286, 11.208333, 12.514285, 13.5, 14.138889, 14.375, 14.40625, 14.46875, 14.46875, 14.71875, 14.9375, 15, 15, 14.9375, 14.9375, 14.9375, 14.8125, 14.6875, 14.589286, 14.625, 14.732143, 14.8125, 14.8125, 14.6875, 14.625, 14.625, 14.732143, 14.875, 15.1875, 15.316964, 15.267857, 15.364583, 15.78125, 15.898809, 15.875, 16, 15.875, 16, 16, 16, 16, 16, 15.9375, 15.875, 15.75, 15.821428, 16.145834, 16.232143, 16.25, 16.151787, 16.1875, 16.125, 16.1875, 16.236607, 16.375, 16.625, 16.910713, 16.96875, 16.991072, 16.452381, 15.571429, 15.142857, 14.9375, 15.120536, 15.566964, 16.239584, 16.647322, 16.75, 16.875, 16.875, 16.875, 17, 17, 16.964287, 17.232143, 17.4, -10, -10, -10, 6.9795918, 6.8928571, 7.3163266, 8.9666672, 9.3785715, 10.336309, 10.548611, 10.717262, 10.979167, 11.041667, 11.226192, 11.483334, 11.142858, 11, 10.587302, 10.942858, 11.309524, 11.666667, 11.666667, 12, 12.736112, 13.142858, 13.394559, 13, 13.160714, 13.375, 13.5, 13.6875, 13.6875, 13.8125, 13.9375, 13.875, 13.107142, 10.416667, 9.3571434, 8.75, 8.8125, 8.875, 9, 9, 8.9285717, 8.8000002, 8.9285717, 8.9285717, 9, 9.125, 9.3125, 9.3125, 9.375, 9.3928566, 9.3874998, 9.3839283, 9.5803566, 9.6875, 9.875, 9.9375, 9.9375, 9.9375, 9.9375, 10.0625, 10.125, 10.3125, 10.4375, 10.5625, 10.5625, 10.5, 10.625, 10.625, 10.75, -10, -10, -10, -10, -10, -10, -10, -10, -10, -10, -10, -10, -10, -10, -10, -10, -10, -10, -10, 23.875, 23.833332, 23.75, 23.544643, 23.3125, 23.1875, 23.0625, 23.0625, 23, 23, 23, 23, 22.8125, 22.625, 22.375, 22.25, 22.1875, 22.125, 22.125, 22, 22, 21.9375, 21.6875, 21.4375, 21.1875, 21, 21, 21.0625, 21.125, 21.25, 21.285713, 21.080357, 20.883928, 20.446428, 20.080357, 19.767857, 19.625, 19.410713, 19.205357, 19.071428, 18.9375, 19.125, 19.25, 19.1875, 18.964287, 18.642857, 18.294643, 17.979166, 17.955357, 18, 18.0625, 18.125, 18.0625, 17.9375, 17.9375, 17.9375, 17.9375, 18, 17.9375, 17.6875, 17.5625, 17.3125, 17.125, 17, 16.8125, 16.625, 16.5, 16.5, 16.375, 16.3125, 16.1875, 16.0625, 16, 15.9375, 15.875, 15.75, 15.5625, 15.375, 15.1875, 15, 14.9375, 14.9375, 14.8125, 14.8125, 14.75, 14.5625, 14.428572, 14.0625, 13.964286, 13.895833, 13.645833, 13.645833, 13.5625, 13.5, 13.5, 13.3125, 13.25, 13.125, 13, 13, 13, 13, 13, 12.875, 12.75, 12.5, 12.25, 12.125, 11.9375, 11.875, 11.6875, 11.5, 11.3125, 11.125, 11.0625, 11.1875, 11.25, 11.25, 11.125, 10.8125, 10.625, 10.4375, 10.3125, 10.1875, 10.0625, 10, 10, 10, 9.9375, 9.875, 9.625, 9.375, 9.1875, 9, 9, 9.0625, 9.145833, 9.333333, 9.7261906, 9.8888893, -10, -10, -10, -10, -10, -10, -10, -10, 25.208334, 25.114584, 25.09375, 25.072916, -10, -10, -10, -10, 25.6875, 25.822918, 25.75, 25.5625, 25.21875, 24.861607, 24.78125, 24.71875, 24.709822, 24.46875, 24.375, 24.3125, 24.296875, 24.408482, 24.807293, 24.792412, 24.78125, 24.75, 24.8125, 24.816963, 24.875002, 9.625, 9.75, 9.760417, 10, 10.571428, 12.5, 13.071428, 13.035714, 12.4375, 11.9375, 11.545918, 11.321428, 11.357142, 11.285714, 11.051021, 10.523809, 10.030612, 9.8571424, 10.145833, 10.0625, 10.125, 9.9375, 10, 10, 9.9375, 10, 9.9375, 9.9375, 10, 10, 10, 9.9375, 10.214286, 11.208333, -10, -10, -10, 14.5, 14.479167, 14.59375, 14.700893, 14.90625, 15.09375, 15.125, 15.125, 15.125, 15.080357, 14.9375, 14.875, 14.75, 14.714286, 14.6875, 14.669643, 14.625, 14.625, 14.625, 14.732143, 14.8125, 14.919643, 15, 15.25, 15.46875, 15.625, 15.549107, 15.674107, 15.732143, 15.8125, 16, 15.9375, 16, 16, 16, 16, 16, 15.875, 15.75, 15.5625, 15.571428, 15.958334, 16.107143, 16.25, 16.25, 16.25, 16.1875, 16.25, 16.361607, 16.4375, 16.5625, 16.75, 16.78125, 16.866072, 16.452381, 15.571429, 15.285714, 15.0625, 15.245536, 15.709822, 16.346727, 16.709822, 16.875, 16.9375, 16.9375, 16.9375, 17, 16.9375, 16.839287, 17.071428, 17.340477, 17.571428, 17, 14.166666, 10.761905, 10.333333, 10.684525, 11.277779, 11.511905, 11.663264, 11.863095, 12.043367, 12.267858, 12.339286, 12.479592, 12.628572, 12.183673, 11.571428, 11.054421, 10.918367, 11.275511, 11.416667, 11.166667, 11.25, 11.166667, 11.333333, 11.831349, 12.625, 12.910714, 13.125, 13.25, 13.375, 13.5, 13.6875, 13.875, 13.875, 13.071428, 10.25, 9.1428576, 8.5625, 8.6875, 8.8125
-10, -10, -10, -10, -10, -10, 24, 23.833332, 23.75, 23.625, 23.5, 23.375, 23.25, 23.1875, 23.125, 23.125, 23.125, 23.0625, 22.8125, 22.5625, 22.3125, 22.1875, 22.125, 22.125, 22.125, 21.9375, 21.875, 21.8125, 21.625, 21.4375, 21.25, 21.0625, 21, 21.0625, 21.125, 21.1875, 21.25, 21.1875, 21.0625, 20.633928, 20.205357, 19.830357, 19.5625, 19.348213, 19.142857, 19.008928, 18.875, 19, 19.125, 19.0625, 18.964287, 18.767857, 18.482143, 18.166666, 18.017857, 18, 18, 18.0625, 18.0625, 17.9375, 17.9375, 17.875, 17.8125, 17.875, 17.8125, 17.625, 17.5625, 17.3125, 17.0625, 16.9375, 16.6875, 16.5, 16.4375, 16.375, 16.3125, 16.25, 16.125, 16.0625, 16, 15.9375, 15.8125, 15.6875, 15.4375, 15.25, 15.125, 15, 15, 15, 14.9375, 14.9375, 14.9375, 14.8125, 14.616072, 14.1875, 14.026786, 13.833333, 13.583333, 13.645833, 13.625, 13.625, 13.5625, 13.3125, 13.1875, 13.0625, 13.0625, 13.125, 13.107143, 13, 13, 12.75, 12.625, 12.375, 12.125, 12.0625, 12, 12, 11.875, 11.75, 11.5, 11.25, 11.125, 11.125, 11.1875, 11.1875, 11, 10.6875, 10.4375, 10.25, 10.1875, 10.125, 10.0625, 10, 9.9375, 9.9375, 9.875, 9.75, 9.5625, 9.3125, 9.125, 9, 9, 9, 9.0625, 9.25, 9.5446434, 9.666667, -10, -10, -10, -10, -10, -10, -10, -10, 25.277779, 25.364584, 25.302084, 25.28125, -10, -10, -10, -10, 25.229166, 25.416668, 25.34375, 25.174107, 25.041666, 24.96875, 24.9375, 24.9375, 24.772322, 24.40625, 24.21875, 24.09375, 24.09375, 24.236607, 24.831846, 25.037203, 25.03125, 25.03125, 24.78125, 24.578125, 24.491667, 9.8125, 9.875, 9.885417, 10, 10.571428, 12.444444, 13, 13.035714, 12.104167, 11.473214, 11.102678, 10.75, 10.303572, 10.236607, 9.9821434, 9.666667, 9.3214283, 9.3125, 9.645833, 9.7232141, 9.875, 9.6875, 9.625, 9.625, 9.5625, 9.6875, 9.6875, 9.6875, 9.8125, 9.875, 9.9375, 10.0625, 10.401786, 11.133333, -10, -10, -10, 14.5625, 14.5, 14.65625, 14.763393, 14.96875, 15.15625, 15.125, 15.1875, 15.25, 15.267857, 15.125, 15.0625, 15, 15.0625, 15.0625, 15, 14.875, 14.75, 14.6875, 14.794643, 14.9375, 15.107143, 15.125, 15.3125, 15.46875, 15.46875, 15.361607, 15.424107, 15.5, 15.75, 16, 16, 16, 16, 16.0625, 16.125, 16.125, 16, 15.8125, 15.625, 15.633928, 16.020834, 16.169643, 16.25, 16.25, 16.1875, 16.125, 16.25, 16.392857, 16.5625, 16.625, 16.75, 16.75, 16.803572, 16.523809, 15.842262, 15.526785, 15.267857, 15.424107, 15.936012, 16.525297, 16.834822, 17, 17, 17, 17, 17, 16.9375, 16.75, 16.857143, 17.273809, 17.619047, 17.047619, 14.222221, 12.204082, 11.642858, 11.979592, 12.452382, 12.653061, 12.580357, 12.708333, 12.741072, 12.78125, 13, 13, 12.8125, 12.678572, 11.948979, 11.360544, 10.918367, 10.806122, 10.857142, 10.535714, 10.653061, 10.845238, 11.061225, 11.605443, 12.3125, 12.642857, 12.8125, 13, 13.0625, 13.3125, 13.5625, 13.8125, 13.9375, 13.071428, 9.958333, 8.8928576, 8.3125, 8.5625, 8.8125, 9, 8.875, 8.6785717, 8.4875002, 8.4910717, 8.5535717, 8.75, 8.875, 9.125, 9.1875, 9.1875, 9.3303566, 9.5124998, 9.5714283, 9.8303566, 9.875, 9.9375, 10, 10, 10, 9.9375, 9.8125, 9.7767859, 9.9821434, 10.107143, 10.25, 10.25, 10.0625, 10.1875, 10.25, 10.383333, -10, -10, -10, -10, -10, -10, -10, -10, -10, -10, -10, -10, -10, -10, -10, -10, -10, -10, -10, 23.875, 23.666666, 23.5625, 23.375, 23.3125, 23.3125, 23.25, 23.25, 23.1875, 23.125, 23.125, 23, 22.75, 22.5, 22.25, 22.125, 22.0625, 22.0625, 22.0625, 21.9375, 21.8125, 21.6875, 21.5, 21.3125, 21.25, 21.125, 21.0625, 21.0625, 21, 21, 21, 21, 20.9375, 20.75, 20.4375, 20.080357, 19.875, 19.660713, 19.392857, 19.196428, 19, 18.9375, 19, 18.9375, 18.901787, 18.875, 18.669643, 18.416666, 18.205357, 18.0625, 18, 18, 18, 17.9375, 17.9375, 17.875, 17.8125, 17.875, 17.8125, 17.625, 17.5625, 17.375, 17.098213, 16.830357, 16.508928, 16.3125, 16.3125, 16.3125, 16.25, 16.1875, 16.0625, 16, 16, 15.9375, 15.8125, 15.6875, 15.5, 15.3125, 15.1875, 15.125, 15.035714, 14.964286, 14.9375, 14.875, 14.875, 14.75, 14.553572, 14.125, 14.026786, 13.833333, 13.583333, 13.645833, 13.625, 13.625, 13.5, 13.25, 13.125, 13, 13.125, 13.25, 13.178572, 12.833333, 12.821428, 12.607143, 12.5, 12.3125, 12.0625, 12, 12, 12, 11.9375, 11.875, 11.6875, 11.4375, 11.25, 11.125, 11.0625, 11.0625, 10.8125, 10.5, 10.3125, 10.125, 10.125, 10.125, 10.0625, 10.0625, 10, 9.9375, 9.8303566, 9.6875, 9.5, 9.3125, 9.125, 9, 9, 9, 9, 9.0625, 9.1875, 9.25, -10, -10, -10, -10, -10, -10, -10, -10, -10, 25.708334, 25.645834, 25.59375, -10, -10, -10, 24.583332, 24.895832, 25.145834, 25.125, 24.986607, 24.854166, 24.8125, 24.8125, 24.84375, 24.678572, 24.3125, 24.125, 23.96875, 24, 24.142857, 24.738096, 24.974703, 25, 25, 24.6875, 24.484375, 24.322222, 9.9375, 9.958333, 9.96875, 10, 10.571428, 12.416666, 12.892858, 12.982142, 11.997025, 11.1875, 10.28125, 9.8258934, 9.40625, 9.2053566, 8.7755108, 8.729167, 8.5714283, 8.65625, 9.177083, 9.3794641, 9.59375, 9.4375, 9.375, 9.375, 9.3125, 9.4375, 9.4375, 9.4375, 9.625, 9.75, 9.9375, 10.21875, 10.53125, 10.758333, -10, -10, -10, 14.625, 14.666667, 14.875, 14.982143, 15.125, 15.21875, 15.125, 15.25, 15.4375, 15.517857, 15.375, 15.25, 15.125, 15.1875, 15.1875, 15.125, 14.9375, 14.8125, 14.8125, 14.982143, 15.25, 15.357143, 15.375, 15.5, 15.5625, 15.553572, 15.317857, 15.508928, 15.553572, 15.8125, 16, 15.9375, 15.875, 15.892857, 16.145834, 16.232143, 16.25, 16.0625, 15.8125, 15.75, 15.821428, 16.208334, 16.294643, 16.25, 16.125, 16, 16, 16.125, 16.25, 16.375, 16.5, 16.625, 16.75, 16.875, 16.794643, 16.145834, 15.776785, 15.267857, 15.495536, 16.15625, 16.620535, 16.90625, 17, 17, 17, 17, 17, 16.9375, 16.6875, 16.75893, 17.297619, 17.642857, 17.285713, 14.659864, 13.595239, 12.794643, 12.75, 12.6875, 12.714286, 12.5, 12.482143, 12.5, 12.46875, 12.357142, 12.357142, 12.5, 12.428572, 11.767857, 11.190476, 10.741072, 10.580357, 10.696428, 10.357142, 10.633928, 10.833333, 10.928572, 11.440476, 12.0625, 12.455357, 12.75, 12.9375, 13, 13.1875, 13.4375, 13.6875, 13.9375, 13.357142, 10.469388, 9.3809528, 8.6785717, 8.6875, 8.875
-10, -10, -10, -10, -10, -10, 23.75, 23.5, 23.4375, 23.25, 23.3125, 23.4375, 23.4375, 23.375, 23.214287, 23.125, 23.0625, 22.9375, 22.6875, 22.4375, 22.1875, 22.0625, 22, 22, 22, 21.9375, 21.8125, 21.6875, 21.5625, 21.375, 21.375, 21.3125, 21.169643, 21.0625, 21, 20.9375, 21, 21, 20.875, 20.6875, 20.4375, 20.1875, 20.0625, 19.848213, 19.517857, 19.321428, 19.1875, 19.1875, 19.1875, 19.0625, 18.9375, 18.75, 18.625, 18.5, 18.3125, 18.1875, 18.0625, 18, 18, 18, 18, 17.875, 17.8125, 17.8125, 17.75, 17.625, 17.5625, 17.4375, 17.160713, 16.830357, 16.401785, 16.1875, 16.25, 16.375, 16.375, 16.3125, 16.125, 16, 16, 15.9375, 15.8125, 15.6875, 15.5, 15.3125, 15.1875, 15.125, 15.035714, 14.964286, 14.9375, 14.8125, 14.75, 14.5625, 14.366072, 14.0625, 14.0625, 13.895833, 13.645833, 13.645833, 13.625, 13.625, 13.5, 13.25, 13.125, 13, 13.1875, 13.3125, 13.241072, 12.833333, 12.758928, 12.544643, 12.4375, 12.3125, 12.0625, 12, 12, 12, 12, 12, 11.8125, 11.5625, 11.3125, 11.0625, 11, 11, 10.8125, 10.625, 10.4375, 10.25, 10.1875, 10.125, 10.0625, 10.133928, 10.15, 9.8660717, 9.6875, 9.4375, 9.375, 9.25, 9.125, 9.0625, 9, 9, 9, 9, 9.0625, 9.083333, 9, -10, -10, -10, -10, -10, -10, -10, -10, 25.944445, 25.895834, 25.760416, 25.6875, 25.5, -10, 24.674601, 24.833332, 25, 25.0625, 24.924107, 24.916666, 24.9375, 24.9375, 25, 24.741072, 24.4375, 24.3125, 24.1875, 24.1875, 24.196428, 24.467262, 24.680059, 24.78125, 24.90625, 24.71875, 24.546875, 10, 10, 10, 10, 10, 10.535714, 12.291666, 12.607143, 12.440475, 11.425596, 10.75, 9.864583, 9.1592264, 8.4030609, 8.0918369, 7.8928571, 7.9285712, 8.125, 8.3125, 8.895833, 9.0982141, 9.3125, 9.25, 9.1875, 9.1875, 9.125, 9.1875, 9.1875, 9.1875, 9.4375, 9.625, 9.875, 10.21875, 10.53125, 10.758333, -10, -10, -10, 14.625, 14.708334, 14.96875, 15.111608, 15.21875, 15.28125, 15.125, 15.3125, 15.625, 15.72619, 15.416667, 15.25, 15.125, 15.3125, 15.3125, 15.3125, 15.125, 15.0625, 15.25, 15.401787, 15.416667, 15.392857, 15.3125, 15.4375, 15.5625, 15.616072, 15.505357, 15.732142, 15.741072, 15.9375, 16, 15.875, 15.75, 15.767857, 16.020834, 16.169643, 16.25, 16.125, 15.9375, 16, 16.125, 16.25, 16.3125, 16.25, 16.1875, 16.125, 16.1875, 16.25, 16.3125, 16.5, 16.5625, 16.6875, 16.8125, 16.875, 16.803572, 16.354168, 16.017857, 15.517857, 15.714286, 16.375, 16.776785, 17, 17.0625, 17, 17, 17, 17, 16.9375, 16.6875, 16.785715, 17.404762, 17.714285, 17.571428, 16.301588, 13.964286, 13.017858, 12.6875, 12.428572, 11.666667, 12.03125, 12.013393, 12.15625, 12.1875, 12.25, 12.25, 12.1875, 12.053572, 11.5, 11.232143, 10.9375, 10.8125, 10.821428, 11.071428, 11.071428, 11.595238, 11.632653, 11.607143, 12.125, 12.455357, 12.75, 12.9375, 13, 13.125, 13.375, 13.625, 13.875, 13.571428, 12.428571, 10.088435, 9.2827387, 8.9910717, 8.9375, 9, 8.8125, 8.6875, 8.625, 8.5, 8.625, 8.75, 8.8125, 8.9375, 9, 9, 9.125, 9.25, 9.4375, 9.5625, 9.625, 9.75, 9.75, 9.8125, 9.875, 9.7857141, 9.6875, 9.7142859, 9.8571434, 9.9821434, 10.0625, 10.0625, 9.9375, 10.125, 10.3125, 10.466667, -10, -10, -10, -10, -10, -10, -10, -10, -10, -10, -10, -10, -10, -10, -10, -10, -10, -10, -10, 23.625, 23.416668, 23.375, 23.25, 23.4375, 23.625, 23.625, 23.5625, 23.330357, 22.979166, 22.955357, 22.75, 22.5625, 22.375, 22.125, 22.0625, 22.0625, 22.0625, 22.0625, 22, 21.8125, 21.6875, 21.625, 21.4375, 21.4375, 21.375, 21.169643, 21, 20.9375, 20.875, 20.9375, 20.9375, 20.75, 20.5625, 20.3125, 20.125, 20, 19.8125, 19.625, 19.5, 19.4375, 19.375, 19.3125, 19.1875, 18.9375, 18.75, 18.6875, 18.5625, 18.5, 18.375, 18.1875, 18.0625, 18, 18, 18, 17.875, 17.8125, 17.8125, 17.8125, 17.75, 17.6875, 17.625, 17.285713, 16.892857, 16.419641, 16.1875, 16.25, 16.375, 16.375, 16.3125, 16.125, 16, 16, 15.9375, 15.8125, 15.75, 15.625, 15.4375, 15.3125, 15.1875, 15.035714, 14.964286, 14.9375, 14.8125, 14.6875, 14.4375, 14.25, 14.0625, 14, 13.9375, 13.9375, 13.9375, 13.875, 13.875, 13.625, 13.375, 13.1875, 13, 13.1875, 13.3125, 13.241072, 12.833333, 12.758928, 12.607143, 12.5625, 12.5, 12.25, 12.125, 12.0625, 12, 12, 12, 11.875, 11.625, 11.375, 11.125, 11, 11, 10.875, 10.75, 10.625, 10.375, 10.25, 10.125, 10, 10.133928, 10.15, 9.8660717, 9.6875, 9.4375, 9.3660717, 9.041667, 8.9553566, 8.9375, 8.9375, 9, 9, 9, 9, 9, 9, -10, -10, -10, -10, -10, -10, -10, -10, -10, 25.944445, 25.84375, 25.791666, 25.583334, 25.25, 24.818451, 24.770832, 24.875, 24.96875, 24.830357, 24.916666, 24.973213, 24.830357, 24.821428, 24.5625, 24.5, 24.4375, 24.375, 24.3125, 24.25, 24.196428, 24.385416, 24.53125, 24.71875, 24.697916, 24.5625, 10, 10, 10, 9.8928566, 9.7142859, 10.081633, 11.511904, 11.795918, 11.724489, 10.738096, 10.214286, 9.072917, 8.0926876, 7.5637751, 7.5803571, 7.5, 7.625, 7.8125, 8.0625, 8.46875, 8.6919641, 8.90625, 9.03125, 9, 9, 8.9375, 8.875, 8.875, 8.875, 9.125, 9.4375, 9.6875, 10.09375, 10.46875, 10.758333, -10, -10, -10, 14.5625, 14.604167, 14.78125, 14.825892, 15.09375, 15.125, 15.0625, 15.125, 15.3125, 15.395833, 15.229167, 15.125, 15.125, 15.3125, 15.375, 15.4375, 15.3125, 15.25, 15.3125, 15.294643, 15.229167, 15.205357, 15.1875, 15.3125, 15.4375, 15.491072, 15.55, 15.839286, 15.928572, 16.035713, 16, 15.982143, 15.8125, 15.955357, 16.145834, 16.294643, 16.375, 16.3125, 16.169643, 16.125, 16.3125, 16.285713, 16.3125, 16.3125, 16.25, 16.25, 16.375, 16.375, 16.3125, 16.5625, 16.625, 16.75, 16.9375, 16.875, 16.8125, 16.625, 16.25, 15.830357, 15.964285, 16.5, 16.857143, 17.0625, 17.0625, 17, 17, 17, 17, 16.9375, 16.6875, 16.785715, 17.404762, 17.410715, 17.088436, 15.996033, 13.836734, 12.767858, 12.330357, 11.991072, 11.357142, 11.65625, 11.700893, 11.84375, 11.84375, 11.875, 11.8125, 11.75, 11.75, 11.625, 11.5625, 11.375, 11.125, 11.133928, 11.25, 11.446428, 11.895833, 11.928572, 12.0625, 12.25, 12.5, 12.75, 12.9375, 13.0625, 13.1875, 13.4375, 13.6875, 13.875, 13.785714, 12.979591, 11.342857, 9.7312927, 8.9910717, 8.9375
-10, -10, -10, -10, -10, -10, 23.625, 23.500002, 23.375, 23.1875, 23.375, 23.5625, 23.6875, 23.6875, 23.392857, 22.979166, 22.892857, 22.625, 22.4375, 22.25, 22, 22, 22.125, 22.1875, 22.1875, 22.1875, 22, 21.875, 21.8125, 21.5625, 21.5, 21.375, 21.169643, 21, 20.9375, 20.875, 20.875, 20.8125, 20.5625, 20.375, 20.1875, 20.0625, 20.0625, 19.9375, 19.8125, 19.75, 19.625, 19.5, 19.375, 19.1875, 18.9375, 18.75, 18.6875, 18.625, 18.625, 18.5625, 18.375, 18.1875, 18.0625, 18, 18, 17.875, 17.8125, 17.8125, 17.8125, 17.8125, 17.8125, 17.8125, 17.535713, 17.142857, 16.607141, 16.3125, 16.1875, 16.25, 16.25, 16.1875, 16.125, 16, 16, 15.875, 15.75, 15.75, 15.6875, 15.5625, 15.4375, 15.25, 15.035714, 14.964286, 14.9375, 14.75, 14.5625, 14.3125, 14.125, 14, 14, 14, 14, 14, 13.9375, 13.875, 13.6875, 13.4375, 13.25, 13.0625, 13.125, 13.1875, 13.133928, 12.833333, 12.758928, 12.732143, 12.625, 12.5625, 12.3125, 12.125, 12.0625, 12, 12, 12, 11.9375, 11.75, 11.5, 11.25, 11.0625, 11, 10.9375, 10.875, 10.8125, 10.625, 10.4375, 10.25, 10.0625, 10.133928, 10.2125, 9.9285717, 9.75, 9.5625, 9.4910717, 9.166667, 9.0803566, 9, 8.9375, 9, 9, 9, 9, 9, 9, 9, -10, -10, -10, -10, -10, -10, -10, -10, -10, 25.760416, 25.760416, 25.5625, 25.333334, 25.005951, 24.854166, 24.875, 24.96875, 25, 25.125, 25.160713, 25.008928, 24.706844, 24.477678, 24.40625, 24.40625, 24.375, 24.3125, 24.25, 24.125, 24.15625, 24.3125, 24.4375, 24.722221, 10, 10, 10, 10, 9.7857141, 8.666667, 8.4523811, 8.8888884, 9.166667, 9.4642849, 9.4897966, 9.2063494, 8.0595236, 7.3779764, 7.0714283, 7.125, 7.125, 7.3125, 7.5625, 7.8125, 8.15625, 8.4375, 8.6875, 8.875, 8.96875, 9, 8.875, 8.75, 8.6875, 8.6875, 8.9375, 9.3125, 9.625, 10.03125, 10.40625, 10.708333, 12.666667, 13.285714, 14, 14.5, 14.583334, 14.71875, 14.700892, 14.90625, 14.9375, 14.9375, 14.9375, 15, 14.922619, 14.791667, 14.857143, 15, 15.25, 15.25, 15.25, 15.125, 15.125, 15.25, 15.232143, 15.104167, 15.017857, 15, 15.125, 15.3125, 15.491072, 15.6125, 15.964286, 16.053572, 16.035713, 15.9375, 15.919643, 15.8125, 16.017857, 16.083334, 16.133928, 16.25, 16.294643, 16.294643, 16.3125, 16.5, 16.410713, 16.375, 16.3125, 16.1875, 16.1875, 16.375, 16.375, 16.3125, 16.5625, 16.625, 16.8125, 17, 16.875, 16.6875, 16.5, 16.1875, 15.9375, 16.133928, 16.541666, 16.866072, 17.0625, 17.125, 17.0625, 17.0625, 17.0625, 17, 16.9375, 16.6875, 16.785715, 17.404762, 17.107143, 14.888888, 13.928571, 12.5, 12.330358, 11.830357, 11.491072, 11.0625, 11.21875, 11.388393, 11.71875, 11.90625, 12, 11.875, 11.6875, 11.5625, 11.4375, 11.4375, 11.375, 11.25, 11.383928, 11.625, 11.8125, 12.0625, 12, 12.125, 12.3125, 12.5625, 12.8125, 12.9375, 13.0625, 13.1875, 13.4375, 13.6875, 13.875, 14.0625, 13.5, 10.993196, 9.916667, 8.9910717, 8.875, 8.875, 8.8125, 8.9375, 8.9375, 8.9375, 9, 9, 9, 9.0625, 9.125, 9.1875, 9.25, 9.25, 9.25, 9.3214283, 9.645833, 9.7946434, 9.875, 9.875, 9.875, 9.8482141, 9.875, 9.9375, 9.9375, 10, 10, 10, 10.125, 10.375, 10.625, 10.833334, -10, -10, -10, -10, -10, -10, -10, -10, -10, -10, -10, -10, -10, -10, -10, -10, -10, -10, -10, 23.75, 23.666668, 23.5625, 23.4375, 23.5625, 23.6875, 23.75, 23.6875, 23.392857, 22.979166, 22.892857, 22.6875, 22.5, 22.3125, 22.0625, 22, 22.125, 22.125, 22.0625, 22.0625, 21.9375, 21.9375, 21.9375, 21.6875, 21.5, 21.3125, 21.107143, 20.9375, 20.9375, 20.875, 20.8125, 20.75, 20.5625, 20.375, 20.25, 20.125, 20.0625, 19.9375, 19.875, 19.875, 19.75, 19.625, 19.4375, 19.1875, 18.9375, 18.75, 18.6875, 18.625, 18.625, 18.625, 18.4375, 18.25, 18.125, 18, 18, 17.9375, 17.9375, 17.9375, 17.9375, 17.866072, 17.737499, 17.866072, 17.607143, 17.375, 16.848213, 16.5625, 16.3125, 16.25, 16.1875, 16.0625, 16.0625, 16, 16, 15.875, 15.6875, 15.625, 15.5625, 15.4375, 15.375, 15.1875, 14.9375, 14.9375, 14.875, 14.75, 14.625, 14.4375, 14.25, 14.125, 14.0625, 14, 14, 14, 13.9375, 13.8125, 13.625, 13.375, 13.1875, 13.0625, 13.0625, 13.0625, 13.0625, 13, 12.9375, 12.8125, 12.5625, 12.401786, 12.1875, 12.0625, 12.0625, 12, 12, 12, 11.9375, 11.75, 11.5, 11.25, 11.0625, 11, 11, 11, 11, 10.875, 10.625, 10.375, 10.125, 10.071428, 10.15, 9.9285717, 9.8571434, 9.75, 9.7410717, 9.354167, 9.2053566, 9.0625, 8.9375, 9, 9, 9, 9, 9, 9, 9, -10, -10, -10, -10, -10, -10, -10, -10, -10, 25.791666, 25.854166, 25.625, 25.375, 25.151787, 24.9375, 24.9375, 25, 25.0625, 25.25, 25.348213, 25.169643, 24.764881, 24.5, 24.205357, 24.267857, 24.25, 24.3125, 24.375, 24.3125, 24.3125, 24.416666, 24.416666, 10, 10, 10, 10, 10, 9.7142859, 8.4761906, 8.1020412, 8.1428576, 8.3469391, 8.6428566, 8.5918369, 7.9484124, 7.4489794, 7.0208335, 6.8214283, 6.875, 6.9375, 7.1875, 7.4375, 7.71875, 8, 8.21875, 8.40625, 8.5625, 8.59375, 8.6875, 8.5625, 8.4375, 8.4375, 8.5, 8.75, 9.125, 9.46875, 9.84375, 10.276786, 10.979166, 12.634921, 13.428571, 14.142858, 14.375, 14.354167, 14.375, 14.464286, 14.741072, 14.8125, 14.8125, 14.6875, 14.625, 14.547619, 14.479167, 14.669643, 14.875, 15.125, 15.0625, 15.0625, 15, 15, 15.125, 15.169643, 15.041667, 15.017857, 15, 15.0625, 15.25, 15.5, 15.875, 16.160713, 16.3125, 16.285713, 16.125, 16.107143, 16.0625, 16.1875, 16, 15.991072, 16.125, 16.339287, 16.482143, 16.4375, 16.5625, 16.410713, 16.25, 16.142857, 16.0625, 16.0625, 16.375, 16.575001, 16.383928, 16.642857, 16.625, 16.8125, 17, 16.875, 16.6875, 16.5, 16.25, 16.1875, 16.375, 16.625, 16.875, 17.0625, 17.125, 17.0625, 17.0625, 17.0625, 17, 16.875, 16.625, 16.714287, 17.380953, 16.803572, 14, 12.897959, 11.761905, 11.520409, 11.455357, 11.241072, 11.0625, 11.15625, 11.34375, 11.65625, 11.78125, 11.875, 11.75, 11.5, 11.375, 11.25, 11.25, 11.3125, 11.285714, 11.4375, 11.5625, 11.75, 12, 12, 12.1875, 12.4375, 12.6875, 12.9375, 13, 13.125, 13.3125, 13.5625, 13.8125, 13.9375, 14.125, 13.535715, 10.85034, 9.7380953, 8.8035717, 8.75
-10, -10, -10, -10, -10, -10, 23.75, 23.75, 23.6875, 23.5625, 23.625, 23.625, 23.625, 23.625, 23.428572, 23.041666, 22.955357, 22.6875, 22.5, 22.3125, 22.0625, 22, 22.125, 22.125, 22, 21.9375, 21.8125, 21.75, 21.75, 21.5625, 21.3125, 21.125, 21, 20.9375, 20.9375, 20.875, 20.75, 20.6875, 20.5625, 20.5, 20.375, 20.25, 20.125, 20, 19.9375, 19.875, 19.6875, 19.4375, 19.25, 19.0625, 18.9375, 18.875, 18.8125, 18.75, 18.6875, 18.625, 18.4375, 18.25, 18.125, 18, 18, 18, 18, 18, 18, 17.857143, 17.549999, 17.678572, 17.419643, 17.3125, 16.955357, 16.75, 16.5, 16.375, 16.3125, 16.1875, 16.25, 16.1875, 16.125, 15.9375, 15.625, 15.5, 15.5, 15.4375, 15.4375, 15.3125, 15, 14.9375, 14.9375, 14.875, 14.75, 14.5625, 14.3125, 14.125, 14.0625, 14, 14, 14, 14, 13.9375, 13.75, 13.5, 13.25, 13.0625, 13, 13, 13, 13, 13, 12.875, 12.625, 12.401786, 12.1875, 12.0625, 12.0625, 11.9375, 11.9375, 11.9375, 11.875, 11.75, 11.5, 11.25, 11.0625, 11, 11, 11, 11, 10.9375, 10.6875, 10.4375, 10.1875, 10, 10, 10, 10, 10, 9.9285717, 9.479167, 9.2678566, 9.0625, 8.875, 8.9642859, 9.0357141, 9, 9.0625, 9, 9, 9, 9, -10, -10, -10, -10, -10, -10, -10, -10, 25.875, 25.916666, 25.6875, 25.5, 25.25, 25, 25, 25.0625, 25.125, 25.25, 25.348213, 25.044643, 24.639881, 24.40625, 24.049107, 24.174107, 24.15625, 24.3125, 24.5, 24.5, 24.5, 24.388887, 10, 10, 10, 10, 10, 10, 9.6428576, 8.333334, 7.9285712, 7.75, 7.9910717, 8.395833, 8.4285717, 7.9970236, 7.2678571, 6.8125, 6.6875, 6.8125, 6.8125, 7.0625, 7.25, 7.5, 7.78125, 8, 8.1875, 8.375, 8.3794641, 8.4017859, 8.3125, 8.125, 8.1875, 8.3125, 8.5625, 8.9375, 9.28125, 9.59375, 10.071428, 11.229166, 12.547619, 13.321428, 13.982143, 14.1875, 14.09375, 14.0625, 14.116072, 14.428572, 14.625, 14.75, 14.625, 14.375, 14.276786, 14.375, 14.607143, 14.8125, 14.875, 14.75, 14.75, 14.8125, 14.875, 14.9375, 15.026786, 15.232143, 15.303572, 15.3125, 15.3125, 15.4375, 15.5625, 15.8125, 16.017857, 16.333334, 16.401785, 16.3125, 16.357143, 16.375, 16.5, 16.375, 16.241072, 16.25, 16.401787, 16.544643, 16.5, 16.625, 16.473213, 16.3125, 16.205357, 16.0625, 16.0625, 16.25, 16.450001, 16.383928, 16.642857, 16.6875, 16.875, 17, 16.875, 16.75, 16.625, 16.4375, 16.375, 16.5, 16.625, 16.8125, 17, 17, 17, 17, 17, 17, 16.8125, 16.5625, 16.642857, 17.440475, 16.875, 12.857142, 11.708333, 11.125, 11.125, 11.142857, 11.0625, 11.0625, 11.125, 11.3125, 11.5, 11.5625, 11.625, 11.5625, 11.375, 11.25, 11.017857, 11, 11.125, 11.196428, 11.4375, 11.625, 11.75, 12, 12, 12.25, 12.5, 12.75, 13, 13, 13.1875, 13.4375, 13.6875, 13.9375, 14, 13.910714, 12.89796, 10.047619, 9.0714283, 8.375, 8.5, 8.5, 8.625, 8.8125, 8.875, 9, 9, 9, 9, 9.0625, 9.125, 9.1875, 9.25, 9.375, 9.4375, 9.6339283, 10.020833, 10.044643, 10.125, 10.125, 10.0625, 10.0625, 10.0625, 10, 10, 10, 10.0625, 10.125, 10.375, 10.625, 10.8125, 11, -10, -10, -10, -10, -10, -10, -10, -10, -10, -10, -10, -10, -10, -10, -10, -10, -10, -10, -10, 23.875, 23.916666, 23.875, 23.6875, 23.6875, 23.625, 23.5, 23.5, 23.3125, 23.125, 23.125, 22.910713, 22.580357, 22.321428, 22.133928, 22.333334, 22.419643, 22.4375, 22.1875, 21.791666, 21.633928, 21.5, 21.5, 21.375, 21.1875, 21.0625, 21, 21.0625, 21.035713, 20.901787, 20.75, 20.625, 20.625, 20.625, 20.5625, 20.375, 20.1875, 19.9375, 19.8125, 19.6875, 19.4375, 19.25, 19.125, 19, 19, 19, 18.9375, 18.8125, 18.625, 18.5, 18.3125, 18.1875, 18.125, 18, 18, 18, 18, 18, 17.9375, 17.732143, 17.362499, 17.428572, 17.169643, 17.125, 16.9375, 16.75, 16.625, 16.5, 16.4375, 16.375, 16.357143, 16.104168, 16.017857, 15.875, 15.625, 15.5, 15.5, 15.375, 15.375, 15.3125, 15, 14.9375, 14.9375, 14.875, 14.75, 14.5625, 14.3125, 14.125, 14.0625, 14, 14, 14, 14, 13.9375, 13.75, 13.5, 13.25, 13.0625, 13, 13, 13, 13, 12.9375, 12.75, 12.4375, 12.151786, 12, 11.9375, 12, 11.9375, 11.875, 11.875, 11.75, 11.625, 11.5, 11.25, 11.125, 11, 10.9375, 10.9375, 10.9375, 11, 10.8125, 10.5625, 10.3125, 10.0625, 10, 10, 10, 10, 9.9375, 9.6875, 9.4375, 9.1875, 8.9375, 8.9642859, 9.0357141, 9, 9.0625, 9, 9, 9, 9, -10, -10, -10, -10, -10, -10, -10, -10, 25.875, 25.916666, 25.6875, 25.5, 25.25, 25, 25, 25.0625, 25.125, 25.1875, 25.3125, 25.089287, 24.693451, 24.46875, 23.986607, 24.049107, 24.09375, 24.3125, 24.5625, 24.6875, 24.6875, 9.5, 9.7777777, 9.875, 9.9375, 10, 10, 10, 9.6785717, 8.6333342, 8.4047623, 8.0089283, 8.1696434, 8.28125, 8.25, 7.8605447, 7.2559524, 6.75, 6.6875, 6.6875, 6.5625, 6.8125, 6.9375, 7.25, 7.6875, 7.9419641, 8.09375, 8.21875, 8.1294641, 8.1517859, 8.125, 8, 8, 8.125, 8.375, 8.7321434, 9.09375, 9.34375, 9.7589283, 10.907738, 12.255953, 13.071428, 13.732143, 14, 13.96875, 14, 14.044643, 14.178572, 14.4375, 14.5625, 14.625, 14.5, 14.464286, 14.5625, 14.732143, 14.875, 14.875, 14.75, 14.75, 14.8125, 14.875, 15, 15.089286, 15.357143, 15.491072, 15.5, 15.5625, 15.625, 15.6875, 15.875, 16.080357, 16.395834, 16.491072, 16.4375, 16.3125, 16.3125, 16.375, 16.3125, 16.178572, 16.1875, 16.276787, 16.5, 16.625, 16.6875, 16.5625, 16.375, 16.205357, 16.125, 16.125, 16.1875, 16.387501, 16.383928, 16.642857, 16.75, 16.9375, 17, 16.9375, 16.8125, 16.6875, 16.5625, 16.5, 16.625, 16.75, 16.875, 17, 16.9375, 16.9375, 16.9375, 16.9375, 17, 16.75, 16.5, 16.571428, 17.416666, 17.178572, 11.666666, 12.238095, 11.190475, 11.1875, 11, 11, 11, 11, 11.125, 11.25, 11.3125, 11.375, 11.375, 11.25, 11.125, 10.892857, 10.8125, 11, 11.196428, 11.5, 11.75, 11.8125, 12, 12, 12.1875, 12.4375, 12.6875, 12.875, 12.9375, 13.0625, 13.3125, 13.625, 13.875, 14, 13.910714, 12.028572, 9.9642859, 8.9285717, 8.25, 8.375
