-10, -10, -10, -10, -10, -10, 60.309521, 60.261902, 60.142857, 60.142857, 60.25, 60.6875, 60.857143, 61.07143, 60.964287, 60.67857, 60.5, 60.535713, 60.719387, 60.82143, 60.948978, 60.964287, 60.75, 60.8125, 60.9375, 60.8125, 60.8125, 60.75, 60.732143, 60.464287, 60.32143, 60.765308, 60.63393, 60.741074, 60.9375, 60.973213, 60.919643, 61, 61.275513, 61.44643, 61.44643, 61.410713, 61.30357, 61.07143, 60.887756, 61.291668, 61.336735, 61.464287, 61.57143, 61.5, 61.25, 61.1875, 61.0625, 60.875, 60.6875, 60.5625, 60.92857, 61.142857, 61.357143, 61.357143, 61.25, 61, 60.9375, 60.9375, 61.142857, 61.07143, 61.035713, 60.9375, 60.875, 60.875, 60.591835, 60.642857, 60.955357, 61.03125, 60.96875, 61, 61.07143, 61.265308, 61.459187, 61.67857, 61.714287, 61.535713, 61.3125, 61.125, 60.791668, 60.821426, 61.122448, 61.505951, 61.5, 61.270409, 61.357143, 61.25, 61.4375, 61.642857, 61.57143, 61.5, 61.125, 61.0625, 60.9375, 60.8125, 60.8125, 61.035713, 61.142857, 61.214287, 61.32143, 61.32143, 61.25, 60.714287, 60.642857, 60.875, 60.8125, 60.875, 60.9375, 61, 61.151787, 61.285713, 61.433674, 61.32653, 61.32143, 61.107143, 60.9375, 60.9375, 60.9375, 61, 60.857143, 60.737499, 60.794643, 60.75, 60.96875, 60.90625, 60.84375, 61.017857, 60.785713, 60.7449, 61.045921, 61.290813, 61.561226, 61.607143, 61.464287, 61.5, 61.5, 61.535713, 61.642857, 61.535713, 61.464287, 61.32143, 61.214287, 61.25, 61.25, 61.125, 61.1875, 61.125, 61.0625, 61.09375, 61.410713, 61.517857, 61.517857, 61.5, 61.42857, 61.375, 61.137756, 61.107143, 60.904762, 61.204082, 61.193878, 61.357143, 61.535713, 61.693878, 61.4375, 61.4375, 61.25, 61.1875, 61.25, 61.5, 61.642857, 61.4375, 61.3125, 61.125, 61.0625, 61.125, 61.25, 61.375, 61.25, 61, 61, 60.964287, 61.107143, 61.25, 61.32143, 60.9375, 61.142857, 60.875, 61.17857, 61.25, 61.25, 61.083332, 60.892857, 61.464287, 61.42857, 61.285713, 61.333332, 61, 61, 61.125, 61.25, 61.535713, 61.642857, 61.642857, 61.642857, 61.714287, 61.4375, 61.3125, 61.42857, 61.32143, 61.285713, 61.32143, 61.336735, 61.418369, 61.241074, 61, 61, 60.92857, 60.785713, 61.285713, 61.234692, 61.142857, 61.107143, 61, 61.142857, 61.357143, 61.5, 61.642857, 61.57143, 61.5, 61.42857, 61.285713, 61.214287, 61.07143, 61, 61, 60.92857, 60.625, 60.6875, 60.8125, 61.229591, 61.25, 61.214287, 61.142857, 60.9375, 61.0625, 61, 61, 61.357143, 61.357143, 61.25, 61.3125, 61.07143, 61.348213, 61.591835, 61.769386, 61.387756, 61.306122, 61.214287, 60.9375, 61, 61.125, 61.125, 61.464287, 61.535713, 61.464287, 61.459187, 61.314289, 61.204082, 60.92857, 60.82143, 60.5625, 60.8125, 61.125, 61.375, 61.67857, 61.67857, 61.607143, 61.464287, 61.1875, 61.125, 61.125, 61.0625, 60.9375, 60.875, 60.875, 60.982143, 61.285713, 61.42857, 61.42857, 61.32143, 61.15625, 61.09375, 60.90625, 61.142857, 61.17857, 60.9375, 61.0625, 60.785713, 60.642857, 61.035713, 60.92857, 60.92857, 60.92857, 61.035713, 61.142857, 61.142857, 61.17857, 60.9375, 61.142857, 61, 61, 61.080357, 61.160713, 61.17857, 60.830357, 60.82143, 60.714287, 60.5625, 60.625, 60.714287, 60.919643, 61.084824, 61.5, 61.57143, 61.607143, 61.25, 61.125, 61.0625, 61, 61, 61, 61.107143, 60.964287, 61.232143, 61.316666, -10, -10, -10, -10, -10, -10, -10, -10, -10, -10, -10, -10, -10, -10, -10, -10, -10, -10, -10, -10, -10, -10, -10, -10, -10, -10, -10, -10, -10, -10, -10, -10, -10, -10, -10, -10, -10, -10, -10, -10, -10, -10, 61.458332, 62.152775, 61.986111, 62, 61.958332, 61.92857, 62.193878, 62.285713, 62.214287, 61.892857, 61.637756, 61.714287, 61.633926, 61.6875, 61.75, 61.964287, 61.964287, 62, 61.875, 61.6875, 61.6875, 61.6875, 61.979591, 62.208332, 62.125, 61.857143, 61.589287, 61.625, 61.75, 61.8125, 61.901787, 62.07143, 62.459187, 62.57143, 62.57143, 62.392857, 62.125, 62.17857, 62.122448, 62.357143, 62.489799, 62.57143, 62.642857, 62.607143, 62.535713, 62.42857, 62.285713, 61.9375, 61.75, 61.92857, 62.035713, 62.142857, 62.32143, 62.25, 62.142857, 62.07143, 62, 62, 61.8125, 61.75, 61.92857, 61.92857, 62, 62.142857, 62.505951, 62.583332, 62.017857, 62.03125, 61.90625, 62.017857, 62.214287, 62.418369, 62.57143, 62.642857, 62.57143, 62.392857, 62.42857, 62.25, 61.904762, 62.010201, 62.193878, 62.397957, 62.42857, 62.341835, 62.357143, 62.464287, 62.57143, 62.3125, 62.392857, 62.285713, 62.107143, 62.07143, 62.035713, 61.8125, 61.875, 61.9375, 62, 62.0625, 62.1875, 62.464287, 62.42857, 62.5, 62.458332, 62.17857, 62.142857, 62.0625, 62.0625, 62.0625, 62.0625, 62.125, 62.160713, 62.151787, 62.25, 62.285713, 62.214287, 62.17857, 62.07143, 62.035713, 61.964287, 61.892857, 61.892857, 61.92857, 62.107143, 62.142857, 61.875, 61.964287, 61.520409, 61.744049, 62.387756, 62.479595, 62.67347, 62.67857, 62.57143, 62.57143, 62.57143, 62.607143, 62.642857, 62.3125, 62.1875, 62, 61.875, 62.17857, 62.25, 62.0625, 62.125, 62.125, 62.125, 62.392857, 62.535713, 62.535713, 62.464287, 62.392857, 62.285713, 62.142857, 62.122448, 62.07143, 61.952385, 62.17347, 62.204082, 62.32143, 62.25, 62.294643, 62.25, 62.125, 62.008926, 62.125, 62.125, 62.205357, 62.25, 62.357143, 62.0625, 61.9375, 61.9375, 62.0625, 62.25, 62.3125, 62.125, 61.875, 61.6875, 61.92857, 62.107143, 62.285713, 62.32143, 62.17857, 62.107143, 61.875, 62, 62.32143, 62.392857, 62.75, 62.75, 62.57143, 62.464287, 62.214287, 61.954082, 61.857143, 61.892857, 62.107143, 62.32143, 62.28125, 62.40625, 62.4375, 62.4375, 62.642857, 62.5, 62.357143, 62.0625, 62, 62, 62.133926, 62.3125, 62.3125, 62.57143, 62.583332, 62.5, 62.5, 62.5, 62.1875, 62.25, 62.160713, 61.955357, 61.892857, 62, 62.1875, 62.3125, 62.375, 62.3125, 62.3125, 62.25, 62.125, 62, 61.8125, 61.8125, 61.875, 61.875, 61.57143, 61.875, 62.142857, 62.336735, 62.392857, 62.32143, 61.9375, 61.8125, 61.8125, 61.875, 62, 62.125, 62.125, 62.1875, 62.357143, 62.5, 62.357143, 62.258926, 62.387501, 62.160713, 62.267857, 62.125, 62.017857, 61.9375, 62, 62, 62.32143, 62.392857, 62.0625, 62.0625, 62, 61.875, 61.6875, 61.5625, 61.5, 61.6875, 61.9375, 62.1875, 62.57143, 62.642857, 62.607143, 62.5, 62.392857, 62.357143, 62.32143, 62.17857, 62.056122, 61.875, 61.57143, 61.801022, 62.42857, 62.5, 62.464287, 62.17857, 62.066326, 62.229591, 61.959824, 62.09375, 62.09375, 61.96875, 62.214287, 62.458332, 62.458332, 62.285713, 62.214287, 62.107143, 61.875, 62.107143, 62.107143, 62.214287, 62.214287, 62.17857, 62, 62, 62.0625, 62.125, 61.857143, 61.785713, 61.642857, 61.75, 61.918369, 61.619049, 61.416668, 61.610119, 61.910717
-10, -10, -10, -10, -10, -10, -10, 62.533333, 62.845238, 62.857143, 62.82143, 62.964287, 63.061222, 63.07143, 63.035713, 62.785713, 62.433037, 62.53125, 62.660713, 62.6875, 62.75, 62.964287, 62.92857, 63, 63, 62.857143, 62.857143, 62.964287, 63.086735, 63.107143, 63.107143, 63, 62.959187, 62.92857, 62.92857, 62.857143, 62.92347, 63.260204, 63.530613, 63.67857, 63.67857, 63.25, 63.1875, 63.125, 63.25, 63.357143, 63.42857, 63.5, 63.642857, 63.714287, 63.67857, 63.57143, 63.392857, 63.214287, 63, 62.92857, 62.964287, 62.8125, 62.9375, 62.9375, 62.9375, 62.9375, 62.875, 62.875, 62.875, 62.8125, 62.8125, 62.75, 62.75, 63.107143, 63.2551, 63.285713, 63.091835, 63.107143, 63.035713, 63.107143, 63.357143, 63.5, 63.647957, 63.4375, 63.375, 63.25, 63.57143, 63.464287, 63.190479, 63.260201, 63.169643, 63.285713, 63.25, 63.080357, 63.285713, 63.42857, 63.535713, 63.3125, 63.25, 63.125, 63, 62.9375, 63.035713, 63.07143, 63.142857, 63.107143, 63.214287, 63.32143, 63.392857, 63.57143, 63.535713, 63.42857, 63.42857, 63.357143, 63.357143, 63.42857, 63.357143, 63.392857, 63.32653, 62.955357, 62.946426, 63.17857, 63.285713, 63.25, 63.214287, 63.107143, 63.035713, 62.75, 62.6875, 62.92857, 63, 63.07143, 63.17857, 63.107143, 62.964287, 63.102043, 63.380951, 63.476192, 63.586735, 63.596943, 63.714287, 63.714287, 63.642857, 63.642857, 63.57143, 63.5, 63.25, 63.125, 63.0625, 63, 62.714287, 63.125, 63.1875, 63.392857, 63.42857, 63.464287, 63.5, 63.607143, 63.714287, 63.607143, 63.3125, 63.25, 62.92857, 63.0625, 63.0625, 63, 62.9375, 63.25, 63, 63, 62.9375, 62.875, 62.875, 62.857143, 63.188774, 63.42857, 63.32143, 63.142857, 63.125, 63.0625, 63, 62.642857, 63.214287, 63.32143, 63.5, 63.535713, 63.125, 62.9375, 62.8125, 62.875, 63.0625, 63.42857, 63.464287, 63.357143, 63.285713, 63.214287, 63.32143, 63.464287, 63.535713, 63.67857, 63.607143, 63.607143, 63.5, 63.09375, 62.668369, 62.57143, 62.535713, 62.90625, 63.0625, 63.15625, 63.34375, 63.642857, 63.57143, 63.3125, 63.125, 63, 62.875, 62.875, 62.9375, 63.071426, 63.535713, 63.5, 63.607143, 63.42857, 63.357143, 63.42857, 63.42857, 63.464287, 63.535713, 63.433674, 63.198978, 63.163265, 63.25, 63.357143, 63.1875, 63.125, 63, 63, 63, 63.214287, 63.25, 62.773808, 63.030613, 63.142857, 63.142857, 63.458332, 63.25, 63.357143, 63.418365, 63.392857, 63.32143, 63.142857, 63.035713, 62.75, 63.07143, 63.17857, 63.285713, 63.285713, 63.42857, 63.464287, 63.357143, 63.32143, 63, 63, 62.964287, 63.397957, 63.42857, 63.306122, 63.214287, 63.25, 63.0625, 63.1875, 63.25, 62.857143, 62.785713, 62.714287, 62.642857, 62.75, 62.625, 62.714287, 62.625, 62.875, 63.125, 63.375, 63.4375, 63.4375, 63.607143, 63.57143, 63.5, 63.392857, 63.17857, 63.091835, 63.107143, 63.25, 63.529758, 63.392857, 63.3125, 63.375, 62.857143, 62.709187, 63.138393, 63.346943, 63.42857, 63.42857, 63.25, 63.25, 63.25, 63.285713, 63.392857, 63.32143, 63.17857, 63.07143, 63, 62.8125, 62.9375, 63, 63.142857, 63.142857, 63.107143, 63.035713, 63.07143, 63.291668, 63.375, 63.416668, 63.458332, 63.204082, 62.333336, 62.261906, 63.05442, 63.255104, 63.311226, 63.285713, 62.9375, 62.875, 62.8125, 62.92857, 62.857143, 62.625, 62.6875, 62.723213, 62.651787, 62.6875, 62.857143, 63.142857, -10, -10, -10, -10, -10, -10, -10, -10, -10, -10, -10, -10, -10, -10, -10, -10, -10, -10, -10, -10, -10, -10, -10, -10, -10, -10, -10, -10, -10, -10, -10, -10, -10, -10, -10, -10, -10, -10, -10, -10, -10, -10, -10, -10, 63.708332, 63.666664, 63.625, 63.75, 63.785713, 63.8125, 63.607143, 63.59375, 63.495537, 63.839287, 63.862244, 63.82143, 63.816326, 63.892857, 63.723213, 63.84375, 63.90625, 64.035713, 64.14286, 64.285713, 64.10714, 64.0625, 64, 64.10714, 64.051018, 64.035713, 64.035713, 63.892857, 63.908165, 64.234695, 64.428574, 64.5, 64.5, 64.321426, 64.35714, 64.39286, 64.35714, 64.321426, 64.285713, 64.0625, 64.1875, 64.428574, 64.428574, 64.39286, 64.35714, 64.25, 64.071426, 64.071426, 63.8125, 63.875, 63.714287, 64, 64.0625, 64.321426, 64.285713, 64.285713, 64.178574, 64, 63.92857, 63.785713, 63.625, 63.8125, 64.035713, 64.125, 64.01786, 64.0625, 64, 64.285713, 64.464287, 64.375, 64.410713, 64.3125, 64.25, 64.35714, 64.3125, 64.428574, 64.309525, 64.32653, 64.346939, 64.321426, 64.0625, 63.9375, 64, 64.1875, 64.3125, 64.535713, 64.39286, 64.178574, 64.071426, 63.8125, 63.75, 64.035713, 64.178574, 64.214287, 64.35714, 64.464287, 64.5, 64.678574, 64.375, 64.25, 64.1875, 64.25, 64.35714, 64.5, 64.535713, 64.60714, 64.505104, 64.306122, 64.224487, 64.321426, 64.1875, 64.125, 64.0625, 63.8125, 63.625, 63.5, 63.375, 63.508926, 64.023811, 63.919643, 64, 63.9375, 63.8125, 64.244896, 64.43367, 64.479591, 64.704079, 64.602043, 64.571426, 64.571426, 64.535713, 64.60714, 64.60714, 64.241074, 64.050003, 64.053574, 64.204086, 64.25, 64.5, 64.39286, 64.39286, 64.464287, 64.5, 64.571426, 64.678574, 64.714287, 64.785713, 64.64286, 64.464287, 64.321426, 64.375, 64, 64.10714, 64.10714, 64.10714, 64.25, 64, 64, 63.67857, 63.714287, 63.785713, 63.836735, 64.438774, 64.60714, 64.464287, 64.377548, 64.125, 64.125, 64.321426, 64.583336, 64.428574, 64.5, 64.60714, 64.535713, 64.285713, 64.10714, 63.92857, 64.035713, 64.285713, 64.39286, 64.5, 64.464287, 64.464287, 64.5, 64.571426, 64.60714, 64.535713, 64.375, 64.3125, 64.34375, 64.28125, 64.339287, 64.473213, 64.375, 64.25, 63.78125, 63.901787, 64.147324, 64.523811, 64.556122, 64.484695, 64.1875, 64.09375, 64.03125, 63.84375, 64.035713, 64.10714, 64.188774, 64.5, 64.39286, 64.25, 64.125, 64.125, 64.428574, 64.5, 64.535713, 64.64286, 64.57653, 64.377548, 64.448982, 64.464287, 64.428574, 64.428574, 64.285713, 64.178574, 64.178574, 64, 64.285713, 64.35714, 64.589287, 64.31633, 64.428574, 64.35714, 64.428574, 64.321426, 64.285713, 64.25, 64, 64.214287, 64.10714, 64.071426, 64.375, 64.178574, 64.321426, 64.428574, 64.428574, 64.535713, 64.571426, 64.3125, 64.3125, 63.82143, 63.75, 64.367348, 64.571426, 64.60714, 64.448982, 64.285713, 64.214287, 64.14286, 64.178574, 64.178574, 64.25, 64.291664, 64.333336, 64.416664, 64.178574, 64.035713, 63.892857, 63.857143, 63.92857, 64.178574, 64.428574, 64.571426, 64.64286, 64.64286, 64.64286, 64.375, 64.3125, 64.125, 64.080353, 64.39286, 64.285713, 64.39286, 64.35714, 64.39286, 64.5, 64.625, 64.58036, 64.426018, 64.471939, 64.553574, 64.535713, 64.464287, 64.15625, 64.09375, 64.0625, 64.0625, 64.285713, 64.25, 64.14286, 63.8125, 63.75, 63.8125, 63.875, 64.10714, 64.10714, 64.10714, 63.8125, 63.8125, 64.071426, 64.071426, 64.214287, 64.285713, 64.346939, 64.361115, 64.31945, 64.360542, 64.551018
-10, -10, -10, -10, -10, -10, -10, -10, 64.111107, 64.05555, 64.6875, 64.770836, 64.848213, 64.723213, 64.81633, 64.64286, 64.515305, 64.678574, 64.627548, 64.446426, 64.539291, 64.517853, 64.566963, 64.839287, 65.053574, 65.125, 65.339287, 65.464287, 65.464287, 65.35714, 65.25, 65.25, 65.25, 65.25, 65.0625, 64.90625, 64.84375, 64.995537, 65.129463, 65.1875, 65.25, 65.125, 65.428574, 65.428574, 65.321426, 65.0625, 65, 65, 65.125, 65, 65, 65, 65.25, 65.1875, 65, 64.9375, 65, 64.964287, 65.208336, 65.14286, 65.214287, 65.285713, 65.285713, 65.214287, 65.214287, 65.071426, 65, 64.85714, 64.5625, 64.6875, 64.875, 65, 65.25, 65.285713, 65.178574, 65.25, 65.285713, 65.321426, 65.39286, 65.35714, 65.39286, 65.464287, 65.428574, 65.35714, 65.35714, 65.35714, 65.35714, 65.285713, 64.875, 64.6875, 64.75, 64.9375, 65.321426, 65.5, 65.39286, 65.285713, 65.214287, 65, 64.78125, 64.90625, 65.03125, 65.15625, 65.535713, 65.535713, 65.464287, 65.571426, 65.1875, 65.0625, 65, 64.875, 65, 65.125, 65.1875, 65.535713, 65.540817, 65.448982, 65.438774, 65.464287, 65.5, 65.25, 65.125, 64.571426, 64.321426, 64.14286, 64.035713, 64.446426, 65.095238, 65.122452, 65.25, 65.214287, 65.14286, 65.214287, 65.410713, 65.64286, 65.5625, 65.4375, 65.3125, 65.3125, 65.3125, 65.4375, 65.785713, 65.428574, 64.842857, 65.418373, 65.382652, 65.571426, 65.678574, 65.714287, 65.60714, 65.5, 65.39286, 65.39286, 65.464287, 65.464287, 65.5, 65.464287, 65.428574, 65.39286, 65.35714, 64.916664, 65.285713, 65.214287, 65.14286, 65.178574, 65.10714, 65.178574, 65.5, 65.625, 65.666664, 65.738098, 65.612244, 65.714287, 65.60714, 65.510201, 65.464287, 65.428574, 65.5, 65.571426, 65.60714, 65.64286, 65.678574, 65.535713, 65.285713, 65.10714, 64.928574, 65.071426, 65.321426, 65.428574, 65.571426, 65.571426, 65.60714, 65.678574, 65.64286, 65.60714, 65.3125, 65.25, 65.25, 65.3125, 65.535713, 65.464287, 65.387756, 65.214287, 65, 64.839287, 64.714287, 65.293373, 65.302086, 65.392853, 65.267853, 65.0625, 65.178574, 65.14286, 65.10714, 65.25, 65.35714, 65.32653, 65.3125, 65.1875, 65.1875, 64.85714, 65.0625, 65.35714, 65.35714, 65.321426, 65.25, 65.223213, 65.367348, 65.438774, 65.428574, 65.35714, 65.285713, 65.178574, 65.178574, 65.214287, 65.285713, 65.35714, 65.39286, 65.397957, 65.352043, 65.5, 65.39286, 65.25, 65.0625, 65, 65, 65, 64.89286, 64.821426, 65.083336, 65.5, 65.39286, 65.5, 65.5, 65.428574, 65.428574, 65.35714, 65.285713, 65.35714, 65.5, 65.458336, 65.469383, 65.571426, 65.60714, 65.581627, 65.464287, 65.39286, 64.785713, 64.785713, 65, 65.14286, 65.14286, 65.14286, 65.214287, 65.214287, 65.14286, 65.071426, 65.071426, 64.833336, 65.25, 65.35714, 65.39286, 65.39286, 65.39286, 65.39286, 65.39286, 65.321426, 65.285713, 65.367348, 65.428574, 65.25, 65.25, 65.125, 65.0625, 65.35714, 65.428574, 65.408165, 65.418373, 65.387756, 65.258926, 65.356247, 65.385201, 65.242348, 64.90625, 64.9375, 65.0625, 65.125, 65.125, 65.0625, 65.14286, 65.035713, 64.8125, 64.875, 64.9375, 64.9375, 65, 64.9375, 64.9375, 65, 64.9375, 65, 65, 65.053574, 65.166672, 65.166672, 65.404762, 65.530617, 65.535713, 65.625, 65.458336, 65.25, 64.928574, 64.85714, 64.85714, 64.785713, 65, 65.112244, 65.030617, 65.285713, 65.34864, -10, -10, -10, -10, -10, -10, -10, -10, -10, -10, -10, -10, -10, -10, -10, -10, -10, -10, -10, -10, -10, -10, -10, -10, -10, -10, -10, -10, -10, -10, -10, -10, -10, -10, -10, -10, -10, -10, -10, -10, -10, -10, -10, -10, -10, -10, -10, 65.928574, 66, 66.005104, 65.897957, 65.959183, 65.89286, 65.25, 65.39286, 65.280617, 65.300591, 65.262497, 65.111603, 65.160713, 65.296875, 65.694199, 66.176018, 66.375, 66.464287, 66.39286, 66.321426, 66.285713, 66.285713, 66.25, 66.178574, 66.214287, 66.14286, 66.14286, 66.03125, 66.03125, 66.0625, 66.0625, 66, 66.0625, 66.125, 66.0625, 65.9375, 65.875, 66.071426, 66.10714, 66.416664, 66.416664, 66.333336, 66.25, 66.214287, 66.10714, 66.071426, 65.928574, 65.928574, 66.071426, 66.178574, 66.0625, 66.1875, 66.1875, 66.125, 66.0625, 65.875, 65.75, 65.89286, 65.785713, 65.928574, 66.14286, 66.214287, 66.428574, 66.39286, 66.321426, 66.125, 66.125, 65.928574, 66.25, 66.25, 66.25, 66.428574, 66.1875, 66.125, 66.1875, 66.25, 66.1875, 66.125, 65.9375, 65.6875, 65.75, 65.8125, 66, 66.25, 66.25, 66.39286, 66.352043, 66.336739, 66.035713, 66.083336, 66.464287, 66.464287, 66.464287, 66.39286, 66.125, 66.1875, 66, 65.9375, 65.8125, 65.625, 65.75, 65.875, 66.044647, 66.25, 66.285713, 66.367348, 66.32653, 66.321426, 66.39286, 66.39286, 66.39286, 66.5, 66.25, 66.041664, 65.833336, 65.617348, 66.023811, 66.051018, 66.214287, 66.25, 66.214287, 66.39286, 66.5, 66.464287, 66.571426, 66.5, 66.125, 66.125, 66.125, 66.5, 66.821426, 66.775513, 66.825005, 66.668373, 66.561226, 66.75, 66.821426, 66.821426, 66.678574, 66.34375, 66.25, 66, 66.071426, 66.071426, 66.071426, 66.25, 66.1875, 66.0625, 66.14286, 66.208336, 66.10714, 66.10714, 65.875, 65.9375, 65.9375, 66.321426, 66.535713, 66.60714, 66.64286, 66.704086, 66.678574, 66.64286, 66.535713, 66.5, 66.5, 66.571426, 66.678574, 66.714287, 66.714287, 66.714287, 66.64286, 66.3125, 66.125, 66, 65.64286, 66, 66.125, 66.125, 66.35714, 66.428574, 66.571426, 66.714287, 66.5, 66.4375, 66.3125, 66.25, 66.464287, 66.535713, 66.60714, 66.60714, 66.375, 66.1875, 65.9375, 65.6875, 65.714287, 66.275513, 66.416672, 66.448982, 66.270409, 66.071426, 66.14286, 66.214287, 66.285713, 66.464287, 66.535713, 66.464287, 66.28125, 66.285713, 66.214287, 66.5, 66.321426, 66.25, 66.25, 65.928574, 65.928574, 65.928574, 66.25, 66.3125, 66.3125, 66.178574, 66.037498, 66.083336, 65.875, 66.188774, 66.25, 66.35714, 66.169647, 66.014877, 65.943451, 66.125, 66, 66, 65.75, 65.6875, 65.75, 66.122452, 66.625, 66.708336, 66.75, 66.571426, 66.39286, 66.39286, 66.39286, 66.25, 66.3125, 66.178574, 66.125, 66.125, 66.464287, 66.5, 66.571426, 66.464287, 66.25, 66.35714, 66.285713, 66.25, 66.458336, 66.458336, 66.03125, 66, 66, 66.0625, 66.125, 66.0625, 66, 66.178574, 66.178574, 66.5, 66.321426, 66.1875, 66.25, 66.035713, 66.035713, 66.035713, 66.035713, 66.125, 66.39286, 66.464287, 66.464287, 66.535713, 66.428574, 66.35714, 66.125, 66.1875, 66.3125, 66.3125, 66.25, 66.25, 66.258926, 66.324997, 66.196426, 66.071426, 66.10714, 66.178574, 66.14286, 66.14286, 66.214287, 66.10714, 66.071426, 66, 66, 66.035713, 66.10714, 66.178574, 66.25, 66.214287, 66.214287, 66.14286, 65.964287, 65.8125, 65.75, 65.875, 65.9375, 65.9375, 66.125, 66.1875
-10, -10, -10, -10, -10, -10, -10, -10, -10, -10, 66.964287, 67, 67.020409, 66.93367, 66.959183, 66.928574, 67.020836, 67.0625, 66.883934, 66.238091, 66.01429, 65.859695, 65.987244, 66, 66.600449, 66.810272, 66.984375, 67.125, 67.0625, 67, 67.14286, 67.214287, 67.178574, 67.10714, 67.178574, 67.178574, 67.25, 67.35714, 67.285713, 67.25, 67.25, 66.9375, 66.785713, 67.125, 67.125, 67.285713, 67.178574, 67.14286, 67.071426, 67.14286, 67.285713, 67, 67.270409, 67.270409, 67.178574, 67, 66.875, 66.8125, 66.9375, 67, 67.125, 67.25, 67.25, 67.1875, 67.1875, 66.75, 66.60714, 66.875, 67.071426, 67.14286, 67.25, 67.214287, 67.39286, 67.1875, 67.1875, 67.3125, 67.3125, 67.833336, 67.60714, 67.5, 67.35714, 67.35714, 67.214287, 67.214287, 67.285713, 67.285713, 67.214287, 67.14286, 67.10714, 67, 67.10714, 66.9375, 67.0625, 67.25, 67.464287, 67.5, 67.494896, 67.551018, 67.842262, 67.854164, 67.571426, 67.535713, 67.1875, 67.0625, 67, 66.9375, 66.8125, 66.75, 66.625, 66.375, 66.464287, 66.732147, 66.973213, 67.1875, 67.1875, 67.1875, 67.1875, 67.1875, 67.3125, 67.3125, 67.571426, 67.571426, 67.35714, 67.178574, 67, 66.630951, 66.666672, 66.693878, 67.125, 67.428574, 67.35714, 67.1875, 67.25, 67.1875, 67.3125, 67.25, 67, 67, 66.9375, 67.1875, 67.785713, 67.81633, 67.814285, 67.81633, 67.67347, 67.714287, 67.678574, 67.60714, 67.5, 67.35714, 67.25, 67.375, 67.333336, 67.333336, 67.416664, 67.125, 67.125, 66.785713, 66.714287, 66.60714, 66.693878, 66.714287, 66.758926, 66.821426, 67, 67.178574, 67.25, 67.3125, 67.375, 67.4375, 67.4375, 67.375, 67.3125, 67.3125, 67.25, 67.3125, 67.571426, 67.571426, 67.64286, 67.714287, 67.4375, 67.535713, 67.428574, 67.321426, 67.5, 67.321426, 67.35714, 66.89286, 66.948982, 67.214287, 67.375, 67.4375, 67.5, 67.64286, 67.571426, 67.535713, 67.60714, 67.571426, 67.535713, 67.428574, 67.285713, 67.178574, 67, 66.85714, 66.908165, 66.928574, 67.083336, 67.053574, 66.785713, 66.571426, 66.65625, 66.84375, 67.318878, 67.48214, 67.5, 67.39286, 67.35714, 67.25, 67.214287, 67.321426, 67.321426, 67.428574, 67.464287, 67.625, 67.625, 67.625, 67.464287, 67.5, 67.5, 67.178574, 67.037498, 67.345238, 66.714287, 67.071426, 67.0625, 67.125, 67.044647, 66.654762, 66.654762, 67, 66.875, 66.75, 66.5, 66.4375, 66.625, 67.193878, 67.464287, 67.535713, 67.464287, 67.428574, 67.285713, 67, 66.964287, 67.0625, 67.336739, 67.116074, 67.1875, 67.25, 67.375, 67.34375, 67.375, 67.1875, 67.125, 67.0625, 66.9375, 66.90625, 67.178574, 67.25, 67.25, 67.285713, 67.178574, 67.14286, 67.035713, 66.8125, 66.8125, 67, 67.10714, 67.214287, 67.178574, 67.214287, 67.321426, 67.666664, 67.75, 67.75, 67.791664, 67.25, 67.3125, 67.375, 67.3125, 67.535713, 67.35714, 67.214287, 67.214287, 67.25, 67.25, 67.25, 67.321426, 67.25, 67.260201, 67.407143, 67.196426, 67.403061, 67.214287, 67.25, 67.14286, 67.035713, 66.875, 66.875, 66.9375, 66.875, 67.10714, 67.035713, 67.035713, 67.10714, 67.178574, 67.178574, 67.178574, 67.178574, 67.071426, 67.035713, 66.75, 66.8125, 66.8125, 66.8125, 66.9375, 67.0625, 67.25, 67.375, 67.3125, 67.125, 66.9375, 66.8125, 66.8125, 66.5, 67, 67.1875, 67.125, 67.291664, 66.777771, -10, -10, -10, -10, -10, -10, -10, -10, -10, -10, -10, -10, -10, -10, -10, -10, -10, -10, -10, -10, -10, -10, -10, -10, -10, -10, -10, -10, -10, -10, -10, -10, -10, -10, -10, -10, -10, -10, -10, -10, -10, -10, -10, -10, -10, -10, -10, 67.333336, 67.5, 67.599998, 67.744049, 68.112251, 67.895836, 67.8125, 67.8125, 67.675598, 67.436501, 68.157143, 68.074402, 68.125, 67.96875, 67.631699, 67.568878, 67.696426, 68.0625, 67.785713, 67.785713, 67.785713, 68.125, 68.0625, 67.875, 67.767853, 67.78125, 67.84375, 68.196426, 68.196426, 68.214287, 68.25, 68.25, 68.625, 68.35714, 68.321426, 68.25, 68.178574, 68.285713, 68.0625, 68.089287, 68.25, 68.583336, 68.205353, 68.142853, 68, 68.214287, 68.10714, 68.071426, 68.214287, 68.178574, 68.25, 68.321426, 68.321426, 68.35714, 68.464287, 68.666664, 68.708336, 68.75, 68.428574, 68.464287, 68.35714, 68, 68.0625, 68.14286, 68.178574, 68.39286, 68.5, 68.64286, 68.75, 68.64286, 68.25, 68.1875, 68, 68.14286, 68.14286, 67.9375, 67.875, 67.8125, 68.10714, 68.14286, 68.285713, 68.285713, 68.321426, 68.428574, 68.5, 68.60714, 68.637756, 68.693878, 68.721939, 68.660713, 68.446426, 68.15625, 68, 67.8125, 67.6875, 67.5625, 67.517853, 67.708336, 67.669647, 67.265305, 67.377556, 68.21769, 68.231285, 68.341835, 68.285713, 68.25, 68.0625, 68.0625, 68.35714, 68.5, 68.64286, 68.64286, 68.535713, 68.428574, 68.321426, 68.541664, 68.583336, 68.583336, 68.464287, 68.535713, 68.39286, 68.125, 68.0625, 67.9375, 68.0625, 68.125, 68, 68.0625, 68.0625, 68.25, 68.5, 68.5, 68.5, 68.4375, 68.571426, 68.4375, 68.46875, 68.40625, 68.3125, 68.125, 68.285713, 68.25, 68.214287, 68, 68.35714, 68.321426, 68.285713, 68.458336, 68.458336, 68.25, 68.352043, 68.625, 67.946426, 68.188774, 67.64286, 68, 68.0625, 68, 68.0625, 68.1875, 68.25, 68.25, 68.125, 68.0625, 68, 68.125, 68.25, 68.3125, 68.4375, 68.714287, 68.571426, 68.464287, 68.35714, 68.25, 68.285713, 68.25, 68.285713, 68.583336, 68.630951, 68.276787, 68.571426, 68.375, 68.678574, 68.678574, 68.678574, 68.678574, 68.714287, 68.375, 68.25, 68.0625, 67.875, 68.035713, 67.85714, 67.785713, 67.821426, 67.75, 67.9375, 68.035713, 67.556122, 67.367348, 67.5, 67.704086, 68.148811, 68.267853, 68.25, 68.21875, 68.1875, 68.0625, 68.0625, 68.125, 68.09375, 68.39286, 68.35714, 68.367348, 68.51429, 68.448982, 68.535713, 68.484695, 68.729591, 68.647964, 68.542854, 68.523811, 68.375, 68.224487, 68, 68.125, 68.336739, 68.402779, 68.319443, 68.14286, 67.875, 67.8125, 67.39286, 67.428574, 67.64286, 67.979591, 68.4375, 68.4375, 68.375, 68.3125, 68.1875, 67.785713, 67.67347, 67.785713, 68.372452, 68.275513, 68.35714, 68.321426, 68.5, 68.535713, 68.464287, 68.0625, 67.9375, 67.875, 67.883926, 68.09375, 68.15625, 68.21875, 68.285713, 68.285713, 68.10714, 68.071426, 67.928574, 67.5625, 67.625, 67.75, 67.9375, 68.125, 67.85714, 68.125, 68.464287, 68.571426, 68.64286, 68.571426, 68.535713, 68.321426, 68.35714, 68.464287, 68.464287, 68.375, 68.25, 67.85714, 68.321426, 68.25, 68.285713, 68.214287, 68.14286, 68.10714, 67.946426, 68.137497, 68.397957, 68.540817, 68.39286, 68.35714, 68, 67.8125, 67.8125, 67.875, 68, 68, 68.14286, 67.8125, 67.75, 67.875, 67.9375, 67.9375, 68, 67.9375, 68.071426, 68.10714, 68, 68.071426, 68.071426, 68.071426, 68.10714, 67.8125
-10, -10, -10, -10, -10, -10, -10, -10, -10, -10, -10, 67.888885, 68.328568, 68.791672, 68.928574, 69.291664, 69.291664, 69.291664, 69.327385, 69.277779, 69.234695, 69.26786, 69.26786, 69.160713, 69.137756, 69.446434, 69.458336, 69.285713, 69.541664, 69.458336, 69.416664, 69.285713, 69.214287, 69.10714, 68.466835, 68.553574, 68.696426, 68.910713, 68.928574, 68.928574, 69.25, 69.632652, 69.476189, 69.413261, 69.35714, 69.0625, 69, 69.285713, 69.25, 69.209183, 69.321426, 69.214287, 69.321426, 69.25, 69.178574, 69.178574, 69.14286, 69.14286, 69.25, 69.178574, 69.14286, 69, 69.0625, 69.125, 69.428574, 69.464287, 69.5, 69.535713, 69.464287, 69.428574, 69.178574, 68.875, 68.9375, 68.9375, 69.0625, 69.3125, 69.375, 69.5, 69.714287, 69.5, 69.39286, 69.285713, 69.214287, 68.821426, 68.85714, 68.89286, 68.821426, 68.714287, 69.0625, 69.214287, 69.285713, 69.321426, 69.39286, 69.5, 69.60714, 69.678574, 69.693878, 69.482147, 69.428574, 69.3125, 69.0625, 69, 68.875, 68.571426, 68.571426, 68.464287, 68.484695, 68.902779, 69.193878, 69.369049, 69.577385, 69.503403, 69.455788, 69.448982, 69.285713, 69.25, 69.214287, 69.285713, 69.464287, 69.5, 69.535713, 69.25, 69.39286, 69.428574, 69.464287, 69.5, 69.428574, 69.428574, 69.464287, 69.571426, 69.5, 69.35714, 69.0625, 68.64286, 68.785713, 69.0625, 69.178574, 69.178574, 69.10714, 69.285713, 69.160713, 69.017853, 69.041664, 69.208336, 69.303574, 69.375, 69.571426, 69.5, 69.21875, 69.15625, 69.09375, 69.03125, 69, 69.333336, 69.285713, 69.25, 69.214287, 69.214287, 69.10714, 69.10714, 69.209183, 69.35714, 69.224487, 69.331627, 69.583336, 69.321426, 69.125, 68.9375, 68.96875, 69.09375, 69.15625, 69.15625, 69, 68.875, 68.8125, 69, 69.1875, 69.3125, 69.571426, 69.571426, 69.39286, 69.125, 69.125, 69.125, 69, 68.928574, 69.125, 69.39286, 69.32653, 69.280617, 69.428574, 69.39286, 69.5, 69.571426, 69.571426, 69.64286, 69.714287, 69.375, 69.25, 69.125, 68.714287, 68.714287, 68.571426, 68.5, 68.464287, 68.8125, 68.9375, 69.18367, 69.386902, 69.380951, 69.583336, 69.684525, 69.211311, 69.267853, 69.25, 69.21875, 69.1875, 69.0625, 69.0625, 69.125, 69.15625, 69.28125, 69.28125, 69.321426, 69.449997, 69.392853, 69.4375, 69.392853, 69.836739, 69.795921, 69.771431, 69.690475, 69.428574, 69.397957, 69.25, 69.285713, 69.275513, 69.166664, 69.166664, 69.14286, 69.071426, 69.071426, 69.333336, 69.5, 69.583336, 69.654762, 69.39286, 69.285713, 69.214287, 69.178574, 69.14286, 69.291664, 69.351189, 69.541664, 69.294647, 69.241074, 69.3125, 69.5, 69.60714, 69.625, 69.535713, 69.35714, 69.25, 68.833336, 69.153061, 69.375, 69.410713, 69.48214, 69.329086, 68.9375, 68.8125, 68.75, 68.6875, 68.625, 68.75, 68.875, 69.091835, 69.117348, 69.375, 69.321426, 69.428574, 69.4375, 69.5, 69.4375, 69.366074, 69.050003, 69.178574, 69.169647, 69.39286, 69.428574, 69.35714, 69.583336, 69.25, 69.1875, 69.1875, 68.85714, 68.785713, 68.785713, 69.0625, 69.0625, 69.321426, 69.39286, 69.285713, 69.10714, 68.85714, 68.698982, 68.916672, 69.132652, 69.285713, 69.214287, 69.10714, 68.89286, 68.625, 68.75, 68.8125, 68.875, 68.9375, 68.875, 69.10714, 69.10714, 69.14286, 69.285713, 69.285713, 69.35714, 69.321426, 69.178574, 68.901787, 69.0625, 69.098213, 69.0625, 69.0625, 68.64286, 69.178574, 69.178574, 68.90625, 68.96875, 68.9375, 69.020828, -10, -10, -10, -10, -10, -10, -10, -10, -10, -10, -10, -10, -10, -10, -10, -10, -10, -10, -10, -10, -10, -10, -10, -10, -10, -10, -10, -10, -10, -10, -10, -10, -10, -10, -10, -10, -10, -10, -10, -10, -10, -10, -10, -10, -10, -10, -10, -10, -10, -10, 69.349998, 70.190483, 70.161224, 70.057144, 70.168373, 70.168373, 70.321426, 70.428574, 70.5, 70.589287, 70.589287, 70.446426, 70.339287, 70.321426, 70.321426, 70.428574, 70.571426, 70.5, 70.428574, 70.464287, 70.39286, 70.25, 70.428566, 70.5, 70.541664, 70.708336, 70.791664, 70.833336, 70.958336, 70.811226, 70.416664, 70.330353, 70.25, 70.1875, 70.0625, 70.35714, 70.301018, 70.096939, 70.0625, 70.116074, 70.25, 70.151779, 70.285713, 69.9375, 69.9375, 69.9375, 70.0625, 70.0625, 69.785713, 69.785713, 70.125, 70.1875, 70.3125, 70.375, 70.25, 70.25, 70.178574, 70.3125, 69.8125, 69.6875, 69.821426, 69.928574, 70.10714, 70.25, 70.3125, 70.4375, 70.4375, 70.25, 70.5, 70.428574, 70.39286, 70.708336, 70.75, 70.791664, 70.708336, 70.5, 70.25, 70.214287, 70.125, 70.25, 70.3125, 70.375, 70.64286, 70.64286, 70.571426, 70.1875, 70, 69.8125, 69.625, 69.6875, 69.928574, 70.375, 70.583336, 70.666664, 70.678566, 70.722221, 70.479591, 70.494896, 70.67347, 70.656464, 70.435371, 70.142853, 69.9375, 69.9375, 69.9375, 70.25, 70.428574, 70.3125, 70.375, 70.25, 70.25, 70.3125, 70.375, 70.375, 70.25, 70.1875, 70.125, 70.25, 70.464287, 70.428574, 70.428574, 70.583336, 70.625, 70.39286, 70.35714, 69.89286, 69.821426, 69.964287, 69.93367, 69.663261, 69.690475, 70.083336, 70.178574, 70.39286, 70.35714, 70.39286, 70.35714, 70.35714, 70.35714, 70.285713, 70.285713, 70, 70.35714, 70.03125, 69.96875, 69.96875, 69.875, 69.946426, 69.959183, 70.3125, 70.540817, 70.540817, 70.571426, 70.5, 70.428574, 70.214287, 70.14286, 70.25, 70.09375, 70.15625, 70.125, 69.9375, 69.875, 70.214287, 70.35714, 70.571426, 70.60714, 70.3125, 70.1875, 70.125, 70.125, 70.1875, 70.666664, 70.666664, 70.25, 70.3125, 70.285713, 69.959183, 70.3125, 70.25, 70.3125, 70.375, 70.375, 70.4375, 70.714287, 70.60714, 70.5, 70.39286, 70.5, 70.541664, 70.5, 70.416664, 70.25, 70, 70.035713, 70.091835, 70.153061, 70.265305, 70.550003, 70.535713, 70.465988, 70.306122, 70.35714, 70.410713, 70.522957, 70.410713, 70.369896, 70.39286, 70.321426, 70.35714, 70.321426, 70.367348, 70.51429, 70.448982, 70.428574, 70.377548, 70.693878, 70.765305, 70.85714, 70.714287, 70.571426, 70.535713, 70.428574, 70.428574, 70.1875, 70.125, 70.0625, 70, 70.10714, 70.14286, 70.285713, 70.35714, 70.464287, 70.5, 70.1875, 70.053574, 69.729164, 69.633926, 69.625, 69.928574, 70.051018, 70.214287, 70.275513, 70.321426, 70.5, 70.612244, 70.714287, 70.75, 70.60714, 70.428574, 70.35714, 70.5, 70.331627, 70.60714, 70.60714, 70.64286, 70.241074, 69.785713, 69.875, 69.6875, 69.785713, 69.75, 69.964287, 70.10714, 70.091835, 70.081627, 70.071426, 70.178574, 70.214287, 70.321426, 70.1875, 70.196426, 70.253571, 69.933929, 70.0625, 70.053574, 70.25, 70.5, 70.535713, 70.571426, 70.60714, 70.571426, 70.535713, 70.625, 70.583336, 70.541664, 70.321426, 70.35714, 70.1875, 70, 70.125, 69.875, 69.428574, 69.517853, 70.023811, 70.311226, 70.428574, 70.35714, 70, 69.75, 69.85714, 70, 70, 70.071426, 70.071426, 69.964287, 70.071426, 69.9375, 70.0625, 70.464287, 70.5, 70.571426, 70.535713, 70.39286
-10, -10, -10, -10, -10, -10, -10, -10, -10, -10, -10, -10, -10, 71.285713, 71.057739, 70.925003, 71.116074, 71.116074, 71.428574, 71.571426, 71.303574, 71.1875, 71.1875, 71, 71.026787, 71.169647, 71.241074, 71.60714, 71.64286, 71.571426, 71.428574, 71.35714, 71.39286, 71.321426, 71.403061, 71.464287, 71.464287, 71.571426, 71.571426, 71.60714, 71.64286, 71.596939, 71.333328, 71.341835, 71.285713, 71.25, 71.25, 71.321426, 71.169647, 70.775505, 71.125, 71.116074, 71.551018, 71.474495, 71.428574, 71, 71, 71.0625, 71.1875, 71.321426, 71.5, 71.458336, 71.321426, 71.428574, 71.464287, 71.571426, 71.916664, 71.916664, 71.916664, 71.375, 70.64286, 70.8125, 70.479591, 70.85714, 71.214287, 71.341835, 71.214287, 71.321426, 71.1875, 71.125, 71.428574, 71.321426, 71.285713, 71.39286, 71.5, 71.64286, 71.64286, 71.571426, 71.464287, 71.35714, 71.39286, 71.464287, 71.535713, 71.535713, 71.535713, 71.25, 71.1875, 71, 70.8125, 70.625, 70.4375, 70.5625, 71, 71.285713, 71.464287, 71.5, 71.438774, 71.476189, 71.418373, 71.408165, 71.419647, 71.395836, 71.229164, 71.142853, 70.714287, 70.9375, 70.875, 70.9375, 71.214287, 71.321426, 71.5, 71.586739, 71.60714, 71.678574, 71.60714, 71.25, 71.125, 71.0625, 71, 71.125, 71.125, 71.285713, 71.321426, 71.35714, 71.35714, 71.321426, 71.35714, 71.583336, 71.666664, 71.791664, 71.73214, 71.511902, 71.486107, 71.345238, 71.418373, 71.25, 71, 71.3125, 71.21875, 71.375, 71.375, 71.303574, 71.39286, 71.583336, 71.15625, 70.96875, 70.84375, 70.78125, 70.75, 70.946426, 71.583336, 71.5, 71.571426, 71.571426, 71.64286, 71.60714, 71.64286, 71.464287, 71.35714, 71.321426, 71.25, 71.25, 71.25, 71.14286, 71.214287, 71.39286, 71.5, 71.60714, 71.5, 71.1875, 71.25, 71.285713, 71.39286, 71.5, 71.5, 71.428574, 71.321426, 71.285713, 71.321426, 71.5, 71.35714, 71.285713, 71.285713, 71.35714, 71.428574, 71.571426, 71.64286, 71.678574, 71.64286, 71.535713, 71.5, 71.5, 71.464287, 71.39286, 71.178574, 71, 70.6875, 70.8125, 71.044647, 71.258926, 71.574997, 71.5, 71.595238, 71.205353, 71.5, 71.535713, 71.647957, 71.571426, 71.530617, 71.553574, 71.48214, 71.48214, 71.446426, 71.397957, 71.262497, 71.205353, 71.1875, 71.205353, 71.482147, 71.544647, 71.625, 71.714287, 71.571426, 71.5, 71.428574, 71.39286, 71.428574, 71.1875, 71.0625, 71.0625, 71, 71.0625, 71.25, 71.071426, 71.375, 71.375, 71.3125, 71.178574, 70.619041, 70.545914, 70.571426, 70.75, 70.89286, 70.964287, 71.151787, 71.125, 71.5, 71.755104, 71.821426, 71.85714, 71.75, 71.571426, 71.535713, 71.5, 71.540817, 71.714287, 71.714287, 71.714287, 71.561226, 71.541664, 71.214287, 71.071426, 71.071426, 70.75, 71.285713, 71.39286, 71.080353, 71.071426, 70.785713, 70.85714, 70.85714, 71.116074, 70.987503, 71.125, 71.422447, 71.174484, 71.39286, 71.116074, 71.60714, 71.64286, 71.64286, 71.714287, 71.75, 71.714287, 71.60714, 71.5, 71.5, 71.5, 71.535713, 71.5, 71.464287, 71.666664, 71.125, 70.875, 71.083336, 70.698982, 70.988098, 71.275513, 71.321426, 71.25, 71.14286, 70.89286, 70.85714, 70.964287, 70.964287, 71.10714, 70.9375, 70.875, 71.25, 71.285713, 71.39286, 71.571426, 71.60714, 71.678574, 71.60714, 71.464287, 71.265305, 71.214287, 71.163261, 70.901787, 70.714287, 70.64286, 70.958336, 71.178574, 71.10714, 71.035713, 71, 70.599998, -10, -10, -10, -10, -10, -10, -10, -10, -10, -10, -10, -10, -10, -10, -10, -10, -10, -10, -10, -10, -10, -10, -10, -10, -10, -10, -10, -10, -10, -10, -10, -10, -10, -10, -10, -10, -10, -10, -10, -10, -10, -10, -10, -10, -10, -10, -10, -10, -10, -10, -10, 71.866669, 71.969048, 71.914284, 72.255104, 72.346939, 72.535713, 72.571426, 72.178574, 72, 71.9375, 71.75, 71.901787, 72.044647, 72.178574, 72.571426, 72.3125, 72.535713, 72.428574, 72.0625, 72.428574, 72.125, 72.28125, 72.40625, 72.34375, 72.40625, 72.3125, 72.25, 72.25, 72.178574, 71.916664, 72.017853, 72.0625, 72.125, 72.35714, 72.285713, 72.193878, 72.226189, 72.10714, 72.275513, 72.418373, 72.448982, 72.428574, 72.178574, 72.178574, 72.10714, 72.25, 72.321426, 72.428574, 72.428574, 72.464287, 72.535713, 72.535713, 72.678574, 72.678574, 72.60714, 72.60714, 72.464287, 72.416664, 72.214287, 72.452385, 72.630951, 72.39286, 72.267853, 72.125, 72.1875, 72.428574, 72.321426, 72.35714, 72.0625, 72.0625, 72.25, 72.4375, 72.5, 72.4375, 72.375, 72.428574, 72.428574, 72.535713, 72.60714, 72.571426, 72.464287, 72.25, 72.125, 72.125, 72.0625, 71.875, 71.89286, 71.714287, 71.821426, 72.071426, 72.1875, 72.4375, 72.5, 72.375, 72.3125, 72.071426, 72, 72.276787, 72.3125, 72.25, 72.39286, 72.416664, 72.14286, 72.071426, 72, 72.053574, 71.9375, 72.35714, 72.56633, 72.60714, 72.64286, 72.535713, 72.0625, 72.14286, 72.071426, 71.928574, 71.875, 71.9375, 72, 72.0625, 72.125, 72.125, 72.0625, 72.35714, 72.464287, 72.571426, 72.678574, 72.663261, 72.510201, 72.523811, 72.547623, 72.530617, 72.5, 72.666664, 72.428574, 72.321426, 72.0625, 72.285713, 72.321426, 72.464287, 72.5, 72.428574, 72.285713, 72.14286, 72.071426, 72.071426, 72.224487, 72.428574, 72.464287, 72.428574, 72.321426, 72.25, 72.3125, 72.64286, 72.60714, 72.51786, 72.446426, 72.15625, 72.15625, 72.1875, 72.39286, 72.464287, 72.571426, 72.60714, 72.4375, 72.3125, 72.428574, 72.39286, 72.464287, 72.571426, 72.678574, 72.4375, 72.375, 72.1875, 72.125, 72.39286, 72.35714, 72.39286, 72.25, 72.178574, 71.9375, 72.214287, 72.321426, 72.1875, 72.5, 72.571426, 72.375, 72.5, 72.5, 72.4375, 72.339287, 72.0625, 71.8125, 71.75, 71.8125, 72.044647, 72.258926, 72.657143, 72.591835, 72.64286, 72.5, 72.571426, 72.60714, 72.719383, 72.678574, 72.637756, 72.64286, 72.5, 72.5, 72.5, 72.25, 72.3125, 72.3125, 72.25, 72.5, 72.571426, 72.571426, 72.571426, 72.5, 72.25, 72.1875, 72.125, 72.35714, 72.39286, 72.428574, 72.39286, 72.39286, 72.25, 72.214287, 72.214287, 72.291664, 72.178574, 72.285713, 72.39286, 72.418373, 72.444443, 72.464287, 72.541664, 72.708336, 72.791664, 72.708336, 72.214287, 72.25, 72.375, 72.82653, 72.85714, 72.785713, 72.64286, 72.428574, 72.428574, 72.5, 72.5, 72.64286, 72.571426, 72.5, 72.530617, 72.428574, 72.428574, 72.464287, 72.397957, 72.398811, 72.260201, 72.214287, 72.153061, 72.112244, 72.208336, 72.333336, 72.416664, 72.053574, 71.987503, 72.1875, 72.534691, 72.39592, 72.540817, 72.5, 72.714287, 72.64286, 72.571426, 72.535713, 72.5, 72.571426, 72.375, 72.375, 72.4375, 72.4375, 72.60714, 72.571426, 72.464287, 72.35714, 72.214287, 72.035713, 71.928574, 71.795914, 71.770836, 71.928574, 72, 72, 72.25, 72.071426, 72, 72, 71.75, 71.9375, 72.214287, 72.285713, 72.428574, 72.464287, 72.571426, 72.678574, 72.60714, 72.64286, 72.375, 72.3125
-10, -10, -10, -10, -10, -10, -10, -10, -10, -10, -10, -10, -10, -10, 72.255554, 72.628571, 73.223221, 73.530617, 73.64286, 73.4375, 73.241074, 72.928574, 72.6875, 72.5, 72.589287, 72.794647, 73.132652, 73.321426, 73.125, 73.25, 73.25, 73.1875, 73.241074, 72.854164, 72.916664, 73.345238, 73.178574, 73.3125, 73.1875, 72.85714, 72.785713, 72.9375, 72.875, 73, 73.0625, 73.1875, 73.464287, 73.125, 73.044647, 73.193886, 73, 73.241074, 73.3125, 73.339287, 73.25, 73.321426, 73.321426, 72.9375, 73.125, 73.1875, 73.3125, 73.3125, 73.25, 73.25, 73.25, 73.64286, 73.5, 73.5, 73.5, 73.375, 73.5, 73.428574, 73.42347, 73.540817, 73.39286, 73.377548, 73.285713, 73.321426, 73.464287, 73.464287, 73.25, 73.125, 73, 73, 73.214287, 73.0625, 73.0625, 73.35714, 73.428574, 73.571426, 73.678574, 73.64286, 73.3125, 73.1875, 73.125, 73.0625, 73.35714, 73.39286, 73.285713, 73.178574, 73.035713, 73.10714, 73.285713, 73.428574, 73.535713, 73.428574, 73.0625, 73, 73.416664, 73.5, 73.214287, 73.535713, 73.5, 73.464287, 73.285713, 73.14286, 73, 73.035713, 73.061226, 72.875, 73.1875, 73.464287, 73.5, 73.5, 73.3125, 73.0625, 73, 73.178574, 72.833336, 72.64286, 72.64286, 72.9375, 72.9375, 72.875, 72.839287, 72.910713, 73, 73.25, 73.375, 73.5, 73.5625, 73.714287, 73.64286, 73.60714, 73.571426, 73.535713, 73.571426, 73.535713, 73.35714, 73.0625, 73.125, 73.125, 73.3125, 73.571426, 73.48214, 73.375, 73.26786, 73.303574, 73.397957, 73.540817, 73.375, 73.25, 73.125, 73, 73.125, 73.25, 73.4375, 73.678574, 73.64286, 73.571426, 73.428574, 73.321426, 73.35714, 73.39286, 73.535713, 73.678574, 73.678574, 73.571426, 73.428574, 73.39286, 73.39286, 73.535713, 73.678574, 73.714287, 73.64286, 73.571426, 73.25, 73.25, 73.25, 73.25, 73.25, 73.125, 73.125, 73, 73.0625, 73.125, 73.125, 73.3125, 73.375, 73.375, 73.714287, 73.714287, 73.64286, 73.56633, 73.428574, 72.833336, 72.833336, 72.916664, 73.408165, 73.612244, 73.685715, 73.653061, 73.60714, 73.464287, 73.5, 73.535713, 73.473213, 73.714287, 73.622452, 73.60714, 73.5, 73.5, 73.64286, 73.64286, 73.693886, 73.476189, 73.331627, 73.321426, 73.428574, 73.464287, 73.3125, 73.3125, 73.25, 73.1875, 73.125, 73.1875, 73.1875, 73.464287, 73.428574, 73.428574, 73.39286, 73.321426, 73.39286, 73, 72.785713, 73.125, 73.1875, 73.459183, 73.380943, 73.469383, 73.535713, 73.571426, 73.60714, 73.5, 73.459183, 73.535713, 73.60714, 73.598213, 73.625, 73.5625, 73.375, 73.125, 73.0625, 73.125, 73.25, 73.473213, 73.375, 73.205353, 73.25, 73.25, 73.535713, 73.714287, 73.57653, 73.306114, 73.188774, 72.875, 72.875, 72.875, 73.071426, 73.071426, 73.14286, 73.132652, 73.128571, 73.387756, 73.532654, 73.612244, 73.68367, 73.68367, 73.785713, 73.5, 73.4375, 73.375, 73.071426, 73.3125, 73.3125, 73.3125, 73.571426, 73.64286, 73.4375, 73.4375, 73.375, 73.3125, 73.1875, 73.0625, 73, 73.10714, 72.9375, 72.9375, 72.9375, 72.9375, 73.10714, 73.071426, 73.14286, 73, 72.901787, 73.285713, 73.321426, 73.5, 73.60714, 73.64286, 73.678574, 73.714287, 73.4375, 73.375, 73.3125, 73.25, 73.428574, 73.464287, 73.39286, 73.408165, 73.464287, 73.39286, 73.5, 73.464287, 73.428574, 73.428574, 73.583336, -10, -10, -10, -10, -10, -10, -10, -10, -10, -10, -10, -10, -10, -10, -10, -10, -10, -10, -10, -10, -10, -10, -10, -10, -10, -10, -10, -10, -10, -10, -10, -10, -10, -10, -10, -10, -10, -10, -10, -10, -10, -10, -10, -10, -10, -10, -10, -10, -10, -10, -10, -10, -10, -10, 73.875, 74.515312, 74.60714, 74.678574, 74.571426, 74.387756, 74.132652, 73.85714, 73.85714, 73.387756, 73.622452, 73.775513, 73.928574, 74.125, 74.25, 74.428574, 74.321426, 74.346939, 73.791664, 73.654762, 74.145836, 74.116074, 74.39286, 74.285713, 74.5, 74.541664, 74.14286, 74.102043, 74.290817, 74.25, 74.341835, 74.428574, 74.285713, 74.321426, 74.125, 74.0625, 74.35714, 74.35714, 74.428574, 74.25, 74.125, 74.0625, 74, 74.125, 74.464287, 74.60714, 74.60714, 74.3125, 74.25, 74.25, 74.4375, 74.4375, 74.4375, 74.4375, 74.571426, 74.64286, 74.535713, 74.276787, 74.285713, 74.0625, 74.017853, 74.178574, 74.178574, 74.35714, 74.428574, 74.428574, 74.39286, 74.214287, 74.214287, 74, 74, 74.125, 74.25, 74.3125, 74.571426, 74.571426, 74.3125, 74.1875, 74.125, 74.285713, 74.321426, 74.464287, 74.535713, 74.464287, 74.39286, 74.285713, 74.321426, 74.428574, 74.428574, 74.428574, 74.25, 74.071426, 74.071426, 74.214287, 74.35714, 74.494896, 74.64286, 74.60714, 74.375, 74.1875, 74, 73.8125, 73.75, 74.061226, 74.035713, 74.25, 74.339287, 74.375, 74.375, 74.25, 74.285713, 74.214287, 74.14286, 74.25, 74.25, 74.208336, 74.071426, 74, 73.75, 73.776787, 73.785713, 73.875, 74.285713, 74.1875, 74.375, 74.64286, 74.571426, 74.3125, 74.3125, 74.375, 74.4375, 74.64286, 74.5, 74.321426, 74.214287, 74.285713, 74.35714, 74.535713, 74.60714, 74.5, 74.39286, 74.321426, 74.39286, 74.540817, 74.678574, 74.60714, 74.25, 74.0625, 74, 74.125, 74.39286, 74.571426, 74.64286, 74.64286, 74.678574, 74.571426, 74.39286, 74.39286, 74.428574, 74.535713, 74.714287, 74.714287, 74.535713, 74.428574, 74.35714, 74.285713, 74.39286, 74.428574, 74.5, 74.464287, 74.5, 74.39286, 74.321426, 74.35714, 74.428574, 74.540817, 74.464287, 74.464287, 74.25, 74.285713, 74.321426, 74.321426, 74.5, 74.5, 74.464287, 74.535713, 74.464287, 74.39286, 74.352043, 74.35714, 74.458336, 74.625, 74.666664, 74.489799, 74.535713, 74.428574, 74.428574, 74.1875, 74.125, 74.1875, 74.25, 74.375, 74.714287, 74.4375, 74.4375, 74.375, 74.375, 74.714287, 74.75, 74.801025, 74.354164, 74.258926, 74.1875, 74.25, 74.25, 74.25, 74.5, 74.464287, 74.428574, 74.35714, 74.428574, 74.1875, 74.3125, 74.3125, 74.3125, 74.535713, 74.464287, 74.5, 74.666664, 74.666664, 74.25, 74.25, 74.3125, 74.375, 74.4375, 74.4375, 74.375, 74.375, 74.3125, 74.339287, 74.678574, 74.678574, 74.5625, 74.5625, 74.5, 74.375, 74.1875, 74.125, 74.1875, 74.3125, 74.68367, 74.571426, 74.205353, 74.1875, 74.15625, 74.28125, 74.678574, 74.441963, 74.205353, 74.008926, 73.875, 73.875, 73.9375, 73.9375, 73.9375, 74, 73.991074, 74.314285, 74.303574, 74.602043, 74.714287, 74.5625, 74.5625, 74.5625, 74.4375, 74.5, 74.428574, 74.583336, 74.25, 74.464287, 74.535713, 74.535713, 74.535713, 74.428574, 74.428574, 74.35714, 74.285713, 74.25, 74.214287, 74.25, 74.285713, 74.35714, 74.25, 74.178574, 74.178574, 73.875, 74.071426, 74.14286, 74.071426, 74.030617, 74.178574, 74.214287, 74.39286, 74.428574, 74.5, 74.571426, 74.64286, 74.714287, 74.5, 74.658165, 74.404762
-10, -10, -10, -10, -10, -10, -10, -10, -10, -10, -10, -10, -10, -10, -10, -10, 75.489799, 75.583328, 75.571426, 75.464287, 75.285713, 75.168373, 75, 75.14286, 75.5, 75.541664, 75.583336, 75.625, 75.428574, 75.464287, 75.39286, 75.285713, 75.053574, 74.976189, 75.361107, 75.416672, 75.418373, 75.428574, 75.321426, 75.285713, 75.285713, 75.214287, 75.17347, 75.290817, 75.214287, 75.017853, 75.0625, 75.14286, 75.25, 75.285713, 75.285713, 75.39286, 75.39286, 75.428574, 75.428574, 75.39286, 75.25, 75.214287, 75.321426, 75.5, 75.678574, 75.60714, 75.464287, 75.321426, 75.321426, 75.5, 75.60714, 75.64286, 75.571426, 75.5, 75.464287, 75.125, 75.125, 75.125, 74.982147, 74.875, 74.9375, 74.982147, 75.1875, 75.25, 75.428574, 75.35714, 75.214287, 75.25, 75.125, 75.321426, 75.428574, 75.428574, 75.428574, 75.39286, 75.125, 75.125, 75.0625, 75.35714, 75.35714, 75.35714, 75.464287, 75.3125, 75.535713, 75.571426, 75.535713, 75.464287, 75.428574, 75.1875, 75.1875, 74.928574, 74.85714, 74.85714, 75, 75.375, 75.586739, 75.60714, 75.5, 75.35714, 75.214287, 75.071426, 74.75, 74.75, 74.803574, 75, 75.10714, 75.285713, 75.595238, 75.622452, 75.64286, 75.464287, 75.10714, 75.035713, 74.928574, 75.071426, 75.214287, 75.089287, 75.020836, 75.285713, 75.17347, 75.07653, 75, 75, 75.125, 75.3125, 75.4375, 75.375, 75.3125, 75.25, 75.3125, 75.571426, 75.375, 75.3125, 75.428574, 75.39286, 75.464287, 75.5, 75.60714, 75.64286, 75.375, 75.3125, 75.25, 75.3125, 75.57653, 75.60714, 75.464287, 75.214287, 75.178574, 75.214287, 75.321426, 75.459183, 75.647957, 75.4375, 75.5, 75.714287, 75.64286, 75.3125, 75.3125, 75.3125, 75.375, 75.64286, 75.571426, 75.1875, 75.0625, 75, 75.008926, 75.047623, 75.102043, 75.214287, 75.178574, 75.214287, 75.375, 75.1875, 75.1875, 75.464287, 75.57653, 75.64286, 75.60714, 75.428574, 75.35714, 75.285713, 75.285713, 75.403061, 75.571426, 75.25, 75.339287, 75.25, 75.1875, 74.959183, 75.25, 75.535713, 75.64286, 75.571426, 75.1875, 75.1875, 75.125, 75.1875, 74.928574, 74.85714, 75.1875, 75.25, 75.375, 75.64286, 75.571426, 75.571426, 75.535713, 75.60714, 75.678574, 75.678574, 75.622452, 75.333328, 75.224487, 75, 75.125, 75.39286, 75.428574, 75.464287, 75.39286, 75.321426, 75.321426, 75.428574, 75.35714, 75.39286, 75.35714, 75.285713, 75.321426, 75.285713, 75.321426, 75.35714, 75.428574, 75.464287, 75.5, 75.535713, 75.571426, 75.3125, 75.1875, 75.0625, 75.0625, 75.1875, 75.375, 75.64286, 75.571426, 75.571426, 75.571426, 75.60714, 75.571426, 75.464287, 75.39286, 75.428574, 75.571426, 75.719383, 75.64286, 75.413261, 75.35714, 75.321426, 75.21875, 75.46875, 75.441963, 75.438774, 75.255104, 75.14286, 75.071426, 75.071426, 75.071426, 75.035713, 75.14286, 75.0625, 75.25, 75.571426, 75.64286, 75.714287, 75.714287, 75.714287, 75.714287, 75.60714, 75.571426, 75.535713, 75.5, 75.535713, 75.571426, 75.60714, 75.375, 75.303574, 75, 75, 74.875, 75.178574, 75.25, 75.321426, 75.464287, 75.535713, 75.60714, 75.5, 75.39286, 75.35714, 75.0625, 75, 75, 74.875, 74.776787, 74.9375, 75, 75.125, 75.15625, 75.21875, 75.28125, 75.40625, 75.75, 75.821426, 75.801025, 75.354164, 75.321426, 75, 74.928574, 74.928574, 75.1875, 75.1875, 75.464287, 75.39286, 75.125, 75.0625, 74.666664, -10, -10, -10, -10, -10, -10, -10, -10, -10, -10, -10, -10, -10, -10, -10, -10, -10, -10, -10, -10, -10, -10, -10, -10, -10, -10, -10, -10, -10, -10, -10, -10, -10, -10, -10, -10, -10, -10, -10, -10, -10, -10, -10, -10, -10, -10, -10, -10, -10, -10, -10, -10, -10, -10, -10, 75.833336, 76.166664, 76.125, 76.125, 76.0625, 76.053574, 76.214287, 76.285713, 76.321426, 76.285713, 76.285713, 76.285713, 76.39286, 76.428574, 76.1875, 76.1875, 76.053574, 76.095238, 76.166672, 76.261902, 76.244896, 76.125, 76.0625, 76.125, 76.125, 76.0625, 76.089287, 76.160713, 76.125, 75.806114, 75.85714, 75.785713, 75.964287, 76.3125, 76.535713, 76.3125, 76.1875, 76.205353, 76.535713, 76.535713, 76.464287, 76.428574, 76.464287, 76.535713, 76.60714, 76.464287, 76.35714, 76.321426, 76.39286, 76.571426, 76.678574, 76.714287, 76.4375, 76.375, 76.25, 76, 75.9375, 75.9375, 75.857147, 75.75, 75.8125, 75.794647, 76.10714, 76, 76.0625, 76.208336, 75.897957, 76.208336, 76.5, 76.5, 76.464287, 76.35714, 76.125, 76.125, 76, 76.0625, 76.285713, 76.428574, 76.5, 76.1875, 76.1875, 76.125, 76.125, 76.35714, 76.35714, 76.125, 76.125, 76.125, 76.0625, 76.458336, 76.5, 76.416664, 76.458336, 76.428574, 76.5, 76.34375, 76.34375, 76.21875, 76.125, 76.25, 76.071426, 75.928574, 75.6875, 75.75, 75.8125, 76.008926, 76.523811, 76.622452, 76.75, 76.60714, 75.785713, 75.714287, 75.60714, 75.9375, 76.0625, 76.595238, 76.666664, 76.464287, 76.372444, 76.234695, 76.071426, 76.026787, 76.35714, 76.331627, 76.438774, 76.285713, 76.321426, 76.321426, 76.464287, 76.60714, 76.375, 76.571426, 76.535713, 76.535713, 76.60714, 76.64286, 76.75, 76.75, 76.60714, 76.413261, 76.321426, 76.285713, 76.223213, 76.3125, 76.25, 75.85714, 76.39286, 76.464287, 76.5, 76.56633, 76.68367, 76.64286, 76.714287, 76.714287, 76.678574, 76.571426, 76.571426, 76.571426, 76.60714, 76.4375, 76.375, 76.1875, 75.785713, 75.714287, 76.008926, 76.777779, 76.904762, 77.041664, 76.958336, 76.833336, 76.5, 76.0625, 76.178574, 76.25, 76.43367, 76.60714, 76.4375, 76.60714, 76.3125, 76.25, 76.25, 76.321426, 76.64286, 76.3125, 76.214287, 76.0625, 76, 76.333336, 76.125, 76.1875, 76.3125, 76.3125, 76.1875, 76.1875, 76.125, 76.1875, 76.625, 76.583336, 76.35714, 76.5, 76.778572, 76.4375, 76.688774, 76.60714, 76.60714, 76.678574, 76.5, 76.5, 76.419647, 75.904762, 75.795914, 76.285713, 76.39286, 76.5, 76.535713, 76.375, 76.3125, 76, 76.25, 76.3125, 76.5, 76.5, 75.964287, 75.89286, 75.964287, 75.928574, 76.125, 76.1875, 76.1875, 76.484688, 76.68367, 76.64286, 76.714287, 76.535713, 76.1875, 76.285713, 76.285713, 76.428574, 76.60714, 76.4375, 76.375, 76.375, 76.375, 76.4375, 76.678574, 76.561226, 76.321426, 76.39286, 76.515312, 76.473213, 76.785713, 76.724487, 76.64286, 76.60714, 76.5, 76.535713, 76.571426, 76.5, 76.464287, 76.39286, 76.321426, 76.321426, 76.321426, 76.285713, 76.35714, 76.428574, 76.464287, 76.5, 76.464287, 76.428574, 76.5, 76.571426, 76.64286, 76.64286, 76.64286, 76.64286, 76.64286, 76.60714, 76.535713, 76.464287, 76.321426, 76.053574, 75.875, 76, 75.734688, 75.89286, 76.25, 76.1875, 76.428574, 76.428574, 76.428574, 76.39286, 76.35714, 76.39286, 76.35714, 76.25, 76, 75.9375, 75.839287, 76, 76.0625, 76.125, 76.15625, 76.21875, 76.21875, 76.34375, 76.714287, 76.821426, 76.872452, 76.654762
-10, -10, -10, -10, -10, -10, -10, -10, -10, -10, -10, -10, -10, -10, -10, -10, -10, 77.041664, 77.041664, 77, 77.14286, 77.14286, 77.14286, 77.0625, 77.1875, 77.1875, 77, 77, 77.3125, 77.3125, 77.464287, 77.428574, 77.35714, 77.35714, 77.1875, 77.125, 77.0625, 77.0625, 77, 77.125, 77.0625, 77, 77.089287, 77.098213, 77.25, 77.345238, 77.25, 77.333336, 77.583336, 77.535713, 77.571426, 77.428574, 77.285713, 77.306114, 77.535713, 77.571426, 77.464287, 77.35714, 77.285713, 77.0625, 77.125, 77, 77, 77.125, 77.25, 77.64286, 77.714287, 77.714287, 77.64286, 77.571426, 77.25, 77, 76.875, 77.10714, 77.122452, 77.071426, 77.14286, 77.122452, 76.9375, 76.678574, 76.785713, 77.270836, 77.761902, 77.875, 77.60714, 77.535713, 77.25, 77.125, 77.125, 77.125, 77.214287, 77.285713, 77.285713, 77.39286, 77.464287, 77.39286, 77.1875, 76.89286, 76.89286, 76.964287, 76.928574, 77.0625, 77.0625, 77.285713, 77.321426, 77.428574, 77.5, 76.928574, 77, 77.3125, 77.34375, 77.3125, 77.428574, 77.285713, 77.214287, 77.14286, 77.10714, 77.071426, 77.035713, 76.8125, 76.75, 76.901779, 77.595238, 77.693886, 77.89286, 77.678574, 77.583336, 77.541664, 77.291664, 77.071426, 77.14286, 77.331627, 77.5, 77.60714, 77.5, 77.285713, 77.14286, 77.244896, 77.35714, 77.071426, 77.133926, 77, 77.125, 77.428574, 77.535713, 77.64286, 77.60714, 77.64286, 77.64286, 77.64286, 77.60714, 77.64286, 77.714287, 77.714287, 77.678574, 77.520401, 77.1875, 77.0625, 77.125, 77.1875, 77.1875, 77.666664, 77.5, 77.571426, 77.571426, 77.637756, 77.719383, 77.678574, 77.75, 77.714287, 77.714287, 77.60714, 77.60714, 77.60714, 77.60714, 77.571426, 77.428574, 77.25, 77.375, 77.333336, 77.260201, 77.630959, 77.632652, 77.821426, 77.75, 77.64286, 77.571426, 77.321426, 76.785713, 77.0625, 77.160713, 77.3125, 77.25, 77.5, 77.428574, 77.35714, 77.428574, 77.367348, 77.535713, 77.35714, 77.209183, 77, 76.959183, 77.040817, 76.8125, 76.9375, 76.9375, 76.9375, 77.071426, 77.10714, 77.214287, 77.35714, 77.5, 77.571426, 77.535713, 77.714287, 77.921432, 77.714287, 77.795914, 77.571426, 77.5, 77.5, 77.428574, 77.428574, 77.428574, 77.666664, 77.666664, 77.464287, 77.535713, 77.60714, 77.60714, 77.571426, 77.5, 77.666664, 77.428574, 77.5, 77.5, 77.5, 77.791664, 77.75, 77.75, 77.666664, 77.1875, 77.25, 76.964287, 77.392853, 77.755104, 77.714287, 77.785713, 77.60714, 77.428574, 77.321426, 77.321426, 77.35714, 77.464287, 77.5, 77.428574, 77.5, 77.571426, 77.64286, 77.714287, 77.428574, 77, 77.3125, 77.357147, 77.4375, 77.785713, 77.85714, 77.89286, 77.875, 77.73214, 77.660713, 77.40625, 77.60714, 77.64286, 77.60714, 77.535713, 77.571426, 77.571426, 77.571426, 77.64286, 77.571426, 77.535713, 77.3125, 77.25, 77, 77.3125, 77.375, 77.4375, 77.678574, 77.60714, 77.60714, 77.60714, 77.375, 77.375, 77.25, 77.0625, 76.866074, 76.89286, 77.10714, 77.464287, 77.583336, 77.39286, 77.321426, 77.428574, 77.285713, 77.035713, 77, 77.125, 77.125, 77.285713, 77.25, 77.178574, 77.14286, 77.14286, 77.214287, 77.35714, 77.285713, 77.25, 77.35714, 77.321426, 77.5, 77.5, 77.625, 77.669647, 77.666664, 77.540817, 77.285713, 77.214287, 77.214287, 76.9375, 76.785713, 77.03125, 76.90625, 76.90625, 76.988098, -10, -10, -10, -10, -10, -10, -10, -10, -10, -10, -10, -10, -10, -10, -10, -10, -10, -10, -10, -10, -10, -10, -10, -10, -10, -10, -10, -10, -10, -10, -10, -10, -10, -10, -10, -10, -10, -10, -10, -10, -10, -10, -10, -10, -10, -10, -10, -10, -10, -10, -10, -10, -10, -10, -10, -10, -10, 77.388885, 77.690475, 77.714287, 77.821426, 77.821426, 77.6875, 77.875, 78.044647, 78.125, 78.666664, 78.666664, 78.5, 78.464287, 78.428574, 78.39286, 78.25, 78.214287, 78.25, 78.0625, 78.125, 78.39286, 78.321426, 78.39286, 78.214287, 78.10714, 78.14286, 78.10714, 78.25, 78.214287, 78.14286, 78.178574, 78.35714, 78.535713, 78.64286, 78.3125, 78.1875, 78.267853, 78.647957, 78.401787, 78.375, 78.1875, 77.928574, 77.785713, 77.785713, 77.64286, 77.64286, 78.35714, 78.428574, 78.60714, 78.64286, 78.571426, 78.535713, 78.428574, 78.321426, 78.214287, 78.178574, 78.35714, 78.418373, 78.428574, 78.464287, 78.346939, 78.321426, 78.5, 78.666664, 78.630959, 78.688774, 78.663261, 78.464287, 78.1875, 78.125, 78, 78.285713, 78.39286, 78.285713, 78.39286, 78.35714, 78.1875, 78.25, 78.35714, 78.285713, 78.458336, 78.541664, 78.583336, 78.583336, 78.25, 78.285713, 78.428574, 78.5, 78.571426, 78.4375, 78.571426, 78.571426, 78.375, 78.553574, 78.553574, 78.51786, 78.410713, 78.0625, 77.96875, 78.14286, 78.14286, 78.214287, 78.255104, 78.214287, 78.346939, 78.458336, 78.544647, 78.6875, 78.64286, 78.428574, 78.428574, 78.25, 78.25, 78.0625, 78.196426, 78.34375, 78.40625, 78.34375, 78.428574, 78.321426, 78.42347, 78.5, 78.196426, 78.23214, 78.089287, 78.25, 78.464287, 78.60714, 78.678574, 78.678574, 78.714287, 78.714287, 78.714287, 78.4375, 78.4375, 78.5, 78.5, 78.714287, 78.591835, 78.5, 78.25, 78.535713, 78.571426, 78.60714, 78.64286, 78.60714, 78.571426, 78.5, 78.551025, 78.410713, 78.64286, 78.5625, 78.714287, 78.714287, 78.4375, 78.4375, 78.4375, 78.4375, 78.60714, 78.5, 78.39286, 78.35714, 78.35714, 78.469383, 78.458336, 78.428574, 78.5625, 78.5, 78.4375, 78.4375, 78.464287, 78.625, 78.321426, 78.125, 78.25, 78.125, 78.1875, 78.35714, 78.25, 78.321426, 78.255104, 78.1875, 78.125, 78.089287, 77.678574, 77.901787, 77.973213, 77.9375, 78.0625, 77.714287, 77.714287, 77.714287, 77.785713, 78.125, 78.25, 78.375, 78.64286, 78.64286, 78.785713, 78.957146, 78.75, 78.831627, 78.60714, 78.3125, 78.3125, 78.25, 78.5, 78.535713, 78.571426, 78.571426, 78.60714, 78.571426, 78.535713, 78.464287, 78.35714, 78.321426, 78.285713, 78.25, 78.285713, 78.285713, 78.285713, 78.39286, 78.35714, 78.428574, 78.428574, 78.428574, 78.535713, 78.625, 78.484688, 78.612244, 78.5, 78.64286, 78.60714, 78.5, 78.5, 78.5, 78.25, 78.3125, 78.25, 78.35714, 78.428574, 78.5, 78.60714, 78.64286, 78.561226, 78.583336, 78.428574, 78.551025, 78.64286, 78.785713, 78.89286, 78.964287, 78.89286, 78.678574, 78.5, 78.428574, 78.5, 78.64286, 78.714287, 78.678574, 78.714287, 78.714287, 78.64286, 78.60714, 78.25, 78.125, 78.0625, 78.0625, 78.5, 78.428574, 78.571426, 78.64286, 78.714287, 78.4375, 78.4375, 78.4375, 78.3125, 78.428574, 78.125, 77.9375, 77.803574, 78, 78.214287, 78.43367, 78.535713, 78.428574, 78.125, 78.1875, 78.469383, 78.75, 78.666664, 78.1875, 78.1875, 77.928574, 78.125, 78.285713, 78.321426, 78.35714, 78.464287, 78.571426, 78.5, 78.21875, 78.28125, 78.21875, 78.34375, 78.64286, 78.4375, 78.4375, 78.392853
-10, -10, -10, -10, -10, -10, -10, -10, -10, -10, -10, -10, -10, -10, -10, -10, -10, -10, 77.888885, 77.916664, 78.4375, 78.479164, 78.5, 78.6875, 79.086739, 79.285713, 79.5, 79.5, 79.464287, 79.428574, 79.1875, 79.25, 78.928574, 78.85714, 79.321426, 79.285713, 79.35714, 79.464287, 79.5, 79.64286, 79.25, 78.846939, 79.010414, 78.883926, 79, 79.0625, 79.0625, 79.21875, 79.316963, 79.299103, 79.290176, 79.285713, 79.285713, 79.438774, 79.612244, 79.370537, 79.34375, 79.15625, 79.541664, 79.5, 79.458336, 79.416664, 79.458336, 79.428574, 79.535713, 79.4375, 79.4375, 79.375, 79.375, 79.3125, 79.1875, 79.285713, 79.25, 79.39286, 79.5, 79.64286, 79.64286, 79.535713, 79.5, 79.464287, 79.64286, 79.761909, 79.508926, 79.330353, 79.026787, 78.9375, 79.112244, 79.178574, 79.464287, 79.612244, 79.5, 79.413261, 79.25, 79.25, 79.125, 79.0625, 79.0625, 79.321426, 79.428574, 79.5, 79.428574, 79.285713, 79.321426, 79.428574, 79.571426, 79.64286, 79.60714, 79.5, 79.428574, 79.39286, 79.35714, 79.35714, 79.39286, 79.39286, 79.1875, 79.15625, 79.09375, 79.15625, 79.60714, 79.755104, 79.785713, 79.760201, 79.547615, 79.474487, 79.5, 79.25, 79.1875, 79.1875, 79.125, 79.285713, 79.285713, 79.35714, 79.464287, 79.535713, 79.60714, 79.535713, 79.5, 79.551025, 79.571426, 79.540817, 79.438774, 79.31633, 79.535713, 79.612244, 79.75, 79.785713, 79.714287, 79.714287, 79.714287, 79.64286, 79.5, 79.428574, 79.3125, 79.375, 79.64286, 79.653061, 79.60714, 79.571426, 79.678574, 79.714287, 79.75, 79.85714, 79.85714, 79.544647, 79.291664, 79.267853, 79.25, 79.375, 79.64286, 79.571426, 79.5, 79.428574, 79.5, 79.571426, 79.64286, 79.64286, 79.571426, 79.5, 79.5, 79.5, 79.571426, 79.375, 79.25, 79.3125, 79.3125, 79.535713, 79.64286, 79.60714, 79.571426, 79.5, 79.464287, 79.5, 79.39286, 79.25, 79.25, 79.1875, 79.1875, 79.0625, 79, 78.9375, 79.10714, 79.291664, 79.137756, 79.32653, 79.255104, 79.234688, 79.303566, 79.25, 79.291664, 79.333336, 79.0625, 79.1875, 79.3125, 79.4375, 79.678574, 79.785713, 79.650002, 79.64286, 79.446426, 79.35714, 79.35714, 79.35714, 79.428574, 79.571426, 79.64286, 79.714287, 79.714287, 79.714287, 79.4375, 79.375, 79.3125, 79, 79, 79, 78.928574, 78.928574, 78.928574, 78.928574, 79.10714, 79.10714, 79.178574, 79.4375, 79.64286, 79.714287, 79.60714, 79.330353, 79.410713, 79.3125, 79.4375, 79.4375, 79.375, 79.571426, 79.571426, 79.5, 79.428574, 79.25, 79.1875, 79.25, 79.375, 79.5, 79.5625, 79.744896, 79.571426, 79.413261, 79.489799, 79.535713, 79.4375, 79.5625, 79.5625, 79.5, 79.375, 79.1875, 79.1875, 79.25, 79.3125, 79.571426, 79.571426, 79.571426, 79.571426, 79.375, 79.3125, 79.1875, 78.85714, 78.785713, 79.321426, 79.35714, 79.39286, 79.428574, 79.464287, 79.5, 79.428574, 79.428574, 79.428574, 79.39286, 79.35714, 79.321426, 79.14286, 79.071426, 79.25, 79.125, 79.285713, 79.25, 79.125, 79, 79.214287, 79.362244, 79.35714, 79.285713, 79.178574, 79.14286, 79.375, 79.25, 79.285713, 79.35714, 79.428574, 79.464287, 79.571426, 79.571426, 79.5, 79.64286, 79.678574, 79.729599, 79.678574, 79.60714, 79.3125, 79.330353, 79.666672, 79.69445, 79.190475, 79.127548, 79.071426, 79.285713, 79.39286, 79.39286, 79.5, -10, -10, -10, -10, -10, -10, -10, -10, -10, -10, -10, -10, -10, -10, -10, -10, -10, -10, -10, -10, -10, -10, -10, -10, -10, -10, -10, -10, -10, -10, -10, -10, -10, -10, -10, -10, -10, -10, -10, -10, -10, -10, -10, -10, -10, -10, -10, -10, -10, -10, -10, -10, -10, -10, -10, -10, -10, -10, -10, -10, -10, 79.14286, 79.375, 79.3125, 79.4375, 79.6875, 80, 80.1875, 80.3125, 80.25, 80.25, 80.25, 80.25, 80.583336, 80.5, 80.0625, 80.178574, 80.25, 80.321426, 80.35714, 80.5, 80.708336, 80.684525, 80.297615, 80.188774, 80.178574, 80.178574, 80.214287, 80.35714, 80.43367, 80.236603, 80.227676, 79.85714, 80.1875, 80.571426, 80.57653, 80.459183, 80.321426, 80.14286, 80.25, 80.25, 80.321426, 80.39286, 80.428574, 80.571426, 80.60714, 80.64286, 80.64286, 80.571426, 80.571426, 80.5, 80.25, 80.1875, 80.428574, 80.571426, 80.64286, 80.75, 80.75, 80.678574, 80.678574, 80.678574, 80.785713, 80.714287, 80.375, 80.142853, 79.839287, 79.8125, 79.848213, 80.14286, 80.464287, 80.612244, 80.5, 80.205353, 80.0625, 80.0625, 80.0625, 80, 80.0625, 80.0625, 80.1875, 80.25, 80.125, 80.0625, 80.125, 80.25, 80.4375, 80.714287, 80.64286, 80.3125, 80.1875, 80.133926, 80, 79.964287, 80.035713, 80.553574, 80.553574, 80.535713, 80.428574, 80.535713, 80.75, 80.93367, 81, 80.928574, 80.416664, 80.321426, 80.071426, 80.25, 80.1875, 80.1875, 80.25, 80.291664, 80.375, 80.698975, 80.653061, 80.60714, 80.678574, 80.571426, 80.5, 80.5, 80.5, 80.64286, 80.612244, 80.530617, 80.678574, 80.68367, 80.714287, 80.64286, 80.571426, 80.571426, 80.64286, 80.4375, 80.3125, 80.25, 80.25, 80.25, 80.375, 80.64286, 80.571426, 80.60714, 80.60714, 80.535713, 80.60714, 80.714287, 80.785713, 80.765312, 80.291664, 80.267853, 80.25, 80.375, 80.4375, 80.375, 80.3125, 80.25, 80.3125, 80.60714, 80.60714, 80.535713, 80.5, 80.464287, 80.535713, 80.60714, 80.64286, 80.535713, 80.428574, 80.464287, 80.464287, 80.535713, 80.571426, 80.571426, 80.571426, 80.60714, 80.64286, 80.64286, 80.535713, 80.571426, 80.571426, 80.5, 80.464287, 80.214287, 79.9375, 79.875, 80.214287, 80.321426, 80.408157, 80.591843, 80.540817, 80.413261, 80.224487, 80.14286, 80.14286, 80.214287, 80.321426, 80.428574, 80.535713, 80.64286, 80.714287, 80.5625, 80.5, 80.375, 80.3125, 80.125, 80.125, 80.464287, 80.535713, 80.64286, 80.678574, 80.714287, 80.714287, 80.714287, 80.571426, 80.5, 80.428574, 80.583336, 80.666664, 80.583336, 80.458336, 80.458336, 80.458336, 80.541664, 80.75, 80.75, 80.791664, 80.64286, 80.5, 80.5, 80.375, 80.3125, 80.35714, 80.285713, 80.35714, 80.35714, 80.39286, 80.5, 80.571426, 80.60714, 80.535713, 80.5, 80.428574, 80.464287, 80.64286, 80.785713, 80.85714, 80.85714, 80.714287, 80.330353, 80.375, 80.4375, 80.214287, 80.285713, 80.285713, 80.178574, 80.375, 80.25, 80.25, 80.3125, 80.3125, 80.375, 80.375, 80.375, 80.303574, 80.175003, 80.241074, 80.311226, 80.625, 80.625, 80.464287, 80.3125, 80.25, 80.1875, 80.125, 80.125, 80.125, 80.1875, 80.25, 80.25, 80.1875, 80.321426, 80.14286, 80.035713, 80.178574, 80.214287, 80.0625, 80, 79.875, 79.8125, 79.946426, 80.285713, 80.071426, 80, 80, 79.875, 80.071426, 80.10714, 80.14286, 80, 80.0625, 80.0625, 80.39286, 80.571426, 80.647957, 80.785713, 80.85714, 80.872452, 80.785713, 80.714287, 80.375, 80.556114
-10, -10, -10, -10, -10, -10, -10, -10, -10, -10, -10, -10, -10, -10, -10, -10, -10, -10, -10, -10, 80.1875, 80.60714, 80.571426, 80.375, 80.5625, 80.8125, 80.9375, 81.125, 81.125, 81.39286, 81.5, 81.535713, 81.5, 81.35714, 81.178574, 80.9375, 81, 81.125, 80.964287, 81.3125, 81.571426, 81.586739, 81.351189, 81.260201, 81.35714, 81.397957, 81.5, 81.625, 81.594383, 81.538261, 81.492348, 81.666664, 81.5, 81.4375, 81.410713, 81.308037, 81, 80.85714, 81, 81.035713, 81.3125, 81.375, 81.375, 81.64286, 81.678574, 81.60714, 81.535713, 81.5, 81.5, 81.535713, 81.464287, 81.35714, 81.39286, 81.3125, 81.4375, 81.5625, 81.5625, 81.64286, 81.571426, 81.5, 81.3125, 81.25, 81.125, 81.153061, 80.994896, 81.178574, 80.755104, 80.85714, 81.14286, 81.719383, 81.571426, 81.484688, 81.39286, 81.39286, 81.39286, 81.285713, 81.321426, 81.25, 81.0625, 81.0625, 81, 81, 81.0625, 81.1875, 81.428574, 81.5, 81.3125, 81.25, 81.1875, 81.133926, 81.666664, 81.666664, 81.875, 81.64286, 81.696426, 81.73214, 81.625, 81.696426, 81.89286, 81.785713, 81.875, 81.741074, 81.476189, 81.331627, 81.458336, 81.35714, 81.39286, 81.428574, 81.571426, 81.958336, 82.083336, 81.770401, 81.688774, 81.60714, 81.64286, 81.4375, 81.375, 81.375, 81.375, 81.4375, 81.348213, 81.479599, 81.571426, 81.647957, 81.5, 81.4375, 81.375, 81.375, 81.4375, 81.64286, 81.5, 81.39286, 81.39286, 81.133926, 81.166664, 81.366074, 81.303574, 81.375, 81.375, 81.3125, 81.3125, 81.4375, 81.5, 81.658165, 81.476189, 81.448975, 81.428574, 81.60714, 81.571426, 81.5, 81.5, 81.540817, 81.64286, 81.714287, 81.375, 81.3125, 81.3125, 81.3125, 81.4375, 81.785713, 81.755104, 81.484688, 81.448975, 81.428574, 81.5, 81.60714, 81.375, 81.375, 81.375, 81.4375, 81.714287, 81.714287, 81.678574, 81.714287, 81.714287, 81.678574, 81.535713, 81.321426, 81.25, 81.214287, 81.39286, 81.535713, 81.535713, 81.678574, 81.556114, 81.008926, 80.915176, 80.78125, 80.90625, 81.0625, 81.39286, 81.535713, 81.60714, 81.678574, 81.714287, 81.714287, 81.64286, 81.3125, 81.25, 81.1875, 81.25, 81.571426, 81.64286, 81.714287, 81.714287, 81.64286, 81.64286, 81.64286, 81.535713, 81.571426, 81.535713, 81.5, 81.571426, 81.5, 81.35714, 81.285713, 81.214287, 81.285713, 81.5, 81.571426, 81.678574, 81.64286, 81.60714, 81.4375, 81.348213, 81.571426, 80.964287, 81.39286, 81.1875, 80.928574, 81.25, 81.375, 81.375, 81.571426, 81.428574, 81.321426, 81.285713, 81.35714, 81.571426, 81.75, 81.89286, 81.821426, 81.678574, 81.484688, 81.5, 81.64286, 81.916664, 81.916664, 81.875, 81.666664, 81.35714, 81.341835, 81.630959, 81.666672, 81.535713, 81.571426, 81.5, 81.5, 81.241074, 81.112503, 81.418373, 81.454086, 81.571426, 81.571426, 81.535713, 81.5, 81.39286, 81.09375, 81.03125, 80.96875, 80.96875, 81.0625, 81.35714, 81.464287, 81.428574, 81.35714, 81.178574, 80.8125, 80.875, 80.875, 80.875, 80.8125, 80.75, 80.6875, 80.821426, 81.321426, 81.583336, 81.666664, 81.125, 80.955353, 80.712502, 80.8125, 80.741074, 80.8125, 80.8125, 80.9375, 81.125, 81.375, 81.755104, 81.85714, 81.928574, 81.908165, 81.785713, 81.75, 81.64286, 81.653061, 81.583336, 81.458336, 81.166664, 80.663261, 80.5, 80.60714, 80.9375, 81.083336, 80.777779, -10, -10, -10, -10, -10, -10, -10, -10, -10, -10, -10, -10, -10, -10, -10, -10, -10, -10, -10, -10, -10, -10, -10, -10, -10, -10, -10, -10, -10, -10, -10, -10, -10, -10, -10, -10, -10, -10, -10, -10, -10, -10, -10, -10, -10, -10, -10, -10, -10, -10, -10, -10, -10, -10, -10, -10, -10, -10, -10, -10, -10, -10, 81.26667, 81.39286, 81.400002, 81.538696, 81.803574, 81.64286, 82.125, 82.285713, 82.428574, 82.571426, 82.60714, 82.64286, 82.25, 82, 81.875, 81.8125, 82.035713, 82.416664, 82.25, 82.375, 82.482147, 82.229164, 82.397957, 82.464287, 82.469383, 82.60714, 82.678574, 82.473213, 82.653061, 82.612244, 82.571426, 82.60714, 82.571426, 82.535713, 82.48214, 82.645836, 82.6875, 82.729164, 82.75, 82.464287, 82.535713, 82.535713, 82.60714, 82.714287, 82.4375, 82.375, 82.375, 82.3125, 82.3125, 82.464287, 82.35714, 82.5, 82.571426, 82.678574, 82.714287, 82.571426, 82.25, 82.125, 82.125, 82.125, 82.125, 81.85714, 82.321426, 82.265312, 82.428574, 82.73214, 82.791664, 82.916664, 82.734688, 82.571426, 82.510201, 82.464287, 82.464287, 82.535713, 82.464287, 82.428574, 82.35714, 82.321426, 82.125, 82.0625, 82.214287, 82.285713, 82.35714, 82.125, 82.25, 82.1875, 82.321426, 82.35714, 82.331627, 82.571426, 82.64286, 82.821426, 82.785713, 82.821426, 82.85714, 82.785713, 82.625, 82.75, 82.8125, 82.9375, 82.866074, 82.190475, 82.318451, 82.229164, 82.60714, 82.60714, 82.535713, 82.64286, 82.785713, 82.89286, 82.580353, 82.508926, 82.4375, 82.4375, 82.64286, 82.571426, 82.571426, 82.5, 82.3125, 82.25, 82.25, 82.375, 82.473213, 82.4375, 82.3125, 82.35714, 82.35714, 82.5, 82.535713, 82.428574, 82.285713, 82.285713, 82.008926, 82.104164, 82.366074, 82.303574, 82.3125, 82.25, 82.125, 82.125, 82.3125, 82.4375, 82.419647, 82.523804, 82.510201, 82.5, 82.678574, 82.60714, 82.571426, 82.60714, 82.647957, 82.714287, 82.678574, 82.25, 82.1875, 82.1875, 82.25, 82.64286, 82.785713, 82.755104, 82.330353, 82.330353, 82.3125, 82.375, 82.64286, 82.571426, 82.5, 82.428574, 82.5, 82.5, 82.5, 82.571426, 82.64286, 82.714287, 82.785713, 82.678574, 82.5, 82.464287, 82.428574, 82.464287, 82.5, 82.39286, 82.3125, 82.330353, 81.785713, 81.688774, 81.535713, 82.178574, 82.214287, 82.321426, 82.428574, 82.535713, 82.64286, 82.714287, 82.714287, 82.678574, 82.571426, 82.535713, 82.5, 82.535713, 82.64286, 82.678574, 82.714287, 82.64286, 82.3125, 82.25, 82.1875, 82.125, 82.35714, 82.35714, 82.35714, 82.510201, 82.64286, 82.25, 82.142853, 82, 82, 82.25, 82.375, 82.5, 82.5, 82.4375, 82.64286, 82.612244, 82.64286, 82.791664, 82.5, 82.5, 82.583336, 82.428574, 82.5, 82.3125, 82.375, 82.25, 81.969383, 82.119057, 82.204086, 82.39286, 82.705353, 82.75, 82.625, 82.5, 82.510201, 82.5, 82.64286, 82.714287, 82.785713, 82.75, 82.60714, 82.571426, 82.663261, 82.988098, 83.059525, 82.85714, 82.714287, 82.448975, 82.39286, 82.239799, 82.128578, 82.275513, 82.382652, 82.5, 82.5, 82.3125, 82.464287, 82.428574, 82.35714, 82.285713, 82.214287, 81.96875, 82.321426, 82.535713, 82.64286, 82.64286, 82.535713, 82.125, 81.9375, 81.875, 81.875, 81.8125, 81.571426, 81.60714, 81.535713, 81.928566, 82.39286, 82.428574, 82.5, 82.285713, 82.163261, 81.349998, 81.8125, 81.489799, 81.571426, 81.571426, 81.9375, 82.125, 82.375, 82.755104, 82.625, 82.6875, 82.669647, 82.785713, 82.785713, 82.75, 82.714287
-10, -10, -10, -10, -10, -10, -10, -10, -10, -10, -10, -10, -10, -10, -10, -10, -10, -10, -10, -10, -10, -10, 82.14286, 82.114281, 83.034012, 83.204086, 83.5, 83.35714, 83.35714, 83.464287, 83.375, 83.375, 83.60714, 83.428574, 83.25, 83.214287, 82.833336, 82.958336, 83.125, 83.464287, 83.377548, 83.464287, 83.1875, 83.1875, 83.535713, 83.540817, 83.64286, 83.64286, 83.60714, 83.64286, 83.64286, 83.714287, 83.64286, 83.3125, 83.39286, 83.35714, 83.39286, 83.428574, 83.464287, 83.464287, 83.428574, 83.60714, 83.647957, 83.401787, 83.714287, 83.5, 83.428574, 83.35714, 83.125, 83.1875, 83.25, 83.25, 83.571426, 83.64286, 83.64286, 83.571426, 83.1875, 83.0625, 83, 83.0625, 83.0625, 83.25, 83.458336, 83.321426, 83.35714, 83.5, 83.678574, 83.678574, 83.714287, 83.678574, 83.535713, 83.464287, 83.464287, 83.464287, 83.535713, 83.571426, 83.571426, 83.535713, 83.464287, 83.39286, 83.35714, 83.25, 83.214287, 83.25, 83.0625, 83.1875, 83.1875, 83.428574, 83.535713, 83.540817, 83.714287, 83.785713, 83.6875, 83.75, 83.678574, 83.678574, 83.64286, 83.714287, 83.85714, 83.85714, 83.928574, 83.928574, 84.083336, 84.020836, 83.9375, 83.714287, 83.714287, 83.4375, 83.5, 83.625, 83.6875, 83.580353, 83.508926, 83.64286, 83.64286, 83.678574, 83.64286, 83.64286, 83.571426, 83.535713, 83.3125, 83.3125, 83.5, 83.5, 83.39286, 83.214287, 82.9375, 83, 83.1875, 83.25, 83.1875, 82.96875, 82.818748, 82.91964, 83.124146, 83.418373, 83.311226, 83.285713, 83.25, 83.14286, 83.178574, 83.35714, 83.464287, 83.3125, 83.375, 83.375, 83.375, 83.714287, 83.64286, 83.64286, 83.714287, 83.755104, 83.714287, 83.375, 83.0625, 83.214287, 83.285713, 83.428574, 83.678574, 83.785713, 83.755104, 83.484688, 83.413261, 83.39286, 83.464287, 83.60714, 83.64286, 83.571426, 83.428574, 83.1875, 83.1875, 83.25, 83.375, 83.401787, 83.5, 83.5, 83.5, 83.60714, 83.535713, 83.464287, 83.39286, 83.1875, 83.125, 83.1875, 83.294647, 83.720238, 83.729164, 83.6875, 83.311226, 82.987503, 83.178574, 83.241074, 83.375, 83.4375, 83.714287, 83.714287, 83.714287, 83.678574, 83.678574, 83.60714, 83.60714, 83.64286, 83.64286, 83.714287, 83.4375, 83.3125, 83.25, 82.928574, 82.85714, 82.928574, 82.928574, 82.928574, 83.321426, 83.60714, 83.35714, 83.234688, 82.875, 82.714287, 83.223213, 83.276787, 83.4375, 83.571426, 83.64286, 83.678574, 83.68367, 83.64286, 83.535713, 83.464287, 83.464287, 83.428574, 83.535713, 83.571426, 83.535713, 83.571426, 83.5, 83.845238, 84.19445, 84.26786, 84.291664, 83.913261, 83.89286, 83.5, 83.64286, 83.482147, 83.553574, 83.39286, 83.625, 83.517853, 83.5, 83.375, 83.571426, 83.734688, 84.023811, 84.095238, 83.928574, 83.785713, 83.392853, 83.348213, 83.071426, 82.871429, 82.928574, 82.991074, 83.0625, 83.125, 83.1875, 83.25, 83.535713, 83.535713, 83.5, 83.428574, 83.39286, 83.464287, 83.64286, 83.714287, 83.75, 83.64286, 83.39286, 83.214287, 83.071426, 83.10714, 83.178574, 83.541664, 83.625, 83.583336, 83.672615, 83.375, 83.410713, 83.330353, 83.295914, 83.127548, 83.01667, 82.928574, 83.119049, 83.166664, 83.25, 83.214287, 83.39286, 83.60714, 83.473213, 83.4375, 83.375, 83.3125, 83.375, 83.4375, 83.5, 83.64286, 83.571426, 83.39286, 83.214287, 83.14286, 83.178574, 83.25, 83.39286, 83.511909, -10, -10, -10, -10, -10, -10, -10, -10, -10, -10, -10, -10, -10, -10, -10, -10, -10, -10, -10, -10, -10, -10, -10, -10, -10, -10, -10, -10, -10, -10, -10, -10, -10, -10, -10, -10, -10, -10, -10, -10, -10, -10, -10, -10, -10, -10, -10, -10, -10, -10, -10, -10, -10, -10, -10, -10, -10, -10, -10, -10, -10, -10, -10, -10, 83.5, 84.400002, 84.285713, 84.346939, 84.35714, 84.321426, 84.285713, 84.321426, 84.25, 84.25, 84.375, 84.535713, 84.428574, 84.428574, 84.583336, 84.708336, 84.791664, 84.571426, 84.267853, 84.25, 84.35714, 84.35714, 84.25, 84.348213, 84.4375, 84.4375, 84.4375, 84.4375, 84.4375, 84.64286, 84.375, 84.25, 84.1875, 84.25, 84.3125, 84.3125, 84.3125, 84.3125, 84.25, 84.64286, 84.68367, 84.401787, 84.785713, 84.375, 84.571426, 83.964287, 83.89286, 84.25, 84.535713, 84.571426, 84.64286, 84.64286, 84.535713, 84.25, 84.0625, 83.9375, 84.071426, 84.10714, 84.071426, 84.214287, 84.285713, 84.39286, 84.5, 84.375, 84.5625, 84.5, 84.4375, 84.3125, 84.1875, 84.125, 84.125, 84.125, 84.125, 84.1875, 84.428574, 84.5, 84.535713, 84.571426, 84.571426, 84.428574, 84.125, 84.125, 84.321426, 84.464287, 84.5, 84.535713, 84.64286, 84.571426, 84.571426, 84.571426, 84.571426, 84.375, 84.375, 84.4375, 84.375, 84.375, 84.4375, 84.4375, 84.5625, 84.85714, 84.928574, 84.875, 84.803574, 84.76786, 84.73214, 84.64286, 84.64286, 84.64286, 84.64286, 84.678574, 84.678574, 84.678574, 84.678574, 84.714287, 84.714287, 84.714287, 84.571426, 84.535713, 84.5, 84.5, 84.571426, 84.3125, 84.035713, 83.89286, 83.785713, 84.089287, 84.1875, 84.1875, 84.116074, 83.768753, 83.466324, 83.910713, 84.014877, 84.209824, 84.084824, 84.0625, 84.0625, 84, 84, 84.0625, 84.25, 84.285713, 84.321426, 84.39286, 84.464287, 84.64286, 84.678574, 84.678574, 84.64286, 84.410713, 84.3125, 84.125, 83.9375, 84, 84.125, 84.535713, 84.714287, 84.5625, 84.473213, 84.510201, 84.142853, 84.35714, 84.25, 84.375, 84.714287, 84.64286, 84.3125, 84.3125, 84.25, 84.3125, 84.64286, 84.401787, 84.714287, 84.5, 84.678574, 84.535713, 84.464287, 84.1875, 84.1875, 84.1875, 84.125, 84.321426, 84.418373, 84.438774, 84.410713, 84.375, 84.221939, 83.800003, 83.928574, 84.053574, 84.35714, 84.428574, 84.591835, 84.714287, 84.714287, 84.785713, 84.64286, 84.375, 84.375, 84.375, 84.4375, 84.678574, 84.535713, 84.428574, 84.35714, 84.541664, 84.541664, 84.5, 84.416664, 84.416664, 84.367348, 84.375, 84.25, 84.377548, 84.25, 84.541664, 84.469383, 84.494896, 84.571426, 84.464287, 84.464287, 84.428574, 84.285713, 84.3125, 84.25, 84.25, 84.3125, 84.3125, 84.64286, 84.571426, 84.464287, 84.5, 84.464287, 84.653061, 85.095238, 85.158165, 85.14286, 84.984688, 84.85714, 84.75, 84.75, 84.872452, 84.954086, 85.125, 84.785713, 84.392853, 84.3125, 84.1875, 84.428574, 84.510201, 84.583336, 84.708336, 84.85714, 84.714287, 84.556114, 84.469383, 84.080353, 84.071426, 83.714287, 83.821426, 83.821426, 83.89286, 84.1875, 84.321426, 84.464287, 84.51786, 84.589287, 84.625, 84.589287, 84.60714, 84.64286, 84.678574, 84.64286, 84.60714, 84.5, 84.39286, 84.35714, 84.35714, 84.35714, 84.5, 84.571426, 84.571426, 84.678574, 84.64286, 84.647957, 84.330353, 84.125, 83.747025, 83.667343, 83.714287, 83.887756, 84.040817, 84.14286, 84.25, 84.285713, 84.464287, 84.3125, 84.25, 84.1875, 84.0625, 84.125, 84.25, 84.375, 84.4375
-10, -10, -10, -10, -10, -10, -10, -10, -10, -10, -10, -10, -10, -10, -10, -10, -10, -10, -10, -10, -10, -10, -10, 85.200005, 85.238098, 85.053574, 85.0625, 85.0625, 84.973213, 84.901787, 85.0625, 85.107147, 85.3125, 85.535713, 85.428574, 85.39286, 85.285713, 85.428574, 85.464287, 85.428574, 85.413261, 85.1875, 85.39286, 85.464287, 85.25, 85.535713, 85.375, 85.375, 85.64286, 85.64286, 85.571426, 85.375, 85.3125, 85.39286, 85.39286, 85.39286, 85.42347, 85.285713, 85.25, 85.3125, 85.464287, 85.678574, 85.719383, 85.637756, 85.785713, 85.64286, 85.64286, 85.791664, 85.75, 85.571426, 85.64286, 85.64286, 85.571426, 85.3125, 85.1875, 85.125, 85.214287, 85.321426, 85.35714, 85.321426, 85.026787, 85.125, 85.125, 85.25, 85.5, 85.571426, 85.785713, 85.5, 85.14286, 85.035713, 85.125, 85.0625, 85.0625, 85.0625, 84.85714, 84.928574, 85.25, 85.3125, 85.60714, 85.678574, 85.64286, 85.464287, 85.321426, 85.321426, 85.35714, 85.5, 85.571426, 85.5, 85.464287, 85.428574, 85.1875, 85.25, 85.3125, 85.375, 85.4375, 85.5, 85.4375, 85.375, 85.375, 85.375, 85.5, 85.625, 85.75, 85.71875, 85.65625, 85.59375, 85.53125, 85.678574, 85.678574, 85.678574, 85.678574, 85.714287, 85.714287, 85.714287, 85.714287, 85.714287, 85.714287, 85.64286, 85.535713, 85.464287, 85.464287, 85.464287, 85.520401, 85.612244, 85.75, 85.75, 85.541664, 85.352043, 85.35714, 85.285713, 85.275513, 84.737503, 85.263092, 85.244896, 85.290817, 85.09375, 84.96875, 85, 85.0625, 84.991074, 84.925003, 85.053574, 85.053574, 84.928574, 85.125, 85.125, 85.125, 85.1875, 85.428574, 85.428574, 85.25, 85.1875, 85.0625, 84.875, 84.8125, 85.14286, 85.35714, 85.60714, 85.714287, 85.714287, 85.4375, 85.375, 85.3125, 85.071426, 85.4375, 85.5, 85.785713, 85.678574, 85.571426, 85.571426, 85.535713, 85.60714, 85.714287, 85.67347, 85.678574, 85.571426, 85.5, 85.1875, 85.1875, 85.1875, 85.39286, 85.428574, 85.535713, 85.535713, 85.375, 85.229599, 85.14286, 85.14286, 84.918373, 84.628578, 84.704086, 85.239799, 85.0625, 85.125, 85.267853, 85.64286, 85.714287, 85.714287, 85.375, 85.3125, 85.3125, 85.375, 85.64286, 85.46875, 85.34375, 85.535713, 85.428574, 85.35714, 85.35714, 85.285713, 85.285713, 85.285713, 85.32653, 85.1875, 85.25, 85.224487, 85.25, 85.428574, 85.57653, 85.602043, 85.60714, 85.3125, 85.3125, 85, 85, 85.25, 85.1875, 85.25, 85.3125, 85.535713, 85.678574, 85.60714, 85.25, 85.25, 85.267853, 85.571426, 85.958336, 86.044647, 85.9375, 85.767853, 85.625, 85.785713, 85.85714, 86.086739, 86.239799, 86.25, 86.035713, 85.734688, 85.375, 85.25, 85.3125, 85.14286, 85.5, 85.625, 85.625, 85.5, 85.653061, 85.57653, 85.377548, 85.367348, 85.5, 85.625, 85.625, 85.75, 85.571426, 85.428574, 85.205353, 85.1875, 85.1875, 85.5, 85.571426, 85.64286, 85.5, 85.5, 85.4375, 85.5, 85.4375, 85.60714, 85.64286, 85.64286, 85.64286, 85.5, 85.5, 85.375, 85.4375, 85.60714, 85.647957, 85.484688, 85.214287, 84.729164, 84.571426, 84.321426, 84.75, 84.785713, 84.875, 84.9375, 84.9375, 85.0625, 85.125, 85.0625, 85, 84.875, 84.9375, 85.0625, 85.1875, 85.428574, 85.35714, 85.321426, 85.416664, 85.416664, 85.238098, 84.949997, 85.199997, 85.333336, -10, -10, -10, -10, -10, -10, -10, -10, -10, -10, -10, -10, -10, -10, -10, -10, -10, -10, -10, -10, -10, -10, -10, -10, -10, -10, -10, -10, -10, -10, -10, -10, -10, -10, -10, -10, -10, -10, -10, -10, -10, -10, -10, -10, -10, -10, -10, -10, -10, -10, -10, -10, -10, -10, -10, -10, -10, -10, -10, -10, -10, -10, -10, -10, -10, 85.666664, 85.916664, 85.875, 85.8125, 85.875, 85.910713, 85.901787, 86.125, 86.169647, 86.464287, 86.464287, 86.1875, 86.1875, 86.1875, 86.375, 86.3125, 86.25, 86.205353, 86.35714, 86.5, 86.571426, 86.535713, 86.60714, 86.60714, 86.535713, 86.60714, 86.60714, 86.535713, 86.375, 86.535713, 86.5, 86.464287, 86.464287, 86.494896, 86.505104, 86.535713, 86.60714, 86.571426, 86.714287, 86.535713, 86.693886, 86.714287, 86.64286, 86.64286, 86.60714, 86.678574, 86.64286, 86.60714, 86.3125, 86.125, 86.0625, 86, 86.285713, 86.39286, 86.535713, 86.571426, 86.464287, 86.352043, 86.39286, 86.35714, 86.5, 86.571426, 86.64286, 86.821426, 86.678574, 86.708336, 86.583336, 86.25, 86.285713, 86.35714, 86.35714, 86.583336, 86.625, 86.5, 86.571426, 86.64286, 86.64286, 86.535713, 86.428574, 86.321426, 86.39286, 86.5, 86.34375, 86.4375, 86.375, 86.3125, 86.28125, 86.125, 86.0625, 86.0625, 86.321426, 86.5, 86.571426, 86.5, 86.321426, 86.285713, 86.35714, 86.428574, 86.5, 86.571426, 86.571426, 86.64286, 86.714287, 86.714287, 86.714287, 86.714287, 86.714287, 86.714287, 86.714287, 86.714287, 86.714287, 86.714287, 86.714287, 86.714287, 86.4375, 86.375, 86.3125, 86.3125, 86.3125, 86.330353, 86.68367, 86.678574, 86.714287, 86.5, 86.42347, 86.285713, 86.14286, 86.132652, 85.914291, 86.118362, 86.295914, 86.377548, 86.09375, 86.160713, 86.14286, 86.214287, 86.204086, 85.925003, 86.275513, 85.991074, 86.416664, 86, 86.0625, 86.125, 85.928574, 86, 86, 86.25, 86.1875, 86, 85.8125, 86.035713, 86.178574, 86.428574, 86.678574, 86.64286, 86.64286, 86.571426, 86.535713, 86.571426, 86.833336, 86.714287, 86.678574, 86.714287, 86.64286, 86.60714, 86.64286, 86.571426, 86.535713, 86.5, 86.479599, 86.25, 86.125, 86.125, 86.0625, 86.125, 86.35714, 86.464287, 86.535713, 86.64286, 86.678574, 86.571426, 86.708336, 86.583336, 86.583336, 86.535713, 86.366669, 86.369049, 86.17347, 86.125, 86.294647, 86.091835, 86.5625, 86.714287, 86.375, 86.1875, 86.25, 86.25, 86.39286, 86.535713, 86.60714, 86.60714, 86.60714, 86.34375, 86.25, 86.1875, 86.0625, 86, 86.0625, 86.125, 86.125, 85.85714, 85.85714, 86.1875, 86.375, 86.473213, 86.693886, 86.64286, 86.535713, 86.5, 86.666664, 86.666664, 86.464287, 86.428574, 86.5, 86.571426, 86.60714, 86.714287, 86.64286, 86.3125, 86.25, 86.267853, 86.4375, 86.5, 86.678574, 86.375, 86.375, 86.3125, 86.571426, 86.785713, 87.061226, 87.051025, 86.974487, 86.821426, 86.653061, 86.571426, 86.5, 86.464287, 86.666664, 86.5, 86.5, 86.5, 86.5, 86.4375, 86.58036, 86.795914, 86.547615, 86.785713, 86.785713, 86.714287, 86.75, 86.714287, 86.535713, 86.267853, 86.1875, 85.928574, 86.3125, 86.3125, 86.375, 86.571426, 86.571426, 86.571426, 86.64286, 86.678574, 86.678574, 86.75, 86.75, 86.714287, 86.714287, 86.64286, 86.3125, 86.375, 86.4375, 86.473213, 86.581627, 86.387756, 86.047615, 85.795914, 85.958336, 85.785713, 85.755104, 85.6875, 85.723213, 85.651787, 85.8125, 85.8125, 85.8125, 85.964287, 85.85714, 85.89286, 85.8125, 85.9375, 86
-10, -10, -10, -10, -10, -10, -10, -10, -10, -10, -10, -10, -10, -10, -10, -10, -10, -10, -10, -10, -10, -10, -10, -10, 86.222221, 86.541664, 86.612503, 86.964287, 87.147957, 87.06633, 87.285713, 87.265312, 87.25, 87.125, 87.125, 87.125, 87.1875, 87.5, 87.25, 87.25, 87.3125, 87.535713, 87.678574, 87.75, 87.714287, 87.678574, 87.678574, 87.60714, 87.4375, 87.4375, 87.375, 87.60714, 87.60714, 87.60714, 87.60714, 87.3125, 87.276787, 87.505104, 87.535713, 87.678574, 87.60714, 87.64286, 87.64286, 87.64286, 87.5625, 87.5625, 87.5625, 87.5625, 87.5625, 87.5, 87.375, 87.1875, 87, 86.9375, 87.14286, 87.285713, 87.428574, 87.571426, 87.64286, 87.60714, 87.530617, 87.535713, 87.428574, 87.464287, 87.428574, 87.428574, 87.64286, 87.60714, 87.571426, 87.464287, 87.321426, 87.39286, 87.464287, 87.535713, 87.571426, 87.571426, 87.60714, 87.571426, 87.535713, 87.25, 87.125, 87.0625, 87, 87.0625, 87.285713, 87.39286, 87.5, 87.5, 87.5, 87.5, 87.35714, 87.25, 87.178574, 87.0625, 87.25, 87.375, 87.3125, 87.0625, 87.178574, 87.178574, 87.214287, 87.0625, 87.1875, 87.1875, 87.3125, 87.64286, 87.64286, 87.64286, 87.64286, 87.64286, 87.64286, 87.714287, 87.714287, 87.714287, 87.714287, 87.714287, 87.64286, 87.571426, 87.535713, 87.464287, 87.535713, 87.535713, 87.520401, 87.68367, 87.5, 87.5625, 87.4375, 87.339287, 87.1875, 86.785713, 86.775513, 86.628578, 87.116074, 87.116074, 87.125, 87.260201, 87.299995, 87.234688, 87.5, 87.540817, 87.485718, 87.596939, 87.418373, 87.35714, 87.285713, 87.321426, 87.285713, 87.458336, 87.416664, 87.416664, 87.321426, 87.35714, 87.239799, 87.042854, 87.25, 87.35714, 87.60714, 87.714287, 87.375, 87.375, 87.464287, 87.464287, 87.64286, 87.714287, 87.821426, 87.678574, 87.375, 87.3125, 87.3125, 87.4375, 87.4375, 87.375, 87.071426, 87.071426, 87.035713, 86.964287, 86.928574, 87.083336, 87.428574, 87.459183, 87.464287, 87.25, 87.3125, 87.464287, 87.35714, 87.39286, 87.35714, 87.428574, 87.428574, 87.285713, 87.14286, 87.035713, 87.178574, 87.443886, 87.761902, 87.785713, 87.714287, 87.375, 87.1875, 86.85714, 86.85714, 87.1875, 87.3125, 87.34375, 87.589287, 87.660713, 87.589287, 87.464287, 87.1875, 87, 86.9375, 87.178574, 87.14286, 87.270401, 87.599998, 87.428566, 87.295914, 87.285713, 87.428574, 87.5, 87.464287, 87.5, 87.464287, 87.5, 87.571426, 87.60714, 87.60714, 87.64286, 87.678574, 87.678574, 87.714287, 87.678574, 87.5, 87.428574, 87.448975, 87.535713, 87.4375, 87.25, 87.10714, 87.10714, 87.035713, 87.375, 87.5625, 87.75, 87.705353, 87.696426, 87.598213, 87.464287, 87.678574, 87.571426, 87.60714, 87.571426, 87.60714, 87.571426, 87.3125, 87.25, 87.535713, 87.729599, 87.821426, 88.166664, 87.928574, 87.89286, 87.821426, 87.5625, 87.64286, 87.428574, 87.306114, 87.285713, 87.541664, 87.428574, 87.1875, 87.1875, 87.321426, 87.39286, 87.428574, 87.5, 87.60714, 87.535713, 87.571426, 87.571426, 87.464287, 87.535713, 87.535713, 87.464287, 87.571426, 87.5, 87.5, 87.428574, 87.244896, 87.166664, 87.040817, 86.964287, 86.89286, 86.428574, 86.678574, 86.473213, 86.339287, 86.4375, 86.5, 86.5625, 86.625, 86.625, 86.625, 86.25, 86.333336, 86.416664, 86.416664, -10, -10, -10, -10, -10, -10, -10, -10, -10, -10, -10, -10, -10, -10, -10, -10, -10, -10, -10, -10, -10, -10, -10, -10, -10, -10, -10, -10, -10, -10, -10, -10, -10, -10, -10, -10, -10, -10, -10, -10, -10, -10, -10, -10, -10, -10, -10, -10, -10, -10, -10, -10, -10, -10, -10, -10, -10, -10, -10, -10, -10, -10, -10, -10, -10, -10, -10, -10, -10, -10, -10, -10, -10, -10, 86.888885, 87.914291, 88.083328, 88.306129, 88.336731, 88.464287, 88.169647, 87.875, 87.910713, 88.464287, 88.5, 88.571426, 88.535713, 88.39286, 88.321426, 88.35714, 88.5, 88.678574, 88.785713, 88.785713, 88.64286, 88.64286, 88.571426, 88.571426, 88.571426, 88.535713, 88.60714, 88.60714, 88.60714, 88.5, 88.321426, 88.098213, 88.348213, 88.375, 88.5, 88.3125, 88.330353, 88.4375, 88.4375, 88.785713, 88.714287, 88.64286, 88.64286, 88.571426, 88.5, 88.1875, 87.9375, 88, 88.035713, 88.178574, 88.35714, 88.3125, 88.375, 88.4375, 88.571426, 88.479591, 88.464287, 88.35714, 88.1875, 88.1875, 88, 88.4375, 88.4375, 88.4375, 88.375, 88.39286, 88.39286, 88.39286, 88.464287, 88.5, 88.571426, 88.64286, 88.375, 88.375, 88.1875, 88.0625, 88, 87.9375, 88, 88, 88.03125, 88.125, 88.428574, 88.535713, 88.553574, 88.39286, 88.14286, 87.839287, 88.044647, 88.241074, 88.375, 88.375, 88.1875, 88.125, 87.85714, 87.85714, 87.85714, 88.1875, 88.1875, 88.3125, 88.4375, 88.375, 88.375, 88.4375, 88.473213, 88.5, 88.714287, 88.67347, 88.836739, 88.836739, 88.85714, 88.5, 88.60714, 88.535713, 88.428574, 88.428574, 88.428574, 88.438774, 88.410713, 88.375, 88.4375, 88.571426, 88.428574, 88.39286, 88.5, 88.5, 88.5, 88.25, 88.0625, 88, 88.331627, 88.478569, 88.306114, 88.535713, 88.581642, 88.528572, 88.67347, 88.602043, 88.622452, 88.586739, 88.5, 88.464287, 88.285713, 88.214287, 88.14286, 88.178574, 88.321426, 88.311226, 88.221428, 88.464287, 88.5, 88.678574, 88.64286, 88.3125, 88.3125, 88.25, 88.3125, 88.5, 88.5625, 88.625, 88.5, 88.4375, 88.348213, 88.205353, 88.267853, 88.428574, 88.428574, 88.666664, 88.666664, 88.708336, 88.666664, 88.75, 88.791664, 88.571426, 88.56633, 88.375, 88.285713, 88.205353, 88.205353, 88.125, 88.25, 88.3125, 88.375, 88.375, 88.25, 88.125, 87.714287, 88.125, 88.622452, 88.714287, 88.821426, 88.714287, 88.535713, 88.464287, 88.541664, 88.458336, 88.0625, 88.125, 88.25, 88.4375, 88.785713, 88.75, 88.64286, 88.5, 88.285713, 88.25, 88.0625, 88, 88.413261, 88.514282, 88.438774, 88.474487, 87.89286, 88.035713, 88.3125, 88.3125, 88.375, 88.375, 88.4375, 88.714287, 88.714287, 88.714287, 88.714287, 88.64286, 88.64286, 88.64286, 88.64286, 88.678574, 88.714287, 88.470238, 88.285713, 88.785713, 89, 88.916664, 88.833336, 88.833336, 88.5, 88.375, 88.5, 88.392853, 88.508926, 88.410713, 88.339287, 88.375, 88.3125, 88.64286, 88.64286, 88.714287, 88.64286, 88.571426, 88.25, 88.25, 88.357147, 88.375, 88.785713, 88.785713, 88.785713, 88.714287, 88.375, 88.3125, 88.1875, 88.142853, 88.464287, 88.428574, 88.464287, 88.35714, 88.0625, 88.0625, 88.0625, 88.125, 88.1875, 88.3125, 88.25, 88.1875, 88.1875, 88.0625, 88.125, 88.125, 88.35714, 88.5, 88.5, 88.3125, 88.25, 87.89286, 88.223213, 88.270401, 88.117348, 87.89286, 87.455353, 87.473213, 87.303574, 87.189285, 86.833336, 86.833336, 86.916664, 87, 87.083336, 87.083336, -10, -10, -10
