-10, -10, -10, -10, -10, -10, -10, -10, -10, -10, 49.75, 49.541664, 49.416668, 49.277775, 48.82143, 48.333332, 48.166668, 47.916668, 47.75, 47.5, 47.333332, 47, 47.011902, 47.277775, 47.404766, 47.666668, 47.833332, 47.833332, 47.277775, 47.194443, 47.361111, 47.488098, 47.761902, 48.194443, 48.309525, 48.416668, 48.416668, 48.154766, 47.833332, 47.833332, 47.892857, 48.083332, 48.059525, 48.019047, 48.015869, 47.285717, 47.42857, 47.166668, 47.166668, 47.166668, 47.107143, 47.388889, 47.5, 47.049999, 47.049999, 47, 47.291668, 47.25, 47.599998, 47.599998, 47.599998, 47.700001, 47.700001, 47.333332, 47.333332, 47.166668, 47, 47, 46.75, 46.583332, 46.666668, 46.738098, 46.833336, 46.885715, 46.799999, 47.0625, 46.5, 46.592857, 47.227676, 46.849998, 47.049999, 46.900002, 46.900002, 47, 47.559525, 47.666668, 47.476192, 46.912701, 46.214287, 46.099998, 46.200001, 46.642857, 46.511902, 46.273808, 46.166668, 46.083332, 46, 46.17857, 46.611111, 46.82143, 47, 47, 46.75, 46.583332, 46.5, 46.416668, 46.583332, 46.666668, 46.583332, 46.5, 46.535717, 46.559525, 46.488098, 46.099998, 46.392857, 46.476192, 46.5, 46.452381, 46.400002, 46.904766, 46.964283, 46.916668, 47.25, 47.05714, 46.523808, 46.345234, 46.083332, 46.035717, 46.166668, 46.309525, 46.714287, 46.950001, 46.799999, 46.459999, 46.764286, 46.533333, 46.492859, 46.700001, 46.214283, 46.023808, 46.055557, 46.194443, 46.32143, 46.333332, 46.25, 46.333332, 45.950001, 46.049999, 46.099998, 46.049999, 46.299999, 46.299999, 46.214287, 46.194443, 46.17857, 46.309525, 46.416668, 46.333332, 46.107143, 46.375, 46.375, 46.125, 46.077381, 46.083332, 45.916668, 45.916668, 45.833332, 45.75, 45.916668, 46, 46, 45.67857, 45.452381, 45.375, 45.541668, 45.875, 45.964283, 45.952381, 46.083332, 46.083332, 46.035717, 45.958332, 45.660717, 45.541668, 45.458332, 45.666668, 45.833332, 45.785717, 45.916668, 45.833332, 45.916668, 46, 46, 46, 46.083332, 45.799999, 46.238098, 45.888889, 45.857143, 45.833332, 45.833332, 45.958332, 45.875, 46.25, 46.349998, 46.450001, 46.154766, 45.916668, 46.083332, 46.083332, 46.107143, 46.095234, 46, 46.083332, 46.083332, 46.083332, 46.083332, 45.916668, 45.833332, 45.75, 45.400002, 45.400002, 45.400002, 45.583332, 45.5, 45.333332, 45.083332, 45.166668, 45.25, 45.416668, 45.583332, 45.666668, 45.833332, 45.833332, 45.75, 45.700001, 45.5, 45.450001, 45.607143, 45.583332, 45.583332, 45.75, 45.833332, 45.833332, 45.833332, 45.916668, 45.892857, 45.666668, 45.666668, 45.333332, 45.166668, 45.166668, 45.166668, 45.416668, 45.416668, 45.01667, 45.099998, 45.099998, 45.583332, 45.809525, 45.75, 45.666668, 45.5, 45.25, 45, 44.916668, 45, 45.226192, 45.416668, 45.5, 45.5, 45.416668, 45.25, 45.25, 45.25, 45.25, 45.333332, 45.333332, 45.416668, 45.333332, 45.333332, 45.25, 45.190475, 45.380951, 45.333332, 45.333332, 45.166668, 45.166668, 45.25, 45.25, 45.333332, 45.333332, 45.25, 45.416668, 45.380951, 45.285717, 45.333332, 45.25, 45.333332, 45.416668, 45.5, 45.583332, 45.595234, 45.80238, 45.726192, 45.67857, 45.666668, 45.5, 45.5, 45.5, 45.5, 45.5, 45.5, 45.583332, 45.708332, 45.791668, 45.791668, 46.083332, 47.055557, 47.345242, 47.619049, 47.833332, 48.142857, 48.5, 49.111111, 49.238098, 49.142857, 48.816666, 48.985714, 48.773335, -10, -10, -10, -10, -10, -10, -10, -10, -10, -10, -10, -10, -10, -10, -10, -10, -10, -10, -10, 20, 19.833332, 19.75, 19.5625, 19.333334, 19.388887, 19.375, 19.625, -10, -10, -10, -10, -10, -10, -10, -10, -10, -10, -10, -10, -10, -10, -10, -10, -10, -10, -10, -10, -10, -10, -10, -10, -10, -10, -10, -10, -10, -10, -10, 49.416668, 49.277775, 48.741074, 48.333332, 48.1875, 47.9375, 47.75, 47.5, 47.25, 46.875, 46.821426, 46.761906, 46.7449, 46.857143, 46.92857, 47.166668, 46.380951, 46.809521, 46.952381, 47.096943, 47.331631, 47.472225, 47.529758, 47.625, 47.892857, 47.668369, 47.42857, 47.42857, 47.479591, 47.642857, 47.586735, 47.55204, 47.549316, 46.651787, 46.821426, 46.625, 46.625, 46.5625, 46.455357, 46.652775, 46.666668, 46.25, 46.32143, 46.357143, 46.32143, 46.285713, 46.125, 46.208332, 46.354168, 46.458332, 46.541668, 46.607143, 46.607143, 46.57143, 46.357143, 46.357143, 46.17857, 46, 46, 46.030613, 46.238094, 46.346935, 46.357143, 46.125, 46.142857, 46.137756, 46.148808, 46.32143, 46.464287, 46.357143, 46.42857, 46.57143, 46.836735, 47.07143, 46.913265, 46.302723, 45.948978, 45.714287, 45.714287, 45.801022, 46.071426, 46.0625, 46.0625, 46.0625, 45.9375, 46.008926, 46.270832, 46.366074, 46.285713, 46.285713, 46.107143, 46, 46.125, 46.0625, 46.25, 46.3125, 46.25, 46.1875, 46.151787, 46.169643, 45.887756, 45.785713, 45.872448, 46.015308, 46.107143, 46.066326, 46.142857, 46.346943, 46.32653, 46.285713, 46.083332, 45.857143, 45.877552, 45.760201, 45.535713, 45.714287, 45.8125, 45.632652, 45.440475, 45.375, 45.166668, 45.024998, 45.297619, 45.347218, 45.392857, 45.541668, 45.591835, 45.705357, 45.827381, 45.761906, 45.816326, 45.75, 45.67857, 45.75, 45.67857, 45.75, 45.785713, 45.67857, 45.714287, 45.520409, 45.459187, 45.5, 45.602043, 46.044643, 45.964287, 45.892857, 45.663265, 45.369049, 45.333332, 45.535713, 45.4949, 45.5, 45.42857, 45.625, 45.625, 45.5625, 45.6875, 45.75, 45.57143, 45.508926, 45.339287, 45.28125, 45.40625, 45.625, 45.629463, 45.352043, 45.669643, 45.738094, 45.724491, 45.84375, 45.405613, 45.40625, 45.34375, 45.5625, 45.71875, 45.683037, 45.607143, 45.464287, 45.5, 45.57143, 45.464287, 45.392857, 45.42857, 45.464287, 45.637756, 45.729168, 45.705357, 45.6875, 45.6875, 45.535713, 45.5, 45.395832, 45.4375, 45.625, 45.928574, 45.75, 45.875, 45.8125, 45.830357, 45.821426, 45.5, 45.6875, 45.625, 45.5625, 45.5625, 45.285713, 45.285713, 45.285713, 45.214287, 45.142857, 45.07143, 45.1875, 45.125, 45, 44.8125, 44.875, 44.714287, 45.0625, 45.1875, 45.1875, 45.464287, 45.408165, 45.57143, 45.051022, 45.07143, 45.17857, 45.330357, 45.25, 45.295918, 45.392857, 45.42857, 45.42857, 45.42857, 45.535713, 45.551022, 45.1875, 45.25, 45, 44.875, 44.875, 44.875, 45.0625, 45.0625, 44.916668, 45, 45, 45.25, 45.392857, 45.205357, 45.142857, 45, 44.875, 44.75, 44.5, 44.57143, 44.919643, 45.0625, 45.125, 45.125, 45.0625, 44.9375, 44.9375, 44.9375, 44.9375, 45, 45, 45.0625, 45, 45.0625, 45.0625, 45.017857, 45.160713, 45.0625, 45.0625, 44.9375, 44.9375, 45, 44.9375, 45, 45, 44.9375, 45.0625, 45.035713, 44.964287, 45, 44.9375, 45, 45.0625, 45.125, 45.1875, 45.196426, 45.351784, 45.294643, 45.258926, 45.3125, 45.25, 45.3125, 45.375, 45.375, 45.375, 45.375, 45.5, 45.59375, 45.65625, 45.65625, 45.919643, 47.041668, 47.401787, 47.714287, 47.9375, 48.232143, 48.5625, 49.020832, 49.053574, 48.919643, 48.612499
-10, -10, -10, -10, -10, -10, -10, -10, -10, -10, -10, -10, -10, -10, 48.553574, 48.208332, 48.125, 47.9375, 47.75, 47.5, 47.1875, 46.75, 46.5625, 46.375, 46.241074, 45.833336, 45.724487, 45.375, 45.333332, 45.138885, 45.347218, 45.577381, 45.75, 45.791668, 45.666668, 45.708332, 45.75, 45.791668, 45.916668, 45.875, 45.791668, 45.833332, 45.69643, 45.676189, 45.805553, 45.734692, 45.836735, 45.637756, 45.67857, 45.535713, 45.5, 45.25, 45.166668, 45.357143, 45.42857, 45.5, 45.44643, 45.392857, 45.42857, 45.535713, 45.69643, 45.785713, 45.857143, 45.75, 45.75, 45.785713, 45.607143, 45.607143, 45.6875, 45.357143, 45.357143, 45.357143, 45.357143, 45.357143, 45.5625, 45.5, 45.4375, 45.464287, 45.341835, 45.392857, 45.5, 45.65625, 45.75, 45.9375, 46.169643, 46.375, 46.205357, 45.639881, 45.330357, 45.0625, 45.0625, 45.107143, 45.117344, 45.752975, 45.928574, 46.0625, 45.875, 45.8125, 45.6875, 45.5625, 45.42857, 45.42857, 45.5625, 45.5625, 45.5625, 45.5625, 45.6875, 45.776787, 45.785713, 45.75, 45.57143, 45.5625, 45.4375, 45.3125, 45.482143, 45.544643, 45.416668, 45.339287, 45.3125, 45.553574, 45.535713, 45.25, 45.214287, 45.020409, 45.142857, 45.071426, 44.9375, 45.0625, 45.1875, 45, 44.913265, 44.75, 44.5, 44.342857, 44.612244, 44.690472, 44.765308, 44.857143, 44.785713, 45, 45.098213, 45.125, 45.232143, 45.25, 45.1875, 45.1875, 45.0625, 45, 45, 44.875, 44.8125, 44.377552, 44.377552, 44.770832, 44.928574, 45.25, 45.375, 45.3125, 45.142857, 44.995537, 44.90625, 44.90625, 44.870537, 44.875, 44.875, 44.9375, 45, 45.0625, 45.1875, 45.1875, 45.1875, 45.125, 44.982143, 44.875, 45, 45.138393, 45.098213, 44.995537, 45.044643, 45.145832, 45.04018, 45.214287, 44.776787, 44.75, 44.8125, 45, 45.09375, 44.995537, 45.03125, 44.90625, 45, 45.0625, 44.9375, 44.84375, 44.78125, 44.78125, 44.96875, 45.0625, 45.0625, 45.0625, 45, 44.96875, 44.96875, 45.09375, 45.21875, 45.357143, 45.157742, 44.946426, 45.32143, 45.125, 45.17857, 45.133926, 45, 44.9375, 44.875, 44.642857, 44.642857, 44.75, 44.8125, 44.875, 44.875, 44.8125, 44.6875, 44.5625, 44.5, 44.4375, 44.3125, 44.3125, 44.3125, 44.4375, 44.5625, 44.5625, 44.333332, 44.125, 44.077381, 44.544643, 44.607143, 44.8125, 44.875, 44.875, 44.627552, 44.5, 44.333332, 44.25, 44.208332, 44.416668, 44.541668, 44.8125, 44.875, 44.6875, 44.482143, 44.375, 44.375, 44.5, 44.5625, 44.354168, 44.375, 44.375, 44.6875, 44.892857, 44.705357, 44.642857, 44.4375, 44.3125, 44.25, 44.1875, 44.25, 44.419643, 44.5625, 44.6875, 44.6875, 44.625, 44.5625, 44.5, 44.5, 44.5, 44.5, 44.5, 44.5625, 44.5, 44.5625, 44.625, 44.517857, 44.660713, 44.5625, 44.5625, 44.5625, 44.5625, 44.625, 44.5625, 44.5625, 44.5625, 44.5, 44.5625, 44.535713, 44.464287, 44.5, 44.4375, 44.5, 44.5625, 44.625, 44.625, 44.633926, 44.726784, 44.607143, 44.633926, 44.6875, 44.75, 44.9375, 45.0625, 45.125, 45.125, 45.125, 45.25, 45.40625, 45.53125, 45.65625, 45.982143, 47.166668, 47.589287, 47.901787, 48.0625, 48.232143, 48.375, 48.4375, 48.375, 48.169643, 47.924999, 47.928574, 47.816669, -10, -10, -10, -10, -10, -10, -10, -10, -10, -10, -10, -10, -10, -10, -10, -10, -10, -10, -10, 19.875, 19.749998, 19.6875, 19.5625, 19.4375, 19.375, 19.3125, 19.3125, 19.111113, 19.125, 19.166668, -10, -10, -10, -10, -10, -10, -10, -10, -10, -10, -10, -10, -10, -10, -10, -10, -10, -10, -10, -10, -10, -10, -10, -10, -10, -10, -10, -10, -10, -10, 48.375, 48.208332, 48.125, 48, 47.75, 47.5, 47.0625, 46.5625, 46.3125, 46, 45.803574, 45.416668, 44.938774, 44.67857, 44.57143, 44.57143, 44.75, 44.964287, 45.051022, 44.92857, 44.82143, 44.785713, 44.892857, 44.964287, 45.07143, 45.107143, 45.107143, 45.142857, 44.989799, 44.763268, 44.761902, 45.117344, 44.98214, 44.82143, 44.799999, 44.803574, 44.803574, 44.8125, 44.75, 44.875, 45, 45.0625, 45.0625, 44.9375, 44.875, 44.9375, 45.0625, 45.125, 45.1875, 45.125, 45.0625, 45.125, 45, 45, 44.9375, 44.875, 44.9375, 44.9375, 44.9375, 44.875, 44.8125, 44.75, 44.75, 44.75, 44.78125, 44.84375, 44.90625, 44.96875, 45.0625, 45.1875, 45.3125, 45.5, 45.392857, 44.997025, 44.830357, 44.625, 44.5625, 44.5, 44.571426, 45.002975, 45.241074, 45.642857, 45.5, 45.32143, 44.875, 44.75, 44.8125, 44.875, 44.9375, 44.9375, 44.875, 44.839287, 44.875, 44.964287, 45.035713, 45, 45, 44.875, 44.875, 44.8125, 44.875, 45, 44.916668, 44.9375, 44.714287, 44.714287, 44.75, 44.6875, 44.625, 44.5, 44.5625, 44.5625, 44.5625, 44.75, 44.75, 44.6875, 44.517857, 44.25, 44.0625, 44.0625, 44.160713, 44.214287, 44.3125, 44.3125, 44.3125, 44.25, 44.410713, 44.5, 44.669643, 44.6875, 44.625, 44.625, 44.5625, 44.5625, 44.5625, 44.4375, 44.25, 44.017857, 44.017857, 44.270832, 44.553574, 44.9375, 45.125, 45, 44.705357, 44.495537, 44.316963, 44.308037, 44.40625, 44.375, 44.4375, 44.5, 44.5625, 44.6875, 44.8125, 44.8125, 44.875, 44.8125, 44.660717, 44.375, 44.5625, 44.638393, 44.419643, 44.209824, 44.200893, 44.239582, 44.25893, 44.214287, 44.25, 44.3125, 44.375, 44.5, 44.59375, 44.558037, 44.59375, 44.46875, 44.5, 44.5, 44.375, 44.28125, 44.28125, 44.28125, 44.46875, 44.625, 44.625, 44.6875, 44.6875, 44.544643, 44.375, 44.4375, 44.4375, 44.607143, 44.479168, 44.383926, 44.083332, 44.285713, 44.42857, 44.383926, 44.25, 44.1875, 44.1875, 44.15625, 44.21875, 44.21875, 44.28125, 44.375, 44.4375, 44.4375, 44.375, 44.3125, 44.25, 44.1875, 44.1875, 44.125, 43.916668, 44.008926, 44.035713, 44.0625, 44.0625, 43.875, 43.901787, 44.107143, 44.294643, 44.625, 44.6875, 44.625, 44.351189, 44.087502, 44.196426, 44.133926, 44.125, 44.21875, 44.28125, 44.40625, 44.5, 44.196426, 43.910717, 43.75, 43.75, 43.9375, 44.1875, 44.1875, 44.25, 44.1875, 44.25, 44.285713, 44.080357, 44.080357, 43.9375, 43.9375, 44, 43.9375, 44, 44.0625, 44.125, 44.178574, 43.979168, 43.979168, 44.012501, 43.892857, 44, 44, 44.0625, 44.0625, 44.1875, 44.125, 44.1875, 44.3125, 44.125, 44.125, 44.125, 44.125, 44.1875, 44.1875, 44.125, 44.0625, 44.125, 44.25, 44.285713, 44.276787, 44.285713, 44.071426, 44, 43.9375, 43.9375, 44.0625, 44.125, 44.125, 44.0625, 44.089287, 44.160713, 44.25, 44.4375, 44.5, 44.6875, 44.8125, 44.9375, 45, 45, 45.125, 45.28125, 45.46875, 45.763393, 46.0625, 47, 47.410713, 47.6875, 47.8125, 47.875, 47.9375, 47.875, 47.75, 47.625, 47.4375
-10, -10, -10, -10, -10, -10, -10, -10, -10, -10, -10, -10, -10, -10, 47.9375, 47.916664, 47.9375, 47.90625, 47.78125, 47.553574, 46.916668, 46.446426, 46.1875, 45.875, 45.616074, 45.104168, 44.696426, 44.375, 44.25, 44.125, 44.125, 44.214287, 44.232143, 44.125, 44.125, 44.125, 44.1875, 44.25, 44.375, 44.4375, 44.5, 44.5, 44.3125, 44.080357, 44, 43.892857, 44.098213, 43.94643, 43.942856, 43.991074, 43.991074, 44.0625, 43.9375, 44.125, 44.25, 44.3125, 44.375, 44.3125, 44.25, 44.3125, 44.375, 44.375, 44.375, 44.3125, 44.25, 44.375, 44.4375, 44.4375, 44.4375, 44.375, 44.3125, 44.375, 44.375, 44.375, 44.375, 44.3125, 44.375, 44.3125, 44.25, 44.142857, 44.125, 44.1875, 44.419643, 44.625, 44.75, 44.67857, 44.520409, 44.455357, 44.321426, 44.0625, 44, 43.9375, 43.883926, 44.252975, 44.168369, 43.916668, 43.916668, 43.833332, 43.964287, 44, 44.0625, 44.125, 44.25, 44.3125, 44.25, 44.214287, 44.1875, 44.214287, 44.348213, 44.3125, 44.3125, 44.1875, 44.125, 44.0625, 44.1875, 44.3125, 44.229168, 44.25, 44.125, 44.125, 44.0625, 44.0625, 44.0625, 44, 44.0625, 44.125, 44.1875, 44.375, 44.4375, 44.4375, 44.375, 44.1875, 44, 43.9375, 43.910713, 43.839287, 43.8125, 43.75, 43.75, 43.6875, 43.848213, 43.9375, 44.169643, 44.1875, 44.1875, 44.125, 44.0625, 44.125, 44.1875, 44.1875, 43.875, 43.669643, 43.663689, 43.636906, 44.051022, 44.392857, 44.642857, 44.607143, 44.3125, 44.089287, 43.910713, 43.839287, 43.875, 43.875, 43.9375, 44.0625, 44.098213, 44.080357, 44.397957, 44.392857, 44.57143, 44.607143, 44.285717, 44, 44.125, 44.013393, 43.821426, 43.683037, 43.575893, 43.511902, 43.632656, 43.785713, 44.0625, 44.1875, 44.1875, 44.1875, 44.15625, 44.15625, 44.21875, 44.21875, 44.1875, 44.125, 44.0625, 44.03125, 44.03125, 44.09375, 44.15625, 44.25, 44.3125, 44.3125, 44.3125, 44.169643, 44, 44.0625, 44.0625, 44.169643, 43.979168, 43.821426, 43.75, 43.75, 43.612244, 43.642857, 43.75, 43.625, 43.6875, 43.65625, 43.78125, 43.84375, 43.84375, 44, 44.0625, 44.125, 44.125, 43.991074, 43.75, 43.75, 43.75, 43.75, 43.541668, 43.633926, 43.598213, 43.5625, 43.5, 43.3125, 43.401787, 43.732143, 44.044643, 44.375, 44.375, 44.1875, 43.735119, 43.237499, 43.404762, 43.205357, 43.4375, 43.46875, 43.59375, 43.8125, 43.96875, 43.767857, 43.535717, 43.375, 43.3125, 43.375, 43.5625, 43.5625, 43.5625, 43.5625, 43.625, 43.598213, 43.392857, 43.455357, 43.3125, 43.4375, 43.6875, 43.794643, 43.9375, 44, 44, 43.919643, 43.395836, 43.300594, 43.262501, 43.205357, 43.375, 43.4375, 43.5625, 43.5625, 43.6875, 43.625, 43.6875, 43.8125, 43.6875, 43.6875, 43.616074, 43.4375, 43.4375, 43.4375, 43.5, 43.5, 43.625, 43.75, 43.848213, 43.776787, 43.875, 43.714287, 43.464287, 43.5, 43.375, 43.5, 43.5625, 43.5625, 43.5625, 43.625, 43.625, 43.75, 43.9375, 44.125, 44.4375, 44.6875, 44.875, 45, 45, 45.125, 45.3125, 45.625, 46.044643, 46.357143, 47, 47.267857, 47.4375, 47.5, 47.5, 47.5, 47.4375, 47.375, 47.3125, 47.1875, 47.125, 47.083336, -10, -10, -10, -10, -10, -10, -10, -10, -10, -10, -10, -10, -10, -10, -10, -10, -10, -10, -10, 19.75, 19.833332, 19.875, 19.9375, 19.8125, 19.5625, 19.3125, 19.0625, 19, 19.0625, 19.083334, 19, 18.875, 18.875, -10, -10, -10, -10, -10, -10, -10, -10, -10, -10, -10, -10, -10, -10, -10, -10, -10, -10, -10, -10, -10, -10, -10, -10, -10, -10, -10, 47.5625, 47.614582, 47.71875, 47.75, 47.6875, 47.491074, 46.854168, 46.446426, 46.125, 45.75, 45.491074, 45.041668, 44.66964, 44.330357, 44.133926, 44, 44.0625, 44.026787, 43.670071, 43.545918, 43.794643, 43.8125, 43.875, 43.875, 43.9375, 44.0625, 44.125, 44.125, 43.9375, 43.642857, 43.357143, 43.392857, 43.306122, 43.17347, 43.148979, 43.491074, 43.616074, 43.75, 43.75, 43.785713, 43.92857, 43.92857, 43.92857, 43.714287, 43.5, 43.42857, 43.42857, 43.5, 43.5, 43.57143, 43.5, 43.57143, 43.875, 43.875, 43.875, 43.8125, 43.642857, 43.875, 43.875, 43.9375, 43.875, 43.875, 44, 43.96875, 43.75, 43.556122, 43.464287, 43.5, 43.928574, 44.333332, 44.419643, 44.375, 44.008926, 43.776787, 43.75, 43.660713, 43.6875, 43.625, 43.383926, 43.297619, 43.280613, 43.25, 43.357143, 43.357143, 43.285713, 43.375, 43.375, 43.4375, 43.625, 43.57143, 43.57143, 43.530613, 43.625, 43.714287, 43.734692, 43.714287, 43.75, 43.5, 43.285713, 43.234692, 43.392857, 43.5, 43.604168, 43.5625, 43.5, 43.4375, 43.464287, 43.535713, 43.5, 43.5625, 43.5625, 43.625, 43.8125, 44, 44, 43.955357, 43.892857, 43.916668, 43.78125, 43.78125, 43.691963, 43.5, 43.330357, 43.267857, 43.25, 43.125, 43.25, 43.3125, 43.544643, 43.6875, 43.6875, 43.6875, 43.6875, 43.8125, 43.9375, 44, 43.8125, 43.669643, 43.354164, 43.053574, 42.979591, 43.083332, 43.416668, 43.75, 43.9375, 43.803574, 43.389881, 43.294643, 43.3125, 43.375, 43.5, 43.625, 43.598213, 43.517857, 43.136902, 43.125, 43.291668, 43.458332, 43.785717, 43.5, 43.625, 43.544643, 43.415176, 43.137756, 43.21875, 43.15625, 43.25, 43.375, 43.5, 43.6875, 43.6875, 43.625, 43.625, 43.625, 43.75, 43.875, 43.794643, 43.625, 43.625, 43.5625, 43.625, 43.616074, 43.595242, 43.581631, 43.642857, 43.67857, 43.5, 43.419643, 43.25, 43.375, 43.4375, 43.544643, 43.416668, 43.258926, 43.1875, 43.25, 43.223213, 43.1875, 43.1875, 43.125, 43.25, 43.28125, 43.34375, 43.28125, 43.28125, 43.4375, 43.625, 43.875, 43.919643, 43.657738, 43.321426, 43.3125, 43.285713, 43.142857, 42.958336, 43.217262, 43.205357, 43.25, 43.25, 43.098213, 43.151787, 43.375, 43.765308, 44, 44, 43.6875, 43.377975, 42.889286, 43.154762, 42.892857, 43.1875, 43.15625, 43.21875, 43.375, 43.46875, 43.267857, 43.098213, 43, 42.9375, 43, 43.125, 43, 43, 42.9375, 42.9375, 43, 42.714287, 42.857143, 42.75, 43.0625, 43.3125, 43.544643, 43.75, 43.8125, 43.75, 43.544643, 42.958336, 42.800594, 42.549999, 42.705357, 42.875, 42.9375, 43.0625, 43.125, 43.3125, 43.28125, 43.3125, 43.3125, 43.205357, 43.229168, 42.982143, 42.632656, 42.57143, 42.642857, 42.875, 42.875, 42.9375, 43.285713, 43.433674, 43.151787, 43.3125, 43.214287, 42.964287, 43, 42.9375, 43.125, 43.1875, 43.25, 43.25, 43.3125, 43.375, 43.5625, 43.75, 43.9375, 44.25, 44.5, 44.8125, 45.107143, 45.21875, 45.40625, 45.65625, 46.03125, 46.482143, 46.75, 46.9375, 47, 47, 46.9375, 46.875, 46.8125, 46.75, 46.75, 46.8125, 46.75
-10, -10, -10, -10, 48, 47.666668, 47.25, 47.166664, -10, -10, -10, -10, -10, 46.5, 47.145832, 47.239582, 47.40625, 47.5, 47.5, 47.366074, 46.791668, 46.383926, 45.955357, 45.5625, 45.3125, 45.1875, 44.883926, 44.473213, 44.205353, 43.875, 43.8125, 43.589287, 43.273811, 43.258926, 43.455357, 43.5, 43.5625, 43.4375, 43.4375, 43.5625, 43.6875, 43.6875, 43.5, 43.205357, 43.0625, 43.0625, 43, 42.919643, 42.880356, 43.116074, 43.178574, 43.3125, 43.25, 43.3125, 43.455357, 43.604168, 43.59375, 43.46875, 43.21875, 42.964287, 42.964287, 43.1875, 43.1875, 43.25, 43.1875, 43.25, 43.375, 43.3125, 43.3125, 43.25, 43.25, 43.375, 43.375, 43.5, 43.4375, 43.5, 43.625, 43.53125, 43.46875, 43.236607, 43.15625, 43.1875, 43.428574, 43.770832, 43.857143, 43.75, 43.383926, 43.214287, 43.1875, 43.223213, 43.3125, 43.3125, 43, 42.78125, 42.549107, 42.40625, 42.53125, 42.625, 42.6875, 42.75, 42.6875, 42.75, 42.875, 42.9375, 42.9375, 42.901787, 42.875, 42.875, 43.089287, 43.232143, 43.232143, 43.0625, 42.8125, 42.705357, 42.8125, 42.9375, 43.0625, 42.991074, 43.023808, 42.867348, 42.887756, 43.040813, 43, 43.0625, 43.1875, 43.25, 43.419643, 43.4375, 43.375, 43.205357, 43.142857, 43.166668, 43.09375, 43.15625, 43.129463, 43, 42.830357, 42.767857, 42.75, 42.6875, 42.8125, 42.8125, 43, 43.125, 43.1875, 43.241074, 43.125, 43.3125, 43.642857, 43.625, 43.5625, 43.544643, 43.157738, 42.489799, 42.479591, 42.535713, 42.938774, 43.400002, 43.459187, 43.377556, 42.764881, 42.732143, 42.875, 43, 43.1875, 43.375, 43.348213, 43.142857, 42.760201, 42.67857, 42.714287, 42.857143, 43.178574, 42.9375, 43, 42.9375, 42.86607, 42.839287, 42.84375, 42.90625, 43.09375, 43.25, 43.375, 43.4375, 43.3125, 43.1875, 43.1875, 43.25, 43.375, 43.5, 43.232143, 43, 43, 43, 43.25, 43.241074, 42.680557, 42.482143, 42.452381, 42.630951, 42.785713, 42.704082, 42.42857, 42.6875, 42.75, 43.044643, 43.1875, 43.1875, 43.125, 42.991074, 42.604168, 42.517857, 42.5625, 42.732143, 42.875, 42.90625, 42.90625, 42.78125, 42.71875, 42.875, 43.125, 43.473213, 43.544643, 43.238094, 42.883926, 42.8125, 42.57653, 42.448978, 42.395836, 42.529762, 42.497025, 42.791668, 42.830357, 42.8125, 42.875, 42.9375, 42.948978, 43.041668, 42.958332, 43.142857, 42.752975, 42.264286, 42.529762, 42.330357, 42.625, 42.53125, 42.59375, 42.75, 42.67857, 42.642857, 42.491074, 42.5625, 42.5, 42.625, 42.6875, 42.5, 42.5, 42.375, 42.3125, 42.3125, 42.25, 42.4375, 42.375, 42.633926, 42.962502, 43.086311, 43.5, 43.491074, 43.5, 43.169643, 42.520836, 42.300594, 42.200001, 42.142857, 42.3125, 42.375, 42.5, 42.625, 42.8125, 42.796875, 42.828125, 42.765625, 42.658482, 42.666668, 42.419643, 42.303574, 42.07143, 42.3125, 42.375, 42.375, 42.214287, 42, 42.148808, 42.336735, 42.57143, 42.714287, 42.464287, 42.5, 42.5, 42.75, 42.8125, 42.9375, 42.9375, 43, 43.125, 43.3125, 43.5625, 43.75, 44.0625, 44.375, 44.6875, 45.107143, 45.34375, 45.59375, 45.84375, 46.15625, 46.544643, 46.75, 46.875, 46.8125, 46.75, 46.625, 46.5625, 46.5625, 46.5, 46.5, 46.6875, 46.625, 46.75, 46.875, 46.708336, 47, -10, -10, -10, -10, -10, -10, -10, -10, -10, -10, -10, -10, -10, -10, -10, -10, -10, 19.75, 19.833332, 19.875, 20, 19.8125, 19.5625, 19.3125, 19.0625, 19, 19, 19, 19, 18.9375, 18.875, 18.638887, 18.458332, -10, -10, -10, -10, -10, -10, -10, -10, -10, -10, -10, -10, -10, -10, -10, -10, -10, 47.25, 46.944443, 46.666664, -10, -10, -10, -10, 46.166668, 46.5625, 46.677082, 46.875, 47, 47.0625, 46.991074, 46.541668, 46.258926, 45.892857, 45.5625, 45.3125, 45.25, 44.946426, 44.598213, 44.330353, 43.875, 43.642857, 43.276787, 42.854168, 42.852676, 42.924107, 42.96875, 42.96875, 42.875, 43, 43.0625, 43.125, 43.125, 42.9375, 42.8125, 42.75, 42.8125, 42.6875, 42.6875, 42.767857, 42.8125, 42.875, 42.875, 42.75, 42.75, 42.830357, 42.979168, 42.96875, 42.9375, 42.75, 42.65625, 42.65625, 42.6875, 42.6875, 42.6875, 42.625, 42.6875, 42.8125, 42.8125, 42.8125, 42.75, 42.6875, 42.8125, 42.8125, 43, 43.0625, 43.125, 43.25, 43.03125, 42.90625, 42.674107, 42.65625, 42.75, 42.991074, 43.333332, 43.357143, 43.25, 42.883926, 42.776787, 42.8125, 42.848213, 42.9375, 42.875, 42.5625, 42.34375, 42.111607, 41.96875, 42.03125, 42.125, 42.1875, 42.25, 42.125, 42.1875, 42.25, 42.3125, 42.4375, 42.4375, 42.4375, 42.4375, 42.589287, 42.732143, 42.732143, 42.5625, 42.3125, 42.267857, 42.375, 42.4375, 42.5625, 42.366074, 41.722225, 41.565475, 41.559525, 41.857143, 42.4375, 42.5625, 42.6875, 42.75, 42.857143, 42.875, 42.714287, 42.520409, 42.448978, 42.476192, 42.551022, 42.668369, 42.78125, 42.660713, 42.392857, 42.330357, 42.3125, 42.3125, 42.4375, 42.4375, 42.5625, 42.616074, 42.599998, 42.875, 42.758926, 42.9375, 42.857143, 43.1875, 43.1875, 43.169643, 42.845238, 42.303574, 42.232143, 42.3125, 42.571426, 42.837502, 42.668369, 42.591839, 42.416668, 42.392857, 42.4375, 42.5625, 42.758926, 43.0625, 42.973213, 42.660713, 42.383926, 42.25, 42.25, 42.375, 42.5, 42.4375, 42.4375, 42.4375, 42.482143, 42.5, 42.580357, 42.75, 42.875, 43, 43, 43, 42.8125, 42.6875, 42.6875, 42.75, 42.9375, 43.0625, 42.794643, 42.455357, 42.4375, 42.4375, 42.75, 42.803574, 42.541668, 42.392857, 42.102043, 42.410713, 42.375, 42.25, 42.03125, 42.09375, 42.21875, 42.575893, 42.8125, 42.9375, 43, 42.991074, 42.666668, 42.517857, 42.526787, 42.669643, 42.75, 42.8125, 42.6875, 42.5, 42.4375, 42.5625, 42.8125, 43.098213, 43.107143, 42.738094, 42.446426, 42.375, 42.285713, 42.205357, 42.166668, 42.202381, 42.144558, 42.429169, 42.660713, 42.705357, 42.8125, 42.75, 42.767857, 42.875, 42.75, 42.767857, 42.526783, 42.007145, 42.101189, 41.883926, 42.125, 42.125, 42.1875, 42.21875, 42.34375, 42.321426, 42.3125, 42.4375, 42.375, 42.375, 42.3125, 42.125, 42.125, 42.0625, 42.0625, 42, 41.875, 41.9375, 41.8125, 42.008926, 42.275002, 42.398811, 42.8125, 42.866074, 42.875, 42.616074, 42.166668, 41.946426, 41.875, 41.857143, 41.8125, 41.9375, 41.973213, 42.125, 42.25, 42.296875, 42.390625, 42.328125, 42.283482, 42.229168, 41.919643, 41.741074, 41.6875, 41.75, 41.75, 41.75, 41.6875, 41.5625, 41.75, 41.8125, 42.0625, 42.294643, 42.25, 42.375, 42.5, 42.6875, 42.75, 42.875, 42.875, 42.875, 43, 43.15625, 43.40625, 43.65625, 43.96875, 44.3125, 44.625, 45.044643, 45.34375, 45.65625, 45.90625, 46.15625, 46.4375, 46.5625, 46.625, 46.625, 46.625, 46.5625, 46.53125, 46.46875, 46.34375, 46.28125, 46.375, 46.375
-10, -10, -10, -10, -10, -10, -10, 46.944443, 46.666664, 46.125, 45.833336, -10, -10, 45.958332, 46.083332, 46.15625, 46.28125, 46.28125, 46.21875, 46.205357, 46.208332, 46.116074, 45.892857, 45.625, 45.375, 45.3125, 45.008926, 44.598213, 44.330353, 43.875, 43.705357, 43.3125, 42.791668, 42.727676, 42.549107, 42.46875, 42.46875, 42.4375, 42.732143, 42.875, 42.875, 42.8125, 42.5625, 42.4375, 42.4375, 42.5, 42.4375, 42.5, 42.5625, 42.5, 42.625, 42.5625, 42.5, 42.5, 42.580357, 42.729168, 42.71875, 42.6875, 42.5, 42.46875, 42.53125, 42.5625, 42.5625, 42.392857, 42.3125, 42.3125, 42.375, 42.4375, 42.4375, 42.4375, 42.5, 42.5625, 42.625, 42.8125, 42.8125, 42.9375, 43, 42.754463, 42.620537, 42.53125, 42.46875, 42.5625, 42.633926, 42.690472, 42.632656, 42.535713, 42.446426, 42.464287, 42.535713, 42.49107, 42.580357, 42.5, 42.375, 42.34375, 42.174107, 42.03125, 42.03125, 41.973213, 41.901787, 42, 41.8125, 41.9375, 42, 42.0625, 42.1875, 42.25, 42.25, 42.25, 42.401787, 42.544643, 42.607143, 42.5, 42.3125, 42.267857, 42.3125, 42.3125, 42.375, 42.053574, 41.666668, 41.517857, 41.526787, 41.848213, 42.1875, 42.3125, 42.4375, 42.5, 42.607143, 42.625, 42.625, 42.392857, 42.267857, 42.291668, 42.388393, 42.584824, 42.647324, 42.327381, 42.098213, 42.017857, 42.0625, 42.1875, 42.25, 42.25, 42.3125, 42.232143, 42.037498, 42.383926, 42.488094, 42.669643, 42.6875, 42.8125, 42.875, 42.830357, 42.511902, 42.25, 42.25, 42.4375, 42.633926, 42.721428, 42.261902, 42.418369, 42.083336, 41.913689, 41.849998, 42.0625, 42.1875, 42.714287, 42.5, 42.303574, 42.0625, 42.044643, 41.875, 42.0625, 42.125, 42.125, 42.125, 42.125, 42.107143, 42.0625, 42.142857, 42.1875, 42.1875, 42.5, 42.1875, 42.1875, 42.0625, 42, 42.0625, 42.0625, 42.1875, 42.25, 41.982143, 41.767857, 41.75, 41.6875, 42.017857, 42.199402, 42.032738, 42.017857, 41.901787, 42.035713, 42, 41.8125, 41.59375, 41.65625, 41.84375, 42.200893, 42.4375, 42.5, 42.5625, 42.739799, 42.369049, 42.080357, 42.026787, 42.232143, 42.3125, 42.5, 42.375, 42.125, 42.017857, 42, 42.25, 42.473213, 42.419643, 42.184525, 42.133926, 42.232143, 42.223213, 42.017857, 41.809525, 41.770832, 41.595238, 41.679169, 42.147957, 42.234692, 42.357143, 42.212502, 42.017857, 42.196426, 42.107143, 42.205357, 42.080357, 41.669643, 41.642857, 41.5, 41.5, 41.5625, 41.5625, 41.625, 41.75, 41.75, 41.8125, 41.9375, 41.9375, 41.9375, 41.9375, 41.8125, 41.875, 41.75, 41.6875, 41.625, 41.5, 41.5625, 41.5, 41.633926, 41.775002, 41.619049, 42.035713, 42.241074, 42.25, 42.0625, 41.8125, 41.6875, 41.75, 41.669643, 41.5625, 41.625, 41.535713, 41.6875, 41.75, 41.796875, 41.953125, 41.890625, 41.908482, 41.791668, 41.491074, 41.491074, 41.4375, 41.5, 41.3125, 41.25, 41.125, 41.0625, 41.375, 41.5, 41.580357, 41.758926, 41.848213, 42, 42.25, 42.5, 42.625, 42.75, 42.8125, 42.8125, 42.9375, 43.15625, 43.40625, 43.65625, 43.96875, 44.3125, 44.625, 45.044643, 45.34375, 45.65625, 45.84375, 45.96875, 46.125, 46.125, 46.125, 46.125, 46.125, 46.0625, 46.03125, 46.03125, 45.96875, 45.96875, 46.125, 46.1875, 46.444443, 11, 11, 11, -10, -10, -10, -10, -10, -10, -10, -10, -10, -10, -10, -10, -10, -10, -10, -10, -10, 19.875, 19.916666, 19.875, 19.8125, 19.5625, 19.3125, 19.125, 19, 19, 19, 19, 19, 18.9375, 18.75, 18.5, 18.291666, 18.083334, 18.111113, 18, -10, -10, -10, -10, -10, -10, -10, -10, -10, -10, -10, -10, -10, -10, -10, -10, -10, 46.083332, 45.777782, 45.583336, -10, 45.458332, 45.583332, 45.625, 45.6875, 45.5, 45.42857, 45.448978, 45.770832, 45.741074, 45.705357, 45.625, 45.4375, 45.375, 45.035713, 44.642857, 44.383926, 43.9375, 43.580357, 43.1875, 42.75, 42.53125, 42.254463, 42.09375, 42.09375, 42.1875, 42.544643, 42.6875, 42.75, 42.625, 42.375, 42.25, 42.1875, 42.25, 42.1875, 42.25, 42.3125, 42.25, 42.375, 42.3125, 42.15625, 42.03125, 41.986607, 42.072918, 42.03125, 42, 41.916668, 42.197918, 42.290176, 42.25, 42.089287, 41.830357, 41.75, 41.875, 42, 42.125, 42.1875, 42.1875, 42.1875, 42.1875, 42.125, 42.375, 42.15625, 42.276787, 42.487499, 42.16964, 42.035713, 41.9375, 41.9375, 42.0625, 42.0625, 42.0625, 42, 41.9375, 41.875, 42, 42.035713, 41.955357, 42.017857, 41.9375, 41.9375, 41.9375, 41.767857, 41.625, 41.5625, 41.473213, 41.464287, 41.6875, 41.625, 41.8125, 41.9375, 41.9375, 42, 42.0625, 42, 41.875, 41.901787, 41.982143, 42.044643, 42.0625, 41.9375, 41.767857, 41.6875, 41.6875, 41.75, 41.553574, 41.166668, 41.080357, 41.0625, 41.3125, 41.6875, 41.75, 41.9375, 41.9375, 41.982143, 42.0625, 42.303574, 42.357143, 42.25, 42.0625, 42, 42.053574, 42.053574, 41.791668, 41.642857, 41.5625, 41.5625, 41.6875, 41.75, 41.75, 41.9375, 41.857143, 41.662498, 41.946426, 41.925594, 41.982143, 41.9375, 42.0625, 42.0625, 42.285713, 42.275513, 42.07143, 41.9375, 42.125, 42.258926, 42.283928, 41.752975, 41.331631, 41.392857, 41.520832, 41.439285, 41.625, 41.464287, 41.666668, 41.9375, 41.741074, 41.580357, 41.619644, 41.392857, 41.6875, 41.625, 41.589287, 41.625, 41.5625, 41.607143, 41.5625, 41.448978, 41.42857, 41.357143, 41.25, 41.357143, 41.464287, 41.5625, 41.5, 41.5, 41.357143, 41.42857, 41.42857, 41.375, 41.267857, 41.25, 41.321426, 41.851189, 42.104164, 42.116074, 42.125, 41.964287, 42.098213, 42.0625, 41.875, 41.59375, 41.415176, 41.433037, 41.700893, 41.875, 42, 42, 41.811226, 41.511906, 41.642857, 41.651787, 41.857143, 41.875, 42, 42.107143, 41.6875, 41.580357, 41.5625, 41.75, 41.848213, 41.875, 41.955357, 42.169643, 42.357143, 42.330357, 41.958332, 41.642857, 41.3125, 41.113094, 41.179169, 41.107143, 41.345238, 41.785713, 41.962502, 41.767857, 41.946426, 41.857143, 41.892857, 41.794643, 41.455357, 41.330357, 41.1875, 41.0625, 41.125, 41.1875, 41.3125, 41.5625, 41.5625, 41.5625, 41.625, 41.5625, 41.5625, 41.625, 41.6875, 41.8125, 41.75, 41.6875, 41.5, 41.3125, 41.3125, 41.25, 41.258926, 41.364288, 41.398811, 41.732143, 41.866074, 41.857143, 41.580357, 41.392857, 41.3125, 41.4375, 41.419643, 41.3125, 41.375, 41.285713, 41.375, 41.375, 41.390625, 41.515625, 41.515625, 41.515625, 41.375, 41.3125, 41.3125, 41.375, 41.375, 41.25, 41.25, 41.125, 41.125, 41.3125, 41.375, 41.392857, 41.508926, 41.660713, 41.875, 42.125, 42.375, 42.5625, 42.6875, 42.732143, 42.674999, 42.866074, 43.022324, 43.34375, 43.65625, 44.075893, 44.4375, 44.6875, 44.9375, 45.125, 45.3125, 45.4375, 45.5, 45.6875, 45.6875, 45.8125, 45.875, 45.875, 45.875, 45.78125, 45.78125, 45.71875, 45.71875, 45.8125, 46.166668
-10, -10, -10, -10, -10, -10, -10, -10, -10, 46.083332, 45.777782, 45.555557, 45.291664, 45.270832, 45.25, 45.1875, 45.15625, 45.0625, 45, 45.080357, 45.239582, 45.303574, 45.455357, 45.5625, 45.4375, 45.375, 44.9375, 44.625, 44.375, 43.928574, 43.505356, 43.366074, 42.895832, 42.447918, 42.040176, 41.71875, 41.65625, 41.75, 41.982143, 42.32143, 42.346935, 42.081635, 41.809521, 41.583332, 41.616074, 41.75, 41.6875, 41.75, 41.8125, 41.75, 41.875, 41.8125, 41.78125, 41.78125, 41.71875, 41.65625, 41.5625, 41.19643, 41.203236, 41.733631, 41.790176, 41.75, 41.464287, 41.205357, 41.125, 41.3125, 41.5625, 41.8125, 41.9375, 41.9375, 41.875, 41.75, 41.625, 41.5, 41.65625, 41.714287, 41.924999, 41.60714, 41.473213, 41.4375, 41.4375, 41.625, 41.625, 41.625, 41.5625, 41.5, 41.5, 41.625, 41.660713, 41.517857, 41.517857, 41.375, 41.4375, 41.5625, 41.5625, 41.5625, 41.5, 41.348213, 41.276787, 41.5, 41.5625, 41.732143, 41.75, 41.75, 41.8125, 42, 41.9375, 41.875, 41.75, 41.625, 41.6875, 41.616074, 41.291668, 41.226189, 41.4375, 41.508926, 41.6875, 41.5, 41.3125, 41.3125, 41.25, 41.375, 41.5, 41.5, 41.5625, 41.5625, 41.625, 41.875, 42.241074, 42.526787, 42.419643, 42.104168, 41.946426, 41.928574, 41.928574, 41.604168, 41.455357, 41.375, 41.3125, 41.4375, 41.5, 41.5, 41.6875, 41.607143, 41.349998, 41.642857, 41.738094, 41.669643, 41.5625, 41.5, 41.375, 41.142857, 41, 41.095238, 41.6875, 42.008926, 42.223213, 42.133926, 41.886902, 41.517857, 41.625, 41.440475, 41.019642, 41.071426, 40.9375, 41.081631, 41.345238, 41.2449, 41.330357, 41.432144, 41.205357, 41.5, 41.375, 41.276787, 41.25, 41.125, 41.125, 41.0625, 41.142857, 41.0625, 40.9375, 40.785713, 40.9375, 41.125, 41.1875, 41.1875, 41.125, 41, 41, 41, 41, 41.017857, 41.0625, 41.142857, 41.62619, 41.729164, 41.8125, 41.982143, 41.9375, 41.955357, 41.785713, 41.530613, 41.357143, 41.075893, 41.058037, 41.15625, 41.25, 41.375, 41.285713, 41.362244, 41.280613, 41.214287, 41.276787, 41.375, 41.17857, 41.357143, 41.333332, 41.357143, 41.330357, 41.214287, 41.1875, 41.125, 41.267857, 41.5625, 41.794643, 42.204082, 42.127552, 41.458332, 41.205357, 40.785713, 40.821426, 40.637501, 40.581631, 40.955357, 41, 41.400002, 41.25, 41.383926, 41.357143, 41.375, 41.294643, 40.955357, 40.767857, 40.625, 40.5, 40.625, 40.75, 40.9375, 41.25, 41.3125, 41.375, 41.3125, 40.958332, 40.892857, 41, 41.223213, 41.375, 41.375, 41.3125, 41.15625, 41, 40.9375, 40.8125, 40.71875, 40.776787, 41.044643, 41.232143, 41.258926, 41.107143, 40.830357, 40.705357, 40.75, 40.9375, 40.982143, 40.875, 40.9375, 40.848213, 40.875, 40.875, 40.875, 41, 41, 40.96875, 40.8125, 40.6875, 40.6875, 40.78125, 40.8125, 40.8125, 40.875, 40.8125, 40.875, 41.0625, 41.125, 41.142857, 41.258926, 41.410713, 41.6875, 41.9375, 42.1875, 42.375, 42.5, 42.517857, 42.424999, 42.794647, 43.022324, 43.46875, 43.888393, 44.325893, 44.5625, 44.6875, 44.75, 44.8125, 44.9375, 45, 45.0625, 45.1875, 45.1875, 45.375, 45.53125, 45.53125, 45.59375, 45.5, 45.46875, 45.46875, 45.625, 45.666668, 11, 11, 11, 11, 11, -10, -10, -10, -10, -10, -10, -10, -10, -10, -10, -10, -10, -10, -10, -10, -10, -10, 19.5, 19.583334, 19.625, 19.5625, 19.5625, 19.4375, 19.25, 19.125, 18.9375, 18.875, 18.875, 18.9375, 18.8125, 18.5625, 18.3125, 18.0625, 18, 18, 18, 18, 18, 18, -10, -10, -10, -10, -10, -10, -10, -10, -10, -10, -10, -10, -10, -10, -10, -10, 45.555557, 45.361111, 45.145832, 44.976189, 44.75, 44.625, 44.5, 44.4375, 44.580357, 44.739582, 44.803574, 44.955357, 45.1875, 45.125, 45.125, 44.8125, 44.4375, 44.25, 43.857147, 43.362499, 43.303574, 42.833332, 42.479168, 42.133926, 41.75, 41.625, 41.625, 41.669643, 41.583332, 41.517857, 41.065475, 40.829365, 41.145832, 41.116074, 41.1875, 41.1875, 41.25, 41.3125, 41.375, 41.5, 41.5, 41.53125, 41.46875, 41.40625, 41.34375, 41.1875, 41, 41.005955, 41.389881, 41.508926, 41.473213, 41.044643, 40.848213, 40.8125, 41.0625, 41.446426, 41.8125, 41.9375, 41.875, 41.6875, 41.5, 41.3125, 41.34375, 41.28125, 41.339287, 41.549999, 41.35714, 41.285713, 41.1875, 41.125, 41.3125, 41.348213, 41.375, 41.375, 41.25, 41.25, 41.3125, 41.285713, 41.142857, 41.142857, 41.125, 41.3125, 41.5, 41.5625, 41.625, 41.625, 41.428574, 41.114285, 41.446426, 41.508926, 41.732143, 41.75, 41.6875, 41.625, 41.75, 41.625, 41.5, 41.375, 41.25, 41.375, 41.397324, 40.904762, 40.865643, 41.3125, 41.415176, 41.553574, 41.229168, 41.008926, 41, 40.9375, 41, 41.0625, 41, 41.0625, 41.125, 41.169643, 41.166668, 41.785713, 42.102043, 42.086735, 41.604168, 41.339287, 41.3125, 41.366074, 41.104168, 41.017857, 40.9375, 40.8125, 41, 41.0625, 41.0625, 41.25, 41.116074, 40.90625, 40.977676, 41.010418, 40.888393, 40.642857, 40.57143, 40.5, 40.5, 40.5, 40.581631, 41.0625, 41.321426, 41.669643, 41.758926, 41.386902, 40.973213, 41, 40.815475, 40.457142, 40.571426, 40.366074, 40.508926, 40.708332, 40.642857, 40.806122, 40.869644, 40.705357, 40.9375, 40.75, 40.651787, 40.625, 40.5, 40.5625, 40.5625, 40.625, 40.4375, 40.25, 40.25, 40.25, 40.5, 40.6875, 40.75, 40.6875, 40.5625, 40.5, 40.4375, 40.5, 40.6875, 40.8125, 40.892857, 41.25119, 41.291664, 41.4375, 41.669643, 41.580357, 41.526787, 40.708332, 40.668369, 40.642857, 40.732143, 40.714287, 40.6875, 40.625, 40.6875, 40.75, 40.785713, 40.714287, 40.6875, 40.5625, 40.6875, 40.6875, 40.8125, 40.9375, 40.8125, 40.705357, 40.714287, 40.794643, 40.75, 40.830357, 41.026787, 41.232143, 41.372448, 41.095238, 40.845238, 40.705357, 40.375, 40.3125, 40.25, 40.25, 40.375, 40.5, 40.712502, 40.625, 40.758926, 40.794643, 40.75, 40.6875, 40.5625, 40.375, 40.25, 40.125, 40.125, 40.1875, 40.375, 40.625, 40.75, 40.875, 40.8125, 40.458332, 40.455357, 40.625, 40.848213, 41, 40.875, 40.776787, 40.897324, 40.946426, 40.946426, 40.5625, 40.325893, 40.339287, 40.669643, 40.857143, 40.883926, 40.732143, 40.455357, 40.455357, 40.5625, 40.6875, 40.75, 40.6875, 40.625, 40.5625, 40.5625, 40.5625, 40.5625, 40.625, 40.625, 40.53125, 40.375, 40.25, 40.25, 40.34375, 40.375, 40.517857, 40.770832, 40.803574, 40.875, 40.9375, 40.9375, 40.830357, 40.883926, 41, 41.25, 41.5625, 41.875, 42.125, 42.3125, 42.330357, 42.299999, 42.732147, 43.098213, 43.5625, 43.982143, 44.357143, 44.5, 44.5625, 44.5625, 44.5625, 44.625, 44.625, 44.625, 44.6875, 44.6875, 44.875, 44.96875, 44.90625, 44.96875, 44.90625, 44.979168, 45.166668, 11, 11, 11
-10, -10, -10, -10, -10, -10, -10, -10, -10, -10, -10, -10, 45.361111, 45.083332, 44.767857, 44.520832, 44.40625, 44.3125, 44.3125, 44.4375, 44.40625, 44.3125, 44.330357, 44.5625, 44.5625, 44.6875, 44.5625, 44.3125, 44.1875, 43.857147, 43.362499, 43.366074, 42.895832, 42.479168, 42.160713, 41.75, 41.5625, 41.5, 41.3125, 41.4375, 41.419643, 41.080357, 40.872025, 40.630951, 40.561226, 40.642857, 40.875, 40.9375, 41, 41, 40.9375, 40.9375, 40.96875, 40.90625, 40.90625, 40.84375, 40.75, 40.625, 40.693455, 41.077381, 41.071426, 40.973213, 40.544643, 40.517857, 40.5625, 40.8125, 41.133926, 41.375, 41.642857, 41.4375, 41.1875, 41, 40.75, 40.65625, 40.65625, 40.714287, 40.924999, 40.758926, 40.696426, 40.5625, 40.5625, 40.75, 40.848213, 40.8125, 40.75, 40.625, 40.625, 40.625, 40.6875, 40.6875, 40.75, 40.8125, 40.84375, 40.875, 41, 41.07143, 41.089287, 40.948978, 40.587502, 40.821426, 41.117344, 41.336735, 41.392857, 41.294643, 41.25, 41.3125, 41.125, 40.9375, 40.8125, 40.6875, 40.8125, 40.866074, 40.588543, 40.529762, 40.892857, 41.019348, 41.053574, 40.934525, 40.696426, 40.6875, 40.625, 40.5625, 40.5625, 40.5, 40.5625, 40.625, 40.607143, 40.541668, 40.517857, 40.642857, 40.738094, 40.797619, 40.714287, 40.625, 40.6875, 40.6875, 40.625, 40.5625, 40.4375, 40.473213, 40.392857, 40.392857, 40.5625, 40.625, 40.71875, 40.78125, 40.59375, 40.40625, 40.3125, 40.25, 40.25, 40.232143, 40.125, 40.196426, 40.375, 40.633926, 40.982143, 41.1875, 41.178574, 40.830357, 40.8125, 40.669643, 40.482143, 40.446426, 40.25, 40.223213, 40.333332, 40.294643, 40.234692, 40.512501, 40.455357, 40.5, 40.25, 40.026787, 40, 40, 40.1875, 40.3125, 40.375, 40.25, 40.0625, 40.0625, 40.0625, 40.3125, 40.5625, 40.625, 40.5625, 40.4375, 40.4375, 40.375, 40.4375, 40.5625, 40.625, 40.767857, 41.10833, 40.927082, 40.946426, 40.982143, 40.892857, 40.870537, 40.25, 40.239799, 40.5625, 40.544643, 40.526787, 40.5625, 40.4375, 40.5, 40.5, 40.473213, 40.401787, 40.375, 40.3125, 40.4375, 40.348213, 40.205357, 40.267857, 40.1875, 40.3125, 40.526787, 40.607143, 40.5625, 40.580357, 40.651787, 40.632656, 40.82143, 40.724487, 40.583332, 40.375, 40.1875, 40.25, 40.25, 40.25, 40.25, 40.25, 40.3125, 40.375, 40.4375, 40.4375, 40.375, 40.3125, 40.3125, 40.1875, 40.125, 40, 39.875, 39.955357, 40.270832, 40.553574, 40.6875, 40.6875, 40.526787, 40.145832, 40.142857, 40.3125, 40.473213, 40.5625, 40.4375, 40.401787, 40.647324, 40.758926, 40.727676, 40.3125, 39.982143, 39.995537, 40.357143, 40.575893, 40.571426, 40.419643, 40.142857, 40.142857, 40.25, 40.25, 40.3125, 40.25, 40.1875, 40.25, 40.25, 40.25, 40.25, 40.25, 40.25, 40.15625, 40.0625, 40, 39.96875, 40, 39.96875, 40.1875, 40.583332, 40.678574, 40.75, 40.5625, 40.5, 40.4375, 40.625, 40.8125, 41.0625, 41.375, 41.625, 41.875, 42.125, 42.142857, 42.174999, 42.669643, 43.035713, 43.5625, 43.919643, 44.169643, 44.25, 44.25, 44.25, 44.25, 44.1875, 44.125, 44.09375, 44.21875, 44.34375, 44.59375, 44.71875, 44.65625, 44.71875, 44.875, 44.888889, 11, 11, 11, 11, 11, 11.071428, 11.25, 11.25, -10, -10, -10, -10, -10, -10, -10, -10, -10, -10, -10, -10, -10, -10, -10, -10, -10, 19.5, 19.416666, 19.5625, 19.625, 19.625, 19.625, 19.375, 19, 18.6875, 18.625, 18.625, 18.8125, 18.75, 18.5, 18.25, 18, 18, 18, 18, 18, 18, 17.9375, 17.75, 17.375, 17.166668, -10, -10, -10, -10, -10, -10, -10, -10, -10, -10, -10, -10, -10, -10, -10, -10, 44.690475, 44.395832, 44.239582, 44.0625, 44, 44.0625, 43.96875, 43.875, 43.767857, 43.9375, 44, 44.1875, 44.1875, 44.125, 44.0625, 43.794647, 43.362499, 43.366074, 42.895832, 42.479168, 42.098213, 41.625, 41.375, 41.1875, 40.9375, 40.9375, 40.794643, 40.455357, 40.247025, 40.270832, 40.241074, 40.375, 40.5625, 40.6875, 40.75, 40.75, 40.5625, 40.4375, 40.464287, 40.4375, 40.5625, 40.65625, 40.6875, 40.6875, 40.776787, 40.879463, 40.8125, 40.723213, 40.330357, 40.392857, 40.4375, 40.5, 40.723213, 40.875, 40.714287, 41, 40.8125, 40.6875, 40.5625, 40.5, 40.4375, 40.375, 40.3125, 40.1875, 40.15625, 40.15625, 40.21875, 40.46875, 40.598213, 40.5625, 40.5, 40.375, 40.375, 40.375, 40.5, 40.5625, 40.6875, 40.8125, 40.84375, 40.8125, 40.5, 40.5, 40.464287, 40.367344, 40.337502, 40.508926, 40.130951, 40.443878, 40.392857, 40.732143, 40.75, 40.8125, 40.6875, 40.5, 40.4375, 40.375, 40.5, 40.522324, 40.244793, 40.168156, 40.17857, 40.751488, 40.794643, 40.684525, 40.446426, 40.4375, 40.375, 40.3125, 40.3125, 40.25, 40.3125, 40.4375, 40.419643, 40.291668, 40.392857, 40.204079, 40.275509, 40.416668, 40.321426, 40.3125, 40.4375, 40.4375, 40.4375, 40.375, 40.375, 40.383926, 40.098213, 40.098213, 40.125, 40.1875, 40.28125, 40.370537, 40.316963, 40.09375, 40.026787, 40, 40.0625, 40, 39.892857, 39.946426, 40.125, 40.258926, 40.346935, 40.693878, 40.658165, 40.705357, 40.5625, 40.482143, 40.392857, 40.321426, 40.125, 39.866074, 40.020832, 40.044643, 40.1875, 40.3125, 40.3125, 40.125, 39.875, 39.625, 39.5625, 39.6875, 39.875, 40.0625, 40.125, 40.0625, 39.875, 39.8125, 39.6875, 39.839287, 40.0625, 40.017857, 40.0625, 39.875, 39.9375, 39.875, 39.9375, 40.0625, 40.125, 40.196426, 40.275002, 40.03125, 40.071426, 40.044643, 39.770409, 39.995537, 39.625, 39.678574, 39.8125, 39.973213, 40.0625, 40.285713, 40, 40, 40.0625, 40.035713, 39.964287, 39.9375, 39.875, 40, 39.973213, 39.830357, 39.892857, 39.875, 40.044643, 40.276787, 40.294643, 40.1875, 40.080357, 39.964287, 40, 40.125, 40.0625, 40.0625, 40, 40, 40.125, 40.125, 40.125, 40, 39.875, 39.875, 39.875, 40, 40.0625, 40, 40, 40, 39.875, 39.875, 39.8125, 39.5625, 39.430359, 39.833332, 40.091835, 40.125, 40.125, 39.964287, 39.645832, 39.705357, 39.875, 39.973213, 40, 39.8125, 39.776787, 40.147324, 40.383926, 40.415176, 40.0625, 39.794643, 39.78125, 39.9375, 40.09375, 39.946426, 39.875, 39.875, 39.875, 40, 39.875, 39.8125, 39.8125, 39.8125, 39.9375, 39.9375, 39.875, 39.875, 39.8125, 39.8125, 39.71875, 39.5625, 39.5, 39.46875, 39.4375, 39.40625, 39.625, 40.083332, 40.366074, 40.5625, 40.5, 40.4375, 40.375, 40.5625, 40.6875, 40.9375, 41.25, 41.5, 41.75, 42, 42.035713, 42.125, 42.553574, 42.982143, 43.4375, 43.732143, 43.75, 43.75, 43.75, 43.857143, 43.875, 43.8125, 43.6875, 43.65625, 43.71875, 43.90625, 44.15625, 44.260418, 44.458332, 44.541668, 11, 11, 10.916667, 10.9375, 10.9375, 10.9375
-10, -10, -10, -10, -10, -10, -10, -10, -10, -10, -10, -10, -10, -10, -10, 44.277775, 44.083332, 43.854168, 43.75, 43.6875, 43.5625, 43.5, 43.3125, 43.375, 43.5, 43.732143, 43.875, 43.875, 43.84375, 43.709824, 43.40625, 43.28125, 42.8125, 42.4375, 42.089287, 41.625, 41.375, 41.125, 40.875, 40.8125, 40.6875, 40.5625, 40.267857, 40.125, 40, 40.125, 40.4375, 40.5625, 40.625, 40.5625, 40.25, 40.125, 40.089287, 40.0625, 40.3125, 40.46875, 40.625, 40.6875, 40.6875, 40.59375, 40.362499, 40.401787, 40.133926, 40.267857, 40.3125, 40.25, 40.285713, 40.142857, 40.07143, 40.285713, 40.4375, 40.375, 40.3125, 40.25, 40.25, 40.25, 40.25, 39.948978, 39.65625, 39.584824, 39.59375, 39.90625, 40.160713, 40.1875, 40.125, 40, 40, 40, 40.25, 40.375, 40.4375, 40.446426, 40.545921, 40.464287, 40.32143, 40.125, 40.015308, 40.205357, 40.025002, 40.008926, 39.785713, 39.67857, 39.67857, 40.107143, 40.125, 40.0625, 40, 39.875, 39.875, 39.9375, 40.0625, 40.15625, 40.140625, 39.739799, 39.67857, 39.978741, 39.836735, 40.122025, 39.883926, 39.705357, 39.705357, 39.6875, 39.857143, 39.857143, 39.8125, 39.875, 39.732143, 39.604168, 39.642857, 39.660713, 39.75, 39.8125, 39.75, 39.8125, 39.875, 39.875, 39.875, 39.8125, 39.875, 39.883926, 39.598213, 39.598213, 39.5625, 39.5625, 39.65625, 39.745537, 39.754463, 39.65625, 39.651787, 39.6875, 39.8125, 39.75, 39.642857, 39.625, 39.625, 39.6875, 39.848213, 40.263393, 40.325893, 40.30357, 39.9375, 39.946426, 40.035713, 40.0625, 39.9375, 39.482143, 39.375, 39.375, 39.5, 39.625, 39.625, 39.4375, 39.3125, 39.285713, 39.375, 39.5625, 39.6875, 39.875, 39.875, 39.875, 39.75, 39.625, 39.4375, 39.464287, 39.5625, 39.517857, 39.625, 39.5, 39.625, 39.5625, 39.625, 39.75, 39.8125, 39.8125, 39.75, 39.65625, 39.362244, 39.091835, 38.948978, 39.165176, 39.25, 39.4375, 39.6875, 39.875, 40, 39.806122, 39.758926, 39.625, 39.5625, 39.5, 39.5, 39.5, 39.5625, 39.625, 39.598213, 39.392857, 39.330357, 39.375, 39.669643, 40.0625, 40.232143, 40.125, 39.645832, 39.285713, 39.383926, 39.815475, 39.857143, 39.9375, 39.8125, 39.75, 39.875, 39.875, 39.9375, 39.8125, 39.6875, 39.625, 39.5, 39.5625, 39.625, 39.6875, 39.8125, 39.9375, 39.9375, 39.9375, 39.8125, 39.375, 39.082142, 39.395832, 39.234692, 39.625, 39.5625, 39.526787, 39.5, 39.625, 39.75, 39.625, 39.625, 39.4375, 39.464287, 39.866074, 40.133926, 40.14732, 39.642857, 39.40625, 39.40625, 39.535713, 39.71875, 39.8125, 39.75, 39.8125, 39.75, 39.75, 39.625, 39.5625, 39.625, 39.625, 39.75, 39.75, 39.625, 39.625, 39.5625, 39.5625, 39.5, 39.303574, 39.125, 39.15625, 39.138393, 39.21875, 39.4375, 39.895832, 40.241074, 40.4375, 40.375, 40.3125, 40.25, 40.4375, 40.6875, 40.9375, 41.25, 41.5625, 41.857143, 42.125, 42.25, 42.303574, 42.333332, 42.700893, 42.96875, 43.15625, 43.1875, 43.21875, 43.21875, 43.388393, 43.40625, 43.375, 43.3125, 43.34375, 43.40625, 43.53125, 43.65625, 43.888889, 10.5, 10.5, 10.75, 10.75, 10.75, 10.75, 10.6875, 10.75, 10.875, 10.988095, -10, -10, -10, -10, -10, -10, -10, -10, -10, -10, -10, -10, -10, -10, -10, -10, -10, -10, -10, 20, 19.833332, 19.875, 19.75, 19.5, 19.375, 19.125, 18.875, 18.6875, 18.6875, 18.6875, 18.8125, 18.75, 18.5, 18.25, 17.9375, 17.9375, 17.9375, 17.9375, 18, 18, 17.875, 17.625, 17.375, 17.145834, 17.083334, 17.111113, 17, -10, -10, -10, -10, -10, -10, -10, -10, -10, -10, -10, -10, -10, -10, -10, 44.194443, 43.888889, 43.5625, 43.354168, 43.15625, 43, 42.6875, 42.6875, 42.90625, 43.219643, 43.75, 43.833332, 43.625, 43.552082, 43.359375, 43.171875, 42.75, 42.3125, 41.964287, 41.5625, 41.3125, 41.0625, 40.8125, 40.625, 40.4375, 40.3125, 40.0625, 39.9375, 39.875, 39.9375, 40.1875, 40.25, 40.1875, 40.0625, 39.75, 39.625, 39.589287, 39.625, 39.875, 40.142857, 40.32143, 40.32143, 40.285713, 40.03125, 39.737499, 39.866074, 39.803574, 39.9375, 40, 39.8125, 39.714287, 39.625, 39.5625, 39.75, 39.8125, 39.8125, 39.8125, 39.75, 39.75, 39.75, 39.75, 39.517857, 39.09375, 39.084824, 39.09375, 39.40625, 39.6875, 39.75, 39.6875, 39.625, 39.625, 39.5625, 39.8125, 40, 40.125, 40.241074, 39.852043, 39.32143, 38.979591, 39.1875, 39.388393, 39.5, 39.5625, 39.3125, 39.026787, 39, 39, 39.30357, 39.523808, 39.632656, 39.75, 39.625, 39.5625, 39.5625, 39.625, 39.625, 39.578125, 39.334824, 39.1875, 39.434525, 39.392857, 39.8125, 39.669643, 39.372025, 39.276787, 39.21875, 39.419643, 39.482143, 39.5, 39.53125, 39.32143, 39.5, 39.5, 39.473213, 39.375, 39.276787, 39.1875, 39.25, 39.5, 39.5, 39.5625, 39.5, 39.625, 39.633926, 39.348213, 39.348213, 39.3125, 39.4375, 39.5625, 39.651787, 39.723213, 39.625, 39.589287, 39.625, 39.6875, 39.5, 39.330357, 39.25, 39.25, 39.3125, 39.526787, 39.888393, 40.075893, 40.160713, 39.8125, 39.821426, 39.848213, 39.8125, 39.6875, 39.294643, 39.25, 39.25, 39.375, 39.4375, 39.375, 39.3125, 39.3125, 39.348213, 39.392857, 39.337502, 39.633926, 39.821426, 39.875, 39.875, 39.6875, 39.5, 39.3125, 39.276787, 39.3125, 39.267857, 39.4375, 39.375, 39.5, 39.4375, 39.5, 39.5625, 39.5625, 39.508926, 39.166668, 39.102676, 38.998215, 38.723213, 38.758926, 38.78125, 39.0625, 39.25, 39.4375, 39.625, 39.6875, 39.642857, 39.508926, 39.375, 39.3125, 39.25, 39.25, 39.25, 39.3125, 39.375, 39.348213, 39.142857, 39.142857, 39.25, 39.607143, 40, 40.0625, 39.9375, 39.458332, 39.071426, 39.071426, 39.395832, 39.419643, 39.5625, 39.5, 39.5, 39.5625, 39.5625, 39.625, 39.5, 39.4375, 39.375, 39.25, 39.3125, 39.375, 39.5, 39.6875, 39.875, 39.9375, 39.9375, 39.75, 39.3125, 39.019642, 39.270832, 39.294643, 39.4375, 39.25, 39.183037, 39.15625, 39.133926, 39.053574, 38.892857, 38.875, 38.875, 39, 39.25, 39.348213, 39.29018, 39.142857, 38.924107, 38.96875, 39.035713, 39.357143, 39.392857, 39.32143, 39.357143, 39.25, 39, 38.9375, 38.875, 39, 39.0625, 39.1875, 39.3125, 39.25, 39.25, 39.1875, 39.125, 39.0625, 38.928574, 38.57143, 38.78125, 38.825893, 38.96875, 39.232143, 39.625, 39.9375, 40.1875, 40.25, 40.25, 40.3125, 40.5, 40.8125, 41.125, 41.375, 41.6875, 41.919643, 42.1875, 42.3125, 42.241074, 41.854164, 41.915176, 42.102676, 42.53125, 42.6875, 42.796875, 42.796875, 42.935268, 42.921875, 42.9375, 42.9375, 43.03125, 43.15625, 43.375, 43.541668, 10, 10.333333, 10.333333, 10.5625, 10.5625, 10.5, 10.5, 10.5, 10.6875
17, 16.875, 17, 17.166668, -10, -10, -10, -10, -10, -10, -10, -10, -10, -10, -10, -10, -10, -10, 43.416668, 42.979168, 42.739582, 42.609375, 42.265625, 42.25, 42.708332, 43.042858, -10, -10, 43.375, 43.28125, 43.109375, 42.984375, 42.625, 42.3125, 42, 41.5625, 41.3125, 41, 40.75, 40.5, 40.25, 40, 39.75, 39.625, 39.5625, 39.625, 39.8125, 39.8125, 39.75, 39.6875, 39.5, 39.4375, 39.401787, 39.375, 39.5, 39.42857, 39.5, 39.535713, 39.333332, 39.53125, 39.299999, 39.491074, 39.491074, 39.625, 39.625, 39.4375, 39.339287, 39.3125, 39.3125, 39.4375, 39.5, 39.5, 39.5, 39.5, 39.5, 39.5, 39.5, 39.392857, 39.03125, 39.022324, 39.03125, 39.21875, 39.4375, 39.5625, 39.625, 39.5625, 39.5625, 39.4375, 39.5625, 39.75, 39.8125, 39.928574, 39.683037, 39.15625, 38.658165, 38.714287, 39.107143, 39.3125, 39.3125, 39.125, 38.901787, 38.75, 38.6875, 38.821426, 39.145832, 39.366074, 39.5, 39.4375, 39.375, 39.3125, 39.375, 39.34375, 39.28125, 39.09375, 39, 39.080357, 39.142857, 39.482143, 39.392857, 38.952381, 38.857143, 38.84375, 39.107143, 39.232143, 39.25, 39.21875, 39.125, 39.1875, 39.1875, 39.223213, 39.125, 38.887756, 38.785713, 38.92857, 39.375, 39.375, 39.4375, 39.3125, 39.3125, 39.348213, 39.205357, 39.142857, 39.0625, 39.0625, 39, 38.964287, 39.0625, 39.107143, 39.205357, 39.3125, 39.3125, 39.142857, 39.017857, 38.9375, 39, 38.9375, 39.241074, 39.596725, 39.575893, 39.897957, 39.42857, 39.223213, 39.223213, 39.080357, 39.125, 38.767857, 38.8125, 38.8125, 38.875, 38.9375, 38.9375, 38.9375, 39, 39.035713, 39.017857, 38.962502, 39.30357, 39.508926, 39.5625, 39.5, 39.375, 39.125, 38.875, 38.669643, 38.625, 38.580357, 38.8125, 38.875, 38.9375, 38.875, 38.9375, 39, 39.0625, 39.008926, 38.666668, 38.633926, 38.560715, 38.348213, 38.446426, 38.5, 38.75, 38.9375, 39, 39.0625, 39.125, 38.92857, 38.785713, 38.75, 38.6875, 38.8125, 38.875, 38.9375, 39.0625, 39, 38.875, 38.75, 38.928574, 39.083332, 39.25, 39.541668, 39.587502, 39.459187, 38.942177, 38.383926, 38.383926, 38.770832, 38.857143, 39, 39, 39, 39.125, 39.1875, 39.25, 39.1875, 39.0625, 38.9375, 38.8125, 38.8125, 38.875, 39.0625, 39.3125, 39.5, 39.625, 39.625, 39.5, 39.1875, 38.814285, 38.875, 38.803574, 38.875, 38.8125, 38.84375, 38.8125, 38.790176, 38.647324, 38.424107, 38.375, 38.375, 38.5625, 38.78125, 38.910713, 38.88393, 38.520409, 38.341835, 38.357143, 38.433674, 38.25, 38.25, 38.291668, 38.25, 38.291668, 38.42857, 38.5, 38.375, 38.4375, 38.5, 38.392857, 38.75, 38.75, 38.75, 38.6875, 38.625, 38.5625, 38.428574, 38.25, 38.34375, 38.513393, 38.78125, 39.09375, 39.375, 39.6875, 39.9375, 40.125, 40.1875, 40.375, 40.59375, 40.96875, 41.34375, 41.59375, 41.875, 42.044643, 42.3125, 42.3125, 41.886902, 41.336308, 41.045918, 41.153057, 41.90625, 42.3125, 42.421875, 42.484375, 42.497768, 42.484375, 42.5625, 42.625, 43, 43.083332, 10, 10, 10, 10.25, 10.25, 10.3125, 10.3125, 10.3125, 10.333333, 10.333333, 10.583333, 10.900001, -10, -10, -10, -10, -10, -10, -10, -10, -10, -10, -10, -10, -10, -10, -10, -10, -10, -10, -10, -10, 20, 20, 20, 19.875, 19.625, 19.375, 19.125, 19, 18.8125, 18.8125, 18.75, 18.625, 18.5625, 18.375, 18.25, 18, 18, 17.9375, 17.875, 18, 17.9375, 17.875, 17.625, 17.375, 17.1875, 17, 17, 17, 16.916666, 16.916666, 16.944445, 16.85, -10, -10, -10, -10, -10, -10, -10, -10, -10, -10, -10, -10, -10, -10, 42.805557, 42.552082, 42.380207, 42.078125, 42, -10, -10, -10, -10, 43.166668, 43.041668, 42.671875, 42.609375, 42.375, 42.1875, 42, 41.65625, 41.40625, 41.09375, 40.71875, 40.4375, 40.1875, 39.875, 39.625, 39.4375, 39.3125, 39.3125, 39.4375, 39.375, 39.3125, 39.25, 39.125, 39.1875, 39.125, 39.0625, 38.857143, 38.75, 38.785713, 38.82143, 39, 38.9375, 38.737499, 38.928574, 38.991074, 39.0625, 39, 38.901787, 38.982143, 38.982143, 39, 39.0625, 39.0625, 39.0625, 39.125, 39, 38.854168, 38.946426, 39.044643, 39.080357, 38.75, 38.678574, 38.6875, 38.875, 39.0625, 39.1875, 39.1875, 39.0625, 39.0625, 38.9375, 39, 39.125, 39.125, 39.178574, 38.861607, 38.268749, 38.191963, 38.34375, 38.669643, 38.875, 38.875, 38.625, 38.464287, 38.3125, 38.3125, 38.383926, 38.583332, 38.767857, 38.875, 38.875, 38.875, 38.8125, 38.875, 38.8125, 38.75, 38.82143, 38.5625, 38.598213, 38.589287, 38.857143, 38.705357, 38.273811, 38.440475, 38.450893, 38.732143, 38.857143, 38.785713, 38.683037, 38.625, 38.625, 38.6875, 38.723213, 38.6875, 38.651787, 38.544643, 38.612499, 39.053574, 39.053574, 39.1875, 39.0625, 39, 39, 38.9375, 38.8125, 38.6875, 38.625, 38.5625, 38.4375, 38.401787, 38.5625, 38.824406, 38.919643, 38.9375, 38.8125, 38.625, 38.625, 38.625, 38.5625, 38.839287, 38.989582, 38.80357, 38.690475, 38.464287, 38.723213, 38.660713, 38.517857, 38.625, 38.375, 38.4375, 38.4375, 38.4375, 38.4375, 38.5, 38.535713, 38.517857, 38.544643, 38.455357, 38.337502, 38.61607, 38.758926, 38.875, 38.875, 38.875, 38.71875, 38.53125, 38.383926, 38.375, 38.4375, 38.6875, 38.75, 38.75, 38.6875, 38.6875, 38.75, 38.875, 38.821426, 38.479168, 38.508926, 38.435715, 38.223213, 38.348213, 38.482143, 38.669643, 38.875, 38.875, 38.8125, 38.875, 38.67857, 38.357143, 38.392857, 38.3125, 38.5625, 38.75, 38.875, 39, 38.9375, 38.741074, 38.416668, 38.63393, 38.708332, 38.799107, 39.041668, 39.025002, 38.363094, 38.181973, 38.071426, 38.133926, 38.583332, 38.669643, 38.75, 38.6875, 38.625, 38.75, 38.794643, 38.75, 38.75, 38.625, 38.625, 38.5625, 38.4375, 38.4375, 38.625, 38.875, 39.1875, 39.4375, 39.5, 39.3125, 39.0625, 38.776787, 38.625, 38.6875, 38.660713, 38.526787, 38.65625, 38.633926, 38.571426, 38.428574, 38.205357, 38.1875, 38.3125, 38.5625, 38.71875, 38.67857, 38.279762, 38.026787, 37.90625, 37.919643, 37.910713, 38, 38.107143, 38.25, 38.25, 38.25, 38.25, 38.1875, 38.0625, 38.0625, 38.0625, 38.0625, 38.3125, 38.3125, 38.25, 38.1875, 38.125, 38.125, 38.116074, 38, 38.15625, 38.388393, 38.71875, 39.03125, 39.25, 39.4375, 39.5625, 39.75, 39.875, 40.125, 40.46875, 40.96875, 41.450893, 41.71875, 41.9375, 41.982143, 42.125, 42.0625, 41.636902, 41.023808, 40.852676, 40.915176, 41.46875, 42, 42.171875, 42.234375, 42.140625, 42.109375, 42.1875, 42.416668, 10, 10, 10, 10, 10, 10, 10, 10.0625, 10.0625, 10.166667, 10.194444, -10, -10
17, 16.9375, 16.9375, 16.895834, 16.733334, 16.416668, -10, -10, -10, -10, -10, -10, -10, -10, -10, -10, -10, -10, -10, -10, 42.402775, 42.173611, 41.890625, 41.8125, -10, -10, -10, -10, -10, -10, 42.328125, 42.265625, 42.125, 42.0625, 41.9375, 41.65625, 41.40625, 41.15625, 40.78125, 40.5, 40.25, 39.803574, 39.354168, 39.071426, 38.875, 38.8125, 38.8125, 38.6875, 38.5625, 38.5, 38.508926, 38.75, 38.6875, 38.625, 38.4375, 38.3125, 38.3125, 38.375, 38.375, 38.4375, 38.4375, 38.5, 38.5625, 38.5625, 38.5, 38.464287, 38.607143, 38.607143, 38.5625, 38.5625, 38.5, 38.5625, 38.875, 38.75, 38.511906, 38.508926, 38.482143, 38.5, 38.5, 38.5, 38.5625, 38.625, 38.6875, 38.75, 38.75, 38.6875, 38.6875, 38.5625, 38.5, 38.5625, 38.625, 38.632656, 38.42347, 38.081249, 37.941963, 37.96875, 38.1875, 38.375, 38.4375, 38.3125, 38.25, 38.125, 38.1875, 38.258926, 38.458332, 38.642857, 38.535713, 38.625, 38.625, 38.5, 38.625, 38.5625, 38.5, 38.32143, 38.25, 38.3125, 38.375, 38.482143, 38.275509, 38.238094, 38.404762, 38.334824, 38.224998, 38.428574, 38.464287, 38.433037, 38.5, 38.4375, 38.4375, 38.4375, 38.375, 38.339287, 38.294643, 38.299999, 38.741074, 38.741074, 38.9375, 39.0625, 38.9375, 38.892857, 38.75, 38.5625, 38.4375, 38.375, 38.3125, 38.25, 38.276787, 38.5, 38.824406, 38.857143, 38.8125, 38.625, 38.375, 38.375, 38.375, 38.3125, 38.526787, 38.583332, 38.375, 38.142857, 38.1875, 38.276787, 38.3125, 38.205357, 38.3125, 38.1875, 38.25, 38.25, 38.3125, 38.375, 38.5625, 38.589287, 38.247025, 37.841835, 37.581631, 37.650002, 37.734692, 37.908161, 38.214287, 38.214287, 38.375, 38.15625, 38.03125, 38.008926, 38.160713, 38.25, 38.5, 38.5625, 38.5625, 38.5, 38.4375, 38.375, 38.5, 38.446426, 38.166668, 38.196426, 38.087502, 37.955357, 38.151787, 38.294643, 38.482143, 38.6875, 38.5625, 38.375, 38.375, 38.223213, 37.910713, 38.017857, 38, 38.419643, 38.6875, 38.803574, 38.583332, 38.602043, 38.346943, 37.791668, 38.07143, 38.083332, 38.049107, 37.869049, 37.778572, 37.596943, 37.888393, 37.8125, 37.9375, 38.125, 38.125, 38.1875, 38.125, 38.125, 38.25, 38.294643, 38.1875, 38.125, 37.9375, 37.955357, 38.0625, 37.9375, 38, 38.0625, 38.25, 38.5, 38.892857, 38.979591, 38.732143, 38.678574, 38.59375, 38.53125, 38.535713, 38.139881, 37.88393, 38.107143, 38.117344, 37.883926, 37.803574, 37.767857, 37.75, 37.875, 38.214287, 38.32143, 38.05357, 37.672619, 37.571426, 37.388393, 37.294643, 37.1875, 37.25, 37.357143, 37.625, 37.625, 37.6875, 37.8125, 37.8125, 37.669643, 37.416668, 37.416668, 37.583332, 37.857143, 37.9375, 37.8125, 37.6875, 37.5625, 37.5625, 37.6875, 37.857143, 38.09375, 38.40625, 38.65625, 38.90625, 39.0625, 39.1875, 39.3125, 39.5625, 39.8125, 40.169643, 40.53125, 40.96875, 41.450893, 41.71875, 41.8125, 41.75, 41.75, 41.5625, 41.239582, 40.877975, 40.758926, 40.821426, 41.28125, 41.75, 41.890625, 42.078125, 41.984375, 41.932293, 42.083332, 10, 10, 10, 10, 10, 10, 10, 10.0625, 10.083333, 10, -10, -10, -10, -10, -10, -10, -10, -10, -10, -10, -10, -10, -10, -10, -10, -10, -10, -10, -10, -10, -10, -10, -10, -10, -10, 20, 20, 20, 19.875, 19.625, 19.375, 19.125, 19, 18.875, 18.875, 18.8125, 18.6875, 18.625, 18.5, 18.375, 18.1875, 18.125, 17.9375, 17.875, 17.9375, 17.75, 17.8125, 17.625, 17.375, 17.3125, 17.0625, 17, 17, 16.9375, 16.875, 16.8125, 16.737499, 16.444445, 16.375, 16.333332, -10, -10, -10, -10, -10, -10, -10, -10, -10, -10, -10, -10, -10, -10, 42.020832, 41.8125, -10, -10, -10, -10, -10, -10, 41.857143, 41.974998, 41.955357, 42.0625, 42, 41.71875, 41.46875, 41.21875, 40.78125, 40.5, 40.25, 39.732143, 39.083336, 38.839287, 38.5625, 38.625, 38.571426, 38.166668, 38.0625, 37.9375, 38.040176, 38.34375, 38.34375, 38.34375, 38.1875, 38.125, 38.125, 38.1875, 38.25, 38.25, 38.25, 38.25, 38.1875, 38.125, 38.0625, 38.089287, 38.294643, 38.357143, 38.25, 38.25, 38.1875, 38.3125, 38.958332, 38.857143, 38.952385, 38.508926, 38.357143, 38.375, 38.3125, 38.3125, 38.375, 38.375, 38.375, 38.375, 38.375, 38.3125, 38.3125, 38.25, 38.1875, 38.1875, 38.1875, 38.1875, 37.959824, 37.643749, 37.647324, 37.78125, 38, 38.1875, 38.25, 38.1875, 38.1875, 38.125, 38.1875, 38.25, 38.25, 38.339287, 38.375, 38.3125, 38.28125, 38.15625, 38.15625, 38.03125, 37.9375, 37.9375, 37.875, 37.9375, 37.9375, 37.875, 37.875, 37.883926, 38.208332, 38.160713, 37.805359, 37.970238, 38.047615, 38.00893, 38.0625, 37.9375, 37.9375, 38, 38.0625, 38.125, 38.169643, 38.085712, 38.20536, 38.303574, 38.482143, 38.669643, 38.4375, 38.330357, 38.125, 37.928574, 37.857143, 37.625, 37.607143, 37.625, 37.714287, 37.9375, 38.442177, 38.294643, 38.25, 38.125, 37.9375, 38, 38.0625, 38.0625, 38.151787, 38.083332, 37.75, 37.625, 37.5, 37.651787, 37.75, 37.705357, 37.875, 37.8125, 37.875, 37.875, 37.875, 37.875, 38.0625, 38.026787, 37.684525, 37.517857, 37.3125, 37.375, 37.419643, 37.508926, 37.6875, 37.6875, 37.75, 37.59375, 37.53125, 37.508926, 37.723213, 37.723213, 37.767857, 37.696426, 37.892857, 37.75, 37.75, 37.6875, 37.75, 37.75, 37.75, 37.8125, 37.6875, 37.5625, 37.714287, 37.982143, 38.044643, 38.3125, 38.1875, 38, 38.125, 37.910713, 37.535713, 37.642857, 37.6875, 38.169643, 38.258926, 38.448982, 37.895832, 37.291668, 37.459187, 37.291668, 37.57143, 37.333332, 37.260201, 37.238098, 37.157143, 37.178574, 37.263393, 37.3125, 37.5625, 37.75, 37.8125, 37.875, 37.75, 37.75, 37.8125, 37.794643, 37.6875, 37.535713, 37.42857, 37.642857, 37.75, 37.5625, 37.5625, 37.5, 37.625, 37.8125, 37.541668, 37.619049, 38.107143, 38.178574, 38.28125, 38.316963, 38.107143, 37.568455, 37.153065, 36.958332, 37.110119, 37.5625, 37.625, 37.625, 37.625, 37.6875, 37.57143, 37.607143, 37.674107, 37.302082, 37.165176, 37.044643, 36.982143, 36.9375, 37.0625, 37.232143, 37.5625, 37.660713, 37.6875, 37.75, 37.6875, 37.517857, 37.122025, 37.122025, 37.333332, 37.544643, 37.5625, 37.616074, 37.455357, 37.40625, 37.40625, 37.46875, 37.669643, 37.96875, 38.28125, 38.59375, 38.84375, 38.9375, 39.0625, 39.125, 39.375, 39.75, 40.214287, 40.59375, 40.96875, 41.388393, 41.65625, 41.6875, 41.625, 41.5, 41.25, 40.989582, 40.919643, 40.9375, 41, 41.15625, 41.5, 41.5625, 41.75, 41.916668, 41.888889, 10, 10, 10, 10, 10, 10, 10, 10, 10.083333, 10.111111, -10, -10, -10, -10, -10
17, 17, 16.9375, 16.8125, 16.625, 16.458334, 16.333334, 16.222221, 16, -10, -10, -10, -10, -10, -10, -10, -10, -10, -10, -10, -10, -10, -10, 41.833332, 41.416664, 41.125, 40.928574, 40.75, -10, -10, 40.458332, 41.417854, 41.448978, 41.57143, 41.607143, 41.5, 41.263393, 41.15625, 40.78125, 40.5, 40.25, 39.732143, 39.020836, 38.741074, 38.4375, 38.375, 38.285713, 37.854168, 37.5, 37.357143, 37.602676, 37.84375, 37.90625, 38.03125, 37.9375, 37.875, 37.8125, 37.75, 37.8125, 37.875, 37.875, 37.875, 37.75, 37.625, 37.5625, 37.589287, 37.794643, 37.919643, 37.8125, 37.875, 37.875, 37.919643, 38.69524, 38.612244, 38.611111, 38.071426, 37.919643, 37.875, 37.875, 37.875, 37.9375, 38.0625, 38.0625, 38.125, 38.0625, 37.9375, 37.875, 37.75, 37.625, 37.5625, 37.5625, 37.625, 37.598213, 37.362499, 37.366074, 37.401787, 37.5625, 37.6875, 37.875, 37.8125, 37.84375, 37.875, 37.90625, 38.09375, 38.125, 38.058037, 37.955357, 37.875, 37.84375, 37.763393, 37.510418, 37.290176, 37.196426, 37.458332, 37.553574, 37.625, 37.5625, 37.4375, 37.375, 37.383926, 37.565475, 37.441963, 37.024109, 37.126488, 37.333336, 37.50893, 37.5625, 37.5, 37.4375, 37.5, 37.5625, 37.625, 37.732143, 37.648212, 37.70536, 37.866074, 38.044643, 38.232143, 37.92857, 37.892857, 37.625, 37.491074, 36.916668, 37.25, 37.294643, 37.375, 37.5, 37.580357, 37.666664, 37.794643, 37.75, 37.625, 37.5, 37.5625, 37.6875, 37.75, 37.75, 37.6875, 37.5, 37.375, 37.375, 37.4375, 37.5, 37.5625, 37.625, 37.6875, 37.6875, 37.6875, 37.6875, 37.625, 37.75, 37.714287, 37.434525, 37.392857, 37.25, 37.25, 37.125, 37.071426, 37.1875, 37.25, 37.3125, 37.21875, 37.28125, 37.366074, 37.598213, 37.598213, 37.580357, 37.508926, 37.333332, 37.625, 37.625, 37.5, 37.5, 37.5, 37.5, 37.5625, 37.4375, 37.3125, 37.401787, 37.607143, 37.669643, 37.875, 37.8125, 37.6875, 37.75, 37.625, 37.321426, 37.392857, 37.5, 37.857143, 37.821426, 37.315475, 37.023808, 36.857143, 37.241074, 37.104168, 37.205357, 37.125, 37.09375, 37, 36.9375, 37.0625, 37.28125, 37.4375, 37.625, 37.625, 37.5625, 37.5625, 37.4375, 37.4375, 37.4375, 37.357143, 37.25, 37.3125, 37.3125, 37.517857, 37.580357, 37.212502, 37.241074, 36.9375, 37.0625, 37.1875, 37.25, 37.17347, 37.669643, 37.803574, 38.03125, 38.066963, 37.794643, 37.255955, 36.94643, 36.9375, 37.071426, 37.21875, 37.28125, 37.34375, 37.4375, 37.5625, 37.357143, 37.357143, 37.330357, 36.833332, 36.696426, 36.575893, 36.575893, 36.53125, 36.65625, 36.857143, 37.1875, 37.455357, 37.5, 37.625, 37.625, 37.455357, 37.059525, 36.961311, 37.208332, 37.357143, 37.276787, 37.428574, 37.38393, 37.513393, 37.513393, 37.46875, 37.669643, 37.875, 38.1875, 38.4375, 38.6875, 38.875, 39.035713, 39.0625, 39.3125, 39.6875, 40.258926, 40.5625, 40.8125, 41.044643, 41.1875, 41.1875, 41.125, 40.9375, 40.75, 40.78125, 40.875, 41, 41.0625, 41.15625, 41.25, 41.416668, 41.583332, 10, 10, 10, 10, 10, 10, 10, 10, 10, 10, -10, -10, -10, -10, -10, -10, -10, -10, -10, -10, 24, -10, -10, -10, -10, -10, -10, -10, -10, -10, -10, -10, -10, -10, -10, -10, -10, -10, 20, 20, 20, 19.75, 19.5, 19.25, 19, 19, 19, 19, 19, 19, 18.9375, 18.875, 18.625, 18.375, 18.1875, 17.8125, 17.6875, 17.508928, 17.3125, 17.660715, 17.580357, 17.46875, 17.34375, 17.09375, 17, 17, 17, 17, 16.9375, 16.6875, 16.5, 16.3125, 16.166666, 16, 16, -10, -10, -10, -10, -10, -10, -10, -10, -10, -10, -10, -10, -10, -10, 41.416664, 41.125, 40.928574, 40.5, 40.0625, 39.9375, 40.035713, 40.191666, 40.136906, 40.125, 40.208332, 40.309525, 40.940475, 40.991074, 40.75, 40.5, 40.25, 39.732143, 39.020836, 38.741074, 38.4375, 38.3125, 38.160713, 37.604168, 37.3125, 37.125, 37.102676, 37.34375, 37.53125, 37.71875, 37.6875, 37.6875, 37.5625, 37.5, 37.625, 37.6875, 37.6875, 37.6875, 37.5, 37.375, 37.4375, 37.5, 37.625, 37.8125, 37.625, 37.6875, 37.669643, 37.428574, 37.676189, 37.7551, 37.505951, 37.8125, 37.6875, 37.5625, 37.625, 37.6875, 37.75, 37.875, 37.875, 37.9375, 37.875, 37.75, 37.625, 37.5, 37.3125, 37.1875, 37.205357, 37.458332, 37.526787, 37.5, 37.3125, 37.214287, 37.3125, 37.375, 37.625, 37.625, 37.65625, 37.6875, 37.59375, 37.71875, 37.6875, 37.59375, 37.625, 37.6875, 37.629463, 37.47768, 37.322918, 37.20982, 37.258926, 37.645832, 37.678574, 37.625, 37.5, 37.375, 37.348213, 37.205357, 36.857143, 36.627552, 36.399109, 36.328236, 36.860119, 37.232143, 37.419643, 37.4375, 37.3125, 37.3125, 37.25, 37.1875, 37.3125, 37.348213, 37.3125, 37.5, 37.607143, 37.732143, 37.5625, 37.455357, 37.25, 37.178574, 36.9375, 37, 36.982143, 37.125, 37.3125, 37.375, 37.285713, 37.4375, 37.375, 37.3125, 37.25, 37.25, 37.375, 37.4375, 37.4375, 37.5, 37.375, 37.25, 37.25, 37.1875, 37.1875, 37.3125, 37.4375, 37.625, 37.6875, 37.625, 37.625, 37.5625, 37.5625, 37.491074, 37.113094, 37.071426, 37.035713, 37.0625, 37.0625, 36.946426, 37, 36.875, 36.75, 36.625, 36.6875, 36.75, 36.99107, 37.181545, 37.133926, 37.133926, 37.125, 37.125, 37.125, 37, 36.9375, 37, 37, 37.0625, 37, 36.875, 36.9375, 37.0625, 37.1875, 37.3125, 37.3125, 37.25, 37.25, 37.125, 37.0625, 37.0625, 37.1875, 37.419643, 36.903057, 36.663265, 36.458332, 36.3125, 36.5625, 36.6875, 36.8125, 36.75, 36.6875, 36.5625, 36.5625, 36.6875, 36.946426, 37.200001, 37.267857, 37.3125, 37.125, 37.125, 36.9375, 36.875, 36.8125, 36.75, 36.75, 36.8125, 36.875, 37.017857, 37.017857, 36.712502, 36.741074, 36.4375, 36.5625, 36.5625, 36.5625, 36.651787, 36.919643, 37.275513, 37.607143, 37.719387, 37.169643, 36.720238, 36.544643, 36.5, 36.625, 36.8125, 36.8125, 36.8125, 36.875, 36.875, 36.8125, 36.8125, 36.6875, 36.5, 36.4375, 36.28125, 36.21875, 36.245537, 36.28125, 36.4375, 36.75, 37.080357, 37.294643, 37.419643, 37.291668, 37.160713, 36.747025, 36.648811, 36.895832, 36.857143, 36.776787, 36.991074, 37.04018, 37.426022, 37.294643, 37.3125, 37.544643, 37.75, 38.0625, 38.25, 38.4375, 38.6875, 38.910713, 39.0625, 39.375, 39.6875, 40.196426, 40.392857, 40.625, 40.6875, 40.8125, 40.75, 40.75, 40.625, 40.5, 40.53125, 40.625, 40.75, 40.8125, 41.125, 41.166668, 10, 10, 10, 10, 9.9375, 9.9375, 9.9375, 9.916667, 10, 10, -10, -10, -10, -10, -10, -10, -10, -10, -10
17, 17, 17, 17, 16.75, 16.5, 16.25, 16, 16, 16, 16, 16.125, 16.166668, -10, -10, -10, -10, -10, -10, -10, -10, -10, -10, -10, -10, -10, -10, 40.5, 40.0625, 40.125, 39.78125, 40.068748, 40.120537, 39.857143, 40, 39.974491, 40.465477, 40.845238, 40.705357, 40.517857, 40.25, 39.741074, 39.229168, 38.982143, 38.6875, 38.5, 38.285713, 37.666668, 37.3125, 37.125, 37.03125, 37.09375, 37.34375, 37.441963, 37.330357, 37.258926, 37.0625, 37.0625, 37.3125, 37.473213, 37.5, 37.5, 37.25, 37.1875, 37.3125, 37.357143, 37.208332, 37.5, 37.1875, 37.285713, 37.294643, 36.991074, 36.81905, 36.897957, 36.82653, 36.92857, 37, 37.1875, 37.3125, 37.3125, 37.392857, 37.708332, 37.708332, 37.604168, 37.446426, 37.3125, 37.25, 37.1875, 37.0625, 36.875, 36.830357, 37.020832, 37.089287, 37.1875, 37.125, 37.026787, 37.0625, 36.9375, 37.0625, 37.125, 37.263393, 37.34375, 37.25, 37.25, 36.892857, 36.67857, 36.714287, 37.0625, 37.066963, 36.97768, 36.760418, 36.64732, 36.760201, 37.202381, 37.311226, 37.0625, 37, 36.9375, 36.883926, 36.598213, 36.446426, 36.200893, 35.986607, 36.010418, 36.369049, 36.732143, 36.919643, 37, 36.982143, 37, 36.9375, 36.8125, 36.875, 36.910713, 36.875, 37.125, 37.169643, 37.107143, 37, 36.875, 36.75, 36.678574, 36.4375, 36.5, 36.482143, 36.625, 36.8125, 36.84375, 36.90625, 36.84375, 36.78125, 36.8125, 36.875, 36.9375, 37.0625, 37.0625, 36.9375, 36.875, 37, 36.92857, 36.8125, 36.8125, 36.8125, 36.9375, 37.1875, 37.410713, 37.330357, 37.196426, 37.17857, 37, 36.92857, 36.82143, 36.571426, 36.6875, 36.723213, 36.875, 36.90625, 36.71875, 36.59375, 36.34375, 36.1875, 36.1875, 36.169643, 35.979168, 36.163689, 36.619045, 36.714287, 36.821426, 36.75, 36.6875, 36.625, 36.5, 36.4375, 36.5625, 36.5625, 36.6875, 36.6875, 36.5625, 36.625, 36.6875, 36.75, 36.8125, 36.8125, 36.75, 36.57143, 36.6875, 36.6875, 36.6875, 36.75, 36.8125, 36.446426, 36.241074, 36.125, 36.133926, 36.4375, 36.625, 36.6875, 36.625, 36.625, 36.5, 36.5, 36.5625, 36.696426, 36.950001, 37.017857, 37.044643, 36.8125, 36.8125, 36.5625, 36.5625, 36.5, 36.4375, 36.5, 36.625, 36.75, 36.875, 36.709187, 36.612499, 36.470238, 36.366074, 36.375, 36.419643, 36.339287, 36.4375, 36.5, 36.25, 36.375, 36.398808, 36.633926, 36.616074, 36.625, 36.75, 36.8125, 36.9375, 36.875, 36.8125, 36.875, 36.875, 36.75, 36.75, 36.625, 36.4375, 36.4375, 36.28125, 36.15625, 36.120537, 36.09375, 36.1875, 36.5, 36.830357, 36.982143, 37.044643, 36.854168, 36.80357, 36.705357, 36.607143, 36.6875, 36.5625, 36.401787, 36.741074, 36.91518, 37.132656, 37.357143, 37.3125, 37.5, 37.625, 37.875, 38.0625, 38.1875, 38.5, 38.785713, 39, 39.3125, 39.5, 39.839287, 39.955357, 40.125, 40.125, 40.25, 40.25, 40.3125, 40.3125, 40.25, 40.25, 40.3125, 40.375, 40.583332, 10, 10, 10, 10, 10, 10, 9.9375, 9.9375, 9.9375, 9.8888893, -10, -10, -10, -10, -10, -10, -10, -10, -10, -10, 23.625, 23.625, 23.791666, 23.791666, 23.875, -10, -10, -10, -10, -10, -10, -10, -10, -10, -10, -10, -10, -10, -10, -10, -10, -10, 19.875, 19.833334, 19.875, 19.625, 19.4375, 19.25, 19, 19, 19, 19, 19, 19, 19, 18.875, 18.625, 18.375, 18.125, 17.75, 17.5, 17.196428, 17, 17.285715, 17.267857, 17.28125, 17.15625, 17.03125, 17.0625, 17.0625, 17, 16.892857, 16.875, 16.6875, 16.5, 16.3125, 16.0625, 16, 16, 16, 16.083334, 16.111113, 15.875, 15.875, -10, -10, -10, -10, -10, -10, -10, -10, -10, -10, -10, -10, -10, -10, 40.09375, 39.697918, 39.59375, 39.540176, 39.3125, 39.40625, 39.41518, 39.746727, 40.412415, 40.205357, 40.142857, 39.973213, 39.625, 39.375, 39.089287, 38.875, 38.5625, 38.339287, 37.875, 37.4375, 37.1875, 36.875, 36.8125, 36.9375, 36.973213, 36.830357, 36.758926, 36.5625, 36.5, 36.75, 36.910713, 36.9375, 37, 36.8125, 36.75, 37, 37.015308, 36.520832, 36.357143, 36.5, 36.660713, 36.794643, 36.526787, 36.362499, 36.419643, 36.285713, 36.4375, 36.625, 36.75, 36.919643, 36.8125, 36.955357, 37.351189, 37.489582, 37.425594, 37.125, 36.883926, 36.75, 36.75, 36.6875, 36.5625, 36.580357, 36.770832, 36.901787, 37.0625, 36.96875, 36.839287, 36.75, 36.4375, 36.53125, 36.5625, 36.638393, 36.71875, 36.625, 36.625, 36.25, 35.931122, 36.010204, 36.214287, 36.535713, 36.57143, 36.479168, 36.42857, 36.188774, 36.523808, 36.596943, 36.535713, 36.6875, 36.6875, 36.571426, 36.285713, 36.071426, 35.84375, 35.90625, 35.96875, 36.223213, 36.5625, 36.732143, 36.875, 36.919643, 37, 36.9375, 36.75, 36.6875, 36.6875, 36.660713, 36.8125, 36.8125, 36.75, 36.6875, 36.5625, 36.5, 36.5, 36.5625, 36.625, 36.625, 36.6875, 36.8125, 36.78125, 36.78125, 36.65625, 36.53125, 36.5625, 36.625, 36.75, 36.8125, 36.75, 36.625, 36.5, 36.357143, 36.357143, 36.5, 36.4375, 36.4375, 36.5, 36.75, 37.035713, 36.99107, 36.883926, 36.607143, 36.392857, 36.357143, 36.25, 36.258926, 36.3125, 36.348213, 36.5, 36.59375, 36.46875, 36.40625, 36.15625, 36, 36, 35.919643, 35.547619, 35.758503, 36.458332, 36.69643, 36.9375, 36.875, 36.75, 36.616074, 36.3125, 36.3125, 36.375, 36.4375, 36.5625, 36.5, 36.375, 36.375, 36.3125, 36.375, 36.375, 36.375, 36.3125, 36.25, 36.25, 36.375, 36.375, 36.375, 36.375, 36.125, 36.0625, 36.0625, 36.0625, 36.1875, 36.375, 36.375, 36.375, 36.375, 36.25, 36.25, 36.3125, 36.446426, 36.637501, 36.580357, 36.544643, 36.25, 36.25, 36.125, 36.1875, 36.258926, 36.4375, 36.4375, 36.455357, 36.4375, 36.4375, 36.473213, 36.570831, 36.514881, 36.428574, 36.196426, 36.0625, 35.901787, 35.9375, 35.9375, 35.9375, 35.82143, 35.892857, 36.3125, 36.473213, 36.392857, 36.446426, 36.57143, 36.642857, 36.57143, 36.5, 36.535713, 36.5, 36.42857, 36.42857, 36.357143, 36.09375, 36.09375, 36, 35.84375, 35.745537, 35.78125, 35.875, 36.1875, 36.544643, 36.669643, 36.515308, 36.226192, 36.330357, 36.3125, 36.214287, 36.25, 36.125, 36.026787, 36.3125, 36.647324, 37.075893, 37.263393, 37.34375, 37.5625, 37.625, 37.875, 38, 38.169643, 38.4375, 38.660713, 38.8125, 39, 39.0625, 39.232143, 39.330357, 39.5, 39.4375, 39.5625, 39.5625, 39.6875, 39.875, 39.9375, 40, 40.0625, 40.166668, 10, 10, 9.916667, 9.875, 9.8125, 9.75, 9.8214283, 9.9375, 9.916667, 9.916667, -10, -10, -10, -10, -10, -10, -10, 23, 23, 23, 23.125, 23.416666
17.098213, 16.892857, 16.785713, 16.75, 16.6875, 16.625, 16.4375, 16.1875, 16.0625, 16, 16, 16.0625, 16.083334, 15.833333, 15.75, 15.583334, -10, -10, -10, -10, -10, -10, -10, -10, -10, -10, -10, -10, -10, 40.166668, 39.604168, 39.5625, 39.540176, 39.25, 39.21875, 39.04018, 39.13958, 39.10516, 39.341835, 39.580357, 39.535713, 39.375, 39.25, 39.0625, 38.875, 38.625, 38.4375, 37.9375, 37.4375, 37.017857, 36.625, 36.5, 36.5625, 36.535713, 36.517857, 36.446426, 36.25, 36.142857, 36.3125, 36.410713, 36.5, 36.625, 36.5, 36.5, 36.42857, 36.142857, 35.726189, 35.67857, 35.57143, 35.872448, 36.523811, 36.41964, 36.375, 36.3125, 36.223213, 36.25, 36.4375, 36.5625, 36.651787, 36.4375, 36.580357, 36.851189, 37.114582, 37.050594, 36.75, 36.633926, 36.5625, 36.607143, 36.479168, 36.321426, 36.330357, 36.520832, 36.651787, 36.875, 36.90625, 36.8125, 36.6875, 36.3125, 36.21875, 36.3125, 36.357143, 36.40625, 36.34375, 36.21875, 36.03125, 35.767857, 35.875, 36, 36.160713, 36.214287, 36.3125, 36.357143, 36.107143, 36.142857, 36.107143, 36.1875, 36.25, 36.25, 36.223213, 36.142857, 36.071426, 35.9375, 36, 36.125, 36.3125, 36.419643, 36.532143, 36.741074, 36.776787, 36.9375, 36.8125, 36.5625, 36.375, 36.1875, 36.098213, 36.125, 36.125, 36.125, 36.0625, 36, 36, 36.0625, 36.25, 36.3125, 36.3125, 36.42857, 36.464287, 36.42857, 36.21875, 36.15625, 36.03125, 36.0625, 36.0625, 36.125, 36.142857, 36.137501, 35.883926, 35.758926, 35.8125, 35.875, 35.9375, 35.9375, 35.9375, 35.82143, 36.07143, 36.473213, 36.42857, 36.321426, 36.25, 36.125, 36.125, 36.0625, 35.883926, 35.866074, 35.639881, 35.791668, 36.03125, 35.96875, 36.03125, 35.71875, 35.5625, 35.5625, 35.482143, 35.291668, 35.476189, 35.958332, 36.13393, 36.535713, 36.392857, 36.125, 35.991074, 35.8125, 35.9375, 36, 36.125, 36.25, 36.125, 36.089287, 36.083332, 35.8125, 35.875, 35.8125, 35.875, 35.75, 35.5625, 35.693878, 35.82143, 35.857143, 35.75, 35.8125, 35.75, 35.8125, 35.8125, 35.8125, 35.8125, 35.75, 35.6875, 35.705357, 35.8125, 35.75, 35.8125, 35.75, 35.821426, 35.950001, 35.892857, 35.919643, 35.6875, 35.75, 35.625, 35.75, 35.883926, 36.0625, 36.0625, 35.955357, 35.8125, 35.75, 35.830357, 36.373806, 36.211311, 36.303574, 35.946426, 35.714287, 35.464287, 35.4375, 35.375, 35.3125, 35.4375, 35.5, 35.75, 35.973213, 35.892857, 35.946426, 35.714287, 35.785713, 35.714287, 35.642857, 35.57143, 35.5, 35.464287, 35.464287, 35.535713, 35.625, 35.6875, 35.625, 35.4375, 35.401787, 35.4375, 35.4375, 35.6875, 35.9375, 36.151787, 36.169643, 35.979168, 35.892857, 35.875, 35.8125, 35.78125, 35.71875, 35.71875, 35.96875, 36.21875, 36.46875, 36.65625, 36.915176, 37.395832, 37.616074, 37.9375, 38.0625, 38.169643, 38.3125, 38.375, 38.5, 38.625, 38.625, 38.625, 38.705357, 38.875, 38.875, 39.125, 39.1875, 39.375, 39.625, 39.6875, 40, 40, 9.5, 9.75, 9.875, 9.875, 9.8125, 9.75, 9.75, 9.8714285, 9.916667, -10, -10, -10, -10, -10, -10, -10, -10, -10, 22.666666, 22.75, 22.833334, 23.083334, 23.4375, 23.53125, 23.625, 23.71875, 23.791666, -10, -10, -10, -10, -10, -10, -10, -10, -10, -10, -10, -10, -10, -10, -10, -10, -10, 19.875, 19.75, 19.8125, 19.625, 19.4375, 19.3125, 19.0625, 19, 19, 19, 19, 19, 19, 18.8125, 18.5625, 18.3125, 18.0625, 17.875, 17.75, 17.625, 17.5, 17.375, 17.25, 17.125, 17, 17, 17.0625, 17.035713, 16.830357, 16.723213, 16.75, 16.75, 16.75, 16.5625, 16.3125, 16.125, 16, 16, 16, 16, 15.875, 15.75, 15.555556, 15.291666, -10, -10, -10, -10, -10, -10, -10, -10, -10, -10, -10, -10, -10, 39.555557, 39.5, 39.383926, 39.072918, 39, 38.745537, 38.556252, 38.559521, 38.581635, 38.724491, 38.973213, 38.9375, 38.875, 38.8125, 38.6875, 38.5, 38.375, 37.875, 37.375, 36.848213, 36.4375, 36.3125, 36.3125, 36.285713, 36.267857, 36.133926, 35.9375, 35.830357, 35.875, 35.910713, 36, 36.0625, 36, 36.0625, 36.125, 35.955357, 35.208332, 35.111607, 35.03125, 35.357143, 35.916668, 36.219387, 36.214287, 36.107143, 35.964287, 35.875, 36.098213, 36.25, 36.214287, 35.9375, 36.080357, 36.351189, 36.569939, 36.462585, 36.102039, 36.010204, 36.07143, 36.183674, 35.979168, 35.946426, 36, 36, 36.107143, 36.25, 36.464287, 36.25, 36.125, 35.875, 35.78125, 35.857143, 35.794643, 35.84375, 35.78125, 35.71875, 35.683037, 35.625, 35.696426, 35.6875, 35.75, 35.8125, 35.75, 35.75, 35.5625, 35.5, 35.517857, 35.5625, 35.6875, 35.75, 35.75, 35.785713, 35.714287, 35.6875, 35.6875, 35.875, 36, 35.982143, 35.924999, 36.116074, 36.151787, 36.375, 36.3125, 36.125, 35.9375, 35.6875, 35.5625, 35.5625, 35.5625, 35.625, 35.5625, 35.5, 35.5, 35.5625, 35.75, 35.8125, 35.875, 35.642857, 35.642857, 35.642857, 35.71875, 35.65625, 35.53125, 35.5625, 35.5625, 35.392857, 35.341835, 35.530357, 35.467262, 35.375, 35.366074, 35.25, 35.3125, 35.3125, 35.4375, 35.4375, 35.5, 35.632652, 35.642857, 35.633926, 35.4375, 35.3125, 35.375, 35.375, 35.5625, 35.651787, 35.318455, 35.479168, 35.53125, 35.59375, 35.65625, 35.46875, 35.4375, 35.4375, 35.419643, 35.166668, 35.270832, 35.5625, 35.642857, 35.541668, 35.5, 35.8125, 35.741074, 35.625, 35.8125, 35.875, 36.0625, 36.125, 35.9375, 35.901787, 35.833332, 35.4375, 35.4375, 35.375, 35.4375, 35.4375, 35.3125, 34.952381, 34.958332, 35.041668, 35.4375, 35.5625, 35.6875, 35.8125, 35.8125, 35.75, 35.6875, 35.625, 35.5625, 35.642857, 35.75, 35.625, 35.6875, 35.625, 35.5625, 35.5625, 35.5625, 35.419643, 35.3125, 35.375, 35.241074, 35.166668, 35.342262, 35.729168, 35.741074, 35.669643, 35.5, 35.4375, 35.642857, 35.861904, 36.023811, 36.116074, 35.696426, 35.464287, 35.276787, 35.25, 35.25, 35.25, 35.3125, 35.375, 35.5625, 35.723213, 35.642857, 35.510204, 35.42857, 35.42857, 35.357143, 35.285713, 35.214287, 35.5, 35.410713, 35.339287, 35.4375, 35.17857, 35.219387, 35.3125, 35.294643, 35.1875, 35.3125, 35.25, 35.375, 35.5, 35.607143, 35.6875, 35.75, 35.6875, 35.625, 35.5, 35.46875, 35.59375, 35.71875, 36.03125, 36.25, 36.4375, 36.625, 36.821426, 37.333332, 37.553574, 37.875, 38.0625, 38.169643, 38.25, 38.25, 38.25, 38.25, 38.25, 38.3125, 38.375, 38.4375, 38.4375, 38.5625, 38.75, 38.958332, 39.5, 39.583332, 9, 9, 9.333333, 9.625, 9.75, 9.8125, 9.8125, 9.75, 9.666667, 9.8285713, -10, -10, -10, -10, -10, -10, -10, -10, 22, 21.799999, 22.571428, 22.633928, 22.8125, 23, 23.125
16.910713, 16.705357, 16.660713, 16.75, 16.75, 16.75, 16.5625, 16.3125, 16.125, 16, 16, 16, 16, 15.8125, 15.625, 15.479167, 15.194444, 15, -10, -10, -10, -10, -10, -10, -10, -10, -10, -10, -10, -10, -10, -10, 39.083332, 38.666668, 38.489582, 38.34375, 38.15625, 38.125, 38.09375, 38.15625, 38.191963, 38.3125, 38.375, 38.4375, 38.4375, 38.3125, 38.25, 37.875, 37.428574, 36.702381, 36.258926, 36.125, 36.0625, 36.0625, 36.1875, 36.0625, 35.875, 35.705357, 35.5625, 35.4375, 35.5, 35.5, 35.5, 35.5625, 35.625, 35.535713, 35.0625, 34.986607, 34.84375, 35.008926, 35.479168, 35.397957, 35.464287, 35.529762, 35.647957, 35.8125, 35.86607, 35.875, 35.776787, 35.5625, 35.75, 35.830357, 36.049107, 35.492062, 35.107143, 35.005951, 35.125, 35.397957, 35.479168, 35.571426, 35.75, 35.8125, 35.982143, 36, 35.75, 35.875, 35.8125, 35.6875, 35.65625, 35.607143, 35.3125, 35.3125, 35.1875, 35.25, 35.339287, 35.3125, 35.446426, 35.4375, 35.5, 35.5625, 35.5, 35.5, 35.375, 35.3125, 35.330357, 35.375, 35.4375, 35.5, 35.5625, 35.598213, 35.526787, 35.5625, 35.5, 35.6875, 35.8125, 35.794643, 35.737499, 35.866074, 35.794643, 35.785713, 35.714287, 35.75, 35.625, 35.4375, 35.3125, 35.25, 35.25, 35.25, 35.1875, 35.1875, 35.1875, 35.3125, 35.5, 35.5625, 35.42857, 35.285713, 35.285713, 35.4375, 35.375, 35.375, 35.25, 35.25, 35.1875, 35.125, 35.080357, 35.217857, 35.342262, 35.4375, 35.428574, 35.25, 35.125, 35, 35.0625, 35.0625, 35.3125, 35.473213, 35.5, 35.491074, 35.166668, 35.080357, 35.0625, 35.1875, 35.375, 35.401787, 35.130955, 35.229168, 35.1875, 34.958332, 35.020832, 35.083332, 35.178574, 35.25, 35.3125, 35.25, 35.3125, 35.3125, 35.25, 35.375, 35.375, 35.5, 35.553574, 35.5625, 35.75, 35.678574, 35.6875, 35.6875, 35.5, 35.589287, 35.520832, 35.1875, 35.1875, 35.1875, 35.223213, 35.080357, 34.883926, 34.714287, 34.78125, 34.90625, 35.09375, 35.21875, 35.3125, 35.375, 35.375, 35.375, 35.4375, 35.4375, 35.4375, 35.508926, 35.354168, 35.267857, 35.3125, 35.3125, 35.3125, 35.178574, 34.9375, 34.8125, 34.75, 34.9375, 34.901787, 34.506805, 34.707481, 34.976192, 35.025509, 35.169643, 35, 34.9375, 35.071426, 35.190475, 35.346939, 35.301022, 35.133926, 34.857143, 34.8125, 34.8125, 34.875, 34.875, 34.875, 34.9375, 35.0625, 35.098213, 35.017857, 35.008926, 34.9375, 35, 34.9375, 34.9375, 34.9375, 34.928574, 34.723213, 34.651787, 34.6875, 34.6875, 34.723213, 34.75, 34.919643, 34.857143, 34.875, 34.8125, 34.875, 35.035713, 35.13393, 35.25, 35.464287, 35.1875, 35.0625, 35, 35.09375, 35.40625, 35.65625, 35.96875, 36.1875, 36.375, 36.5625, 36.821426, 37.342262, 37.678574, 37.9375, 38.125, 38.169643, 38.1875, 38.125, 38.0625, 38, 38, 38.0625, 38.125, 38.1875, 38.1875, 38.25, 38.375, 38.694443, 9, 9, 9, 9, 9.25, 9.375, 9.5714283, 9.8125, 9.75, 9.666667, -10, -10, -10, -10, -10, -10, -10, 22.416668, 22.416668, 22.5, 22.142859, 21.755554, 22.279762, 22.550594, 22.8125, 23.0625, 23.1875, 23.25, 23.3125, 23.482143, 23.885416, -10, -10, -10, -10, -10, -10, -10, -10, -10, -10, -10, -10, -10, -10, -10, -10, -10, 19.5, 19.416666, 19.4375, 19.4375, 19.375, 19.375, 19.3125, 19.1875, 19.125, 19.0625, 18.9375, 18.9375, 18.9375, 18.875, 18.6875, 18.4375, 18.1875, 18, 18, 18, 18, 17.875, 17.6875, 17.4375, 17.1875, 17, 16.875, 16.848213, 16.705357, 16.767857, 16.8125, 16.75, 16.6875, 16.4375, 16.25, 16.125, 16, 16, 16, 15.9375, 15.75, 15.5, 15.3125, 15.145833, 15, 15.125, 15.166666, -10, -10, -10, -10, -10, -10, -10, -10, -10, -10, -10, -10, -10, 38.638889, 38.458332, 38.1875, 37.892857, 37.8125, 37.75, 37.75, 37.75, 37.8125, 37.8125, 37.9375, 38, 38, 38.0625, 37.8125, 37.366074, 36.595242, 36.196426, 36.0625, 36.0625, 36.0625, 36.1875, 36.0625, 35.875, 35.767857, 35.5625, 35.375, 35.375, 35.25, 35.25, 35.4375, 35.535713, 35.4375, 35, 34.799107, 34.71875, 34.758926, 34.809525, 34.663265, 34.607143, 35.311226, 35.397957, 35.5, 35.36607, 35.375, 35.357143, 35.169643, 35.1875, 35.1875, 35.205357, 35.020832, 34.803574, 34.8125, 34.9375, 34.964287, 34.916668, 35.008926, 35.1875, 35.375, 35.544643, 35.5625, 35.214287, 35.25, 35.080357, 35.116074, 35.287498, 35.169643, 35.008926, 34.9375, 34.607143, 34.607143, 34.637756, 34.729591, 34.882652, 35.0625, 35, 34.875, 34.938774, 34.938774, 34.8125, 34.910713, 34.986607, 35.03125, 35, 35, 35.125, 35.223213, 35.151787, 35.1875, 35, 35.0625, 35.125, 35.107143, 35.049999, 35.178574, 35.107143, 35.1875, 35.1875, 35.1875, 35.125, 35.0625, 34.919643, 34.714287, 34.75, 34.6875, 34.75, 34.75, 34.6875, 34.625, 34.795918, 34.785713, 34.82143, 34.607143, 34.6875, 34.75, 34.75, 34.8125, 34.75, 34.75, 34.6875, 34.5625, 34.580357, 34.691071, 34.672619, 35.010204, 35.025509, 34.857143, 34.8125, 34.75, 34.8125, 34.785713, 34.830357, 35.051022, 35.030613, 34.866074, 34.604168, 34.642857, 34.625, 34.75, 35, 35.026787, 34.818455, 34.916668, 34.8125, 34.520832, 34.520832, 34.583332, 34.741074, 34.8125, 34.875, 34.8125, 34.75, 34.6875, 34.625, 34.6875, 34.6875, 34.875, 35.0625, 35.419643, 35.571426, 35.241074, 35.145832, 35.125, 34.875, 34.919643, 34.833332, 34.5625, 34.625, 34.6875, 34.723213, 34.580357, 34.383926, 34.214287, 34.21875, 34.34375, 34.53125, 34.65625, 34.8125, 34.875, 34.9375, 35, 35.09375, 35.09375, 35.03125, 35.040176, 34.854168, 34.830357, 34.9375, 35, 35.0625, 34.928574, 34.625, 34.5, 34.544643, 34.741074, 34.714287, 34.380955, 34.458332, 34.541668, 34.553574, 34.526787, 34.4375, 34.4375, 34.5, 34.625, 34.75, 34.732143, 34.5625, 34.392857, 34.166668, 34.270832, 34.541668, 34.625, 34.625, 34.5625, 34.625, 34.598213, 34.589287, 34.6875, 34.625, 34.8125, 34.75, 34.8125, 34.9375, 34.928574, 34.723213, 34.589287, 34.5, 34.4375, 34.473213, 34.5625, 34.794643, 34.732143, 34.625, 34.330357, 34.25, 34.357143, 34.63393, 34.8125, 34.625, 34.9375, 34.9375, 34.9375, 35.09375, 35.40625, 35.65625, 35.90625, 36.125, 36.3125, 36.5, 36.758926, 37.217262, 37.584824, 37.8125, 38, 38, 38.03125, 38, 38, 38, 37.9375, 38, 38, 38, 38.0625, 38.083332, 38.25, 9, 9, 9, 9, 9, 9, 9.125, 9.4285707, 9.833333, -10, -10, -10, -10, -10, -10, -10, -10, 22.25, 22.361113, 22.444445, 22.5, 22.169643, 21.780952, 22.029762, 22.59226, 22.991072, 23.3125, 23.4375
16.8125, 16.8125, 16.875, 16.9375, 16.75, 16.5, 16.214287, 16.0625, 16, 16, 16, 16, 15.9375, 15.75, 15.5, 15.25, 15.0625, 15, 15.083333, 15.111111, 15, -10, -10, -10, -10, -10, -10, -10, -10, -10, -10, -10, -10, -10, 38.444443, 38.125, 37.809525, 37.6875, 37.5625, 37.4375, 37.375, 37.375, 37.375, 37.5, 37.625, 37.6875, 37.75, 37.625, 37.303574, 36.639881, 36.321426, 36.125, 36.0625, 36, 35.9375, 35.8125, 35.625, 35.625, 35.4375, 35.25, 35.125, 34.875, 34.875, 35, 35.098213, 35.07143, 34.822918, 34.674107, 34.71875, 34.59375, 34.4375, 34.098213, 33.9375, 33.816326, 33.948978, 34.214287, 34.55357, 34.625, 34.65625, 34.575893, 34.53125, 34.53125, 34.455357, 34.208332, 34.053574, 34.0625, 34.1875, 34.357143, 34.5625, 34.8125, 35.0625, 35.116074, 34.987499, 35.053574, 34.794643, 34.6875, 34.517857, 34.625, 34.987499, 34.607143, 34.446426, 34.3125, 34.25, 34.3125, 34.339287, 34.419643, 34.491074, 34.5625, 34.5625, 34.464287, 33.961906, 33.790478, 34.3125, 34.339287, 34.486607, 34.59375, 34.5625, 34.5625, 34.6875, 34.785713, 34.6875, 34.580357, 34.392857, 34.375, 34.4375, 34.5, 34.5625, 34.625, 34.6875, 34.75, 34.8125, 34.875, 34.8125, 34.8125, 34.669643, 34.401787, 34.4375, 34.375, 34.4375, 34.4375, 34.3125, 34.205357, 33.968254, 33.976192, 34.083332, 34.419643, 34.5, 34.5625, 34.5625, 34.5625, 34.5, 34.5, 34.5, 34.4375, 34.4375, 34.42857, 34.538689, 34.351192, 34.668369, 34.857143, 34.75, 34.625, 34.625, 34.535713, 34.580357, 34.382652, 34.2449, 34.491074, 34.166668, 34.267857, 34.25, 34.3125, 34.5625, 34.598213, 34.714287, 34.8125, 34.625, 34.333332, 34.208332, 34.333332, 34.491074, 34.5625, 34.5625, 34.5, 34.5, 34.5, 34.5, 34.5625, 34.5, 34.6875, 34.875, 35.107143, 35.160713, 34.866074, 34.646259, 34.875, 34.6875, 34.580357, 34.4375, 34.3125, 34.375, 34.5, 34.473213, 34.392857, 34.321426, 34.25, 34.34375, 34.46875, 34.59375, 34.65625, 34.6875, 34.625, 34.625, 34.6875, 34.78125, 34.90625, 34.84375, 34.772324, 34.416668, 34.401787, 34.625, 34.75, 34.875, 34.678574, 34.4375, 34.375, 34.482143, 34.678574, 34.589287, 34.130955, 34.145832, 34.291668, 34.303574, 34.339287, 34.25, 34.1875, 34.3125, 34.4375, 34.5, 34.482143, 34.3125, 34.107143, 33.416668, 33.535713, 34.125, 34.303574, 34.3125, 34.25, 34.375, 34.348213, 34.401787, 34.5, 34.375, 34.5625, 34.5, 34.5625, 34.6875, 34.616074, 34.410713, 34.214287, 34.125, 34.1875, 34.223213, 34.375, 34.607143, 34.482143, 34.375, 34.142857, 34.0625, 34.107143, 34.276787, 34.375, 34.4375, 34.5625, 34.625, 34.75, 34.9375, 35.205357, 35.678574, 36.008926, 36.3125, 36.5625, 36.75, 36.96875, 37.196426, 37.53125, 37.6875, 37.90625, 37.9375, 37.90625, 37.875, 37.8125, 37.75, 37.6875, 37.75, 37.75, 37.75, 38.083332, 9, 9, 9, 9, 9, 9, 9, 9, 9.083333, -10, -10, -10, -10, -10, -10, -10, -10, 22, 22, 22.25, 22.395834, 22.489584, 22.53125, 22.348215, 22.030952, 22.279762, 22.90476, 23.241072, 23.5, 23.5625, 23.59375, 23.71875, 23.919643, 24.385416, -10, -10, -10, -10, -10, -10, -10, -10, -10, -10, -10, -10, -10, -10, -10, -10, -10, 19.125, 19.083334, 19.0625, 19.0625, 19.125, 19.25, 19.375, 19.3125, 19.25, 19.0625, 18.741072, 18.612499, 18.741072, 18.732143, 18.6875, 18.4375, 18.1875, 18, 18, 18, 18, 18, 17.875, 17.625, 17.375, 17.0625, 16.875, 16.875, 16.875, 16.9375, 16.9375, 16.6875, 16.375, 16.089287, 15.9375, 15.9375, 15.9375, 15.875, 15.875, 15.8125, 15.625, 15.4375, 15.1875, 15, 15, 15.0625, 15.083333, 15, 14.875, -10, -10, -10, -10, -10, -10, -10, -10, -10, -10, -10, -10, -10, 38.083332, 37.746033, 37.4375, 37.3125, 37.15625, 37.083332, 37.166668, 37.166668, 37.25, 37.416668, 37.5, 37.583332, 37.4375, 37.241074, 36.684525, 36.383926, 36.125, 36, 35.875, 35.75, 35.625, 35.4375, 35.4375, 35.28125, 35.125, 34.9375, 34.6875, 34.65625, 34.6875, 34.723213, 34.714287, 34.59375, 34.495537, 34.700893, 34.513393, 34.25, 33.803574, 33.625, 33.459187, 33.591835, 33.714287, 33.795918, 34.0625, 34.09375, 34.013393, 33.90625, 33.642857, 33.67857, 33.75, 33.9375, 34.0625, 34, 34.125, 34.3125, 34.4375, 34.625, 34.616074, 34.424999, 34.491074, 34.294643, 34.25, 34.142857, 34.25, 34.549999, 34.0625, 33.910713, 33.75, 33.8125, 34.208332, 34.232143, 34.1875, 34.125, 34.1875, 34.1875, 34.200001, 34.462585, 33.842857, 34.196426, 34.214287, 34.34375, 34.40625, 34.4375, 34.375, 34.5, 34.5625, 34.473213, 34.330357, 34.205357, 34.125, 34.1875, 34.25, 34.3125, 34.375, 34.5, 34.625, 34.75, 34.875, 34.8125, 34.8125, 34.607143, 34.276787, 34.1875, 34, 34, 33.96875, 33.90625, 33.924107, 34.007439, 33.982143, 33.955357, 34.044643, 34.125, 34.25, 34.375, 34.4375, 34.375, 34.375, 34.3125, 34.25, 34.25, 34.160713, 34.017857, 33.841835, 34.25, 34.544643, 34.5, 34.4375, 34.3125, 34.160713, 34.080357, 33.770409, 33.714287, 33.7449, 33.791668, 33.892857, 33.875, 33.9375, 34.0625, 34.125, 34.285713, 34.133926, 34.020832, 33.875, 33.851189, 34.083332, 34.133926, 34.07143, 34.030613, 34.035713, 33.919643, 34, 34.125, 34.1875, 34.125, 34.3125, 34.4375, 34.544643, 34.397957, 34.241074, 34.065475, 34.1875, 34.169643, 34.101189, 33.9375, 33.9375, 33.9375, 34.026787, 33.973213, 33.767857, 33.758926, 33.75, 33.90625, 34.03125, 34.15625, 34.09375, 34.0625, 33.9375, 33.9375, 34.133926, 34.489582, 34.614582, 34.190479, 33.933674, 33.729168, 33.714287, 33.9375, 34.0625, 34.3125, 34.241074, 34, 34, 34.044643, 34.178574, 34.160713, 34.026787, 34.125, 34.232143, 34.196426, 33.958332, 33.8125, 33.71875, 33.90625, 34.09375, 34.15625, 34.044643, 33.8125, 33.642857, 33.083336, 33.3125, 33.625, 33.803574, 33.875, 33.8125, 33.9375, 33.910713, 33.901787, 33.875, 33.75, 34, 33.973213, 33.955357, 34.008926, 34.061226, 33.6875, 33.625, 33.5625, 33.6875, 33.6875, 33.875, 34, 33.982143, 33.8125, 33.705357, 33.625, 33.669643, 33.839287, 33.875, 33.9375, 34.125, 34.25, 34.5, 34.8125, 35.1875, 35.678574, 36.008926, 36.3125, 36.5625, 36.75, 37, 37.196426, 37.53125, 37.75, 38, 38.0625, 38.03125, 37.875, 37.729168, 37.666668, 37.583332, 37.583332, 37.583332, 37.583332, 9, 9, 9, 9, 9, 9, 9, 9, -10, -10, -10, -10, -10, -10, -10, -10, -10, 21.875, 22, 22, 22.25, 22.395834, 22.53125, 22.53125, 22.410715, 22.202381, 22.458334, 23.020832, 23.196428, 23.455357, 23.708334
