-10, 46.75, 46.583336, 46.5, 46.3125, 46.1875, 46.375, 46.3125, 46.25, 46.25, 45.9375, 45.9375, 45.8125, 45.75, 45.75, 45.6875, 45.616074, 45.375, 45.3125, 45.125, 45.125, 45.0625, 44.9375, 44.8125, 44.6875, 44.5, 44.3125, 44.1875, 44.0625, 44, 43.9375, 43.8125, 43.5625, 43.3125, 43.125, 43, 43.0625, 43.0625, 43.0625, 42.9375, 42.75, 42.5625, 42.3125, 42.1875, 42.0625, 42.0625, 42.0625, 41.9375, 41.875, 41.8125, 41.8125, 41.875, 41.6875, 41.5, 41.25, 41.0625, 41.0625, 41, 41, 40.875, 40.625, 40.375, 40.125, 40, 40, 39.875, 39.875, 39.75, 39.59375, 39.522324, 39.21875, 39.21875, 39.232143, 39.1875, 39.125, 39, 38.8125, 38.625, 38.375, 38.1875, 38.0625, 38, 38, 38, 38, 38, 38, 37.8125, 37.625, 37.375, 37.125, 37.125, 37.0625, 37.0625, 37, 36.75, 36.5, 36.3125, 36.125, 36.0625, 36.0625, 36, 36, 36, 35.875, 35.625, 35.375, 35.1875, 35.125, 35.125, 35.125, 35.125, 35.0625, 35.0625, 35.0625, 35, 34.75, 34.5, 34.25, 34, 34, 33.9375, 33.8125, 33.6875, 33.5, 33.3125, 33.1875, 33.0625, 33, 32.9375, 32.875, 32.8125, 32.8125, 32.75, 32.5625, 32.375, 32.125, 32, 32, 32, 32, 32, -10, -10, -10, -10, -10, -10, -10, -10, -10, 6.5, 6.7750001, 6.8660717, 7.25, 7.5, 7.8125, 8.25, 8.6964283, 9.2589283, 9.25, 9.0535717, 8.8214283, 9.21875, 9.5535717, 9.625, 9.8392859, 9.9821434, 10.107143, 10.25, 10.125, 10, 9.8482141, 9.7142859, 9.75, 9.875, 10.125, 10.25, 10.375, 10.4375, 10.5, 10.5, 10.625, 10.598214, 10.455357, 10.508928, 10.508928, 10.770833, 10.794643, 10.6875, 10.5625, 10.375, 10.375, 10.375, 10.375, 10.5, 10.4375, 10.5, 10.5, 10.366072, 10.35, 10.633928, 10.830357, 11.3125, 11.6875, 11.925, 12, 12, 12.428571, 14.25, 14.678572, 15.03125, 15.1875, 15.4375, 15.6875, 15.90625, 16, 16, 16, 16, 16, 16, 15.875, 15.75, 15.6875, 15.8125, 16.199406, 17.638887, 18.316668, -10, -10, -10, -10, -10, -10, -10, -10, -10, -10, -10, 24.4375, 24.833334, 25.747023, 26.352678, 26.78125, 27.21875, 27.5625, 27.982143, 28.4375, 28.6875, 29.125, 29.5, 29.75, 30.125, 30.25, 30.25, 30.375, 30.375, 30.4375, 30.625, 30.75, 31, 31.357143, 31.6875, 32.107143, 32.3125, 32.625, 32.9375, 33.1875, 33.4375, 33.67857, 34.099998, 34, 34.017857, 33.875, 34.09375, 34.397324, 34.763393, 34.90625, 35.0625, 35.25, 35.4375, 35.758926, 36.0625, 36.330357, 36.767857, 36.8125, 37.0625, 37.09375, 37.3125, 37.6875, 38.151787, 38.28125, 38.571426, 38.8125, 38.875, 39.0625, 39.125, 39.4375, 39.794643, 40, 40.125, 40.0625, 39.875, 39.875, 39.616074, 39.0625, 38.678574, 38.3125, 38.125, 38, 37.642857, 36.979168, 36.801022, 36.474491, 36.022324, 35.486607, 35.464287, 35, 34.309525, 33.89286, 33.46875, 33.34375, 33.21875, 33.125, 32.88393, 32.125, 31.839285, 31.342262, 30.976191, 30.946428, 30.732141, 30.0625, 29.910713, 29.75, 29.8125, 29.6875, 29.375, 28.892857, 28.428572, 28.076786, 27.833334, 27.383928, 27.321428, 27.083334, -10, -10, -10, -10, -10, -10, -10, -10, -10, -10, -10, -10, -10, -10, -10, -10, -10, -10, -10, -10, -10, -10, -10, -10, -10, -10, -10, -10, -10, -10, -10, -10, 46.875, 46.666668, 46.5625, 46.4375, 46.25, 46.375, 46.3125, 46.1875, 46.1875, 45.9375, 45.9375, 45.8125, 45.75, 45.75, 45.6875, 45.616074, 45.3125, 45.1875, 45, 45, 45, 45, 44.875, 44.8125, 44.625, 44.375, 44.25, 44.0625, 44, 43.875, 43.6875, 43.4375, 43.1875, 43.0625, 43, 43, 43, 43, 42.9375, 42.875, 42.6875, 42.4375, 42.25, 42.0625, 42.0625, 42.0625, 41.9375, 41.8125, 41.6875, 41.6875, 41.75, 41.607143, 41.375, 41.1875, 41, 41.0625, 41, 41, 40.875, 40.625, 40.375, 40.125, 40, 40, 39.875, 39.875, 39.8125, 39.71875, 39.647324, 39.28125, 39.21875, 39.169643, 39.125, 39.125, 39, 38.8125, 38.625, 38.375, 38.1875, 38.0625, 38, 38, 38, 38, 38, 38, 37.875, 37.6875, 37.4375, 37.1875, 37.125, 37.0625, 37.0625, 36.9375, 36.5625, 36.205357, 36.0625, 35.9375, 36.0625, 36.125, 36.0625, 36.0625, 36, 35.875, 35.6875, 35.4375, 35.25, 35.125, 35.0625, 35.0625, 35, 35, 35, 35, 34.9375, 34.6875, 34.4375, 34.1875, 34, 34, 33.9375, 33.875, 33.8125, 33.625, 33.4375, 33.25, 33.0625, 33, 33, 32.9375, 32.8125, 32.75, 32.625, 32.4375, 32.3125, 32.125, 32, 32, 32, 32.03125, 32.041668, -10, -10, -10, -10, -10, -10, -10, -10, -10, 6.4166665, 6.6857142, 6.7410717, 7.0803571, 7.4583335, 7.8035717, 8.3125, 8.8125, 9.1696434, 9, 8.5714283, 8.5535717, 8.979167, 9.3571424, 9.5178566, 9.6875, 9.6875, 9.875, 10, 10, 9.875, 9.6607141, 9.5892859, 9.625, 9.75, 10, 10, 10.0625, 10.125, 10.1875, 10.25, 10.375, 10.348214, 10.267857, 10.321428, 10.383928, 10.645833, 10.607143, 10.5, 10.3125, 10.1875, 10.1875, 10.1875, 10.125, 10.1875, 10.125, 10.25, 10.3125, 10.25, 10.3125, 10.375, 10.5625, 11.0625, 11.625, 11.975, -10, -10, -10, 14.4375, 14.744047, 14.96875, 15.1875, 15.4375, 15.6875, 15.9375, 16, 16, 16, 16, 16, 16, 15.8125, 15.625, 15.5, 15.520833, 15.93254, -10, -10, -10, -10, -10, -10, -10, -10, -10, -10, -10, -10, -10, 24.21875, 24.833334, 25.723213, 26.412947, 26.890625, 27.359375, 27.6875, 27.982143, 28.375, 28.625, 29, 29.4375, 29.6875, 30.0625, 30.25, 30.25, 30.3125, 30.25, 30.383928, 30.75, 30.875, 31.1875, 31.375, 31.6875, 32.107143, 32.3125, 32.5625, 32.8125, 33, 33.125, 33.36607, 33.849998, 33.794643, 33.830357, 33.6875, 33.90625, 34.272324, 34.700893, 34.90625, 35, 35.0625, 35.125, 35.321426, 35.6875, 36.080357, 36.6875, 36.8125, 37.0625, 37.125, 37.34375, 37.65625, 38.013393, 38.15625, 38.383926, 38.6875, 38.8125, 39, 39.0625, 39.3125, 39.5625, 39.8125, 40, 40, 39.9375, 39.9375, 39.803574, 39.4375, 39.107143, 38.5, 38.232143, 38, 37.678574, 37.145832, 36.885418, 36.700893, 36.379463, 35.861607, 35.714287, 35.25, 34.829933, 34.540813, 34.05357, 33.65625, 33.40625, 33.1875, 32.82143, 31.854166, 31.607141, 31.252977, 31.330357, 31.3125, 31.040178, 30.21875, 29.941963, 29.78125, 29.8125, 29.6875, 29.4375, 29, 28.491072, 28.139286, 27.895834, 27.446428, 27.321428
-10, 47, 46.833336, 46.75, 46.625, 46.375, 46.375, 46.25, 46.125, 46.125, 46, 46, 45.875, 45.8125, 45.75, 45.6875, 45.625, 45.4375, 45.25, 45.0625, 45, 45, 45, 44.875, 44.8125, 44.625, 44.375, 44.25, 44.0625, 44, 43.875, 43.6875, 43.5, 43.25, 43.125, 43.0625, 43.0625, 43.0625, 43.0625, 43.0625, 43, 42.8125, 42.5625, 42.3125, 42.0625, 42, 42, 41.875, 41.6875, 41.625, 41.625, 41.6875, 41.607143, 41.375, 41.1875, 41, 41.0625, 41, 41, 40.9375, 40.6875, 40.4375, 40.1875, 40, 40, 39.875, 39.875, 39.875, 39.84375, 39.834824, 39.46875, 39.34375, 39.232143, 39.125, 39.125, 39, 38.875, 38.75, 38.5, 38.3125, 38.125, 38, 38, 38, 38, 38, 37.9375, 37.8125, 37.625, 37.375, 37.1875, 37.125, 37.0625, 37.0625, 36.875, 36.5625, 36.267857, 36.125, 36.0625, 36.1875, 36.1875, 36.125, 36.125, 36, 35.9375, 35.75, 35.5, 35.25, 35.0625, 35, 34.9375, 34.9375, 34.9375, 34.875, 34.875, 34.75, 34.5, 34.3125, 34.125, 34, 34, 34, 34, 34, 33.875, 33.625, 33.375, 33.125, 33, 33, 32.9375, 32.8125, 32.6875, 32.5625, 32.375, 32.25, 32.125, 32, 32, 32.03125, 32.125, 32.166668, -10, -10, -10, -10, -10, -10, -10, -10, 5.75, 6.6071429, 6.7232141, 6.75, 6.9821429, 7.4404764, 7.7946429, 8.3125, 8.8125, 9.1696434, 9, 8.7202377, 8.9702377, 9.4345236, 9.6875, 9.6428566, 9.5178566, 9.4375, 9.625, 9.8125, 9.9375, 9.8125, 9.625, 9.625, 9.625, 9.75, 9.875, 9.8125, 9.8214283, 10.166667, 10.166667, 9.958333, 10.053572, 9.9732141, 9.9553566, 10.008928, 10.008928, 10.270833, 10.232143, 10.1875, 10.0625, 10, 10, 10, 9.9375, 9.9375, 9.9375, 10.125, 10.1875, 10.1875, 10.1875, 10.1875, 10.4375, 10.90625, 11.458333, 12.05, -10, -10, -10, 14.625, 14.809524, 15, 15.25, 15.5, 15.75, 15.9375, 16, 16, 16, 16, 16, 16, 15.8125, 15.625, 15.5625, 15.541667, -10, -10, -10, -10, -10, -10, -10, -10, -10, -10, 22, 22.333332, 22.732143, 23.410713, 24.03125, 24.78125, 25.875, 26.609375, 27.109375, 27.546875, 27.8125, 28.044643, 28.375, 28.625, 28.9375, 29.3125, 29.5625, 29.9375, 30.1875, 30.25, 30.3125, 30.1875, 30.339287, 30.857143, 31.053572, 31.4375, 31.5625, 31.75, 32, 32.1875, 32.4375, 32.6875, 32.875, 32.9375, 33.17857, 33.724998, 33.732143, 33.830357, 33.625, 33.84375, 34.209824, 34.638393, 34.90625, 35, 35, 35.0625, 35.196426, 35.5625, 36, 36.526787, 36.75, 37.0625, 37.25, 37.46875, 37.71875, 37.90625, 37.96875, 38.133926, 38.4375, 38.59375, 38.84375, 38.90625, 39.21875, 39.5, 39.75, 40, 40, 39.9375, 39.9375, 39.866074, 39.553574, 39.214287, 38.625, 38.294643, 38.0625, 37.669643, 36.9375, 36.675594, 36.544643, 36.285713, 35.830357, 35.651787, 35.285713, 35.080357, 34.852676, 34.40625, 34.03125, 33.59375, 33.25, 32.75893, 31.729166, 31.5, 31.482143, 31.6875, 31.75, 31.379465, 30.21875, 29.879463, 29.71875, 29.875, 29.75, 29.5625, 29.133928, 28.407738, 28.076786, 27.895834, 27.571428, 27.508928, 27.333334, -10, -10, -10, -10, -10, -10, -10, -10, -10, -10, -10, -10, -10, -10, -10, -10, -10, -10, -10, -10, -10, -10, -10, -10, -10, -10, -10, -10, -10, -10, -10, -10, 47, 46.916668, 46.875, 46.75, 46.5, 46.375, 46.25, 46.125, 46.125, 46.0625, 46, 45.9375, 45.875, 45.8125, 45.75, 45.625, 45.4375, 45.25, 45.0625, 45, 45, 45, 44.875, 44.75, 44.5625, 44.3125, 44.1875, 44.0625, 44, 43.875, 43.6875, 43.5625, 43.3125, 43.1875, 43.125, 43.0625, 43.0625, 43.0625, 43.0625, 43, 42.75, 42.5, 42.3125, 42.125, 42.125, 42.125, 42, 41.75, 41.6875, 41.6875, 41.75, 41.669643, 41.4375, 41.25, 41, 41.0625, 41, 41, 41, 40.75, 40.5, 40.25, 40, 40, 39.9375, 39.9375, 39.9375, 39.875, 39.803574, 39.4375, 39.3125, 39.232143, 39.125, 39.125, 39.0625, 39, 38.9375, 38.75, 38.5, 38.25, 38.0625, 38, 38, 38, 38, 37.875, 37.75, 37.5625, 37.3125, 37.1875, 37.125, 37.0625, 37.0625, 36.875, 36.625, 36.392857, 36.1875, 36.125, 36.1875, 36.125, 36.125, 36.125, 35.9375, 35.875, 35.6875, 35.4375, 35.25, 35.0625, 35, 34.875, 34.8125, 34.830357, 34.825001, 34.696426, 34.571426, 34.3125, 34.1875, 34.0625, 34, 34, 34, 34, 34, 33.9375, 33.75, 33.5, 33.25, 33.0625, 33, 32.866074, 32.5625, 32.4375, 32.25, 32.1875, 32.125, 32.0625, 32, 32, 32.03125, 32.1875, 32.25, -10, -10, -10, -10, -10, -10, -10, 5.5, 6, 6.5238094, 6.7232141, 6.84375, 7.0133929, 7.4092264, 7.6071429, 8.03125, 8.5267859, 9.0863094, 8.9375, 8.8690472, 9.3869047, 9.8898811, 10.089286, 9.8928566, 9.5803566, 9.375, 9.4375, 9.625, 9.8125, 9.8125, 9.75, 9.75, 9.75, 9.75, 9.75, 9.625, 9.5714283, 9.916667, 9.916667, 9.708333, 9.8035717, 9.8125, 10, 10.1875, 10.125, 10.0625, 10, 9.9375, 9.9375, 10, 10, 10, 9.9375, 9.9375, 10, 10.25, 10.3125, 10.3125, 10.25, 10.125, 10.375, 10.78125, 11.25, -10, -10, -10, -10, 14.75, 14.916666, 15.107143, 15.375, 15.625, 15.8125, 15.9375, 16, 16, 16, 16, 16, 16, 15.875, 15.75, 15.666667, 15.638889, -10, -10, -10, -10, -10, -10, -10, -10, -10, -10, 22.266668, 22.555555, 22.932541, 23.607141, 24.34375, 25.209822, 26.107143, 26.787947, 27.296875, 27.671875, 27.9375, 28.107143, 28.375, 28.625, 28.875, 29.1875, 29.375, 29.6875, 29.9375, 30.0625, 30.1875, 30.1875, 30.464287, 31.089287, 31.303572, 31.6875, 31.75, 31.875, 32.0625, 32.25, 32.5, 32.75, 32.9375, 32.9375, 33.107143, 33.474998, 33.575893, 33.78125, 33.65625, 33.90625, 34.178574, 34.544643, 34.8125, 34.9375, 35, 35.125, 35.25, 35.5625, 36.0625, 36.526787, 36.875, 37.1875, 37.375, 37.59375, 37.78125, 37.90625, 38.03125, 38.1875, 38.375, 38.53125, 38.6875, 38.8125, 39.125, 39.46875, 39.75, 40, 40, 40, 39.9375, 39.866074, 39.616074, 39.321426, 38.75, 38.419643, 38.125, 37.669643, 36.875, 36.550594, 36.419643, 36.160713, 35.8125, 35.589287, 35.25, 35.1875, 35.03125, 34.71875, 34.334824, 33.697918, 33.321426, 32.767857, 31.875, 31.571428, 31.482143, 31.6875, 31.8125, 31.504465, 30.614584, 30.129463, 29.90625, 29.9375, 29.8125, 29.6875, 29.214285, 28.229166, 27.88393, 27.625, 27.625, 27.625
-10, 47, 47, 47, 46.875, 46.6875, 46.5, 46.375, 46.25, 46.1875, 46.125, 46, 46, 46, 46, 46, 45.875, 45.625, 45.375, 45.125, 45, 45, 45, 44.875, 44.6875, 44.4375, 44.1875, 44.0625, 44, 44, 43.9375, 43.8125, 43.6875, 43.4375, 43.25, 43.125, 43.0625, 43.0625, 43.0625, 43.0625, 43, 42.75, 42.5, 42.375, 42.25, 42.25, 42.25, 42.125, 41.875, 41.75, 41.75, 41.6875, 41.544643, 41.3125, 41.125, 40.9375, 41, 41, 41, 41, 40.75, 40.5, 40.25, 40.0625, 40.125, 40.125, 40.0625, 39.964287, 39.8125, 39.6875, 39.5, 39.25, 39.125, 39, 39, 39, 39, 39, 38.875, 38.6875, 38.4375, 38.1875, 38.0625, 38, 38, 38, 37.8125, 37.625, 37.375, 37.125, 37.0625, 37, 37, 37, 36.875, 36.6875, 36.455357, 36.25, 36.125, 36.1875, 36.125, 36.125, 36.0625, 35.8125, 35.6875, 35.5, 35.3125, 35.1875, 35.0625, 35, 34.875, 34.8125, 34.830357, 34.825001, 34.633926, 34.446426, 34.1875, 34.0625, 34, 34, 34, 34, 33.9375, 33.875, 33.75, 33.5625, 33.375, 33.1875, 33.0625, 33, 32.803574, 32.4375, 32.3125, 32.125, 32.125, 32.125, 32.0625, 32, 32, 32.03125, 32.1875, 32.333332, -10, -10, -10, -10, -10, -10, -10, -10, 6.125, 6.4404759, 6.6607141, 6.84375, 6.9508929, 7.2842264, 7.5267859, 8.21875, 8.7321434, 9.2380953, 9, 9.0178576, 9.8035717, 10.345238, 10.491072, 10.205357, 9.7678566, 9.4375, 9.4375, 9.5625, 9.6875, 9.8125, 9.875, 9.9107141, 9.9375, 9.8125, 9.625, 9.4375, 9.3214283, 9.666667, 9.666667, 9.458333, 9.5535717, 9.625, 9.875, 10.125, 10.0625, 10, 9.9375, 9.875, 9.9375, 10, 10, 10, 9.9375, 9.9375, 10, 10.25, 10.3125, 10.3125, 10.25, 10.0625, 10.3125, 10.71875, 11.1125, -10, -10, -10, -10, 14.666667, 15.041666, 15.27381, 15.5625, 15.8125, 15.9375, 16, 16, 16, 16, 16, 16, 16, 15.9375, 15.875, -10, -10, -10, -10, -10, -10, -10, -10, -10, -10, -10, 24.933334, 22.533335, 22.666666, 22.949406, 23.526785, 24.325893, 25.138393, 26.07143, 26.923363, 27.462053, 27.828125, 27.9375, 28.0625, 28.3125, 28.5625, 28.8125, 29.0625, 29.1875, 29.375, 29.59375, 29.78125, 29.96875, 30.15625, 30.589287, 31.32143, 31.553572, 31.875, 31.875, 31.9375, 32, 32.1875, 32.4375, 32.732143, 32.9375, 32.9375, 33, 33.125, 33.388393, 33.71875, 34.013393, 34.21875, 34.4375, 34.625, 34.8125, 34.9375, 34.9375, 35.125, 35.3125, 35.6875, 36.25, 36.607143, 37, 37.3125, 37.53125, 37.71875, 37.84375, 37.90625, 38.0625, 38.25, 38.4375, 38.59375, 38.6875, 38.8125, 39.125, 39.46875, 39.75, 40, 40, 40, 39.875, 39.8125, 39.616074, 39.196426, 38.6875, 38.232143, 37.9375, 37.544643, 36.6875, 36.363094, 36.232143, 35.910713, 35.479168, 35.160713, 34.875, 34.8125, 34.78125, 34.59375, 34.272324, 33.697918, 33.321426, 32.875, 32.220238, 31.799999, 31.732143, 31.75, 31.9375, 31.620537, 30.96875, 30.379463, 30.03125, 29.875, 29.6875, 29.5625, 29.151785, 28.291666, 27.982143, 27.75, 27.8125, 27.8125, 27.777779, -10, -10, -10, -10, -10, -10, -10, -10, -10, -10, -10, -10, -10, -10, -10, -10, -10, -10, -10, -10, -10, -10, -10, -10, -10, -10, -10, -10, -10, -10, -10, -10, 47, 46.916668, 46.875, 46.75, 46.625, 46.5625, 46.5625, 46.4375, 46.3125, 46.1875, 46, 46, 46, 46, 46, 45.875, 45.6875, 45.4375, 45.1875, 45.0625, 45, 45, 44.875, 44.625, 44.375, 44.125, 44, 44, 44, 44, 43.9375, 43.8125, 43.5625, 43.3125, 43.125, 43.0625, 43.0625, 43.0625, 43.0625, 43, 42.75, 42.5, 42.375, 42.1875, 42.1875, 42.1875, 42.0625, 41.875, 41.75, 41.6875, 41.5625, 41.4375, 41.3125, 41.125, 41, 41, 41, 41, 41, 40.75, 40.5, 40.25, 40.0625, 40.125, 40.125, 40.0625, 39.964287, 39.8125, 39.625, 39.4375, 39.1875, 39.0625, 39, 39, 39, 39, 39, 38.9375, 38.8125, 38.5625, 38.3125, 38.125, 38, 37.9375, 37.875, 37.625, 37.375, 37.1875, 37, 37, 37, 37, 37, 36.9375, 36.875, 36.75, 36.5, 36.3125, 36.1875, 36.0625, 36.0625, 36, 35.75, 35.5625, 35.3125, 35.125, 35.0625, 35, 35, 34.875, 34.8125, 34.767857, 34.700001, 34.446426, 34.258926, 34.0625, 34, 34, 34, 34, 33.9375, 33.8125, 33.6875, 33.5625, 33.4375, 33.3125, 33.1875, 33.0625, 33, 32.803574, 32.4375, 32.375, 32.25, 32.3125, 32.3125, 32.1875, 32.0625, 32, 32.03125, 32.208332, -10, -10, -10, -10, -10, -10, -10, -10, -10, 6.375, 6.6071424, 6.75, 6.9955359, 7.09375, 7.2008929, 7.4419646, 8, 8.5089283, 9.1815481, 8.9375, 9.166667, 10.166667, 10.571428, 10.75, 10.375, 9.9196424, 9.5, 9.4375, 9.5625, 9.625, 9.8125, 9.9375, 9.9732141, 9.9375, 9.75, 9.4375, 9.25, 9.1964283, 9.604167, 9.604167, 9.333333, 9.3660717, 9.4375, 9.6875, 9.875, 9.75, 9.625, 9.625, 9.6875, 9.875, 10, 10, 10.0625, 10.035714, 9.9642859, 10.0625, 10.1875, 10.25, 10.25, 10.1875, 10.0625, 10.3125, 10.71875, 11.175, -10, -10, -10, -10, -10, 15.083333, 15.30506, 15.5625, 15.8125, 15.875, 15.875, 15.875, 15.875, 15.9375, 16, 16, 16, 15.9375, 15.916667, -10, -10, -10, -10, -10, -10, -10, -10, -10, -10, 26, 25.288889, 23.038095, 23.178572, 23.442179, 24.005953, 24.607143, 25.075893, 25.875002, 26.803572, 27.28125, 27.6875, 27.8125, 27.9375, 28.214287, 28.544643, 28.803572, 29.0625, 29.25, 29.4375, 29.558037, 29.84375, 30.075893, 30.34375, 30.830357, 31.44643, 31.741072, 32, 32, 32, 31.9375, 32.0625, 32.25, 32.544643, 32.8125, 32.9375, 33.0625, 33.1875, 33.46875, 33.888393, 34.200893, 34.34375, 34.4375, 34.580357, 34.895832, 35.044643, 35.0625, 35.1875, 35.482143, 35.866074, 36.375, 36.625, 37, 37.375, 37.625, 37.8125, 38, 38, 38.125, 38.375, 38.5, 38.65625, 38.75, 38.75, 39.026787, 39.450893, 39.741074, 40, 40, 39.9375, 39.75, 39.5625, 39.178574, 38.75, 38.5, 38.125, 37.875, 37.553574, 36.961311, 36.464287, 36.196426, 35.803574, 35.416668, 35.196426, 34.857143, 34.928574, 34.635418, 34.477676, 34.147324, 33.635418, 33.321426, 32.9375, 32.553574, 32.157143, 32.044643, 31.9375, 32.0625, 31.714287, 31.0625, 30.42857, 30, 29.75, 29.5625, 29.5, 29.1875, 28.309525, 27.991072, 27.821428, 28.125, 28.1875
-10, 46.916668, 46.791668, 46.75, 46.6875, 46.625, 46.6875, 46.8125, 46.625, 46.4375, 46.25, 46, 46, 46, 46, 46, 45.875, 45.75, 45.5, 45.25, 45.125, 45, 45, 44.9375, 44.6875, 44.4375, 44.1875, 44, 44, 44, 43.9375, 43.9375, 43.75, 43.5, 43.3125, 43.0625, 43, 43, 43, 43, 43, 42.8125, 42.625, 42.5625, 42.375, 42.3125, 42.25, 42.0625, 41.9375, 41.8125, 41.75, 41.625, 41.46875, 41.34375, 41.15625, 41.03125, 41, 41, 41, 41, 40.75, 40.5, 40.25, 40.0625, 40.125, 40.125, 40.0625, 39.964287, 39.8125, 39.5625, 39.375, 39.125, 39, 39, 39, 39, 39, 39, 39, 38.9375, 38.6875, 38.4375, 38.1875, 38, 37.875, 37.75, 37.5, 37.25, 37.125, 37, 37, 37, 37, 37, 37, 36.9375, 36.8125, 36.5625, 36.3125, 36.125, 36, 36, 35.9375, 35.6875, 35.4375, 35.1875, 35, 35, 35, 35, 34.875, 34.8125, 34.767857, 34.762501, 34.571426, 34.383926, 34.1875, 34.0625, 34, 34, 34, 33.875, 33.6875, 33.5, 33.3125, 33.25, 33.1875, 33.125, 33.0625, 33, 32.866074, 32.5625, 32.5625, 32.5, 32.5, 32.4375, 32.25, 32.0625, 32, 32, -10, -10, -10, -10, -10, -10, -10, -10, -10, -10, 6.5, 6.6666665, 6.75, 7.1205359, 7.2544641, 7.28125, 7.5133929, 7.9375, 8.3928566, 9.145834, 8.875, 9.166667, 10.166667, 10.571428, 10.75, 10.375, 9.9196424, 9.5, 9.375, 9.5, 9.5625, 9.6875, 9.8125, 9.8482141, 9.75, 9.625, 9.375, 9.1875, 9.125, 9.1875, 9.1875, 9.1875, 9.3125, 9.4375, 9.6875, 9.75, 9.625, 9.5, 9.5, 9.625, 9.8125, 10, 10, 10, 9.9107141, 9.8392859, 9.9375, 10.0625, 10.1875, 10.1875, 10.1875, 10.1875, 10.4375, 10.883928, 11.466667, -10, -10, -10, -10, -10, 15.125, 15.27381, 15.4375, 15.625, 15.625, 15.625, 15.696428, 15.958334, 16.044643, 16.125, 16.0625, 16, 15.9375, 15.916667, -10, -10, -10, -10, -10, -10, -10, -10, -10, -10, -10, 25.466667, 25.133333, 25.25, 25.305555, 24.831844, 25.232143, 25.419643, 25.910715, 26.65625, 27.125, 27.5625, 27.75, 27.875, 28.116072, 28.526787, 28.794643, 29.0625, 29.258928, 29.645834, 29.799107, 30.03125, 30.200893, 30.46875, 30.875, 31.401787, 31.6875, 31.9375, 32, 32, 31.9375, 32.0625, 32.1875, 32.482143, 32.75, 32.875, 33, 33.125, 33.40625, 33.888393, 34.325893, 34.40625, 34.4375, 34.517857, 34.833332, 35.080357, 35.125, 35.25, 35.482143, 35.928574, 36.4375, 36.6875, 37.0625, 37.3125, 37.5, 37.696426, 38.083332, 38.107143, 38.1875, 38.267857, 38.375, 38.5625, 38.763393, 38.71875, 38.959824, 39.433037, 39.732143, 40, 40, 39.875, 39.625, 39.375, 38.9375, 38.625, 38.4375, 38.125, 37.875, 37.6875, 37.223213, 36.559525, 36.267857, 35.803574, 35.416668, 35.258926, 35.285713, 35, 34.566666, 34.5, 34.116074, 33.791668, 33.446426, 33.0625, 32.633926, 32.255356, 32.107143, 31.9375, 31.9375, 31.625, 31.1875, 30.55357, 30.0625, 29.625, 29.5, 29.4375, 29.1875, 28.351191, 27.991072, 27.883928, 28.375, 28.4375, -10, -10, -10, -10, -10, -10, -10, -10, -10, -10, -10, -10, -10, -10, -10, -10, -10, -10, -10, -10, -10, -10, -10, -10, -10, -10, -10, -10, -10, -10, -10, -10, 46.5, 46.791668, 46.625, 46.625, 46.625, 46.625, 46.8125, 46.9375, 46.75, 46.625, 46.375, 46.125, 46.0625, 46, 46, 46, 45.875, 45.75, 45.5, 45.25, 45.125, 45, 45, 44.9375, 44.6875, 44.4375, 44.1875, 44, 44, 44, 43.875, 43.875, 43.6875, 43.4375, 43.3125, 43.0625, 43, 43, 43, 43, 43, 42.8125, 42.625, 42.5, 42.25, 42.1875, 42.125, 42, 41.9375, 41.8125, 41.75, 41.625, 41.46875, 41.34375, 41.15625, 41.03125, 41, 41, 41, 41, 40.75, 40.5, 40.25, 40.0625, 40.125, 40.125, 40.0625, 39.964287, 39.875, 39.6875, 39.5, 39.25, 39.0625, 39, 39, 39, 39, 39, 39, 39, 38.75, 38.5, 38.25, 37.9375, 37.75, 37.5625, 37.3125, 37.125, 37.0625, 37, 37.0625, 37.0625, 37.0625, 37.0625, 37, 36.9375, 36.8125, 36.625, 36.4375, 36.25, 36.125, 36.0625, 35.9375, 35.75, 35.5625, 35.375, 35.1875, 35.125, 35.0625, 35, 34.875, 34.8125, 34.75, 34.6875, 34.6875, 34.5, 34.3125, 34.125, 34, 34, 34, 33.8125, 33.5625, 33.375, 33.125, 33.125, 33.1875, 33.125, 33.125, 33.0625, 32.9375, 32.8125, 32.8125, 32.8125, 32.6875, 32.5625, 32.3125, 32.0625, 32, 32, -10, -10, -10, -10, -10, -10, -10, -10, -10, -10, 6.5, 6.6666665, 6.6875, 7.0267859, 7.0982141, 7.1875, 7.7425599, 8.2366066, 8.7410717, 9.229167, 8.9375, 9.166667, 10.166667, 10.571428, 10.75, 10.3125, 9.8125, 9.4375, 9.3125, 9.5, 9.5625, 9.6875, 9.75, 9.7857141, 9.6875, 9.5625, 9.375, 9.1875, 9.125, 9.1875, 9.1875, 9.25, 9.375, 9.5, 9.75, 9.75, 9.6875, 9.625, 9.625, 9.75, 9.875, 10, 10, 10, 9.9107141, 9.8392859, 9.875, 9.9375, 10.0625, 10.0625, 10.1875, 10.3125, 10.5625, 11.080357, 11.8, -10, -10, -10, -10, -10, 15.1875, 15.208334, 15.28125, 15.40625, 15.375, 15.375, 15.446428, 15.779762, 16.127977, 16.232143, 16.1875, 16.0625, 15.9375, 15.916667, 16, -10, -10, -10, -10, -10, -10, -10, -10, -10, -10, 25.799999, 25.809525, 25.928572, 26, 25.838436, 25.846939, 25.553572, 25.834822, 26.5, 26.96875, 27.46875, 27.6875, 27.875, 28.116072, 28.526787, 28.794643, 29.125, 29.446428, 29.869049, 30.049107, 30.200893, 30.16518, 30.46875, 30.794643, 31.294643, 31.625, 31.875, 32, 32, 31.9375, 32, 32.125, 32.419643, 32.6875, 32.875, 33.0625, 33.25, 33.5625, 34.107143, 34.544643, 34.5625, 34.5625, 34.517857, 34.708332, 34.955357, 35, 35.1875, 35.544643, 36.035713, 36.5, 36.75, 37, 37.1875, 37.383926, 37.779762, 38.190475, 38.232143, 38.125, 38.080357, 38.15625, 38.40625, 38.763393, 38.84375, 39.116074, 39.526787, 39.794643, 40, 40, 39.8125, 39.5625, 39.3125, 38.8125, 38.5, 38.3125, 38, 37.875, 37.8125, 37.473213, 36.872025, 36.517857, 36.008926, 35.541668, 35.383926, 35.3125, 35.25, 34.816666, 34.458332, 34.044643, 33.875, 33.5625, 33.1875, 32.714287, 32.424999, 32.232143, 32, 31.875, 31.5, 31.125, 30.660713, 30.1875, 29.6875, 29.392857, 29.3125, 29.080357, 28.494047, 28.276785, 28.196428, 28.75, 28.833334
-10, 46.791668, 46.625, 46.625, 46.625, 46.5625, 46.75, 46.875, 46.75, 46.6875, 46.4375, 46.1875, 46.0625, 45.9375, 45.875, 45.8125, 45.625, 45.5625, 45.375, 45.1875, 45.125, 45, 45, 44.9375, 44.6875, 44.4375, 44.1875, 44, 44, 44, 43.875, 43.875, 43.75, 43.5, 43.375, 43.125, 43, 43, 43, 43, 43, 42.8125, 42.625, 42.4375, 42.125, 42.0625, 42, 41.9375, 41.9375, 41.875, 41.8125, 41.75, 41.59375, 41.40625, 41.21875, 41.03125, 41, 41, 41, 41, 40.8125, 40.625, 40.366074, 40, 40, 39.9375, 40, 39.9375, 39.9375, 39.8125, 39.625, 39.5, 39.3125, 39.1875, 39.125, 39.0625, 39, 39, 39, 39, 38.75, 38.5, 38.1875, 37.8125, 37.5625, 37.3125, 37.125, 37, 37, 37, 37.0625, 37.0625, 37.0625, 37.0625, 37, 37, 36.9375, 36.8125, 36.6875, 36.5, 36.3125, 36.1875, 36.0625, 35.875, 35.6875, 35.5, 35.25, 35.125, 35.0625, 34.9375, 34.75, 34.625, 34.5625, 34.5625, 34.625, 34.5, 34.3125, 34.125, 34, 34, 34, 33.8125, 33.625, 33.5, 33.3125, 33.375, 33.4375, 33.3125, 33.25, 33.125, 33, 32.9375, 32.875, 32.8125, 32.625, 32.4375, 32.25, 32.0625, 32, 32, -10, -10, -10, -10, -10, -10, -10, -10, -10, -10, 6.625, 6.75, 6.75, 7.0267859, 7.0982141, 7.1875, 7.666667, 7.8303571, 8.2544641, 8.760417, 8.625, 8.9821434, 10.083333, 10.464286, 10.65625, 10.15625, 9.625, 9.3125, 9.125, 9.375, 9.5625, 9.6875, 9.6875, 9.6875, 9.5625, 9.4375, 9.375, 9.125, 9.0625, 9.125, 9.125, 9.25, 9.3125, 9.375, 9.5625, 9.5625, 9.5625, 9.5625, 9.625, 9.75, 9.875, 10, 10, 10, 9.9107141, 9.8392859, 9.875, 9.875, 10, 10, 10.1875, 10.4375, 10.6875, 11.205357, 11.875, -10, -10, -10, -10, -10, 15.026786, 15.166667, 15.21875, 15.28125, 15.1875, 15.1875, 15.321428, 15.717262, 16.127977, 16.232143, 16.1875, 16.0625, 15.9375, 15.916667, 16, 16, -10, -10, -10, -10, -10, -10, -10, -10, -10, 26, 26.166668, 26.375, 26.5, 26.322916, 26.1875, 25.9375, 26.040178, 26.458334, 26.897322, 27.40625, 27.6875, 27.8125, 28.053572, 28.464287, 28.732143, 29.1875, 29.571428, 30.056549, 30.267857, 30.294643, 30.223217, 30.544643, 30.857143, 31.3125, 31.625, 31.875, 32, 32, 32, 32.125, 32.25, 32.5, 32.8125, 33, 33.25, 33.5, 33.75, 34.232143, 34.5, 34.5, 34.4375, 34.392857, 34.645832, 34.892857, 35.0625, 35.25, 35.607143, 36.035713, 36.4375, 36.6875, 36.875, 37.133926, 37.446426, 37.842262, 38.315475, 38.232143, 38, 37.830357, 37.90625, 38.263393, 38.700893, 38.90625, 39.178574, 39.589287, 39.857143, 40, 40, 39.75, 39.5625, 39.375, 38.883926, 38.458332, 38.25, 38, 38, 37.9375, 37.75, 37.205357, 36.633926, 36.1875, 35.8125, 35.6875, 35.625, 35.428574, 34.933331, 34.458332, 33.982143, 33.9375, 33.625, 33.25, 32.785713, 32.5, 32.1875, 31.9375, 31.6875, 31.375, 31.0625, 30.767857, 30.375, 29.875, 29.473213, 29.4375, 29.17857, 28.511904, 28.357141, 28.321428, 28.9375, 29.083334, -10, -10, -10, -10, -10, -10, -10, -10, -10, -10, -10, -10, -10, -10, -10, -10, -10, -10, -10, -10, -10, -10, -10, -10, -10, -10, -10, -10, -10, -10, -10, -10, -10, 46.791668, 46.708332, 46.75, 46.75, 46.6875, 46.8125, 46.875, 46.75, 46.6875, 46.4375, 46.25, 46.098213, 45.830357, 45.696426, 45.5625, 45.375, 45.3125, 45.1875, 45.0625, 45.0625, 45, 45, 45, 44.75, 44.5, 44.25, 44, 44, 44, 43.875, 43.875, 43.8125, 43.5625, 43.4375, 43.1875, 43, 43, 43, 43, 42.9375, 42.75, 42.5625, 42.375, 42.1875, 42.125, 42.0625, 42, 42, 42, 42, 42, 41.84375, 41.59375, 41.34375, 41.09375, 41, 41, 40.9375, 40.9375, 40.8125, 40.6875, 40.482143, 40, 40, 39.875, 40, 39.9375, 39.875, 39.8125, 39.6875, 39.5625, 39.5, 39.3125, 39.1875, 39.125, 39, 39, 39, 39, 38.75, 38.5, 38.1875, 37.8125, 37.625, 37.375, 37.1875, 37.0625, 37, 37, 37.0625, 37.0625, 37.0625, 37.0625, 37, 37, 37, 36.9375, 36.8125, 36.625, 36.375, 36.1875, 36.0625, 35.9375, 35.75, 35.5625, 35.3125, 35.125, 35.0625, 34.9375, 34.75, 34.625, 34.625, 34.625, 34.6875, 34.5625, 34.3125, 34.125, 34, 34, 34, 33.875, 33.75, 33.625, 33.375, 33.339287, 33.375, 33.25, 33.25, 33.125, 33, 33, 32.9375, 32.8125, 32.5625, 32.3125, 32.125, 32, 32, 32, -10, -10, -10, -10, -10, -10, -10, -10, -10, -10, 6.8125, 6.875, 6.84375, 7.03125, 7, 7.125, 7.6443453, 7.9866071, 8.2901783, 8.59375, 8.4375, 8.7976189, 10.041667, 10.464286, 10.65625, 10.15625, 9.5535717, 9.25, 9, 9.1875, 9.4375, 9.625, 9.6875, 9.75, 9.6875, 9.5, 9.4375, 9.125, 8.9375, 8.9375, 8.875, 9.03125, 9.125, 9.1875, 9.375, 9.40625, 9.4375, 9.5625, 9.625, 9.6875, 9.8125, 9.875, 9.9375, 9.875, 9.75, 9.6875, 9.6875, 9.875, 10.035714, 10.0625, 10.25, 10.4375, 10.6875, 11.205357, 11.958333, 12.232143, 12.5, 12.625, 13.089286, 14.214286, 15.026786, 15.291667, 15.28125, 15.28125, 15.125, 15.0625, 15.258928, 15.717262, 16.127977, 16.232143, 16.1875, 16.0625, 15.9375, 15.9375, 15.9375, 15.916667, -10, -10, -10, -10, -10, -10, -10, -10, -10, 25.916666, 26.104168, 26.3125, 26.607143, 26.71875, 26.616072, 26.166666, 26.040178, 26.232143, 26.96875, 27.486607, 27.8125, 27.9375, 28.151787, 28.482143, 28.741072, 29.1875, 29.571428, 30.092262, 30.303572, 30.125, 30.044643, 30.523809, 30.866072, 31.375, 31.625, 31.875, 32, 32.03125, 32.09375, 32.28125, 32.46875, 32.75, 33.0625, 33.25, 33.4375, 33.625, 33.75, 34.0625, 34.3125, 34.3125, 34.3125, 34.3125, 34.4375, 34.723213, 35, 35.25, 35.5625, 35.982143, 36.3125, 36.625, 36.8125, 37.071426, 37.446426, 37.842262, 38.190475, 38.044643, 37.8125, 37.642857, 37.888393, 38.263393, 38.700893, 39.03125, 39.339287, 39.669643, 39.928574, 40, 40, 39.8125, 39.75, 39.526787, 38.738098, 38.297619, 38.0625, 37.9375, 38, 37.875, 37.705357, 37.25, 36.6875, 36.25, 35.741074, 35.354168, 35.267857, 35.0625, 34.528572, 34.449406, 33.919643, 33.875, 33.5625, 33.125, 32.660713, 32.375, 32.0625, 31.875, 31.6875, 31.375, 31.125, 30.9375, 30.5625, 30.125, 29.660713, 29.5, 29.205357, 28.681547, 28.571428, 28.464287, 28.9375, 29
-10, 46.625, 46.583332, 46.5625, 46.589287, 46.669643, 46.803574, 46.8125, 46.6875, 46.625, 46.375, 46.25, 46.098213, 45.830357, 45.633926, 45.4375, 45.25, 45.125, 45.0625, 45, 45, 45, 45, 45, 44.8125, 44.5625, 44.3125, 44.0625, 44, 44, 43.9375, 43.9375, 43.9375, 43.6875, 43.5, 43.25, 43, 43, 43, 43, 42.875, 42.625, 42.375, 42.125, 42, 42, 42, 42, 42, 42, 42, 42, 41.8125, 41.5625, 41.3125, 41.0625, 41, 40.9375, 40.8125, 40.8125, 40.6875, 40.6875, 40.544643, 40.0625, 40.0625, 39.875, 40, 39.9375, 39.875, 39.875, 39.75, 39.6875, 39.6875, 39.4375, 39.3125, 39.1875, 39, 39, 39, 39, 38.75, 38.5, 38.1875, 37.8125, 37.6875, 37.5, 37.375, 37.3125, 37.1875, 37.125, 37.125, 37.0625, 37.0625, 37.0625, 37, 37, 37, 36.9375, 36.8125, 36.625, 36.375, 36.1875, 36.0625, 36, 35.875, 35.75, 35.5, 35.25, 35.125, 34.9375, 34.8125, 34.6875, 34.6875, 34.6875, 34.625, 34.5, 34.25, 34.0625, 34, 34, 34, 33.9375, 33.875, 33.75, 33.5, 33.401787, 33.375, 33.25, 33.25, 33.125, 32.9375, 32.875, 32.6875, 32.5, 32.3125, 32.125, 32.0625, 32, 32, 32, -10, -10, -10, -10, -10, -10, -10, -10, -10, -10, 7, 7, 6.9375, 7, 6.875, 6.9375, 7.3943453, 7.7991071, 8.09375, 8.28125, 8.25, 8.6130962, 9.916667, 10.25, 10.433036, 9.9508934, 9.375, 9.25, 9.1071434, 9.3125, 9.5, 9.625, 9.6875, 9.75, 9.75, 9.5625, 9.4375, 9.125, 8.9375, 8.9375, 8.8125, 8.84375, 8.875, 8.9375, 9.125, 9.28125, 9.375, 9.5714283, 9.7624998, 9.6339283, 9.7678566, 9.75, 9.875, 9.875, 9.75, 9.625, 9.5625, 9.6875, 9.8482141, 9.9375, 10.1875, 10.4375, 10.6875, 11.133928, 11.815476, 12.488095, 12.857142, 13.083333, 13.476192, 14.392858, 15.133929, 15.479167, 15.53125, 15.46875, 15.25, 15.205357, 15.520834, 15.741072, 16.145834, 16.169643, 16.125, 16.0625, 16, 15.973214, 15.901786, 15.9375, 15.833334, -10, -10, -10, -10, -10, -10, -10, 25.5, 25.666666, 25.877977, 26.395834, 26.705357, 26.78125, 26.522322, 26.005953, 25.915178, 26.183037, 26.90625, 27.361607, 27.6875, 27.875, 28.1875, 28.5, 28.75, 29.25, 29.6875, 30.044643, 30.1875, 29.9375, 29.857143, 30.544643, 31, 31.5, 31.6875, 31.9375, 32, 32.03125, 32.15625, 32.34375, 32.59375, 32.875, 33.125, 33.3125, 33.4375, 33.625, 33.75, 34, 34.1875, 34.1875, 34.1875, 34.21875, 34.34375, 34.59375, 34.90625, 35.1875, 35.5625, 35.919643, 36.1875, 36.5, 36.6875, 36.946426, 37.410713, 37.877975, 38.035713, 37.9375, 37.75, 37.8125, 38.138393, 38.513393, 38.84375, 39.21875, 39.5, 39.75, 40, 40.0625, 40.125, 40.0625, 40.125, 39.857143, 38.950592, 38.601189, 38.125, 38.017857, 37.9375, 37.6875, 37.589287, 37.270832, 36.741074, 36.375, 35.866074, 35.479168, 35.32143, 34.907738, 34.633926, 34.270832, 33.857143, 33.75, 33.5625, 33.25, 32.955357, 32.6875, 32.3125, 32, 31.8125, 31.5, 31.303572, 30.979166, 30.633928, 30.25, 29.785713, 29.625, 29.321426, 28.973213, 28.821428, 28.651787, 28.875, 28.916666, -10, -10, -10, -10, -10, -10, -10, -10, -10, -10, -10, -10, -10, -10, -10, -10, -10, -10, -10, -10, -10, -10, -10, -10, -10, -10, -10, -10, -10, -10, -10, -10, -10, 46.5, 46.5, 46.5, 46.589287, 46.669643, 46.741074, 46.6875, 46.5, 46.375, 46.1875, 46.125, 46.035713, 45.830357, 45.571426, 45.3125, 45.125, 45, 45, 45, 45, 45, 45, 45, 44.875, 44.625, 44.375, 44.125, 44, 44, 44, 44.0625, 44.0625, 43.8125, 43.517857, 43.25, 43, 43, 43, 43, 42.8125, 42.5625, 42.3125, 42.0625, 42, 42, 42, 42, 42, 42, 41.9375, 41.875, 41.6875, 41.4375, 41.25, 41.0625, 41, 40.9375, 40.75, 40.6875, 40.5625, 40.5625, 40.482143, 40.0625, 40.0625, 39.875, 40, 39.9375, 39.875, 39.803574, 39.5625, 39.625, 39.732143, 39.5625, 39.4375, 39.25, 39, 39, 39, 38.9375, 38.6875, 38.4375, 38.125, 37.8125, 37.6875, 37.5625, 37.5, 37.5, 37.375, 37.25, 37.125, 37, 37, 37, 37, 37, 37, 36.875, 36.6875, 36.5, 36.25, 36.125, 36, 35.9375, 35.8125, 35.6875, 35.5, 35.25, 35.125, 34.9375, 34.875, 34.8125, 34.8125, 34.8125, 34.6875, 34.5, 34.25, 34.0625, 34, 34, 34, 34, 33.9375, 33.75, 33.5625, 33.401787, 33.3125, 33.25, 33.1875, 33.0625, 32.875, 32.75, 32.5, 32.25, 32.125, 32, 32, 32, 32, 32, -10, -10, -10, -10, -10, -10, -10, -10, -10, -10, 7.2083335, 7.145833, 7.0625, 7.0625, 6.9375, 6.9375, 7.1026783, 7.4776783, 7.78125, 7.96875, 8.0625, 8.4285717, 9.875, 10.178571, 10.370536, 9.8883934, 9.1488094, 9.104167, 9.1904764, 9.4285717, 9.5625, 9.5, 9.4642859, 9.5625, 9.854167, 9.8660717, 9.75, 9.4375, 9.25, 9.25, 9.1875, 9, 9, 8.9591837, 9.125, 9.21875, 9.1875, 9.4464283, 9.6062498, 9.5089283, 9.7053566, 9.6875, 9.90625, 10, 10, 9.75, 9.6785717, 9.7857141, 9.8982143, 10.116072, 10.303572, 10.5625, 10.8125, 11.25, 11.958334, 12.647322, 13.049107, 13.464286, 13.669643, 14.482143, 15.178572, 15.625, 15.6875, 15.5625, 15.375, 15.392857, 15.877976, 16.107143, 16.25, 16.1875, 16.125, 16.125, 16.1875, 16.160713, 16.026787, 16, 15.888889, -10, -10, -10, -10, -10, -10, -10, 25.5, 25.555555, 25.726191, 26.645834, 26.851191, 26.84375, 26.522322, 26.005953, 25.946428, 26.214287, 26.9375, 27.392857, 27.6875, 27.875, 28.1875, 28.5, 28.75, 29.25, 29.6875, 30.044643, 30.125, 29.892857, 29.955357, 30.607143, 31.080357, 31.5625, 31.6875, 31.9375, 31.9375, 31.96875, 32.03125, 32.21875, 32.53125, 32.857143, 33.125, 33.375, 33.4375, 33.625, 33.75, 33.875, 34.0625, 34.09375, 34.125, 34.265625, 34.515625, 34.734375, 35.078125, 35.3125, 35.5625, 35.8125, 36, 36.3125, 36.5625, 36.883926, 37.339287, 37.544643, 37.741074, 37.6875, 37.6875, 37.875, 38.232143, 38.607143, 38.875, 39.1875, 39.4375, 39.6875, 39.9375, 40.125, 40.25, 40.3125, 40.4375, 40.107143, 39.155952, 38.788689, 38.25, 38.142857, 37.9375, 37.5625, 37.401787, 37.020832, 36.553574, 36.357143, 35.928574, 35.604168, 35.38393, 34.782738, 34.383926, 34.1875, 33.8125, 33.75, 33.625, 33.375, 33.1875, 32.875, 32.5, 32.1875, 32, 31.6875, 31.428572, 30.979166, 30.571428, 30.25, 29.892857, 29.75, 29.473213, 29.205357, 28.99107, 28.776787, 28.875, 28.833332
-10, 46.5, 46.5, 46.5, 46.651787, 46.767857, 46.69643, 46.571426, 46.3125, 46.1875, 46.0625, 46.0625, 46.035713, 45.830357, 45.571426, 45.3125, 45.125, 45, 45, 45, 45, 45, 45, 45, 44.9375, 44.6875, 44.4375, 44.1875, 44, 44, 44, 44.125, 44.125, 43.9375, 43.642857, 43.3125, 43.0625, 43, 43, 43, 42.8125, 42.625, 42.366074, 41.916668, 41.892857, 41.875, 41.9375, 41.9375, 41.9375, 41.875, 41.75, 41.6875, 41.5, 41.3125, 41.1875, 41.0625, 41, 40.9375, 40.75, 40.625, 40.4375, 40.375, 40.303574, 40.0625, 40.0625, 40, 40.0625, 40.0625, 39.9375, 39.616074, 39.4375, 39.410713, 39.544643, 39.4375, 39.3125, 39.1875, 39, 39, 39, 38.9375, 38.6875, 38.4375, 38.1875, 37.9375, 37.8125, 37.6875, 37.625, 37.535713, 37.375, 37.428574, 37.232143, 37.125, 37.0625, 36.9375, 36.9375, 36.9375, 36.9375, 36.8125, 36.625, 36.375, 36.125, 36.0625, 35.9375, 35.9375, 35.875, 35.8125, 35.625, 35.375, 35.1875, 35, 35, 35, 35, 34.9375, 34.8125, 34.5625, 34.3125, 34.125, 34, 34, 34, 34, 33.875, 33.625, 33.375, 33.151787, 33.0625, 33.0625, 33.0625, 33, 32.875, 32.75, 32.5625, 32.375, 32.25, 32.125, 32.0625, 32, 32, 32, -10, -10, -10, -10, -10, -10, -10, -10, -10, 7, 7.2083335, 7.145833, 7.0625, 7.0625, 6.875, 6.8125, 6.9464283, 7.3214283, 7.7321429, 7.9375, 8.1696434, 8.8214283, 10.059525, 10.392857, 10.589286, 10.294643, 9.4200678, 9.4353743, 9.6071434, 9.6875, 9.625, 9.375, 9.1696434, 9.1875, 9.4880953, 9.8244047, 9.8035717, 9.6875, 9.5, 9.4375, 9.3125, 9.520833, 9.75, 9.8809528, 9.4821434, 9.322917, 9.1339283, 9.3214283, 9.4499998, 9.3839283, 9.6428566, 9.6875, 10, 10.1875, 10.3125, 10.666667, 10.708333, 10.571428, 10.273214, 10.428572, 10.491072, 10.6875, 10.9375, 11.375, 12.244048, 13.006697, 13.502232, 13.859375, 14.21875, 14.700893, 15.214286, 15.5, 15.5625, 15.4375, 15.375, 15.517857, 16.110119, 16.357143, 16.5, 16.375, 16.25, 16.25, 16.25, 16.223213, 16.151787, 16.0625, 15.979167, -10, -10, -10, -10, -10, -10, -10, -10, -10, -10, 26.5, 26.87619, 26.861607, 26.584822, 26.068453, 26.008928, 26.245537, 26.9375, 27.455357, 27.857143, 28, 28.3125, 28.5625, 28.75, 29.1875, 29.625, 29.982143, 30.0625, 29.955357, 29.991072, 30.5625, 30.955357, 31.4375, 31.625, 31.875, 31.9375, 31.96875, 32.03125, 32.15625, 32.46875, 32.794643, 33.0625, 33.375, 33.4375, 33.625, 33.8125, 33.875, 34.125, 34.21875, 34.25, 34.453125, 34.640625, 34.796875, 35.078125, 35.3125, 35.5625, 35.8125, 35.9375, 36.1875, 36.4375, 36.6875, 37.026787, 37.294643, 37.428574, 37.5, 37.633926, 37.950001, 38.1875, 38.5625, 38.794643, 39.0625, 39.375, 39.625, 39.875, 40.125, 40.3125, 40.4375, 40.5625, 40.169643, 39.209522, 39.017857, 38.4375, 38.330357, 37.9375, 37.4375, 37.1875, 36.8125, 36.446426, 36.321426, 35.991074, 35.729168, 35.50893, 34.979168, 34.633926, 34.3125, 34, 33.75, 33.625, 33.375, 33.125, 32.8125, 32.401787, 32.125, 31.9375, 31.6875, 31.428572, 30.979166, 30.571428, 30.3125, 30.0625, 29.875, 29.6875, 29.5, 29.254463, 29.058037, 29.0625, 28.777777, -10, -10, -10, -10, -10, -10, -10, -10, -10, -10, -10, -10, -10, -10, -10, -10, -10, -10, -10, -10, -10, -10, -10, -10, -10, -10, -10, -10, -10, -10, -10, -10, -10, 46.5, 46.5, 46.5, 46.651787, 46.705357, 46.63393, 46.508926, 46.25, 46.1875, 46.0625, 46, 46, 45.875, 45.625, 45.375, 45.125, 44.9375, 44.9375, 44.9375, 44.9375, 45, 45, 44.9375, 44.875, 44.625, 44.375, 44.1875, 44, 44, 44, 44.125, 44.125, 43.9375, 43.642857, 43.3125, 43.0625, 43, 43, 43, 42.875, 42.75, 42.553574, 42.104168, 42.017857, 41.9375, 42, 41.973213, 41.901787, 41.875, 41.625, 41.5625, 41.3125, 41.125, 41.0625, 41, 41, 40.9375, 40.8125, 40.6875, 40.4375, 40.3125, 40.1875, 40.0625, 40.0625, 40.0625, 40.0625, 40.0625, 39.9375, 39.553574, 39.3125, 39.285713, 39.357143, 39.3125, 39.25, 39.125, 39, 39, 39, 38.9375, 38.6875, 38.4375, 38.1875, 37.9375, 37.8125, 37.75, 37.75, 37.660713, 37.5625, 37.616074, 37.357143, 37.25, 37.0625, 36.8125, 36.75, 36.6875, 36.6875, 36.5625, 36.5, 36.375, 36.1875, 36.1875, 36, 35.9375, 35.9375, 35.9375, 35.8125, 35.5625, 35.3125, 35.0625, 35, 34.9375, 34.9375, 34.9375, 34.8125, 34.625, 34.375, 34.125, 34, 34, 34, 34, 33.8125, 33.5625, 33.375, 33.1875, 33.125, 33.125, 33.0625, 33, 32.875, 32.75, 32.5625, 32.4375, 32.303574, 32.0625, 32.0625, 31.9375, 32, 32, -10, -10, -10, -10, -10, -10, -10, -10, -10, 7, 7.1458335, 7.1041665, 7.09375, 7.09375, 6.875, 6.8125, 6.8125, 7.0714283, 7.6071429, 7.8125, 8.2767859, 9.2142859, 10.202381, 10.5, 10.651786, 10.632653, 10.503968, 10.474206, 9.9285717, 9.7874994, 9.6696434, 9.1875, 8.875, 8.75, 8.9880953, 9.458333, 9.7619047, 9.8035717, 9.75, 9.625, 9.5, 9.5, 9.625, 9.7232151, 9.6071434, 9.354167, 9.1339283, 9.2589283, 9.4499998, 9.4464283, 9.7053566, 9.875, 10.125, 10.3125, 10.5, 10.678572, 10.714286, 10.642858, 10.45, 10.428572, 10.553572, 10.8125, 11.0625, 11.708333, 12.410714, 13.203125, 13.752232, 14.171875, 14.46875, 14.84375, 15.214286, 15.375, 15.4375, 15.25, 15.276786, 15.625, 16.226191, 16.482143, 16.625, 16.4375, 16.3125, 16.3125, 16.3125, 16.348213, 16.339287, 16.3125, 16.166668, 16.416668, -10, -10, -10, -10, -10, -10, -10, -10, -10, 26.416666, 26.919048, 26.852678, 26.65625, 26.401787, 26.4375, 26.700893, 27.0625, 27.5625, 27.982143, 28.125, 28.4375, 28.625, 28.75, 29.125, 29.5, 29.821428, 30, 30.0625, 30.0625, 30.395834, 30.696428, 31.125, 31.4375, 31.75, 31.875, 32, 32, 32.0625, 32.375, 32.607143, 32.9375, 33.3125, 33.4375, 33.71875, 33.9375, 34.0625, 34.3125, 34.4375, 34.5, 34.640625, 34.765625, 34.859375, 35.140625, 35.4375, 35.6875, 35.9375, 36.0625, 36.1875, 36.375, 36.5, 36.714287, 36.982143, 37.116074, 37.25, 37.401787, 37.845833, 38.00893, 38.375, 38.607143, 38.875, 39.25, 39.5625, 39.8125, 40.125, 40.375, 40.5, 40.625, 40.3125, 39.560715, 39.375, 38.75, 38.517857, 38, 37.4375, 37.1875, 36.875, 36.508926, 36.383926, 36.125, 36.0625, 35.803574, 35.291668, 34.821426, 34.375, 34.1875, 33.875, 33.604168, 33.4375, 33.125, 32.8125, 32.401787, 32, 31.75, 31.5625, 31.303572, 30.916666, 30.5625, 30.104166, 29.955357, 29.875, 29.84375, 29.71875, 29.515625, 29.390625, 29.333334, -10
-10, 46.75, 46.75, 46.8125, 46.9375, 46.785713, 46.642857, 46.508926, 46.25, 46.25, 46.125, 46, 46, 45.875, 45.625, 45.375, 45.125, 44.9375, 44.9375, 44.9375, 44.9375, 45, 45, 44.875, 44.75, 44.5, 44.25, 44.125, 44, 44, 44, 44.125, 44.125, 44, 43.705357, 43.375, 43.125, 43, 43, 43, 42.9375, 42.875, 42.741074, 42.291668, 42.142857, 42, 42, 41.973213, 41.901787, 41.875, 41.625, 41.5, 41.25, 41.0625, 41, 41, 41, 41, 40.9375, 40.75, 40.5, 40.25, 40.0625, 40, 40, 40.0625, 40.0625, 40.0625, 39.875, 39.428574, 39.1875, 39.098213, 39.169643, 39.1875, 39.125, 39.0625, 39, 39, 39, 38.9375, 38.6875, 38.4375, 38.1875, 37.9375, 37.75, 37.6875, 37.6875, 37.535713, 37.5, 37.553574, 37.294643, 37.25, 37.0625, 36.8125, 36.6875, 36.5625, 36.5, 36.375, 36.4375, 36.375, 36.25, 36.25, 36, 35.875, 35.875, 35.875, 35.8125, 35.6875, 35.4375, 35.1875, 35.0625, 34.875, 34.875, 34.875, 34.8125, 34.75, 34.5, 34.25, 34.0625, 34, 34, 34, 33.75, 33.5, 33.3125, 33.125, 33.125, 33.125, 33.0625, 33, 32.9375, 32.875, 32.75, 32.625, 32.428574, 32.125, 32.0625, 31.916666, 32, -10, -10, -10, -10, -10, -10, -10, -10, -10, -10, 7, 7.0833335, 7.0625, 7.0625, 7.0625, 6.875, 6.8125, 6.8125, 7.0714283, 7.6071429, 7.8125, 8.3839283, 9.6071434, 10.428572, 10.758928, 10.8125, 10.75, 10.738096, 10.727891, 10.214286, 9.6833334, 9.4821434, 9, 8.6785717, 8.375, 8.3911572, 8.7789106, 9.5119047, 9.6160717, 9.6428566, 9.6607141, 9.5, 9.5892859, 9.6875, 9.7857151, 9.6696434, 9.354167, 9.1964283, 9.25, 9.3125, 9.5, 9.6875, 9.9375, 10.1875, 10.375, 10.625, 10.6875, 10.75, 10.75, 10.55, 10.616072, 10.678572, 10.875, 11.303572, 12.136905, 12.910714, 13.390625, 13.859375, 14.234375, 14.53125, 14.84375, 15.107143, 15.1875, 15.1875, 15.125, 15.276786, 15.669643, 16.142859, 16.375, 16.5625, 16.5, 16.4375, 16.4375, 16.375, 16.4375, 16.5625, 16.5625, 16.5, 16.694445, 16.875, 16.833332, 16, -10, -10, -10, -10, -10, -10, 26.041666, 26.508333, 26.540178, 26.65625, 26.59375, 26.65625, 26.90625, 27.25, 27.75, 28.169643, 28.25, 28.4375, 28.5625, 28.6875, 29, 29.3125, 29.598213, 29.8125, 30, 30.0625, 30.1875, 30.4375, 30.875, 31.357143, 31.6875, 31.875, 32.0625, 32, 32.0625, 32.375, 32.544643, 33, 33.4375, 33.625, 33.90625, 34.0625, 34.125, 34.3125, 34.4375, 34.53125, 34.703125, 34.828125, 34.921875, 35.234375, 35.5, 35.75, 36, 36.0625, 36.125, 36.321426, 36.575001, 36.642857, 36.875, 36.9375, 37.1875, 37.508926, 37.970833, 38.13393, 38.4375, 38.607143, 38.8125, 39.1875, 39.5, 39.75, 40.125, 40.375, 40.5, 40.553574, 40.086311, 39.482143, 39.196426, 38.8125, 38.5625, 38.125, 37.5625, 37.25, 37, 36.571426, 36.446426, 36.1875, 36.0625, 35.8125, 35.5, 35, 34.5, 34.3125, 33.9375, 33.604168, 33.375, 32.96875, 32.625, 32.276787, 31.9375, 31.71875, 31.5625, 31.3125, 31.125, 30.803572, 30.354166, 30.142857, 30.0625, 30.09375, 30.03125, 30.015625, 29.890625, 29.8125, -10, -10, -10, -10, -10, -10, -10, -10, -10, -10, -10, -10, -10, -10, -10, -10, -10, -10, -10, -10, -10, -10, -10, -10, -10, -10, -10, -10, -10, -10, -10, -10, -10, -10, 46.875, 46.75, 46.75, 46.919643, 46.767857, 46.705357, 46.571426, 46.3125, 46.3125, 46.125, 46, 46, 45.875, 45.625, 45.375, 45.125, 44.9375, 44.9375, 44.9375, 44.9375, 45, 45, 44.875, 44.75, 44.5, 44.25, 44.125, 44, 44, 44, 44.0625, 44, 43.875, 43.625, 43.3125, 43.125, 43, 43, 43, 43, 43, 42.866074, 42.416668, 42.205357, 42, 42, 41.973213, 41.901787, 41.875, 41.6875, 41.5625, 41.3125, 41.125, 41, 41, 41, 41, 41, 40.875, 40.625, 40.375, 40.125, 40, 40, 40, 40, 40, 39.8125, 39.428574, 39.1875, 39.035713, 39, 39.0625, 39, 39, 39, 39, 39, 39, 38.75, 38.5, 38.25, 38, 37.875, 37.8125, 37.75, 37.473213, 37.375, 37.428574, 37.169643, 37.1875, 37, 36.75, 36.6875, 36.5625, 36.4375, 36.3125, 36.4375, 36.375, 36.3125, 36.3125, 36.125, 36.0625, 36.0625, 36, 35.767857, 35.625, 35.375, 35.1875, 35.0625, 34.8125, 34.75, 34.75, 34.6875, 34.75, 34.625, 34.375, 34.1875, 34.0625, 34, 34, 33.8125, 33.5625, 33.3125, 33.0625, 33, 33, 33, 33, 33, 33, 32.90625, 32.78125, 32.522324, 32.15625, 32.0625, -10, -10, -10, -10, -10, -10, -10, -10, -10, -10, -10, -10, 7, 7, 7, 7, 7, 6.875, 6.8125, 6.8125, 7.0625, 7.4821429, 7.75, 8.4285717, 10, 10.5, 10.8125, 10.75, 10.75, 10.8125, 10.732143, 10.04762, 9.3976192, 9.1696434, 8.9375, 8.8392849, 8.5625, 8.3673468, 8.6411562, 9.1994047, 9.3035717, 9.3928566, 9.4732141, 9.3125, 9.4017859, 9.375, 9.4821434, 9.4821434, 9.229167, 9.2589283, 9.3125, 9.4375, 9.53125, 9.65625, 9.90625, 10.09375, 10.25, 10.375, 10.375, 10.4375, 10.5625, 10.5625, 10.5, 10.642857, 11.041667, 11.633928, 12.556547, 13.205358, 13.609375, 13.953125, 14.265625, 14.53125, 14.71875, 14.8125, 14.875, 14.875, 15, 15.276786, 15.669643, 16.035715, 16.25, 16.5, 16.5625, 16.5, 16.5, 16.375, 16.4375, 16.6875, 16.78125, 16.84375, 16.927084, 17.297619, 17.555555, -10, -10, -10, -10, -10, -10, 25.25, 25.5, 26.049999, 26.165178, 26.53125, 26.65625, 26.78125, 27.09375, 27.375, 27.8125, 28.232143, 28.3125, 28.5, 28.625, 28.75, 28.875, 29, 29.205357, 29.583334, 29.9375, 30.125, 30.1875, 30.4375, 30.8125, 31.339287, 31.6875, 31.9375, 32.125, 32.125, 32.1875, 32.4375, 32.5625, 33, 33.4375, 33.6875, 33.96875, 34.125, 34.1875, 34.3125, 34.40625, 34.46875, 34.65625, 34.78125, 34.90625, 35.25, 35.5625, 35.919643, 36.1875, 36.3125, 36.25, 36.383926, 36.575001, 36.580357, 36.875, 36.9375, 37.1875, 37.571426, 38.095833, 38.25893, 38.5625, 38.669643, 38.8125, 39.1875, 39.5, 39.75, 40.0625, 40.25, 40.25, 40.241074, 39.836311, 39.339287, 39.133926, 38.875, 38.625, 38.25, 37.75, 37.375, 37.1875, 36.696426, 36.446426, 36.1875, 36, 35.75, 35.5, 35, 34.5, 34.3125, 33.875, 33.479168, 33.25, 32.84375, 32.625, 32.339287, 32, 31.78125, 31.625, 31.375, 31.25, 30.991072, 30.541666, 30.330357, 30.1875, 30.15625, 30.09375, 30.140625, 30.057291, 30.083334, -10
-10, 46.75, 46.666668, 46.6875, 46.794643, 46.669643, 46.6875, 46.5625, 46.3125, 46.3125, 46.125, 46, 46, 45.9375, 45.75, 45.5, 45.25, 45, 44.9375, 44.9375, 44.9375, 45, 45, 44.875, 44.6875, 44.4375, 44.1875, 44.0625, 44, 44, 44, 44, 43.9375, 43.75, 43.5, 43.25, 43.0625, 43, 43, 43, 43, 42.9375, 42.8125, 42.5625, 42.3125, 42.125, 42.0625, 42.035713, 41.964287, 42, 41.8125, 41.625, 41.375, 41.125, 41, 41, 41, 41, 41, 40.9375, 40.6875, 40.4375, 40.1875, 40, 39.9375, 39.8125, 39.75, 39.75, 39.6875, 39.616074, 39.3125, 39.125, 39, 39, 39, 39, 39, 39, 38.96875, 38.9375, 38.6875, 38.4375, 38.21875, 38, 37.9375, 37.90625, 37.78125, 37.53125, 37.40625, 37.25, 37.0625, 37.0625, 36.9375, 36.8125, 36.75, 36.625, 36.5, 36.3125, 36.4375, 36.4375, 36.375, 36.375, 36.25, 36.1875, 36.1875, 36.125, 35.830357, 35.625, 35.375, 35.1875, 35.0625, 34.8125, 34.75, 34.6875, 34.625, 34.75, 34.6875, 34.5, 34.3125, 34.125, 34, 34, 33.875, 33.6875, 33.5, 33.3125, 33.1875, 33.125, 33.0625, 33, 33, 33, 32.90625, 32.78125, 32.522324, 32.15625, 32.083332, -10, -10, -10, -10, -10, 4.833333, 5, 5.3392859, 5.75, 6.3392859, 6.625, 6.875, 7, 7, 7.0625, 7.125, 7.1875, 7.125, 7.0625, 7, 7.1875, 7.5, 7.75, 8.4285717, 10, 10.5, 10.75, 10.5625, 10.375, 10.3125, 10.241072, 9.8184528, 9.2636909, 9.1071434, 9, 9.0714283, 8.9375, 9.333333, 9.0459185, 9.145833, 9.1160717, 9.2678566, 9.4732141, 9.4375, 9.5892859, 9.375, 9.25, 9.25, 9.1875, 9.375, 9.5, 9.59375, 9.65625, 9.78125, 9.9419641, 9.9642859, 10.0625, 9.9375, 9.9375, 9.9375, 10.0625, 10.25, 10.3125, 10.580357, 11.148809, 12.071428, 13.011904, 13.544643, 13.8125, 14, 14.25, 14.5, 14.6875, 14.8125, 14.875, 14.875, 15, 15.276786, 15.607143, 15.866072, 16.0625, 16.25, 16.3125, 16.3125, 16.375, 16.604166, 16.803572, 17.0625, 17.21875, 17.28125, 17.40625, 17.660713, 18.247618, -10, -10, -10, -10, -10, -10, 24.777779, 25.283333, 25.685715, 25.928572, 26.28125, 26.59375, 26.84375, 27.294643, 27.5625, 27.875, 28.125, 28.1875, 28.375, 28.5625, 28.75, 28.8125, 28.875, 29.080357, 29.502977, 29.9375, 30.1875, 30.1875, 30.4375, 30.75, 31.32143, 31.6875, 31.9375, 32.125, 32.125, 32.1875, 32.4375, 32.5625, 33, 33.4375, 33.6875, 33.96875, 34.0625, 34.125, 34.1875, 34.21875, 34.352676, 34.65625, 34.78125, 34.90625, 35.0625, 35.366074, 35.982143, 36.294643, 36.46875, 36.34375, 36.415176, 36.575001, 36.580357, 36.875, 37, 37.3125, 37.6875, 38.145832, 38.428574, 38.625, 38.75, 38.875, 39.196426, 39.625, 39.8125, 40.125, 40.1875, 40.125, 40.053574, 39.586311, 39.151787, 39.008926, 38.875, 38.6875, 38.375, 38, 37.5625, 37.3125, 36.875, 36.5625, 36.294643, 35.892857, 35.633926, 35.375, 35, 34.5625, 34.375, 34.03125, 33.697918, 33.473213, 32.96875, 32.8125, 32.5, 32.25, 31.96875, 31.6875, 31.4375, 31.25, 31.053572, 30.604166, 30.392857, 30.21875, 30.0625, 30, 30.078125, 29.984375, -10, -10, -10, -10, -10, -10, -10, -10, -10, -10, -10, -10, -10, -10, -10, -10, -10, -10, -10, -10, -10, -10, -10, -10, -10, -10, -10, -10, -10, -10, -10, -10, -10, -10, -10, 46.75, 46.666668, 46.6875, 46.732143, 46.607143, 46.5625, 46.375, 46.1875, 46.1875, 46.0625, 46, 46, 46, 45.8125, 45.625, 45.4375, 45.1875, 45.125, 45.0625, 45, 45, 45, 44.9375, 44.75, 44.5, 44.25, 44.0625, 44, 44, 44, 44, 43.875, 43.6875, 43.4375, 43.25, 43.125, 43.0625, 43.0625, 43, 43, 42.875, 42.6875, 42.4375, 42.1875, 42.0625, 42, 42, 42, 42, 41.875, 41.625, 41.375, 41.125, 41, 41, 41, 41, 41, 40.9375, 40.6875, 40.4375, 40.1875, 40, 39.9375, 39.8125, 39.75, 39.75, 39.6875, 39.616074, 39.3125, 39.125, 39, 39, 39, 39, 39, 39, 38.96875, 38.90625, 38.65625, 38.40625, 38.1875, 38, 37.9375, 37.90625, 37.71875, 37.46875, 37.28125, 37.0625, 36.9375, 36.9375, 36.9375, 36.9375, 36.9375, 36.875, 36.75, 36.5625, 36.625, 36.5, 36.375, 36.3125, 36.1875, 36.1875, 36.1875, 36.125, 35.767857, 35.5625, 35.3125, 35.125, 35.0625, 34.875, 34.75, 34.625, 34.625, 34.75, 34.75, 34.625, 34.375, 34.125, 34, 34, 33.9375, 33.8125, 33.6875, 33.5, 33.3125, 33.1875, 33.0625, 33, 33, 33, 32.84375, 32.71875, 32.46875, 32.21875, 32.166664, -10, -10, -10, -10, 4.583333, 4.8055553, 4.9166665, 5.2261906, 5.9444447, 6.4642854, 6.75, 6.9166665, 7, 7.0625, 7.1875, 7.3125, 7.4375, 7.375, 7.25, 7.125, 7.25, 7.5, 7.75, 8.4285717, 10, 10.5, 10.6875, 10.4375, 10.1875, 10, 9.9910717, 9.6845236, 9.3511906, 9.1875, 9.125, 9.1785717, 9.1607141, 9.4285717, 9.3214283, 9.03125, 8.84375, 8.9464283, 9.3571434, 9.4910717, 9.7142859, 9.5625, 9.4375, 9.4375, 9.4375, 9.625, 9.75, 9.78125, 9.84375, 9.96875, 10.035714, 10.058036, 10.09375, 9.90625, 9.9375, 9.9375, 10.0625, 10.1875, 10.333333, 10.607142, 11.544643, 12.871428, 13.535713, 13.982143, 14.0625, 14.09375, 14.21875, 14.53125, 14.78125, 14.9375, 15, 15, 15.125, 15.455357, 15.785714, 15.9375, 16.125, 16.1875, 16.25, 16.25, 16.383928, 16.9375, 17.169643, 17.5, 17.65625, 17.78125, 18.09375, 18.535713, 19.073811, -10, -10, -10, -10, -10, -10, 24.541668, 25.066666, 25.321426, 25.65625, 25.96875, 26.415178, 26.927084, 27.410715, 27.6875, 27.875, 28, 28.0625, 28.25, 28.5, 28.75, 28.8125, 28.8125, 29.017857, 29.440477, 29.875, 30.1875, 30.1875, 30.4375, 30.8125, 31.428572, 31.75, 32, 32.0625, 32.0625, 32.125, 32.375, 32.625, 33.107143, 33.5, 33.75, 33.9375, 34, 34.0625, 34.0625, 34.125, 34.290176, 34.59375, 34.78125, 34.977676, 35.333332, 35.633926, 36.232143, 36.419643, 36.46875, 36.3125, 36.415176, 36.637501, 36.705357, 37.03125, 37.1875, 37.5625, 37.982143, 38.28125, 38.5, 38.6875, 38.8125, 38.9375, 39.267857, 39.75, 39.875, 40.1875, 40.125, 39.991074, 39.728573, 39.407738, 39.11607, 39.0625, 38.9375, 38.6875, 38.4375, 38.125, 37.6875, 37.4375, 36.9375, 36.5625, 36.294643, 35.892857, 35.633926, 35.4375, 35.125, 34.75, 34.5625, 34.28125, 34.15625, 34.035713, 33.59375, 33.229168, 32.901787, 32.65625, 32.40625, 32.0625, 31.78125, 31.46875, 31.25, 30.9375, 30.625, 30.427084, 30.125, 29.958334, 30.041666, 29.6875, -10, -10
-10, 46.75, 46.666668, 46.6875, 46.732143, 46.607143, 46.5, 46.25, 46.0625, 46.0625, 46, 46, 46, 45.9375, 45.75, 45.625, 45.4375, 45.25, 45.1875, 45.0625, 45, 45, 45, 44.9375, 44.75, 44.5625, 44.3125, 44.125, 44.0625, 44, 43.9375, 43.9375, 43.8125, 43.625, 43.4375, 43.25, 43.125, 43.0625, 43.0625, 43, 43, 42.8125, 42.5625, 42.3125, 42.0625, 42, 42, 42, 42, 42, 41.875, 41.625, 41.375, 41.125, 41, 41, 41, 41, 41, 41, 40.75, 40.5, 40.25, 40, 39.9375, 39.8125, 39.75, 39.6875, 39.625, 39.553574, 39.25, 39.125, 39, 39, 39, 39, 39, 39, 38.96875, 38.90625, 38.71875, 38.46875, 38.1875, 37.892857, 37.8125, 37.71875, 37.53125, 37.34375, 37.15625, 37, 36.9375, 36.9375, 36.9375, 36.9375, 37, 37, 36.9375, 36.875, 36.848213, 36.580357, 36.383926, 36.25, 36.1875, 36.25, 36.25, 36.1875, 35.767857, 35.4375, 35.1875, 35, 35, 34.9375, 34.8125, 34.6875, 34.6875, 34.75, 34.75, 34.625, 34.375, 34.125, 34, 34, 33.9375, 33.8125, 33.6875, 33.5625, 33.375, 33.3125, 33.25, 33.1875, 33.1875, 33.125, 32.96875, 32.84375, 32.59375, 32.34375, 32.25, -10, -10, -10, 5, 4.7222219, 4.8541665, 5, 5.3571429, 6.0654764, 6.5357141, 6.8125, 6.9375, 7, 7.0625, 7.1875, 7.3125, 7.375, 7.3125, 7.1875, 7.0625, 7.25, 7.5, 7.75, 8.4285717, 10, 10.5, 10.6875, 10.4375, 10.125, 9.8125, 9.6785717, 9.416667, 9.3303566, 9.1875, 9.0803566, 9.125, 9.2857141, 9.4375, 9.4375, 9.21875, 9.03125, 9.0535717, 9.3214283, 9.6160717, 9.875, 9.8125, 9.75, 9.625, 9.5625, 9.6875, 9.78125, 9.8125, 9.875, 10, 10.035714, 10.058036, 10.09375, 9.90625, 9.9375, 9.9375, 10.03125, 10.166667, -10, -10, 11.940475, 13.492857, 13.964285, 14.3125, 14.3125, 14.34375, 14.513393, 14.78125, 14.96875, 15, 15.0625, 15.125, 15.1875, 15.544642, 15.883928, 16, 16.3125, 16.3125, 16.375, 16.4375, 16.633928, 17.25, 17.607143, 17.9375, 18.09375, 18.28125, 18.59375, 19.098213, 19.835714, 21.214287, 21.75, 22.083332, -10, -10, -10, 24.148809, 24.983334, 25.410713, 25.8125, 26, 26.383928, 26.833334, 27.285715, 27.669643, 27.875, 28.0625, 28.125, 28.375, 28.625, 28.8125, 28.875, 28.875, 29.080357, 29.565477, 30, 30.25, 30.25, 30.4375, 30.75, 31.25893, 31.625, 31.875, 31.9375, 32, 32.0625, 32.3125, 32.6875, 33.169643, 33.5625, 33.8125, 33.9375, 34.0625, 34.1875, 34.25, 34.375, 34.508926, 34.75, 34.9375, 35.133926, 35.458332, 35.758926, 36.294643, 36.419643, 36.46875, 36.383926, 36.59375, 36.6875, 36.875, 37.0625, 37.25, 37.5, 37.8125, 38.0625, 38.25, 38.5, 38.625, 38.75, 39.080357, 39.5625, 39.794643, 40.0625, 40, 39.732143, 39.216667, 39.13393, 38.919643, 39, 38.875, 38.625, 38.375, 38.0625, 37.6875, 37.4375, 37, 36.6875, 36.419643, 36.017857, 35.758926, 35.5625, 35.375, 35.125, 35, 34.78125, 34.65625, 34.719387, 34.285713, 33.791668, 33.526787, 33.236607, 32.625, 32.169643, 31.84375, 31.53125, 31.25, 30.830357, 30.5, 30.239584, -10, -10, -10, 29.333334, -10, -10, -10, -10, -10, -10, -10, -10, -10, -10, -10, -10, -10, -10, -10, -10, -10, -10, -10, -10, -10, -10, -10, -10, -10, -10, -10, -10, -10, -10, -10, -10, -10, -10, -10, 46.875, 46.916668, 46.9375, 46.875, 46.6875, 46.4375, 46.1875, 46, 46, 46, 46, 46, 45.875, 45.6875, 45.625, 45.4375, 45.3125, 45.25, 45.0625, 45, 45, 45, 44.875, 44.625, 44.5, 44.25, 44.125, 44.125, 44, 43.875, 43.875, 43.8125, 43.6875, 43.5625, 43.375, 43.1875, 43.0625, 43.0625, 43, 43, 42.75, 42.5, 42.25, 42, 42, 42, 42, 42, 42, 41.875, 41.625, 41.375, 41.125, 41, 41, 41, 41, 41, 40.9375, 40.6875, 40.4375, 40.125, 39.875, 39.75, 39.625, 39.5625, 39.5, 39.4375, 39.375, 39.3125, 39.1875, 39.125, 39.0625, 39, 39, 39, 39, 38.96875, 38.90625, 38.78125, 38.522324, 38.041668, 37.714287, 37.5625, 37.46875, 37.34375, 37.21875, 37.09375, 37, 37, 37, 37, 37, 36.9375, 36.9375, 36.875, 36.8125, 36.785713, 36.517857, 36.321426, 36.1875, 36.125, 36.125, 36.125, 36.125, 35.8125, 35.5, 35.25, 35.0625, 35.0625, 35.0625, 35, 34.8125, 34.8125, 34.8125, 34.75, 34.625, 34.375, 34.125, 34, 34, 33.875, 33.75, 33.625, 33.5625, 33.4375, 33.375, 33.375, 33.25, 33.25, 33.1875, 33, 32.875, 32.625, 32.375, 32.25, -10, -10, -10, 5.5, 5.2559524, 5.2291665, 5.4375, 5.7946429, 6.3779764, 6.6785717, 6.875, 6.9375, 7, 7.125, 7.25, 7.4553571, 7.5833335, 7.2410717, 7.0803571, 6.90625, 7.15625, 7.46875, 7.75, 8.4285717, 10, 10.535714, 10.71875, 10.46875, 10.15625, 9.75, 9.625, 9.625, 9.5625, 9.4375, 9.2053566, 9.0625, 9.0982141, 9.1875, 9.25, 9.09375, 8.96875, 8.9910717, 9.1964283, 9.4910717, 9.75, 9.8125, 9.875, 9.8125, 9.6875, 9.75, 9.84375, 9.84375, 9.8616066, 9.9866066, 10.004464, 10.058036, 10.09375, 9.90625, 9.9375, 10, 10.0625, 10.229167, -10, -10, 12.455782, 14.1, 14.357143, 14.625, 14.625, 14.71875, 14.950893, 15.21875, 15.46875, 15.5625, 15.5625, 15.625, 15.5625, 15.794642, 16.133928, 16.25, 16.5, 16.5, 16.5, 16.5625, 16.839285, 17.645834, 18.098215, 18.5, 18.6875, 18.875, 19.21875, 19.604166, 20.114286, 21.214287, 21.75, 22.722221, 23.375, 23.625, 23.875, 23.945578, 25.150002, 25.660713, 26.125, 26.3125, 26.633928, 27.083334, 27.473215, 27.794643, 27.9375, 28.0625, 28.0625, 28.3125, 28.5625, 28.75, 29, 29.125, 29.4375, 29.825893, 30.09375, 30.21875, 30.15625, 30.3125, 30.625, 31.089287, 31.4375, 31.6875, 31.8125, 31.9375, 32, 32.214287, 32.741074, 33.303574, 33.6875, 33.9375, 34, 34.0625, 34.25, 34.375, 34.5625, 34.758926, 35.008926, 35.395832, 35.55357, 35.770832, 35.883926, 36.1875, 36.294643, 36.34375, 36.383926, 36.65625, 36.75, 36.9375, 37.0625, 37.25, 37.5625, 37.919643, 38.125, 38.3125, 38.5, 38.625, 38.75, 39.017857, 39.4375, 39.669643, 39.9375, 40, 39.919643, 39.413094, 39.154762, 38.919643, 38.9375, 38.8125, 38.5625, 38.3125, 38, 37.6875, 37.4375, 37.0625, 36.8125, 36.544643, 36.142857, 35.883926, 35.6875, 35.65625, 35.5625, 35.5625, 35.46875, 35.375, 35.285713, 35.107143, 34.761906, 34.602043, 34.17857, 32.895832, 32.3125, 31.84375, 31.53125, 31.1875, 30.705357, 30.375, 30.114584, -10, -10, -10, -10, -10, -10
-10, 47, 47, 47, 46.9375, 46.6875, 46.4375, 46.1875, 46, 46, 46, 46, 45.9375, 45.75, 45.5, 45.4375, 45.3125, 45.25, 45.25, 45.125, 45.0625, 45.0625, 45.0625, 44.8125, 44.5625, 44.5, 44.25, 44.1875, 44.1875, 44, 43.875, 43.875, 43.8125, 43.6875, 43.5625, 43.375, 43.1875, 43.0625, 43.0625, 43, 43, 42.8125, 42.5625, 42.3125, 42.0625, 42, 42, 42, 42, 41.9375, 41.8125, 41.5625, 41.3125, 41.125, 41, 41, 41, 41, 41, 40.875, 40.625, 40.375, 40.0625, 39.8125, 39.6875, 39.5625, 39.5, 39.5, 39.4375, 39.375, 39.3125, 39.1875, 39.125, 39.0625, 39, 39, 39, 39, 39, 38.96875, 38.84375, 38.584824, 38.072918, 37.651787, 37.4375, 37.3125, 37.1875, 37.1875, 37.1875, 37.125, 37.125, 37.0625, 36.928574, 36.75, 36.6875, 36.6875, 36.6875, 36.6875, 36.660713, 36.330357, 36.196426, 36.0625, 36, 36, 36, 36, 35.75, 35.5625, 35.375, 35.25, 35.25, 35.1875, 35.0625, 34.875, 34.875, 34.875, 34.75, 34.5625, 34.3125, 34.0625, 34, 34, 33.8125, 33.625, 33.4375, 33.3125, 33.25, 33.25, 33.3125, 33.25, 33.25, 33.1875, 32.9375, 32.75, 32.5, 32.25, 32.166664, 11, 10.633333, 9.833334, 7.1666665, 6.4115644, 5.9553571, 6.1785712, 6.3571429, 6.6904764, 6.8660717, 7, 7, 7, 7.1875, 7.25, 7.4732141, 7.6815481, 7.2321434, 6.9136906, 6.7366071, 6.96875, 7.3794641, 8.145833, 8.8571434, 10.1875, 10.642857, 10.71875, 10.46875, 10.21875, 9.75, 9.5625, 9.5625, 9.4375, 9.375, 9.1428566, 8.9375, 8.9107141, 8.9375, 9.0625, 8.96875, 8.90625, 8.9598217, 9.1651783, 9.3973217, 9.59375, 9.75, 9.875, 9.875, 9.8125, 9.8125, 9.84375, 9.84375, 9.7991066, 9.7991066, 9.84375, 9.96875, 10.03125, 9.96875, 9.9375, 10.0625, 10.232143, 10.354167, -10, -10, 13.920634, 14.6, 14.714286, 14.9375, 15, 15.15625, 15.450893, 15.71875, 15.96875, 16.125, 16.125, 16.125, 16.026787, 16.169643, 16.446428, 16.5625, 16.75, 16.8125, 16.9375, 17.125, 17.464285, 18.041668, 18.482143, 18.875, 19.125, 19.4375, 19.78125, 20.083332, -10, -10, -10, 22.933332, 23.916666, 24.083334, 24.25, 24.646257, 25.533335, 26.053572, 26.40625, 26.589287, 26.928572, 27.252977, 27.491072, 27.732143, 27.8125, 28, 28.0625, 28.25, 28.5, 28.75, 29.169643, 29.40625, 29.75, 30.09375, 30.28125, 30.3125, 30.21875, 30.3125, 30.5625, 30.919643, 31.25, 31.5, 31.75, 32.044643, 32.125, 32.366074, 32.973213, 33.482143, 33.8125, 34, 34, 34.125, 34.3125, 34.5, 34.75, 34.8125, 34.883926, 35.270832, 35.42857, 35.895832, 36.080357, 36.125, 36.1875, 36.1875, 36.352676, 36.6875, 36.8125, 37, 37.0625, 37.25, 37.5625, 37.919643, 38.125, 38.25, 38.375, 38.5, 38.625, 38.883926, 39.1875, 39.491074, 39.875, 40.0625, 40.169643, 39.645237, 39.32143, 39.053574, 39, 38.875, 38.625, 38.375, 38.0625, 37.8125, 37.625, 37.348213, 37.089287, 37, 36.857143, 36.418369, 36.354168, 36.245537, 36.140625, 36.140625, 36.078125, 35.96875, 35.9375, 35.8125, 35.479168, 35.59864, 34.674999, 33.194443, 32.5625, 32.03125, 31.71875, 31.21875, 30.705357, 30.375, 30.166668, -10, -10, -10, -10, -10, -10, -10, -10, -10, -10, -10, -10, -10, -10, -10, -10, -10, -10, -10, -10, -10, -10, -10, -10, -10, -10, -10, -10, -10, -10, -10, -10, -10, -10, -10, -10, -10, -10, -10, 47.25, 47.166668, 47.125, 47.0625, 46.75, 46.5, 46.25, 46.0625, 46.0625, 46.0625, 46.0625, 45.875, 45.625, 45.375, 45.25, 45.125, 45.125, 45.125, 45.125, 45.125, 45.125, 45.125, 44.8125, 44.5625, 44.5, 44.25, 44.1875, 44.1875, 44, 43.875, 43.875, 43.875, 43.75, 43.625, 43.375, 43.125, 43, 43, 43, 43, 42.875, 42.6875, 42.4375, 42.1875, 42.0625, 42, 42, 41.9375, 41.8125, 41.6875, 41.4375, 41.25, 41.125, 41, 41, 41, 41, 41, 40.875, 40.625, 40.375, 40.0625, 39.8125, 39.6875, 39.5, 39.375, 39.375, 39.375, 39.4375, 39.4375, 39.3125, 39.1875, 39.0625, 39, 39, 39, 39, 38.9375, 38.875, 38.75, 38.491074, 38.041668, 37.714287, 37.473213, 37.276787, 37.25, 37.25, 37.375, 37.3125, 37.25, 37.125, 36.928574, 36.6875, 36.625, 36.625, 36.5625, 36.5625, 36.535713, 36.205357, 36.133926, 36.0625, 36, 36, 36, 36, 35.8125, 35.6875, 35.5625, 35.5, 35.428574, 35.1875, 35.0625, 34.875, 34.9375, 34.9375, 34.8125, 34.5625, 34.3125, 34.0625, 34, 34, 33.8125, 33.625, 33.4375, 33.3125, 33.25, 33.25, 33.3125, 33.25, 33.25, 33.1875, 33, 32.75, 32.5, 32.25, 32.083332, 11, 10.088889, 9.5555563, 7.9285712, 7.5306125, 7.1428571, 6.9132652, 6.7589283, 6.8571429, 6.9375, 7, 7, 7, 7.1875, 7.25, 7.4107141, 7.5565481, 7.1071434, 6.7886906, 6.6741071, 6.96875, 7.4330359, 8.583333, 9.3214293, 10.375, 10.75, 10.78125, 10.53125, 10.28125, 9.875, 9.625, 9.625, 9.4375, 9.3125, 9.1428566, 9, 9, 9.125, 9.25, 9.25, 9.25, 9.28125, 9.34375, 9.40625, 9.53125, 9.6875, 9.8125, 9.875, 9.8125, 9.8125, 9.84375, 9.84375, 9.7366066, 9.6116066, 9.625, 9.75, 9.875, 9.9375, 9.9375, 10.125, 10.357143, 10.639881, 12.285714, 13.619047, 14.170068, 14.6125, 14.732143, 14.9375, 15.125, 15.3125, 15.669643, 15.9375, 16.232143, 16.678572, 16.821428, 16.6875, 16.642857, 16.443451, 16.553572, 16.6875, 16.90625, 17.15625, 17.34375, 17.65625, 18.080357, 18.565477, 18.991072, 19.3125, 19.5, 19.75, 20.040178, 20.395832, -10, -10, -10, -10, 24.392857, 24.59524, 24.714285, 24.928572, 25.940477, 26.446428, 26.6875, 26.839287, 27.107143, 27.205357, 27.375, 27.625, 27.8125, 28, 28.125, 28.258928, 28.708334, 28.991072, 29.357143, 29.59375, 29.875, 30.15625, 30.40625, 30.4375, 30.40625, 30.5, 30.625, 30.875, 31.125, 31.3125, 31.625, 31.919643, 32.0625, 32.366074, 32.910713, 33.3125, 33.6875, 33.875, 34, 34.25, 34.375, 34.625, 34.8125, 34.8125, 34.946426, 35.270832, 35.357143, 35.625, 35.8125, 35.875, 36.0625, 36.125, 36.383926, 36.75, 36.875, 37.0625, 37.03125, 37.1875, 37.4375, 37.794643, 38.03125, 38.1875, 38.3125, 38.4375, 38.5625, 38.75, 38.9375, 39.303574, 39.6875, 40.0625, 40.366074, 39.952381, 39.309525, 39.017857, 38.875, 38.875, 38.75, 38.5625, 38.25, 38, 37.875, 37.723213, 37.651787, 37.6875, 37.544643, 37.726192, 36.979168, 36.870537, 36.828125, 36.828125, 36.828125, 36.78125, 36.75, 36.633926, 36.270832, 36.166668, -10, -10, 32.625, 32.087502, 31.666666, 31.09375, 30.642857, 30.375, 30.166668, -10, -10, -10, -10, -10, -10
-10, 47.25, 47.166668, 47.125, 47.0625, 46.8125, 46.625, 46.4375, 46.3125, 46.25, 46.1875, 46.125, 45.875, 45.6875, 45.5, 45.3125, 45.1875, 45.125, 45.0625, 45.125, 45.125, 45.125, 45.125, 44.875, 44.6875, 44.5625, 44.3125, 44.1875, 44.125, 44, 43.9375, 43.875, 43.8125, 43.625, 43.4375, 43.25, 43.0625, 43, 43, 43, 43, 42.875, 42.6875, 42.4375, 42.1875, 42.0625, 42, 42, 41.9375, 41.8125, 41.6875, 41.4375, 41.25, 41.125, 41, 41, 41, 41, 41, 40.875, 40.625, 40.375, 40.0625, 39.8125, 39.6875, 39.5, 39.3125, 39.375, 39.4375, 39.5625, 39.6875, 39.5, 39.3125, 39.125, 39, 39, 39, 39, 38.875, 38.75, 38.5625, 38.303574, 37.979168, 37.883926, 37.723213, 37.589287, 37.5625, 37.5, 37.625, 37.5625, 37.4375, 37.25, 36.991074, 36.625, 36.5, 36.5, 36.375, 36.3125, 36.3125, 36.0625, 36.0625, 36.0625, 36, 36, 36, 36, 35.875, 35.8125, 35.6875, 35.625, 35.491074, 35.1875, 35, 34.8125, 34.875, 34.875, 34.8125, 34.5625, 34.3125, 34.0625, 34, 33.9375, 33.8125, 33.6875, 33.5625, 33.5, 33.375, 33.25, 33.1875, 33.0625, 33.0625, 33.0625, 32.9375, 32.75, 32.5, 32.25, 32.0625, 32, 10.088889, 9.416667, 8.4624996, 8.014286, 7.7083335, 7.2142859, 7.1428571, 7, 7, 7, 7, 7, 7.1875, 7.25, 7.4107141, 7.6190481, 7.1696434, 6.7886906, 6.6741071, 6.90625, 7.4747024, 9.020833, 9.7857141, 10.5625, 10.857143, 10.78125, 10.53125, 10.28125, 9.9375, 9.75, 9.75, 9.5535717, 9.3125, 9.25, 9.0625, 9.125, 9.25, 9.375, 9.4375, 9.5, 9.53125, 9.59375, 9.59375, 9.65625, 9.75, 9.8125, 9.9375, 9.9375, 9.9375, 10, 10, 9.8928566, 9.8928566, 9.9732141, 10, 9.833333, 9.854167, 9.9375, 10.196428, 10.683037, 11.098214, 12.634921, 13.650794, 14.357143, 14.625, 14.75, 14.9375, 15.1875, 15.3125, 15.5625, 15.883928, 16.440475, 16.866072, 17.0625, 17.125, 17.142857, 16.916666, 17.017857, 17.1875, 17.40625, 17.596939, 17.821428, 18.178572, 18.62755, 19.315477, 19.553572, 19.75, 19.8125, 20, 20.316965, 20.770832, -10, -10, -10, -10, 25, 25.145834, 25.25, 25.571428, 26.190477, 26.482143, 26.625, 26.839287, 27.169643, 27.330357, 27.4375, 27.549107, 27.71875, 27.84375, 28.09375, 28.321428, 28.806547, 29.116072, 29.419643, 29.53125, 29.8125, 30.03125, 30.28125, 30.375, 30.40625, 30.5625, 30.6875, 30.9375, 31.0625, 31.25, 31.5625, 31.919643, 32.0625, 32.303574, 32.785713, 33.0625, 33.4375, 33.6875, 33.875, 34.125, 34.25, 34.5, 34.6875, 34.75, 34.946426, 35.208332, 35.232143, 35.5, 35.75, 35.982143, 36.1875, 36.25, 36.4375, 36.625, 36.732143, 36.666668, 36.708332, 37.125, 37.455357, 37.857143, 38.0625, 38.25, 38.375, 38.5625, 38.75, 38.875, 39, 39.258926, 39.625, 40.0625, 40.5625, 40.392857, 39.583336, 39.214287, 38.9375, 38.9375, 38.875, 38.75, 38.5, 38.25, 38.125, 38.035713, 38.026787, 38.392857, 38.336735, 38.158165, 37.761906, 37.433037, 37.390625, 37.453125, 37.515625, 37.53125, 37.82143, 37.67347, 36.854164, 36.666668, -10, -10, 32.892857, 32.387501, 31.800594, 31.209822, 30.8125, 30.5625, 30.416668, -10, -10, -10, -10, -10, -10, -10, -10, -10, -10, -10, -10, -10, -10, -10, -10, -10, -10, -10, -10, -10, -10, -10, -10, -10, -10, -10, -10, -10, -10, -10, -10, -10, -10, -10, -10, -10, -10, -10, 47.25, 47.166668, 47.125, 47.0625, 46.8125, 46.625, 46.5, 46.375, 46.3125, 46.25, 46.125, 45.8125, 45.625, 45.4375, 45.1875, 45.125, 45.0625, 45, 45.125, 45.125, 45.125, 45.125, 44.9375, 44.8125, 44.625, 44.375, 44.1875, 44.0625, 44, 44, 43.9375, 43.8125, 43.5625, 43.3125, 43.125, 43, 43, 43, 43, 43, 42.875, 42.6875, 42.4375, 42.1875, 42.0625, 42, 42, 41.9375, 41.75, 41.5625, 41.3125, 41.125, 41.0625, 41, 41, 41, 41, 41, 40.9375, 40.6875, 40.4375, 40.1875, 39.9375, 39.875, 39.75, 39.5625, 39.625, 39.6875, 39.8125, 39.875, 39.6875, 39.4375, 39.1875, 39.0625, 39, 39, 39, 38.8125, 38.625, 38.375, 38.125, 38.0625, 38.0625, 37.973213, 37.839287, 37.8125, 37.75, 37.875, 37.8125, 37.6875, 37.4375, 37.178574, 36.75, 36.625, 36.625, 36.4375, 36.4375, 36.375, 36.125, 36.125, 36.0625, 36, 36, 36, 36, 35.9375, 35.875, 35.75, 35.625, 35.428574, 35.125, 34.9375, 34.75, 34.75, 34.6875, 34.5625, 34.375, 34.1875, 34, 34, 33.875, 33.8125, 33.75, 33.6875, 33.625, 33.4375, 33.25, 33.0625, 33, 33, 33, 32.9375, 32.8125, 32.5625, 32.3125, 32.125, 32, 32, 9.166667, 8.7375002, 8.2166672, 7.9761906, 7.4642859, 7.3928571, 7.1428571, 7.0714283, 7, 7, 7, 7.125, 7.1875, 7.2678571, 7.4107141, 7.2410717, 6.9583335, 7.0178571, 7.3660717, 7.9880953, 9.583333, 10.303572, 10.75, 11, 10.8125, 10.5625, 10.25, 9.9375, 9.8125, 9.8125, 9.6785717, 9.4375, 9.3125, 9.125, 9.1875, 9.25, 9.4375, 9.5625, 9.6875, 9.78125, 9.84375, 9.71875, 9.65625, 9.6875, 9.6875, 9.875, 10, 10, 10, 10, 10, 10, 10.098214, 10.09375, 9.927083, 10.010417, 10.21875, 10.571428, 11.196428, 11.723214, 12.851191, 13.675595, 14.169643, 14.5, 14.6875, 14.9375, 15.125, 15.25, 15.5, 15.821428, 16.440475, 16.866072, 17.125, 17.3125, 17.455357, 17.327381, 17.392857, 17.5, 17.65625, 18.342262, 18.7875, 19.131945, 19.886904, 20.035715, 20.125, 20.1875, 20.25, 20.5, 20.673471, 21.395832, -10, -10, -10, -10, 25.5, 25.583334, 25.5625, 25.714285, 26.190477, 26.419643, 26.5625, 26.714287, 27.044643, 27.142857, 27.1875, 27.330357, 27.5625, 27.8125, 28.1875, 28.446428, 28.931547, 29.178572, 29.357143, 29.40625, 29.625, 29.8125, 30.1875, 30.34375, 30.5, 30.6875, 30.75, 31, 31.0625, 31.25, 31.625, 32.089287, 32.232143, 32.439285, 32.92857, 33.20536, 33.5625, 33.75, 33.9375, 34.125, 34.25, 34.5, 34.6875, 34.75, 34.875, 34.875, 34.9375, 35.25, 35.6875, 36.107143, 36.25, 36.25, 36.375, 36.5, 36.607143, 36.666668, 36.785713, 37.3125, 37.580357, 37.75, 37.875, 38.0625, 38.25, 38.5, 38.75, 38.982143, 39.416668, 39.625, 39.892857, 40.125, 40.4375, 40.321426, 39.6875, 39.339287, 39.0625, 39, 39, 38.9375, 38.6875, 38.4375, 38.3125, 38.254463, 38.370537, 38.65625, 38.767857, 38.789116, 38.517006, 38.357143, 38.328125, 38.185268, 38.140625, 38.392857, 38.535713, 38.151787, 37.479164, 37.059525, -10, -10, 33, 32.700001, 32.104164, 31.459822, 31.125, 30.8125, 30.750002, -10, -10, -10, -10, -10, -10
-10, 47.25, 47.166668, 47.125, 47.0625, 46.8125, 46.625, 46.5, 46.375, 46.3125, 46.25, 46.125, 45.8125, 45.625, 45.4375, 45.1875, 45.125, 45.0625, 45, 45.0625, 45.0625, 45.0625, 45, 44.875, 44.75, 44.5, 44.3125, 44.125, 44, 44, 44, 43.9375, 43.75, 43.5, 43.25, 43.0625, 43, 43, 42.9375, 42.875, 42.875, 42.75, 42.625, 42.4375, 42.1875, 42.0625, 42.0625, 42.125, 42.0625, 41.9375, 41.6875, 41.375, 41.1875, 41.0625, 41, 41, 41, 41, 41, 41, 40.75, 40.5, 40.25, 40, 40, 39.9375, 39.8125, 39.8125, 39.8125, 39.875, 39.875, 39.6875, 39.4375, 39.1875, 39.0625, 39, 39, 39, 38.8125, 38.5625, 38.3125, 38.0625, 38, 38.125, 38.098213, 38.026787, 38.0625, 37.9375, 38, 37.9375, 37.75, 37.5, 37.3125, 37, 36.875, 36.875, 36.625, 36.625, 36.5, 36.25, 36.1875, 36.0625, 36, 36, 36, 36, 35.9375, 35.8125, 35.625, 35.4375, 35.241074, 35, 34.875, 34.75, 34.6875, 34.5625, 34.4375, 34.25, 34.125, 34, 34, 33.875, 33.875, 33.875, 33.875, 33.8125, 33.5625, 33.3125, 33.0625, 33, 33, 32.96875, 32.9375, 32.8125, 32.5625, 32.34375, 32.125, 32, 32, 8.875, 8.5708332, 8.1184521, 7.666667, 7.1517859, 7.2704082, 6.8928571, 6.8839283, 6.875, 6.9375, 7, 7.0625, 7.125, 7.1875, 7.1875, 7.125, 7.0625, 7.1875, 7.6785717, 8.3809528, 9.6785717, 10.375, 10.75, 11, 10.8125, 10.5625, 10.1875, 9.875, 9.75, 9.6875, 9.6160717, 9.4375, 9.375, 9.2321434, 9.1875, 9.25, 9.4375, 9.6875, 9.875, 10, 10, 9.8125, 9.6875, 9.625, 9.625, 9.8125, 9.9375, 10, 10, 10, 10.0625, 10.125, 10.285714, 10.34375, 10.177083, 10.385417, 10.65625, 11.071428, 11.776786, 12.392857, 13.395833, 13.758928, 14.125, 14.375, 14.625, 14.946428, 15.333334, 15.419643, 15.5625, 15.758928, 16.252975, 16.616072, 17, 17.419643, 17.678572, 17.639881, 17.705357, 17.75, 17.96875, 18.397322, 18.793751, 19.114584, 19.758928, 20.0625, 20.3125, 20.4375, 20.5625, 20.875, 21.726191, 21.979166, -10, -10, -10, -10, 25.75, 25.833334, 25.8125, 25.892857, 26.169643, 26.366072, 26.5625, 26.75, 26.9375, 27.035713, 27, 27.169643, 27.544643, 27.803572, 28.1875, 28.517857, 29.202381, 29.419643, 29.4375, 29.3125, 29.375, 29.508928, 30, 30.1875, 30.5, 30.6875, 30.8125, 31, 30.9375, 31.080357, 31.520834, 31.910715, 32.169643, 32.349998, 32.821426, 33.151787, 33.5, 33.75, 33.9375, 34.125, 34.3125, 34.5, 34.625, 34.75, 34.875, 35, 35.1875, 35.4375, 35.875, 36.294643, 36.4375, 36.4375, 36.5, 36.5625, 36.607143, 36.729168, 37.285713, 37.607143, 37.8125, 37.8125, 37.875, 38.0625, 38.375, 38.625, 38.875, 39.116074, 39.75, 39.910713, 40.017857, 40.125, 40.25, 40.151787, 39.645836, 39.330357, 39.0625, 39, 39, 39, 38.75, 38.5, 38.3125, 38.21875, 38.513393, 39.09375, 39.30357, 40.138889, 40.345238, 40.279758, 39.404762, 39.053574, 38.9375, 38.9375, 39, 38.651787, 37.916664, 37.285713, 34.666668, 33.714287, 33.125, 33.057144, 32.619045, 32.037415, 31.6875, 31.1875, 31.09524, -10, -10, -10, -10, -10, -10, -10, -10, -10, -10, -10, -10, -10, -10, -10, -10, -10, -10, -10, -10, -10, -10, -10, -10, -10, -10, -10, -10, -10, -10, -10, -10, -10, -10, -10, -10, -10, -10, -10, 47.125, 47.166668, 47.1875, 47.25, 47.053574, 46.666668, 46.508926, 46.3125, 46.25, 46.1875, 46.0625, 45.875, 45.75, 45.625, 45.375, 45.25, 45.125, 44.9375, 44.9375, 44.9375, 44.9375, 44.9375, 44.875, 44.75, 44.5, 44.3125, 44.125, 44, 44, 44, 43.9375, 43.6875, 43.4375, 43.1875, 43, 43, 43, 42.9375, 42.875, 42.875, 42.75, 42.625, 42.5, 42.25, 42.125, 42.125, 42.125, 42.125, 42.0625, 41.8125, 41.5, 41.25, 41.125, 41.0625, 41.0625, 41.0625, 41, 41, 41, 40.75, 40.5, 40.25, 40, 40, 40, 39.9375, 39.9375, 39.9375, 39.875, 39.8125, 39.625, 39.375, 39.1875, 39.0625, 39, 39, 39, 38.875, 38.6875, 38.4375, 38.1875, 38.0625, 38.0625, 38.0625, 38.0625, 38.0625, 37.9375, 37.875, 37.8125, 37.625, 37.4375, 37.3125, 37.0625, 36.9375, 36.9375, 36.75, 36.75, 36.5625, 36.3125, 36.1875, 36, 36, 36, 36, 36, 35.875, 35.6875, 35.4375, 35.1875, 35.0625, 35, 34.9375, 34.875, 34.75, 34.5625, 34.375, 34.1875, 34.0625, 34, 34, 33.875, 33.875, 33.875, 33.8125, 33.75, 33.5, 33.21875, 32.96875, 32.90625, 32.90625, 32.84375, 32.8125, 32.6875, 32.4375, 32.28125, 32.125, 32, 32, 8.625, 8.2833338, 7.5976191, 7.1309524, 6.7589283, 6.5816321, 6.6428571, 6.6964283, 6.75, 6.875, 7, 7, 7, 7.125, 7.1875, 7.1875, 7.1875, 7.25, 7.6875, 8.6190481, 9.6964283, 10.410715, 10.75, 11, 10.75, 10.5, 10.125, 9.8125, 9.6875, 9.625, 9.6785717, 9.5982141, 9.625, 9.4196434, 9.1875, 9.1875, 9.3125, 9.625, 9.875, 10, 9.9375, 9.75, 9.5625, 9.4375, 9.4375, 9.625, 9.8125, 9.9375, 10, 10, 10.125, 10.3125, 10.535714, 10.65625, 10.520833, 10.729167, 11.0625, 11.540178, 12.339286, 12.964287, 13.583333, 13.866072, 14.1875, 14.4375, 14.75, 15.133928, 15.520834, 15.669643, 15.75, 15.821428, 16.145834, 16.428572, 16.75, 17.232143, 17.625, 17.941963, 18.125, 18.21875, 18.40625, 18.741072, 19.106251, 19.364584, 19.977678, 20.276785, 20.59375, 20.8125, 21, 21.4375, 22.188778, 22.510416, 23.416668, -10, -10, -10, 26, 26, 26, 26.0625, 26.1875, 26.375, 26.625, 26.8125, 26.9375, 26.9375, 26.875, 27.026787, 27.401787, 27.741072, 28.1875, 28.571428, 29.056547, 29.241072, 29.25, 29.125, 29.1875, 29.383928, 29.8125, 30, 30.375, 30.5625, 30.75, 30.90625, 30.78125, 30.924107, 31.364584, 31.892859, 32.169643, 32.349998, 32.883926, 33.32143, 33.625, 33.875, 33.9375, 34.0625, 34.3125, 34.5, 34.625, 34.75, 34.875, 35.107143, 35.375, 35.625, 36.0625, 36.419643, 36.5, 36.5, 36.4375, 36.5, 36.544643, 36.697918, 37.229164, 37.825893, 38.03125, 38, 37.96875, 38.0625, 38.4375, 38.6875, 38.9375, 39.25, 40.083332, 40.276787, 40.330357, 40.25, 40.1875, 40.107143, 39.854168, 39.61607, 39.229168, 39.035713, 38.9375, 38.875, 38.625, 38.40625, 38.1875, 38.09375, 38.433037, 39.34375, 39.758926, 40.690479, 40.974487, 41.096935, 40.654762, 39.918369, 39.857143, 39.82143, 39.857143, 39.520409, 38.988094, 38.397957, 34.666668, 33.714287, 33.166668, 33.209522, 34.277775, 33.563492, 32.5, 32, 31.692179, 33.416664, 33.642857, 33.625, 33.5, -10, -10
-10, 47.125, 47.25, 47.223213, 47.214287, 46.991074, 46.479168, 46.321426, 46.0625, 46.0625, 46.0625, 46, 45.875, 45.75, 45.5625, 45.3125, 45.1875, 45.0625, 44.9375, 44.9375, 44.9375, 44.9375, 44.9375, 44.875, 44.6875, 44.4375, 44.25, 44.0625, 44, 44, 44, 44, 43.75, 43.5625, 43.3125, 43.0625, 43.0625, 43, 42.9375, 42.875, 42.803574, 42.612499, 42.678574, 42.544643, 42.375, 42.1875, 42.125, 42.125, 42.125, 42.0625, 41.75, 41.5, 41.3125, 41.25, 41.25, 41.1875, 41.125, 41, 41, 40.9375, 40.6875, 40.4375, 40.1875, 40, 40, 40, 40, 40, 40, 39.875, 39.6875, 39.5, 39.25, 39.125, 39.0625, 39, 39, 39, 38.9375, 38.75, 38.5, 38.25, 38.0625, 38, 38, 37.9375, 37.875, 37.75, 37.625, 37.5625, 37.4375, 37.3125, 37.25, 37.125, 37.0625, 37.0625, 36.9375, 36.875, 36.6875, 36.4375, 36.25, 36.0625, 36, 36, 36, 36, 35.8125, 35.5625, 35.3125, 35.0625, 35, 35, 35, 34.9375, 34.8125, 34.5625, 34.3125, 34.125, 34, 34, 34, 33.9375, 33.9375, 33.9375, 33.8125, 33.625, 33.375, 33.15625, 32.941963, 32.799107, 32.799107, 32.71875, 32.75, 32.6875, 32.5, 32.34375, 32.1875, 32.0625, 32, 8.375, 7.9833336, 7.1309524, 6.5476193, 6.375, 6.2142859, 6.3928571, 6.5089283, 6.625, 6.8125, 7, 7, 7.0625, 7.25, 7.375, 7.375, 7.375, 7.375, 7.75, 8.5148811, 9.2678576, 10.255953, 10.633928, 10.96875, 10.75, 10.5, 10.0625, 9.75, 9.625, 9.5, 9.625, 9.7232141, 9.75, 9.6696434, 9.4375, 9.375, 9.4375, 9.6875, 9.875, 10.03125, 10.03125, 9.8214283, 9.4910717, 9.3303566, 9.3125, 9.5625, 9.8125, 9.9375, 10, 10, 10.0625, 10.125, 10.3125, 10.53125, 10.75, 11.125, 11.5, 12.075893, 12.732143, 13.339287, 13.6875, 13.9375, 14.25, 14.4375, 14.75, 15.196428, 15.627977, 15.857143, 16, 16, 16.0625, 16.3125, 16.625, 17.107143, 17.5625, 17.941963, 18.232143, 18.34375, 18.46875, 18.696428, 19.043751, 19.239584, 19.883928, 20.245535, 20.625, 21.0625, 21.375, 21.90625, 22.479912, 22.901041, 23.305557, -10, -10, -10, 26, 26, 26, 26.0625, 26.25, 26.5, 26.75, 26.9375, 27, 26.875, 26.75, 26.870537, 27.183037, 27.584822, 28.09375, 28.491072, 29.020834, 29.303572, 29.375, 29.3125, 29.3125, 29.446428, 29.8125, 30, 30.3125, 30.5, 30.6875, 30.84375, 30.78125, 30.924107, 31.364584, 31.830359, 32.107143, 32.287498, 32.830357, 33.529762, 33.866074, 34.0625, 34.0625, 34.125, 34.375, 34.5625, 34.6875, 34.75, 34.839287, 35.214287, 35.553574, 35.8125, 36.125, 36.3125, 36.375, 36.375, 36.375, 36.5, 36.625, 37.03125, 37.583332, 37.950893, 38.075893, 38, 37.96875, 38.0625, 38.5, 38.857143, 39.125, 39.5625, 40.458332, 40.651787, 40.705357, 40.5, 40.3125, 40.25, 40.1875, 40.044643, 39.729168, 39.473213, 39.3125, 39.125, 38.84375, 38.65625, 38.5, 38.32143, 38.727043, 40.084824, 40.607143, 41.416668, 41.821426, 42.035713, 42.047619, 42.452381, 42.476192, 42.375, 42.416668, 42.208332, 42.333332, 42.190475, 44.75, 45, 44.75, 44.666668, 34.768707, 34.238094, 33.67857, 33.25, 33.424603, 33.861111, 33.845238, 33.607143, 33.444443, -10, -10, -10, -10, -10, -10, -10, -10, -10, -10, -10, -10, -10, -10, -10, -10, -10, -10, -10, -10, -10, -10, -10, -10, -10, -10, -10, -10, -10, -10, -10, -10, -10, -10, -10, 47.125, 47.25, 47.160713, 47.089287, 46.928574, 46.479168, 46.383926, 46.178574, 46, 46, 45.9375, 45.9375, 45.875, 45.75, 45.5625, 45.375, 45.1875, 45, 44.9375, 44.9375, 44.9375, 44.9375, 44.875, 44.6875, 44.5, 44.3125, 44.125, 44.0625, 44, 44, 44, 43.8125, 43.6875, 43.5, 43.25, 43.1875, 43.0625, 42.9375, 42.8125, 42.678574, 42.549999, 42.678574, 42.607143, 42.5, 42.25, 42.125, 42.125, 42.125, 42.125, 41.875, 41.625, 41.4375, 41.3125, 41.25, 41.1875, 41.125, 41, 41, 40.9375, 40.6875, 40.4375, 40.1875, 40, 40, 39.9375, 39.9375, 39.9375, 39.875, 39.75, 39.5, 39.25, 39.0625, 39, 39, 39, 39, 39, 39, 38.8125, 38.5625, 38.3125, 38.0625, 38, 38, 37.875, 37.75, 37.5625, 37.375, 37.3125, 37.1875, 37.125, 37.0625, 37, 37, 37, 37, 36.875, 36.6875, 36.4375, 36.125, 36, 35.9375, 35.9375, 36, 36, 35.75, 35.5, 35.25, 35, 35, 35, 35, 35, 34.875, 34.625, 34.375, 34.125, 34, 34, 33.9375, 33.9375, 33.9375, 33.9375, 33.8125, 33.5625, 33.3125, 33.09375, 32.941963, 32.736607, 32.736607, 32.65625, 32.6875, 32.6875, 32.5, 32.34375, 32.208332, 32.083332, 32, 8.375, 7.927083, 7.2142859, 6.5297618, 6.25, 6.15625, 6.125, 6.3125, 6.5, 6.75, 7, 7, 7.0625, 7.25, 7.4375, 7.4375, 7.375, 7.25, 7.3839283, 7.9702387, 8.7142859, 10.047619, 10.517857, 10.9375, 10.75, 10.5, 10.125, 9.8125, 9.6875, 9.5625, 9.625, 9.7232141, 9.8125, 9.7946434, 9.5625, 9.5, 9.4375, 9.625, 9.8125, 9.96875, 10.09375, 9.9464283, 9.6160717, 9.4196424, 9.375, 9.5625, 9.8125, 9.9375, 10, 10, 10.0625, 10.125, 10.375, 10.5625, 10.78125, 11.09375, 11.361607, 12.066964, 12.767857, 13.446428, 13.75, 14, 14.1875, 14.3125, 14.633928, 15.279761, 15.806547, 16.044643, 16.125, 16.0625, 16, 16.25, 16.5625, 17.044643, 17.5, 17.90625, 18.294643, 18.40625, 18.65625, 18.875, 19.200893, 19.46875, 19.883928, 20.436012, 20.732143, 21.25, 21.5, 21.9375, 22.482143, 22.9375, 23.250002, -10, -10, -10, 26, 26, 26, 26.0625, 26.3125, 26.5625, 26.8125, 27, 27.0625, 27, 26.875, 26.964287, 27.183037, 27.459822, 27.90625, 28.334822, 28.958334, 29.410715, 29.5625, 29.5625, 29.5, 29.571428, 29.8125, 29.9375, 30.25, 30.4375, 30.6875, 30.84375, 30.78125, 30.924107, 31.302084, 31.723215, 32.200001, 32.258926, 32.580357, 33.127975, 33.491074, 33.857143, 33.9375, 34.125, 34.375, 34.5625, 34.6875, 34.6875, 34.803574, 35.321426, 35.669643, 35.9375, 36.125, 36.1875, 36.3125, 36.3125, 36.375, 36.5625, 36.6875, 37.03125, 37.375, 37.763393, 37.888393, 37.9375, 37.96875, 38, 38.4375, 38.857143, 39.232143, 39.705357, 40.416664, 40.660713, 40.8125, 40.6875, 40.5625, 40.5, 40.5, 40.348213, 39.952385, 39.54464, 39.3125, 39.1875, 39.03125, 39.03125, 39.0625, 39.666668, 40.267857, 41.035713, 41.50893, 42, 42.25, 42.683674, 42.952381, 43.32653, 43.285713, 42.736115, 42.654762, 42.297619, 42.25, 42.166668, 44.75, 45, 44.75, 44.666668, 35.145832, 34.770832, 34.42857, 34.214287, 34.17347, 34.145832, 34.133926, 33.955357, 33.444443, -10, -10
-10, 47.125, 47.25, 47.098213, 46.964287, 46.866074, 46.479168, 46.446426, 46.241074, 45.964287, 45.9375, 45.875, 46, 46, 45.9375, 45.8125, 45.625, 45.375, 45.125, 45, 44.9375, 44.9375, 45, 45, 44.8125, 44.625, 44.375, 44.125, 44.0625, 44, 44, 44, 43.875, 43.75, 43.5625, 43.3125, 43.1875, 43.0625, 43, 42.9375, 42.803574, 42.674999, 42.803574, 42.700893, 42.59375, 42.34375, 42.09375, 42, 42, 42, 41.875, 41.75, 41.625, 41.5, 41.375, 41.25, 41.125, 41, 41, 40.875, 40.625, 40.375, 40.125, 40, 40, 39.9375, 39.875, 39.875, 39.75, 39.5625, 39.375, 39.125, 39, 39, 39, 39, 39, 39, 38.9375, 38.75, 38.5, 38.25, 38.0625, 38, 38, 37.875, 37.6875, 37.4375, 37.25, 37.1875, 37.125, 37.125, 37.0625, 37, 37, 37, 37, 36.8125, 36.625, 36.375, 36.0625, 36, 35.9375, 35.9375, 36, 36, 35.75, 35.5, 35.25, 35, 35, 35, 35, 35, 34.875, 34.625, 34.4375, 34.1875, 34.0625, 34.0625, 33.9375, 33.875, 33.8125, 33.8125, 33.65625, 33.46875, 33.28125, 33.0625, 32.941963, 32.736607, 32.736607, 32.6875, 32.75, 32.75, 32.5625, 32.375, 32.208332, 9.5, 9.333333, 8.5, 7.96875, 7.25, 6.6130948, 6.3214283, 6.21875, 6.125, 6.28125, 6.46875, 6.71875, 6.96875, 7, 7, 7.1517859, 7.375, 7.1964283, 7.2053571, 7.0625, 7.1339283, 7.541667, 8.1428566, 9.7738094, 10.366071, 10.875, 10.75, 10.5, 10.1875, 9.9375, 9.8125, 9.6875, 9.75, 9.7857141, 9.875, 9.9375, 9.875, 9.875, 9.8125, 9.875, 9.9375, 9.96875, 10.09375, 10.008928, 9.7410717, 9.6071424, 9.5625, 9.6875, 9.9375, 10, 10.0625, 10.0625, 10.0625, 10.125, 10.3125, 10.4375, 10.65625, 10.9375, 11.267857, 12.03125, 12.892857, 13.517858, 13.8125, 14, 14.1875, 14.25, 14.589285, 15.315475, 15.651786, 15.875, 15.875, 15.875, 15.875, 16.125, 16.4375, 16.875, 17.419643, 17.84375, 18.357143, 18.46875, 18.71875, 18.9375, 19.263393, 19.59375, 20.071428, 20.686012, 20.919643, 21.4375, 21.625, 21.9375, 22.4375, 22.8125, 23.104168, -10, -10, -10, 25.892857, 26, 26.0625, 26.1875, 26.4375, 26.6875, 26.875, 27, 27.0625, 27, 26.9375, 27, 27.075893, 27.352678, 27.989584, 28.441965, 28.875, 29.294643, 29.410713, 29.401787, 29.4375, 29.5, 29.6875, 29.875, 30.125, 30.375, 30.625, 30.84375, 30.96875, 31.15625, 31.46875, 31.919643, 32.325001, 32.383926, 32.642857, 33.127975, 33.491074, 33.857143, 33.9375, 34.0625, 34.3125, 34.5625, 34.75, 34.875, 35.053574, 35.508926, 35.794643, 36, 36.0625, 36.0625, 36.1875, 36.1875, 36.25, 36.517857, 36.75, 36.96875, 37.25, 37.46875, 37.65625, 37.875, 37.96875, 38.0625, 38.4375, 38.857143, 39.232143, 39.705357, 40.416664, 40.732143, 40.9375, 40.875, 40.8125, 40.75, 40.8125, 40.642857, 39.976192, 39.61607, 39.3125, 39.25, 39.21875, 39.40625, 39.857143, 40.285713, 40.882656, 41.683674, 42.051022, 42.125, 42.375, 42.961311, 43.392857, 43.9375, 43.767857, 42.069447, 41.619049, 40.970238, 40.607143, 39.976192, 36.958336, 35.958336, 35.714287, 35.5, 35.333332, 35.125, 35.035713, 34.830357, 34.758926, 34.6875, 34.5, 34.247025, -10, -10, -10, -10, -10, -10, -10, -10, -10, -10, -10, -10, -10, -10, -10, -10, -10, -10, -10, -10, -10, -10, -10, -10, -10, -10, -10, -10, -10, -10, -10, -10, -10, -10, -10, -10, 47, 47.083332, 46.910713, 46.714287, 46.6875, 46.5625, 46.5625, 46.366074, 46.026787, 45.9375, 45.875, 46, 46, 45.9375, 45.875, 45.75, 45.5, 45.3125, 45.125, 45, 45, 45, 44.9375, 44.75, 44.5625, 44.3125, 44.125, 44.0625, 44, 44, 44, 43.9375, 43.8125, 43.625, 43.375, 43.1875, 43.0625, 43, 42.9375, 42.803574, 42.674999, 42.803574, 42.700893, 42.65625, 42.40625, 42.15625, 42.0625, 42, 42.0625, 42, 41.9375, 41.875, 41.625, 41.4375, 41.25, 41.0625, 41, 41, 40.875, 40.6875, 40.5, 40.25, 40.125, 40.0625, 39.9375, 39.875, 39.875, 39.6875, 39.5, 39.3125, 39.0625, 39, 39, 39, 39, 39, 39, 38.875, 38.625, 38.375, 38.125, 38, 38, 37.9375, 37.75, 37.5, 37.3125, 37.25, 37.3125, 37.3125, 37.25, 37.125, 37, 37, 37, 37, 36.75, 36.5625, 36.3125, 36, 36, 35.9375, 35.9375, 36, 36, 35.8125, 35.625, 35.4375, 35.1875, 35.125, 35.0625, 35, 35, 34.875, 34.625, 34.4375, 34.1875, 34.0625, 34.0625, 33.9375, 33.875, 33.75, 33.6875, 33.53125, 33.34375, 33.21875, 33.09375, 33.035713, 32.830357, 32.830357, 32.8125, 32.875, 32.9375, 32.75, 32.5, 32.291664, 9.666667, 9.4444437, 8.8125, 8.211607, 7.5833335, 6.708333, 6.3928566, 6.21875, 6.125, 6.25, 6.4375, 6.6875, 6.9375, 7, 7, 7.0267859, 7.125, 6.8839283, 6.8928571, 6.875, 7, 7.125, 7.6071429, 9.5, 10.214286, 10.8125, 10.75, 10.5, 10.25, 10, 9.9375, 9.8125, 9.75, 9.75, 9.8125, 10, 10.125, 10.1875, 10.1875, 10.125, 10.125, 10.09375, 10.21875, 10.196428, 9.9285717, 9.8571424, 9.8125, 9.875, 10.125, 10.1875, 10.25, 10.25, 10.125, 10.0625, 10.125, 10.1875, 10.375, 10.665178, 11.194941, 12, 12.892857, 13.517858, 13.8125, 14, 14.1875, 14.1875, 14.464285, 15.127975, 15.401786, 15.6875, 15.75, 15.8125, 15.875, 16.125, 16.4375, 16.875, 17.357143, 17.75, 18.294643, 18.446428, 18.65625, 18.84375, 19.075893, 19.419643, 20.165178, 20.757441, 20.888393, 21.276787, 21.544643, 21.803572, 22.34375, 22.65625, 22.979168, 23.25, 23.714287, 24.75, 25.580357, 25.8125, 26, 26.232143, 26.5, 26.75, 26.875, 27, 27.0625, 27.0625, 27, 27, 27.03125, 27.352678, 27.962797, 28.441965, 28.875, 29.232143, 29.410713, 29.401787, 29.508928, 29.770834, 29.919643, 30.0625, 30.125, 30.321428, 30.770834, 30.982143, 31.25, 31.4375, 31.6875, 32.125, 32.512501, 32.508926, 32.767857, 33.145832, 33.491074, 33.857143, 33.9375, 34, 34.1875, 34.4375, 34.6875, 34.9375, 35.303574, 35.651787, 35.919643, 36, 36, 36.0625, 36.25, 36.25, 36.375, 36.580357, 36.75, 37, 37.25, 37.4375, 37.6875, 37.875, 38.0625, 38.1875, 38.517857, 39.089287, 39.473213, 39.821426, 40.297619, 40.660713, 40.928574, 41, 41, 40.9375, 40.875, 40.723213, 40.184525, 39.830357, 39.589287, 39.59375, 39.6875, 40.03125, 40.34375, 40.8125, 41.34375, 41.910713, 42.160713, 42.1875, 42.428574, 43.211311, 43.589283, 44.0625, 43.642857, 41.619049, 41.020409, 40.331631, 39.790813, 38.765308, 38.205784, 36.222225, 35.976192, 35.75, 35.5, 35.6875, 35.598213, 35.392857, 35.214287, 35, 34.75, 34.559525, -10, -10, -10
-10, 47, 47, 46.875, 46.6875, 46.625, 46.5625, 46.5, 46.366074, 46.089287, 46, 45.9375, 46.0625, 45.9375, 45.9375, 45.9375, 45.875, 45.6875, 45.4375, 45.1875, 45, 45, 45, 44.9375, 44.75, 44.5625, 44.3125, 44.125, 44.0625, 44, 44, 44, 43.9375, 43.75, 43.5625, 43.3125, 43.125, 43.0625, 43, 42.9375, 42.875, 42.875, 42.8125, 42.71875, 42.65625, 42.46875, 42.34375, 42.25, 42.125, 42.125, 42.0625, 42, 41.9375, 41.625, 41.375, 41.1875, 41, 41, 41, 40.9375, 40.8125, 40.625, 40.375, 40.1875, 40.0625, 39.9375, 39.875, 39.875, 39.6875, 39.5, 39.3125, 39.0625, 39, 39, 39, 39, 39, 39, 38.875, 38.625, 38.375, 38.125, 38, 38, 37.875, 37.6875, 37.4375, 37.25, 37.3125, 37.4375, 37.4375, 37.375, 37.1875, 37.0625, 37.0625, 37.0625, 37.0625, 36.8125, 36.5625, 36.3125, 36, 35.9375, 35.9375, 35.875, 35.9375, 35.875, 35.75, 35.625, 35.4375, 35.25, 35.125, 35.0625, 35, 35, 34.875, 34.625, 34.4375, 34.1875, 34.0625, 34.0625, 33.9375, 33.875, 33.75, 33.625, 33.46875, 33.28125, 33.15625, 33.03125, 33, 32.9375, 32.9375, 32.9375, 32.9375, 32.9375, 32.75, 32.5625, 32.416664, 9.75, 9.5, 9.125, 8.5044641, 8, 6.8749995, 6.5267859, 6.21875, 6.125, 6.21875, 6.40625, 6.65625, 6.90625, 7, 6.9375, 6.9017859, 6.9375, 6.7678566, 7.0178571, 7.0625, 7.25, 7.3125, 7.6607146, 9.1904764, 10.142857, 10.736607, 10.8125, 10.625, 10.4375, 10.1875, 10.125, 10.0625, 10.0625, 10.0625, 10.0625, 10.1875, 10.25, 10.375, 10.4375, 10.3125, 10.3125, 10.1875, 10.1875, 10.1875, 10, 10.026786, 10, 10, 10.25, 10.3125, 10.4375, 10.4375, 10.25, 10.125, 10.0625, 10.0625, 10.25, 10.477678, 11.007441, 11.830358, 12.821428, 13.5, 13.8125, 14, 14.1875, 14.25, 14.526785, 15.065475, 15.232143, 15.4375, 15.5, 15.6875, 15.8125, 16.0625, 16.375, 16.8125, 17.232143, 17.5625, 18, 18.071428, 18.28125, 18.46875, 18.575893, 18.857143, 19.724489, 20.294218, 20.37245, 20.637756, 20.87245, 21.096939, 21.625, 21.898808, 22.944445, 23.25, 23.976191, 24.722221, 25.267857, 25.5625, 25.821428, 26.315475, 26.616072, 26.875, 26.9375, 27, 27.0625, 27.125, 27.1875, 27.25, 27.34375, 27.602678, 28.025297, 28.397322, 28.75, 29.044643, 29.223213, 29.214287, 29.392857, 29.916668, 30.089287, 30.1875, 30.1875, 30.330357, 30.895834, 31.044643, 31.3125, 31.4375, 31.6875, 32.1875, 32.637501, 32.696426, 32.946426, 33.125, 33.4375, 33.794643, 33.9375, 34, 34.0625, 34.276787, 34.607143, 34.928574, 35.401787, 35.669643, 35.928574, 36, 36, 36.125, 36.3125, 36.3125, 36.375, 36.517857, 36.6875, 36.9375, 37.1875, 37.3125, 37.5625, 37.8125, 38.169643, 38.3125, 38.642857, 39.107143, 39.473213, 39.758926, 40.235119, 40.598213, 40.866074, 41, 41, 40.9375, 40.8125, 40.660713, 40.041668, 39.464287, 39.255951, 39.486607, 39.816963, 40.3125, 40.6875, 41.0625, 41.4375, 41.794643, 42, 42, 42.178574, 42.925594, 43.422619, 43.794643, 43.321426, 41.291668, 40.57143, 39.821426, 39.107143, 38, 37.336311, 36.479168, 36.125, 35.9375, 35.875, 36.125, 36.035713, 35.767857, 35.464287, 35.1875, 35, 34.916668, -10, -10, -10, -10, -10, -10, -10, -10, -10, -10, -10, -10, -10, -10, -10, -10, -10, -10, -10, -10, -10, -10, -10, -10, -10, -10, -10, -10, -10, -10, -10, -10, -10, -10, -10, -10, 47, 47, 46.9375, 46.75, 46.625, 46.5, 46.3125, 46.1875, 46.089287, 46, 46, 46.0625, 45.9375, 45.9375, 45.9375, 45.9375, 45.75, 45.5, 45.25, 45, 45, 45, 44.9375, 44.75, 44.5, 44.25, 44.0625, 44, 44, 43.9375, 43.9375, 43.875, 43.65625, 43.46875, 43.21875, 43.03125, 43, 43, 43, 43, 43, 42.875, 42.71875, 42.65625, 42.46875, 42.40625, 42.3125, 42.125, 42.125, 42.0625, 42.0625, 42, 41.6875, 41.4375, 41.1875, 41, 41, 41, 40.9375, 40.875, 40.6875, 40.4375, 40.25, 40.0625, 40, 39.875, 39.8125, 39.625, 39.375, 39.25, 39.0625, 39, 39, 39, 39, 39, 39, 38.8125, 38.5625, 38.3125, 38.0625, 38, 37.9375, 37.75, 37.5625, 37.375, 37.25, 37.375, 37.5625, 37.5, 37.4375, 37.25, 37.0625, 37.0625, 37.0625, 37.0625, 36.875, 36.6875, 36.4375, 36.1875, 36.0625, 36, 35.875, 35.8125, 35.6875, 35.5625, 35.5, 35.375, 35.25, 35.125, 35.0625, 35, 35, 34.9375, 34.6875, 34.5, 34.25, 34, 33.9375, 33.875, 33.8125, 33.75, 33.6875, 33.46875, 33.34375, 33.21875, 33.15625, 33.1875, 33.1875, 33.1875, 33.09375, 32.96875, 32.78125, 32.65625, 32.5625, 32.5, 9.875, 9.583333, 9.1875, 8.4821424, 7.9642859, 6.7857141, 6.1642857, 6, 5.9285717, 6.125, 6.375, 6.625, 6.875, 7, 6.9375, 6.9017859, 6.875, 6.7053566, 7.0178571, 7.1875, 7.4732141, 7.5625, 7.7767859, 8.8809528, 10.071428, 10.660714, 10.9375, 10.8125, 10.6875, 10.4375, 10.3125, 10.25, 10.25, 10.25, 10.1875, 10.25, 10.375, 10.625, 10.8125, 10.6875, 10.625, 10.375, 10.25, 10.25, 10.0625, 10.0625, 10, 10.0625, 10.357143, 10.5, 10.6875, 10.6875, 10.5, 10.3125, 10.125, 10.125, 10.25, 10.540178, 11.177083, 11.776786, 12.678572, 13.476191, 13.803572, 14, 14.25, 14.375, 14.642857, 14.919643, 14.928572, 15.080357, 15.333333, 15.616072, 15.8125, 16, 16.25, 16.625, 16.982143, 17.25, 17.6875, 17.821428, 18.03125, 18.21875, 18.21875, 18.348215, 18.166666, 18.261904, 18.166666, 18.517859, 18.785715, 18.994047, 19.333334, 19.388887, -10, -10, 23.976191, 24.541666, 24.767857, 25.125, 25.5, 26.357143, 26.732143, 27, 27, 27, 27, 27.0625, 27.1875, 27.375, 27.625, 27.883928, 28.244047, 28.491072, 28.71875, 28.96875, 29.191963, 29.183037, 29.455357, 30.041668, 30.196428, 30.104166, 30.083334, 30.372025, 30.958334, 31.107143, 31.375, 31.5, 31.75, 32.25, 32.5625, 32.8125, 33.125, 33.375, 33.625, 33.875, 34, 33.9375, 33.9375, 34.089287, 34.419643, 34.866074, 35.40625, 35.65625, 35.90625, 35.96875, 36, 36.125, 36.25, 36.25, 36.3125, 36.455357, 36.6875, 36.9375, 37.1875, 37.3125, 37.5625, 37.875, 38.419643, 38.625, 39.017857, 39.357143, 39.616074, 39.758926, 40.172619, 40.535713, 40.803574, 41, 41, 40.875, 40.6875, 40.625, 40.275002, 39.642857, 39.505951, 39.642857, 40.035713, 40.46875, 40.78125, 41, 41.125, 41.330357, 41.645832, 41.678574, 42, 42.94643, 43.404762, 43.607143, 43.071426, 41.5, 40.839287, 40.25, 39.523811, 38.392857, 37.711311, 36.809525, 36.473213, 36.3125, 36.28125, 36.5, 36.379463, 36.017857, 35.620537, 35.25, 35.03125, 34.916668, -10, -10, -10
