29.6875, 29.6875, 29.6875, 29.6875, 29.625, 29.75, 29.5625, 29.3125, 29.482143, 29.958334, 30.044643, 30.25, 30.0625, 30, 30, 30, 30, 30, 30, 30, 30.125, 30.071428, 29.785715, 29.75, 29.6875, 29.857143, 30, 30.0625, 30.0625, 30.125, 30.125, 30.125, 30.125, 30.0625, 30, 30, 30, 30, 29.9375, 29.901787, 30.19643, 30.473215, 30.482143, 30.4375, 30.125, 30.089287, 30.357143, 30.553572, 30.5625, 30.375, 30.3125, 30.375, 30.625, 30.875, 30.875, 30.875, 30.9375, 30.910713, 30.892857, 30.916666, 31.083334, 31.107143, 31.125, 31.0625, 31, 31, 31, 31, 30.875, 30.75, 30.75, 30.75, 30.875, 31, 31, 31, 31, 31.0625, 31.1875, 31.083334, 30.645834, 30.513393, 30.46875, 30.65625, 30.96875, 31, 30.9375, 30.9375, 30.875, 30.9375, 31.0625, 31.1875, 31.25, 31.3125, 31.3125, 31.276787, 31.57143, 31.705357, 31.5625, 31.392857, 31.1875, 31.125, 31.25, 31.25, 31.25, 31.455357, 31.6875, 32, 32.1875, 32.0625, 32.0625, 31.875, 31.8125, 31.875, 31.875, 32, 32, 32, 32, 31.9375, 32, 32.0625, 32.0625, 32.0625, 32.0625, 32, 32.0625, 32.0625, 32.1875, 32.3125, 32.357143, 32.375, 32.5, 32.607143, 32.616074, 32.5, 32.5, 32.5625, 32.625, 32.5625, 32.642857, 32.75, 32.6875, 32.839287, 32.875, 32.9375, 33.0625, 33.0625, 33.1875, 33.0625, 33, 32.875, 32.625, 32.642857, 32.895832, 33.053574, 33.1875, 33.178574, 32.958332, 32.96875, 32.78125, 32.84375, 32.875, 32.8125, 32.9375, 32.9375, 32.9375, 33, 33, 33, 33, 33, 33, 33.0625, 33.1875, 33.169643, 33.0625, 33.0625, 32.9375, 33, 33, 33, 33, 33, 33, 33, 33, 33.125, 33.3125, 33.5, 33.625, 33.625, 33.4375, 33.25, 33.25, 33.3125, 33.5625, 33.8125, 33.9375, 34, 34, 34.0625, 34.0625, 34.0625, 34.0625, 34, 33.875, 33.875, 33.875, 33.875, 34, 34, 34, 34, 34, 34, 34, 34, 34, 34, 34, 34, 33.9375, 33.9375, 33.9375, 33.875, 33.75, 33.625, 33.625, 33.6875, 33.875, 34, 34, 34, 34.0625, 34.25, 34.375, 34.5625, 34.625, 34.6875, 34.75, 34.8125, 34.9375, 34.9375, 34.928574, 34.6875, 34.5625, 34.5, 34.5625, 34.625, 34.705357, 34.75, 34.6875, 34.6875, 34.6875, 34.75, 34.875, 34.875, 34.9375, 34.9375, 34.9375, 35.0625, 35.125, 35.107143, 35.125, 35.125, 35.0625, 35.125, 35, 35, 35, 34.875, 34.8125, 34.75, 34.75, 34.875, 34.9375, 35.0625, 35.0625, 35.0625, 35.0625, 35, 35, 35, 35, 35, 35.1875, 35.25, 35.25, 35.3125, 35.1875, 35.25, 35.446426, 35.708332, 35.708332, 35.392857, 35.151787, 35.053574, 35.133926, 35.107143, 35.214287, 35.419643, 35.553574, 35.794643, 35.9375, 36.044643, 36.0625, 36.0625, 36, 36, 35.9375, 35.9375, 35.9375, 35.9375, 36.0625, 36.0625, 36.125, 36.25, 36.375, 36.375, 36.3125, 36.1875, 36, 36, 36, 36, 36.125, 36.166664, -10, -10, -10, -10, -10, -10, -10, -10, -10, -10, -10, -10, -10, -10, -10, -10, -10, -10, -10, -10, -10, -10, -10, -10, 33, 33, 33, 32.75, 32.5, 32.25, 32, 31.9375, 31.8125, 31.5625, 31.3125, 31.125, 30.9375, 30.8125, 30.5, 30.017857, 29.803574, 29.71875, 29.53125, 29.46875, 29.21875, 29.0625, 29.25, 29.5, 29.75, 29.8125, 29.8125, 29.8125, 29.75, 29.875, 29.6875, 29.5, 29.598213, 29.8125, 29.9375, 30.125, 30, 30, 30, 30, 30, 30, 30, 30, 30.0625, 30.035713, 29.821428, 29.75, 29.75, 29.857143, 29.9375, 30, 30, 30, 30.0625, 30.0625, 30.0625, 30.0625, 30, 30, 30, 30, 29.9375, 29.901787, 30.13393, 30.276785, 30.107143, 30.0625, 29.75, 29.839287, 30.178572, 30.636906, 30.669643, 30.5, 30.4375, 30.4375, 30.6875, 30.9375, 30.8125, 30.8125, 30.8125, 30.8125, 31.0625, 31.0625, 31.0625, 31.0625, 31, 31, 31, 31, 31, 31, 30.9375, 30.8125, 30.8125, 30.8125, 30.875, 31, 31, 30.9375, 30.875, 30.875, 30.875, 30.75, 30.625, 30.59375, 30.59375, 30.78125, 31.03125, 31.0625, 31.0625, 31.0625, 30.9375, 30.875, 30.875, 30.9375, 31.0625, 31.1875, 31.25, 31.339287, 31.607143, 31.607143, 31.5, 31.267857, 31.125, 31.125, 31.125, 31.125, 31.1875, 31.4375, 31.75, 32, 32.125, 32.0625, 32.0625, 31.9375, 31.875, 31.875, 31.875, 32, 32, 32, 32, 31.9375, 32, 32.0625, 32.0625, 32.0625, 32.0625, 32, 32, 32, 32.0625, 32.1875, 32.3125, 32.4375, 32.5625, 32.625, 32.553574, 32.4375, 32.375, 32.375, 32.5625, 32.5625, 32.705357, 32.875, 32.75, 32.839287, 32.875, 32.9375, 33.0625, 33.0625, 33.25, 33.098213, 32.892857, 32.830357, 32.625, 32.6875, 32.8125, 32.875, 32.875, 32.875, 32.875, 32.875, 32.8125, 32.875, 32.9375, 32.9375, 33.0625, 33.0625, 33, 33, 33, 33, 33, 33, 33, 33.0625, 33.25, 33.205357, 33.026787, 33.0625, 32.875, 33, 33, 33, 33, 33, 33, 33, 33, 33.0625, 33.1875, 33.3125, 33.4375, 33.5, 33.375, 33.3125, 33.375, 33.5, 33.75, 33.9375, 34, 34, 34, 34.0625, 34, 34, 34, 33.9375, 33.875, 33.875, 33.875, 33.875, 34, 34, 34, 34, 34, 34, 34, 34, 34, 34, 34, 34, 33.9375, 33.9375, 33.9375, 33.875, 33.75, 33.625, 33.625, 33.75, 33.9375, 34.0625, 34.0625, 34, 33.9375, 34.0625, 34.125, 34.25, 34.4375, 34.5625, 34.625, 34.75, 34.875, 34.875, 34.928574, 34.6875, 34.625, 34.625, 34.75, 34.875, 34.892857, 34.875, 34.8125, 34.78125, 34.90625, 34.96875, 35.03125, 35.0625, 35, 35, 35, 35, 35.0625, 35.0625, 35.1875, 35.1875, 35.125, 35.125, 35, 35, 35, 34.875, 34.75, 34.5625, 34.5, 34.625, 34.75, 34.9375, 35, 35, 35, 35, 35.0625, 35.0625, 35.0625, 35.125, 35.25, 35.3125, 35.3125, 35.3125, 35.1875, 35.25, 35.4375, 35.5, 35.5625, 35.517857, 35.375, 35.25, 35.125, 35, 35, 35.0625, 35.0625, 35.294643, 35.5, 35.732143, 35.9375, 36, 36, 36, 35.9375, 35.9375, 35.9375, 35.9375, 36, 36, 36, 36.0625, 36.1875, 36.1875, 36.1875, 36.125, 36.0625, 36.1875, 36.25, 36.142857, 36.125, 36.083332, -10, -10, -10
29.6875, 29.8125, 29.875, 29.875, 29.875, 29.875, 29.6875, 29.5, 29.526785, 29.8125, 29.9375, 30.125, 30, 30, 30, 30, 30, 30, 30, 30, 30, 30, 30, 30, 30, 30, 30, 30, 30, 30.0625, 30.1875, 30.25, 30.25, 30.1875, 30.0625, 30, 30, 30, 30, 29.9375, 30.026787, 30.098215, 29.919643, 30, 29.8125, 29.964287, 30.241072, 30.574406, 30.544643, 30.375, 30.375, 30.375, 30.625, 30.875, 30.75, 30.8125, 30.8125, 30.8125, 31.0625, 31.0625, 31.0625, 31.0625, 31, 30.9375, 30.9375, 30.9375, 30.9375, 31, 31, 31, 31, 31, 31, 31, 31, 30.9375, 30.8125, 30.8125, 30.8125, 30.6875, 30.6875, 30.65625, 30.65625, 30.84375, 30.96875, 31, 31, 31, 30.9375, 30.875, 30.875, 31, 31.125, 31.25, 31.3125, 31.339287, 31.544643, 31.544643, 31.4375, 31.205357, 31.125, 31.125, 31.0625, 31.0625, 31.125, 31.357143, 31.625, 31.9375, 32.0625, 32.0625, 32.0625, 31.9375, 31.875, 31.875, 31.875, 31.9375, 32, 32, 32, 31.9375, 31.875, 32, 32, 32.0625, 32.125, 32, 32, 32.0625, 32.0625, 32.125, 32.1875, 32.1875, 32.339287, 32.544643, 32.473213, 32.375, 32.25, 32.1875, 32.4375, 32.5, 32.705357, 32.9375, 32.875, 32.901787, 32.9375, 33, 33.0625, 33.0625, 33.1875, 33.035713, 32.830357, 32.830357, 32.75, 32.8125, 32.875, 32.8125, 32.6875, 32.625, 32.6875, 32.75, 32.8125, 32.9375, 33.0625, 33.125, 33.25, 33.25, 33.125, 33.0625, 33, 33, 33, 33, 33, 33.0625, 33.25, 33.205357, 33.026787, 33.0625, 32.875, 33, 33, 33, 33, 33, 33, 33, 33, 33, 33.0625, 33.125, 33.1875, 33.25, 33.1875, 33.25, 33.375, 33.5625, 33.8125, 33.875, 33.9375, 33.9375, 33.9375, 34, 33.875, 33.875, 33.875, 33.875, 33.9375, 33.9375, 33.9375, 33.9375, 34, 34, 34, 34, 34, 34, 34, 34, 34, 34, 34, 34, 34, 34.0625, 34.0625, 34, 33.875, 33.75, 33.75, 33.875, 34, 34.0625, 34.125, 34.125, 34.125, 34.178574, 34.0625, 34.1875, 34.3125, 34.5, 34.5625, 34.6875, 34.8125, 34.875, 34.928574, 34.8125, 34.8125, 34.875, 35.125, 35.1875, 35.142857, 35.0625, 34.9375, 34.90625, 35.03125, 35.09375, 35.09375, 35.0625, 35, 35, 35, 35, 35.125, 35.125, 35.1875, 35.1875, 35.0625, 35.0625, 35, 35, 35, 34.9375, 34.875, 34.6875, 34.625, 34.6875, 34.75, 34.9375, 35, 35, 35, 35, 35.0625, 35.0625, 35.0625, 35.1875, 35.375, 35.4375, 35.4375, 35.3125, 35.0625, 35, 35.125, 35.1875, 35.3125, 35.4375, 35.3125, 35.25, 35.125, 35, 35.0625, 35.0625, 34.9375, 35, 35.0625, 35.357143, 35.6875, 35.875, 35.9375, 35.875, 35.8125, 35.8125, 35.875, 35.9375, 36, 36, 36, 35.9375, 36, 36, 36, 36.0625, 36.0625, 36.1875, 36.1875, 36.017857, 35.9375, 35.833332, -10, -10, -10, -10, -10, -10, -10, -10, -10, -10, -10, -10, -10, -10, -10, -10, -10, -10, -10, -10, -10, -10, -10, -10, 33, 33, 33, 32.75, 32.5, 32.25, 32, 31.9375, 31.6875, 31.4375, 31.1875, 31, 30.9375, 30.8125, 30.5625, 30.142857, 29.964287, 29.84375, 29.59375, 29.46875, 29.21875, 29, 29.0625, 29.3125, 29.5, 29.6875, 29.8125, 29.75, 29.8125, 29.75, 29.5625, 29.4375, 29.455357, 29.8125, 29.9375, 30.125, 30, 30, 30, 30, 29.9375, 29.9375, 29.9375, 29.9375, 30, 30, 30.0625, 30.0625, 30.0625, 30.0625, 30, 30, 30, 30.125, 30.25, 30.3125, 30.3125, 30.1875, 30.0625, 30.0625, 30.0625, 30.0625, 30.0625, 30.0625, 30.25, 30.241072, 29.955357, 30.017857, 29.875, 30.089287, 30.303572, 30.511906, 30.419643, 30.25, 30.3125, 30.3125, 30.5, 30.75, 30.75, 30.910713, 30.9375, 30.875, 31, 31, 31, 31.0625, 31.0625, 31, 31, 31, 30.9375, 31, 31, 31.0625, 31.0625, 31.0625, 31.0625, 31, 31, 30.9375, 30.8125, 30.8125, 30.8125, 30.75, 30.8125, 30.78125, 30.78125, 30.90625, 30.96875, 31.0625, 31.125, 31.1875, 31.125, 31, 31, 31.125, 31.25, 31.375, 31.3125, 31.214287, 31.357143, 31.294643, 31.25, 31.080357, 31, 31, 31, 31.0625, 31.25, 31.544643, 31.75, 31.9375, 32, 32, 32, 32, 32, 32, 31.9375, 31.875, 31.875, 31.875, 31.875, 31.8125, 31.6875, 31.75, 31.8125, 31.9375, 32.0625, 32, 32, 32, 32.026787, 32.160713, 32.25, 32.3125, 32.401787, 32.607143, 32.544643, 32.625, 32.4375, 32.3125, 32.4375, 32.4375, 32.5625, 32.75, 32.75, 32.75, 32.8125, 32.875, 32.9375, 33, 33.125, 32.910713, 32.705357, 32.642857, 32.625, 32.75, 32.8125, 32.875, 32.8125, 32.75, 32.8125, 32.8125, 32.875, 32.9375, 33.0625, 33.1875, 33.25, 33.3125, 33.1875, 33.0625, 33, 33, 33, 33, 33, 33.0625, 33.1875, 33.142857, 32.964287, 33, 32.875, 33, 33.0625, 33.0625, 33.0625, 33.0625, 33.0625, 33.0625, 33.0625, 33.125, 33.125, 33.1875, 33.25, 33.25, 33.1875, 33.3125, 33.4375, 33.625, 33.875, 33.875, 33.9375, 33.9375, 33.9375, 34, 33.875, 33.875, 33.875, 33.875, 34, 34, 34, 34, 34, 34, 34, 34, 34, 34, 34, 34, 34, 34, 34, 34, 34, 34.0625, 34.0625, 34, 33.9375, 33.8125, 33.8125, 33.9375, 34, 34.0625, 34.125, 34.1875, 34.25, 34.285713, 33.979168, 33.946426, 33.9375, 34.0625, 34.125, 34.375, 34.669643, 34.8125, 35, 35.0625, 35.0625, 35.1875, 35.3125, 35.375, 35.267857, 35.125, 35, 34.90625, 35.03125, 35.09375, 35.09375, 35.0625, 35, 35, 34.928574, 34.75, 34.946426, 35.166668, 35.208332, 35.041668, 34.821426, 34.8125, 34.875, 34.9375, 35, 35, 35, 34.875, 34.875, 34.875, 34.9375, 35.125, 35.1875, 35.25, 35.1875, 35.125, 35.125, 35.0625, 35.0625, 35.1875, 35.3125, 35.3125, 35.3125, 35.1875, 35, 35.0625, 35.1875, 35.25, 35.375, 35.4375, 35.3125, 35.3125, 35.1875, 35.0625, 35.125, 35.0625, 34.9375, 34.9375, 34.9375, 35.232143, 35.5625, 35.8125, 35.9375, 35.8125, 35.75, 35.75, 35.8125, 35.9375, 36, 36, 36, 35.9375, 35.875, 35.875, 35.875, 35.875, 36, 36.0625, 36.0625, 35.955357, 35.8125, 35.75, -10, -10, -10
29.3125, 29.4375, 29.5625, 29.5, 29.5625, 29.5625, 29.5, 29.5, 29.580357, 29.875, 29.875, 30, 29.875, 29.9375, 30, 30.0625, 29.973213, 29.901787, 30, 29.973213, 30.0625, 30.0625, 30.0625, 30.0625, 30.0625, 30, 29.9375, 29.9375, 29.9375, 30.125, 30.25, 30.3125, 30.3125, 30.1875, 30.0625, 30.125, 30.125, 30.125, 30.125, 30.125, 30.25, 30.241072, 29.955357, 29.955357, 29.9375, 30.125, 30.196428, 30.333334, 30.232143, 30.125, 30.1875, 30.25, 30.4375, 30.6875, 30.8125, 30.973213, 31, 30.875, 30.9375, 30.9375, 30.875, 31, 31.0625, 31.035713, 31.0625, 31.0625, 30.9375, 31, 31, 31.0625, 31.0625, 31.0625, 31.0625, 31, 31, 30.9375, 30.8125, 30.8125, 30.8125, 30.875, 31, 31, 31.0625, 31.0625, 31.0625, 31.1875, 31.25, 31.3125, 31.25, 31.125, 31.125, 31.25, 31.3125, 31.375, 31.25, 31.0625, 31.0625, 30.9375, 30.9375, 30.9375, 31, 31.0625, 31.125, 31.25, 31.375, 31.669643, 31.8125, 31.875, 31.9375, 31.9375, 31.9375, 32, 32, 32, 31.9375, 31.875, 31.875, 31.875, 31.875, 31.8125, 31.6875, 31.6875, 31.75, 31.875, 32.0625, 32.0625, 32, 32, 32.13393, 32.339287, 32.4375, 32.4375, 32.464287, 32.669643, 32.669643, 32.6875, 32.5, 32.25, 32.25, 32.25, 32.4375, 32.6875, 32.6875, 32.6875, 32.625, 32.5625, 32.625, 32.75, 32.875, 32.785713, 32.642857, 32.580357, 32.625, 32.75, 32.8125, 32.875, 32.8125, 32.75, 32.8125, 32.8125, 32.875, 32.9375, 33.125, 33.25, 33.25, 33.276787, 33.125, 33, 33, 33, 33, 33, 33, 33, 33.0625, 33.035713, 32.964287, 33, 32.9375, 33, 33.125, 33.125, 33.125, 33.125, 33.125, 33.1875, 33.1875, 33.25, 33.25, 33.3125, 33.375, 33.4375, 33.375, 33.5, 33.625, 33.6875, 33.8125, 33.6875, 33.75, 33.8125, 33.875, 33.9375, 33.75, 33.75, 33.75, 33.8125, 34, 34, 34, 34, 34, 34, 34, 34, 34, 34, 34, 34, 34, 34, 34, 34, 34, 34.0625, 34.0625, 34.0625, 34.0625, 33.9375, 33.9375, 34, 34, 34.0625, 34.125, 34.1875, 34.25, 34.223213, 33.854168, 33.821426, 33.785713, 33.839287, 33.9375, 34.1875, 34.544643, 34.75, 35, 35.0625, 35.0625, 35.125, 35.25, 35.375, 35.375, 35.3125, 35.1875, 35.03125, 35.09375, 35.09375, 35.09375, 35.0625, 35, 35, 34.866074, 34.625, 34.821426, 35.104168, 35.315475, 35.148811, 34.821426, 34.8125, 34.8125, 34.9375, 35, 35.0625, 35.0625, 35, 35, 34.9375, 35.0625, 35.25, 35.375, 35.5, 35.375, 35.25, 35.125, 34.9375, 34.875, 34.9375, 35.0625, 35.125, 35.1875, 35.125, 35, 35.0625, 35.1875, 35.25, 35.3125, 35.3125, 35.1875, 35.125, 35.0625, 35.0625, 35.232143, 35.1875, 35.125, 35.0625, 35, 35.25, 35.5625, 35.8125, 35.9375, 35.8125, 35.75, 35.776787, 35.982143, 36.107143, 36.125, 36.0625, 36, 35.875, 35.75, 35.75, 35.75, 35.8125, 36, 36.125, 36.125, 36.017857, 35.8125, 35.666668, -10, -10, -10, -10, -10, -10, -10, -10, -10, -10, -10, -10, -10, -10, -10, -10, -10, -10, -10, -10, -10, -10, -10, -10, 33, 33, 32.9375, 32.6875, 32.4375, 32.1875, 32, 31.9375, 31.6875, 31.4375, 31.1875, 31, 30.9375, 30.875, 30.6875, 30.3125, 29.982143, 29.875, 29.6875, 29.5625, 29.375, 29.0625, 28.964287, 29.232143, 29.366072, 29.4375, 29.4375, 29.3125, 29.375, 29.4375, 29.5, 29.5625, 29.642857, 29.9375, 29.875, 30, 29.875, 29.9375, 30, 30.0625, 29.973213, 29.901787, 30, 29.973213, 30.0625, 30.0625, 30.0625, 30.0625, 30.0625, 29.9375, 29.875, 29.875, 29.875, 30.1875, 30.3125, 30.375, 30.3125, 30.125, 30, 30.0625, 30.125, 30.0625, 30, 29.9375, 30.0625, 30.1875, 30.142857, 30.267857, 30.3125, 30.4375, 30.4375, 30.25, 30.1875, 30.0625, 30.125, 30.25, 30.375, 30.5625, 30.75, 30.848213, 30.8125, 30.75, 30.75, 30.8125, 30.75, 30.8125, 30.875, 30.848213, 30.9375, 31, 30.9375, 31, 31, 31.0625, 31.0625, 31.0625, 31.0625, 31, 31, 31.0625, 31, 31, 31, 31, 31, 31, 31.0625, 31, 31.0625, 31.1875, 31.25, 31.3125, 31.3125, 31.25, 31.25, 31.375, 31.4375, 31.5, 31.375, 31.1875, 31.125, 31, 31, 31, 31.0625, 31.125, 31.3125, 31.5, 31.625, 31.8125, 31.875, 31.9375, 32, 32, 32, 32, 32, 32, 31.9375, 31.9375, 32, 32, 32, 31.875, 31.6875, 31.6875, 31.8125, 32, 32.25, 32.3125, 32.25, 32.25, 32.32143, 32.401787, 32.5, 32.5, 32.464287, 32.669643, 32.607143, 32.5, 32.375, 32.1875, 32.125, 32.1875, 32.3125, 32.5625, 32.5625, 32.5, 32.5, 32.4375, 32.5625, 32.6875, 32.75, 32.6875, 32.6875, 32.6875, 32.75, 32.8125, 32.8125, 32.875, 32.875, 32.875, 32.9375, 32.9375, 32.9375, 32.9375, 33.0625, 33.125, 33.125, 33.151787, 33.0625, 33, 33, 33, 33, 33, 33.0625, 33.0625, 33.0625, 33.0625, 33, 33, 33, 33, 33.125, 33.125, 33.125, 33.125, 33.1875, 33.3125, 33.3125, 33.375, 33.3125, 33.3125, 33.4375, 33.5625, 33.5625, 33.6875, 33.75, 33.6875, 33.6875, 33.5, 33.5, 33.625, 33.75, 33.875, 33.8125, 33.8125, 33.8125, 33.875, 34, 34, 34, 34, 34, 34, 34, 34, 34, 34, 34, 34, 34, 34.0625, 34.0625, 34.0625, 34.0625, 34.0625, 34.0625, 34.0625, 34.0625, 33.9375, 33.9375, 33.9375, 33.9375, 34, 34.125, 34.25, 34.375, 34.348213, 33.854168, 33.758926, 33.660713, 33.651787, 33.8125, 34.125, 34.482143, 34.75, 35, 35, 34.9375, 34.9375, 35, 35.125, 35.1875, 35.1875, 35.125, 35, 35, 35, 35, 35, 34.9375, 34.964287, 34.866074, 34.446426, 34.651787, 34.916668, 35.252975, 35.148811, 34.883926, 34.875, 34.8125, 34.9375, 35, 35.0625, 35.0625, 35.0625, 35.0625, 35, 35.125, 35.3125, 35.5, 35.6875, 35.5625, 35.375, 35.125, 34.9375, 34.9375, 34.919643, 34.9375, 35, 35, 35.0625, 35, 35.0625, 35.125, 35.1875, 35.25, 35.1875, 35.125, 35.0625, 35, 35.125, 35.357143, 35.375, 35.4375, 35.375, 35.3125, 35.5, 35.6875, 35.875, 35.9375, 35.8125, 35.75, 35.839287, 36.107143, 36.232143, 36.25, 36.125, 35.9375, 35.75, 35.5625, 35.5, 35.5, 35.625, 35.8125, 35.875, 35.9375, 35.9375, 35.875, 35.833332, -10, -10, -10
29.366072, 29.3125, 29.25, 29.1875, 29.3125, 29.5, 29.625, 29.75, 29.821428, 29.9375, 29.875, 29.9375, 29.875, 29.9375, 30, 30.0625, 29.973213, 29.901787, 30, 29.973213, 30.0625, 30.0625, 30.0625, 30.0625, 30.0625, 29.9375, 29.875, 29.875, 29.9375, 30.1875, 30.3125, 30.375, 30.3125, 30.1875, 30, 29.955357, 30, 29.9375, 30, 30.0625, 30.1875, 30.3125, 30.205357, 30.267857, 30.25, 30.3125, 30.3125, 30.125, 30.1875, 30.1875, 30.25, 30.375, 30.375, 30.4375, 30.5625, 30.598213, 30.625, 30.625, 30.6875, 30.8125, 30.75, 30.75, 30.8125, 30.785713, 30.875, 31, 30.9375, 31, 31, 31, 31, 31, 31, 30.9375, 30.875, 30.9375, 30.9375, 31, 31.0625, 31, 30.9375, 31, 31.098213, 31.0625, 31.125, 31.25, 31.3125, 31.375, 31.4375, 31.3125, 31.3125, 31.375, 31.375, 31.5, 31.375, 31.25, 31.1875, 31.0625, 31.0625, 31.0625, 31.1875, 31.25, 31.5, 31.75, 31.875, 31.9375, 31.9375, 31.9375, 31.9375, 32, 32, 32, 32, 32, 31.9375, 32, 32.0625, 32.0625, 32.0625, 31.9375, 31.8125, 31.8125, 31.9375, 32.125, 32.375, 32.5, 32.5, 32.4375, 32.50893, 32.526787, 32.5625, 32.625, 32.5, 32.5625, 32.5, 32.375, 32.3125, 32.1875, 32.0625, 32.125, 32.1875, 32.375, 32.4375, 32.3125, 32.375, 32.375, 32.4375, 32.625, 32.75, 32.75, 32.875, 32.875, 32.875, 32.9375, 32.9375, 33.0625, 33.125, 33.125, 33.125, 33.0625, 33, 32.9375, 33, 33, 32.9375, 32.964287, 32.9375, 32.875, 32.9375, 33, 33.107143, 33.125, 33.1875, 33.125, 33.0625, 33.0625, 33, 33, 33, 33, 33.0625, 33.0625, 33, 33, 33.1875, 33.348213, 33.375, 33.4375, 33.3125, 33.3125, 33.5, 33.625, 33.6875, 33.8125, 33.8125, 33.75, 33.6875, 33.5, 33.4375, 33.5625, 33.6875, 33.875, 33.9375, 33.9375, 33.9375, 33.9375, 34, 34, 34, 34, 33.9375, 33.9375, 33.9375, 33.9375, 34, 34, 34, 34, 34.0625, 34.1875, 34.1875, 34.1875, 34.125, 34, 34, 34, 34, 33.9375, 33.9375, 33.9375, 33.9375, 34, 34.125, 34.1875, 34.25, 34.294643, 33.947918, 33.883926, 33.785713, 33.651787, 33.78125, 34, 34.357143, 34.625, 34.875, 34.8125, 34.8125, 34.8125, 34.8125, 35, 35.0625, 35.0625, 35.0625, 35, 35, 35, 35, 35, 34.875, 34.776787, 34.58036, 34.133926, 34.339287, 34.791668, 35.226189, 35.211311, 34.991074, 34.839287, 34.8125, 34.875, 35, 35, 35, 35.0625, 35.0625, 35.0625, 35.1875, 35.3125, 35.5, 35.6875, 35.5625, 35.375, 35.125, 35, 35.0625, 34.982143, 34.9375, 34.9375, 34.875, 35, 35, 35.0625, 35.0625, 35.125, 35.25, 35.25, 35.3125, 35.25, 35.0625, 35.125, 35.401787, 35.491074, 35.625, 35.5625, 35.5625, 35.6875, 35.8125, 35.9375, 36, 35.9375, 35.875, 35.964287, 36.169643, 36.232143, 36.25, 36.125, 35.875, 35.6875, 35.4375, 35.3125, 35.375, 35.5625, 35.848213, 36, 36.1875, 36.1875, 36.1875, 36.166664, -10, -10, -10, -10, -10, -10, -10, -10, -10, -10, -10, -10, -10, -10, -10, -10, -10, -10, -10, -10, -10, -10, -10, -10, 33, 33, 32.875, 32.625, 32.375, 32.125, 32, 31.9375, 31.6875, 31.4375, 31.1875, 31, 31, 30.9375, 30.6875, 30.3125, 29.857143, 29.75, 29.625, 29.5, 29.375, 29.1875, 29.214287, 29.419643, 29.553572, 29.5, 29.4375, 29.4375, 29.5, 29.6875, 29.8125, 29.9375, 30, 29.9375, 29.875, 29.875, 29.875, 29.9375, 30, 30.0625, 30.035713, 29.964287, 30.0625, 30.035713, 30.0625, 30.0625, 30, 30, 30, 29.875, 29.8125, 29.8125, 29.875, 30.0625, 30.1875, 30.25, 30.1875, 30.125, 30, 29.892857, 29.875, 29.8125, 29.9375, 30.107143, 30.125, 30.1875, 30.125, 30.125, 30.125, 30.1875, 30.1875, 30.0625, 30.25, 30.3125, 30.375, 30.5, 30.4375, 30.375, 30.375, 30.3125, 30.375, 30.5, 30.6875, 30.875, 30.8125, 30.75, 30.6875, 30.598213, 30.6875, 30.8125, 30.875, 31, 31, 31, 31, 31, 31, 31, 30.9375, 31, 31, 31, 31.0625, 31.0625, 31.0625, 31.125, 31.223213, 31.125, 31.125, 31.1875, 31.1875, 31.1875, 31.25, 31.1875, 31.1875, 31.1875, 31.214287, 31.482143, 31.419643, 31.375, 31.25, 31.0625, 31.133928, 31.3125, 31.4375, 31.5625, 31.625, 31.8125, 31.9375, 32.044643, 32.044643, 31.9375, 31.875, 31.875, 32, 32.071426, 32.09375, 32.09375, 32.03125, 32.0625, 32.125, 32.125, 32.125, 32.0625, 32, 32, 32.0625, 32.1875, 32.4375, 32.625, 32.607143, 32.5, 32.544643, 32.428574, 32.5, 32.4375, 32.3125, 32.3125, 32.25, 32.125, 32.125, 32.0625, 31.9375, 32, 32.0625, 32.1875, 32.3125, 32.25, 32.3125, 32.3125, 32.3125, 32.5, 32.625, 32.75, 32.9375, 33, 33, 33, 33, 33, 33, 33, 33, 33, 33, 33, 33.125, 33.098213, 32.964287, 32.964287, 32.875, 32.875, 32.9375, 33, 33.169643, 33.1875, 33.25, 33.1875, 33.0625, 33.0625, 33, 33, 33, 33, 33, 33, 32.9375, 33, 33.25, 33.410713, 33.4375, 33.375, 33.1875, 33.125, 33.25, 33.375, 33.5625, 33.75, 33.875, 33.875, 33.75, 33.5625, 33.4375, 33.625, 33.75, 33.9375, 34, 33.9375, 33.875, 33.875, 33.9375, 33.9375, 34, 33.9375, 33.8125, 33.8125, 33.8125, 33.875, 33.9375, 33.964287, 34.035713, 34.0625, 34.25, 34.3125, 34.3125, 34.25, 34.125, 34, 34, 34, 34, 34, 34, 34, 34, 34, 34.1875, 34.1875, 34.1875, 34.25, 34.03125, 34.0625, 34.035713, 33.901787, 33.96875, 34.0625, 34.25, 34.4375, 34.6875, 34.625, 34.6875, 34.6875, 34.6875, 34.875, 34.9375, 35, 35, 35, 35, 35, 35, 35, 34.875, 34.714287, 34.589287, 34.258926, 34.392857, 34.6875, 35.080357, 35.294643, 35.169643, 35.026787, 34.9375, 34.9375, 35, 35, 35, 35.125, 35.1875, 35.1875, 35.25, 35.25, 35.375, 35.5, 35.4375, 35.3125, 35.0625, 35.0625, 35.1875, 35.169643, 35.1875, 35.1875, 35.0625, 35.125, 35.0625, 35, 35, 35.125, 35.3125, 35.375, 35.5, 35.375, 35.125, 35.1875, 35.464287, 35.553574, 35.625, 35.5625, 35.669643, 35.803574, 35.9375, 36, 36, 36, 35.9375, 36.026787, 36.232143, 36.232143, 36.25, 36.125, 35.875, 35.6875, 35.4375, 35.25, 35.3125, 35.5625, 35.848213, 36.125, 36.3125, 36.25, 36.3125, 36.25, -10, -10, -10
29.741072, 29.6875, 29.625, 29.5625, 29.5625, 29.625, 29.6875, 29.8125, 29.875, 29.9375, 30, 30, 30, 30, 30, 30, 30, 30, 30, 30, 30, 30, 30, 30, 30, 29.9375, 29.875, 29.875, 29.9375, 30.0625, 30.1875, 30.25, 30.1875, 30.125, 30, 29.830357, 29.8125, 29.75, 29.875, 30.044643, 30.0625, 30.125, 30.0625, 30.125, 30.125, 30.1875, 30.25, 30.125, 30.3125, 30.4375, 30.5, 30.5625, 30.5, 30.3125, 30.1875, 30.125, 30.1875, 30.4375, 30.625, 30.875, 30.875, 30.6875, 30.5625, 30.375, 30.375, 30.5, 30.6875, 30.875, 30.9375, 31, 31, 31, 31, 31, 30.9375, 31, 31, 31, 31, 30.9375, 30.9375, 31, 31.098213, 31.125, 31.1875, 31.1875, 31.1875, 31.125, 31.125, 31.0625, 31.0625, 31, 31.026787, 31.357143, 31.357143, 31.375, 31.25, 31.0625, 31.071428, 31.25, 31.3125, 31.4375, 31.5, 31.6875, 31.9375, 32.151787, 32.169643, 32.0625, 31.875, 31.8125, 31.875, 31.946428, 32.03125, 31.96875, 31.96875, 32, 32.0625, 32.125, 32.125, 32.0625, 32, 32, 32.0625, 32.1875, 32.4375, 32.598213, 32.57143, 32.5625, 32.544643, 32.4375, 32.4375, 32.3125, 32.1875, 32.125, 32.0625, 32, 32, 32.0625, 32, 32.0625, 32.125, 32.1875, 32.3125, 32.25, 32.3125, 32.3125, 32.3125, 32.4375, 32.5, 32.5625, 32.6875, 32.8125, 32.875, 32.9375, 33, 33, 33, 33, 33, 33, 33.0625, 33.125, 33.25, 33.214287, 32.964287, 33, 32.875, 32.9375, 32.9375, 33, 33.169643, 33.1875, 33.25, 33.1875, 33.0625, 33.0625, 33, 32.9375, 32.875, 32.875, 32.75, 32.8125, 32.8125, 32.875, 33.1875, 33.285713, 33.3125, 33.3125, 33.125, 33.0625, 33.1875, 33.25, 33.5, 33.75, 33.875, 33.9375, 33.875, 33.75, 33.625, 33.75, 33.8125, 33.9375, 34.0625, 33.9375, 33.8125, 33.8125, 33.8125, 33.875, 33.9375, 33.8125, 33.6875, 33.6875, 33.75, 33.875, 33.9375, 33.901787, 33.910713, 33.9375, 34.1875, 34.419643, 34.4375, 34.375, 34.1875, 34, 34, 34, 34.0625, 34.125, 34.1875, 34.1875, 34.125, 34.0625, 34.25, 34.3125, 34.3125, 34.375, 34.09375, 34.0625, 34.0625, 34, 34.09375, 34.1875, 34.25, 34.375, 34.5625, 34.5, 34.625, 34.6875, 34.6875, 34.875, 34.9375, 35, 35, 35, 34.9375, 34.9375, 34.9375, 34.9375, 34.875, 34.714287, 34.651787, 34.383926, 34.455357, 34.6875, 34.910713, 35.125, 35.169643, 35.026787, 35, 34.9375, 35, 34.9375, 34.875, 35.017857, 35.270832, 35.294643, 35.3125, 35.1875, 35.25, 35.375, 35.375, 35.3125, 35.125, 35.25, 35.5, 35.607143, 35.5625, 35.4375, 35.1875, 35.125, 35.0625, 35, 35, 35.1875, 35.4375, 35.5625, 35.75, 35.6875, 35.375, 35.3125, 35.419643, 35.428574, 35.5625, 35.625, 35.794643, 35.928574, 36, 36, 36, 36, 36, 36.0625, 36.125, 36.125, 36.1875, 36.098213, 35.875, 35.857143, 35.5, 35.267857, 35.3125, 35.5, 35.785713, 36.0625, 36.25, 36.1875, 36.25, 36.25, -10, -10, -10, -10, -10, -10, -10, -10, -10, -10, -10, -10, -10, -10, -10, -10, -10, -10, -10, -10, -10, -10, -10, -10, -10, 32.875, 32.6875, 32.5, 32.25, 32.0625, 32, 31.875, 31.625, 31.375, 31.125, 31, 31, 30.9375, 30.6875, 30.4375, 30.125, 29.9375, 29.75, 29.625, 29.5625, 29.5625, 29.6875, 29.75, 29.8125, 29.75, 29.75, 29.75, 29.75, 29.6875, 29.625, 29.6875, 29.75, 29.875, 30, 30, 30, 30, 30, 30, 30, 30, 30, 30, 30, 30, 30, 30, 30, 30, 29.9375, 29.9375, 29.9375, 29.875, 30, 30.0625, 30.125, 30.25, 30.125, 29.955357, 29.875, 29.8125, 30, 30.294643, 30.3125, 30.3125, 30.125, 30, 29.9375, 30, 30.125, 30.0625, 30.3125, 30.5, 30.625, 30.6875, 30.625, 30.375, 30.1875, 30.125, 30.25, 30.4375, 30.5625, 30.75, 30.6875, 30.5625, 30.5, 30.3125, 30.3125, 30.5, 30.723213, 30.9375, 31, 31, 31, 31, 31, 31, 30.9375, 31, 31.0625, 31.125, 31.125, 31.0625, 31.0625, 31.0625, 31.223213, 31.25, 31.25, 31.25, 31.1875, 31.125, 31.125, 31.0625, 31.0625, 31, 30.964287, 31.232143, 31.169643, 31.1875, 31.125, 31.0625, 31.107143, 31.214287, 31.3125, 31.3125, 31.375, 31.5625, 31.875, 32.1875, 32.232143, 32.125, 31.8125, 31.6875, 31.6875, 31.696428, 31.78125, 31.71875, 31.78125, 31.8125, 31.875, 32, 32, 32, 32, 32.0625, 32.0625, 32.1875, 32.4375, 32.473213, 32.44643, 32.4375, 32.482143, 32.5, 32.5625, 32.375, 32.1875, 32.0625, 32, 32, 32, 32.0625, 32, 32, 32.125, 32.1875, 32.375, 32.375, 32.3125, 32.25, 32.125, 32.25, 32.3125, 32.375, 32.571426, 32.8125, 32.875, 33, 33, 33, 33, 33, 33, 33, 33.0625, 33.1875, 33.375, 33.401787, 33.151787, 33.125, 32.9375, 32.9375, 32.9375, 33, 33.232143, 33.3125, 33.3125, 33.25, 33.0625, 33, 33, 32.875, 32.839287, 32.982143, 32.857143, 32.9375, 32.875, 32.875, 33.125, 33.160713, 33.1875, 33.25, 33.125, 33.0625, 33.089287, 33.125, 33.419643, 33.6875, 33.875, 34, 33.9375, 33.8125, 33.75, 33.8125, 33.875, 34, 34.0625, 33.875, 33.6875, 33.6875, 33.6875, 33.8125, 33.875, 33.6875, 33.5625, 33.5625, 33.6875, 33.875, 33.9375, 33.839287, 33.785713, 33.8125, 34.125, 34.464287, 34.5625, 34.5, 34.25, 34.0625, 34, 34, 34.0625, 34.125, 34.1875, 34.1875, 34.125, 34.0625, 34.1875, 34.25, 34.25, 34.3125, 34.15625, 34.1875, 34.1875, 34.125, 34.15625, 34.1875, 34.25, 34.375, 34.5625, 34.5, 34.625, 34.625, 34.625, 34.8125, 34.875, 35, 35, 34.9375, 34.8125, 34.8125, 34.8125, 34.84375, 34.84375, 34.65625, 34.558037, 34.5, 34.5, 34.75, 34.848213, 35, 35.107143, 34.964287, 35, 34.9375, 35, 34.9375, 34.875, 35.080357, 35.333332, 35.357143, 35.375, 35.125, 35.125, 35.25, 35.25, 35.25, 35.125, 35.1875, 35.375, 35.5, 35.5625, 35.4375, 35.3125, 35.1875, 35.125, 35.0625, 35, 35.1875, 35.4375, 35.625, 35.875, 35.875, 35.625, 35.5, 35.544643, 35.491074, 35.5625, 35.625, 35.794643, 35.928574, 36, 36, 36, 36, 36, 36, 36, 35.9375, 36, 35.973213, 35.8125, 35.919643, 35.5625, 35.392857, 35.5, 35.625, 35.910713, 36.125, 36.1875, 36.125, 36.1875, 36.166664, -10, -10, -10
29.9375, 30, 30, 29.9375, 29.875, 29.6875, 29.625, 29.6875, 29.75, 29.875, 30, 30, 30, 30, 30, 30, 30, 30, 30, 30, 30, 30, 30, 30, 30.0625, 30.125, 30.0625, 30.0625, 29.9375, 29.8125, 29.875, 29.875, 29.9375, 30.125, 30.125, 30.125, 30.0625, 30, 30.125, 30.357143, 30.4375, 30.375, 30.125, 29.901787, 29.8125, 29.875, 30.0625, 30.0625, 30.25, 30.4375, 30.625, 30.6875, 30.6875, 30.4375, 30.25, 30.25, 30.375, 30.5625, 30.5625, 30.625, 30.5625, 30.4375, 30.375, 30.25, 30.1875, 30.375, 30.660713, 30.875, 31.0625, 31.035713, 30.892857, 30.892857, 30.875, 30.9375, 31, 31.125, 31.294643, 31.375, 31.375, 31.375, 31.3125, 31.1875, 31.25, 31.1875, 31.1875, 31.1875, 31.125, 31.0625, 31, 31, 31, 30.9375, 30.964287, 31.169643, 31.107143, 31.125, 31.0625, 31, 31.044643, 31.151787, 31.1875, 31.1875, 31.1875, 31.375, 31.75, 32.1875, 32.294643, 32.25, 32, 31.8125, 31.8125, 31.758928, 31.71875, 31.65625, 31.71875, 31.75, 31.875, 32, 32, 32, 32, 32.0625, 32.0625, 32.125, 32.3125, 32.285713, 32.25893, 32.25, 32.294643, 32.375, 32.4375, 32.3125, 32.1875, 32.0625, 32, 32, 32, 32.0625, 32, 31.9375, 32.125, 32.25, 32.4375, 32.5625, 32.375, 32.1875, 32.0625, 32.0625, 32.125, 32.258926, 32.654762, 32.919643, 33, 33.0625, 33, 33, 33, 33, 33, 33, 33.0625, 33.1875, 33.375, 33.464287, 33.214287, 33.1875, 33, 33, 33, 33, 33.196426, 33.387501, 33.330357, 33.366074, 32.955357, 32.892857, 32.9375, 32.982143, 33.026787, 33.169643, 33.044643, 33.0625, 33, 33, 33.125, 33.125, 33.1875, 33.3125, 33.25, 33.25, 33.151787, 33.1875, 33.482143, 33.6875, 33.9375, 34, 33.875, 33.8125, 33.8125, 33.875, 34.0625, 34.125, 34.125, 33.9375, 33.6875, 33.6875, 33.6875, 33.8125, 33.875, 33.6875, 33.625, 33.625, 33.75, 33.9375, 33.9375, 33.839287, 33.785713, 33.8125, 34.125, 34.401787, 34.5, 34.4375, 34.1875, 34.0625, 34, 34, 34.125, 34.1875, 34.25, 34.25, 34.125, 34.0625, 34.125, 34.1875, 34.1875, 34.1875, 34.0625, 34.0625, 34.0625, 34.0625, 34.125, 34.25, 34.375, 34.5, 34.6875, 34.5625, 34.5625, 34.5625, 34.5625, 34.75, 34.875, 35, 35, 34.9375, 34.75, 34.75, 34.75, 34.78125, 34.90625, 34.84375, 34.84375, 34.8125, 34.8125, 34.848213, 34.705357, 34.696426, 34.8125, 34.875, 34.9375, 35, 35, 34.9375, 34.875, 35.017857, 35.270832, 35.294643, 35.3125, 35.125, 35.125, 35.3125, 35.3125, 35.3125, 35.1875, 35.125, 35.25, 35.375, 35.4375, 35.375, 35.3125, 35.1875, 35.125, 35.0625, 35, 35.25, 35.5, 35.6875, 35.9375, 35.9375, 35.8125, 35.75, 35.6875, 35.5625, 35.5625, 35.625, 35.794643, 35.928574, 36, 36, 36, 36, 36, 36, 36, 35.9375, 36, 36.035713, 35.9375, 36.107143, 35.75, 35.580357, 35.625, 35.625, 35.875, 36, 36, 36, 36.0625, 36.083332, -10, -10, -10, -10, -10, -10, -10, -10, -10, -10, -10, -10, -10, -10, -10, -10, -10, -10, -10, -10, -10, -10, -10, -10, -10, 32.708332, 32.625, 32.5625, 32.3125, 32.1875, 32.0625, 31.8125, 31.65625, 31.4375, 31.1875, 31.125, 30.90625, 30.75, 30.5, 30.25, 30.125, 30, 29.9375, 29.9375, 29.9375, 29.9375, 29.9375, 29.9375, 29.9375, 30, 30, 29.9375, 29.875, 29.6875, 29.625, 29.6875, 29.75, 29.8125, 29.875, 29.8125, 29.8125, 29.875, 29.9375, 30, 30, 30, 30, 30, 30, 30, 30, 30, 30.125, 30.25, 30.25, 30.3125, 30.107143, 29.839287, 29.875, 29.8125, 29.9375, 30.1875, 30.1875, 30.1875, 30.1875, 30.0625, 30.1875, 30.375, 30.5, 30.4375, 30.1875, 29.964287, 29.8125, 29.875, 30.0625, 30.0625, 30.1875, 30.3125, 30.4375, 30.5625, 30.625, 30.4375, 30.392857, 30.583334, 30.669643, 30.8125, 30.6875, 30.625, 30.5625, 30.375, 30.3125, 30.1875, 30.0625, 30.3125, 30.660713, 30.910713, 31.1875, 31.160713, 30.955357, 30.955357, 30.875, 30.875, 30.9375, 31.125, 31.357143, 31.5, 31.5, 31.375, 31.1875, 31.0625, 31.125, 31.125, 31.1875, 31.1875, 31.125, 31.0625, 31, 31, 31, 30.9375, 30.9375, 31, 30.9375, 31, 31, 31, 30.973213, 30.901787, 31, 30.9375, 31.0625, 31.25, 31.5625, 31.955357, 32.125, 32.3125, 32.125, 32.0625, 31.9375, 31.75, 31.625, 31.5, 31.625, 31.6875, 31.875, 32, 32, 32, 32.0625, 32.125, 32.125, 32.1875, 32.25, 32.160713, 32.151787, 32.25, 32.294643, 32.4375, 32.4375, 32.3125, 32.1875, 32.0625, 32, 32, 32, 32.0625, 32.0625, 32.125, 32.375, 32.5625, 32.75, 32.8125, 32.625, 32.375, 32.1875, 32.0625, 32.0625, 32.196426, 32.592262, 32.982143, 33.0625, 33.125, 33.0625, 33, 33, 33, 33, 33, 33.0625, 33.1875, 33.3125, 33.428574, 33.25, 33.1875, 33.0625, 33, 32.9375, 32.875, 33.026787, 33.408333, 33.375, 33.428574, 33.017857, 32.892857, 32.875, 32.94643, 33.13393, 33.348213, 33.232143, 33.1875, 33.0625, 32.9375, 33, 33, 33.0625, 33.25, 33.25, 33.3125, 33.214287, 33.3125, 33.607143, 33.75, 34, 34, 33.875, 33.8125, 33.8125, 33.8125, 34, 34.0625, 34.0625, 33.9375, 33.75, 33.75, 33.75, 33.875, 33.875, 33.75, 33.75, 33.75, 33.875, 34, 34, 33.875, 33.75, 33.75, 33.9375, 34.276787, 34.375, 34.3125, 34.125, 34, 33.9375, 34, 34.125, 34.1875, 34.25, 34.25, 34.125, 34.0625, 34.0625, 34.125, 34.125, 34.125, 34.0625, 34.0625, 34.0625, 34.0625, 34.125, 34.25, 34.375, 34.5, 34.6875, 34.5625, 34.5625, 34.625, 34.625, 34.8125, 34.9375, 35, 35, 34.9375, 34.75, 34.75, 34.75, 34.78125, 34.90625, 34.90625, 34.90625, 34.9375, 35, 34.946426, 34.732143, 34.633926, 34.6875, 34.8125, 34.875, 35, 35, 34.9375, 34.875, 34.955357, 35.145832, 35.169643, 35.1875, 35.0625, 35.125, 35.375, 35.4375, 35.5, 35.375, 35.1875, 35.1875, 35.1875, 35.1875, 35.125, 35.0625, 35.026787, 35.098213, 35.0625, 35.0625, 35.1875, 35.375, 35.625, 35.875, 35.9375, 35.9375, 35.875, 35.8125, 35.75, 35.8125, 35.875, 35.9375, 36, 36, 36, 36, 36, 36, 36, 36, 35.9375, 36, 36.035713, 35.9375, 36.107143, 35.8125, 35.705357, 35.75, 35.75, 35.9375, 36, 36, 36, 36, 36, -10, -10, -10
29.9375, 30, 30.0625, 30.0625, 30.0625, 29.875, 29.8125, 29.875, 29.910713, 29.875, 29.767857, 29.6875, 29.6875, 29.8125, 29.9375, 30, 30, 30, 30, 30, 30, 30, 30, 30, 30.125, 30.25, 30.25, 30.3125, 30.044643, 29.776787, 29.8125, 29.75, 29.9375, 30.1875, 30.1875, 30.1875, 30.25, 30.125, 30.25, 30.4375, 30.4375, 30.375, 30.1875, 30.07143, 29.9375, 30, 30.0625, 30.0625, 30.1875, 30.25, 30.4375, 30.5625, 30.5625, 30.5, 30.580357, 30.877977, 30.964287, 30.9375, 30.8125, 30.625, 30.625, 30.4375, 30.3125, 30.1875, 30.0625, 30.3125, 30.598213, 30.857141, 31.25, 31.160713, 31.017857, 30.955357, 30.875, 30.875, 30.9375, 31.125, 31.357143, 31.5, 31.5625, 31.4375, 31.25, 31.125, 31.125, 31.0625, 31.0625, 31.0625, 31, 31, 31, 31, 31, 30.875, 30.8125, 30.8125, 30.8125, 30.973213, 31, 31.0625, 31.098213, 31.089287, 31.1875, 31.0625, 31.026787, 31.125, 31.375, 31.723213, 31.9375, 32.25, 32.1875, 32.1875, 32.125, 31.875, 31.6875, 31.625, 31.6875, 31.75, 31.9375, 31.9375, 31.875, 31.875, 31.9375, 32.0625, 32.125, 32.1875, 32.1875, 32.0625, 32.0625, 32.0625, 32.125, 32.357143, 32.4375, 32.375, 32.25, 32.125, 32, 32, 32, 32, 32, 32.0625, 32.25, 32.5, 32.75, 32.875, 32.75, 32.5625, 32.3125, 32.125, 32.125, 32.258926, 32.717262, 33.107143, 33.1875, 33.1875, 33.0625, 33, 33, 33, 33, 32.9375, 32.9375, 32.9375, 33, 33.1875, 33.1875, 33.1875, 33.125, 33.0625, 32.973213, 32.839287, 33.089287, 33.408333, 33.339287, 33.491074, 33.05357, 32.955357, 32.875, 32.94643, 33.25893, 33.580357, 33.669643, 33.598213, 33.267857, 33.071426, 33, 33, 33.0625, 33.25, 33.3125, 33.375, 33.276787, 33.375, 33.607143, 33.75, 34, 34, 33.875, 33.8125, 33.8125, 33.8125, 34, 34.0625, 34.0625, 34, 33.875, 33.875, 33.875, 33.9375, 33.9375, 33.875, 33.875, 33.875, 33.9375, 34, 34, 33.9375, 33.875, 33.875, 34, 34.169643, 34.25, 34.125, 34, 33.9375, 33.875, 34, 34.0625, 34.0625, 34.0625, 34.0625, 34, 34, 34, 34, 34, 34.0625, 34.0625, 34.0625, 34.0625, 34, 34, 34.125, 34.25, 34.375, 34.625, 34.5625, 34.5625, 34.625, 34.625, 34.8125, 34.9375, 35, 35, 34.9375, 34.8125, 34.875, 34.875, 34.90625, 34.96875, 34.84375, 34.78125, 34.75, 34.8125, 34.821426, 34.669643, 34.633926, 34.6875, 34.8125, 34.875, 35, 35, 35, 35, 35.0625, 35.0625, 35.0625, 35.0625, 35, 35.125, 35.375, 35.5, 35.625, 35.5, 35.25, 35.125, 35, 35, 35, 35.0625, 35.151787, 35.285713, 35.3125, 35.25, 35.25, 35.375, 35.5, 35.75, 35.875, 35.9375, 35.9375, 35.9375, 35.9375, 35.9375, 36, 35.9375, 35.9375, 35.9375, 35.9375, 36, 36, 36, 36, 36, 35.9375, 35.9375, 36, 35.9375, 36, 35.875, 35.8125, 35.875, 35.875, 36, 36, 36, 36, 36, 36, -10, -10, -10, -10, -10, -10, -10, -10, -10, -10, -10, -10, -10, -10, -10, -10, -10, -10, -10, -10, -10, -10, -10, -10, -10, 32.833332, 32.708336, 32.625, 32.375, 32.1875, 32, 31.8125, 31.65625, 31.4375, 31.25, 31.125, 30.90625, 30.75, 30.5625, 30.3125, 30.1875, 30.0625, 30, 30, 29.9375, 29.9375, 29.875, 29.875, 29.9375, 30, 30.0625, 30.0625, 30.0625, 29.875, 29.901787, 30.035713, 30.035713, 30, 29.705357, 29.5625, 29.5625, 29.6875, 29.875, 30, 30, 30, 30, 30, 30, 30, 30, 30, 30.125, 30.25, 30.25, 30.3125, 30.107143, 29.964287, 30, 29.9375, 30.0625, 30.1875, 30.1875, 30.1875, 30.25, 30.125, 30.25, 30.375, 30.4375, 30.4375, 30.375, 30.38393, 30.3125, 30.375, 30.3125, 30.25, 30.25, 30.25, 30.4375, 30.5625, 30.5625, 30.5625, 30.705357, 31.002977, 31.026787, 31, 30.875, 30.75, 30.875, 30.625, 30.4375, 30.25, 30.0625, 30.1875, 30.375, 30.607141, 31, 31.035713, 30.955357, 30.955357, 30.875, 30.875, 30.9375, 31.0625, 31.232143, 31.3125, 31.375, 31.3125, 31.1875, 31.125, 31.0625, 31, 31, 31, 31, 31, 31, 31, 31, 30.875, 30.8125, 30.8125, 30.9375, 31.160713, 31.1875, 31.1875, 31.1875, 31.25, 31.3125, 31.25, 31.089287, 31.0625, 31.25, 31.5625, 31.75, 32.125, 32.1875, 32.25, 32.3125, 32.125, 31.9375, 31.875, 31.875, 31.875, 31.9375, 31.875, 31.8125, 31.8125, 31.9375, 32, 32.0625, 32.0625, 31.9375, 31.8125, 31.75, 31.75, 31.9375, 32.276787, 32.3125, 32.3125, 32.1875, 32, 31.875, 31.875, 31.875, 31.9375, 32, 32.0625, 32.1875, 32.375, 32.5625, 32.6875, 32.625, 32.5625, 32.4375, 32.3125, 32.303574, 32.258926, 32.645832, 32.857143, 33.0625, 33.0625, 33, 32.9375, 32.9375, 32.9375, 33, 32.9375, 32.9375, 32.8125, 32.8125, 32.9375, 32.9375, 33.0625, 33.0625, 33.0625, 32.973213, 32.839287, 33.026787, 33.283333, 33.214287, 33.366074, 32.99107, 32.955357, 32.875, 33.00893, 33.294643, 33.473213, 33.5625, 33.473213, 33.205357, 33.071426, 33, 33, 33.0625, 33.1875, 33.25, 33.375, 33.375, 33.5, 33.6875, 33.8125, 33.9375, 33.875, 33.8125, 33.8125, 33.875, 33.9375, 34.0625, 34.0625, 34.0625, 34.0625, 34, 34, 34, 34, 34, 34, 34, 34, 34, 34, 34, 34, 34, 34, 34.0625, 34.0625, 34.0625, 33.9375, 33.875, 33.875, 33.875, 34, 34.125, 34.1875, 34.1875, 34.1875, 34.125, 34.125, 34.125, 34.071426, 33.791668, 33.8125, 33.75, 33.875, 33.875, 33.8125, 33.875, 33.9375, 34.0625, 34.25, 34.5, 34.5, 34.625, 34.75, 34.75, 34.9375, 35, 35, 34.9375, 34.9375, 34.875, 34.9375, 35, 34.9375, 34.9375, 34.75, 34.625, 34.5625, 34.6875, 34.758926, 34.669643, 34.696426, 34.6875, 34.8125, 34.875, 35, 35, 35, 35, 35, 35, 35, 35, 35, 35.0625, 35.25, 35.4375, 35.669643, 35.5625, 35.375, 35.1875, 35, 35, 35, 35, 35.089287, 35.223213, 35.25, 35.25, 35.25, 35.285713, 35.276787, 35.5625, 35.732143, 35.875, 35.9375, 35.9375, 35.9375, 35.9375, 36, 35.9375, 35.9375, 35.9375, 35.9375, 36, 36, 36, 36, 35.9375, 35.875, 35.875, 35.9375, 36, 36.0625, 36, 35.9375, 35.9375, 35.9375, 36, 36, 36, 36, 36.0625, 36.083332, -10, -10, -10
29.9375, 29.9375, 30, 30, 30, 29.875, 29.901787, 30.035713, 30.035713, 30, 29.705357, 29.625, 29.625, 29.75, 29.875, 29.9375, 29.9375, 29.9375, 30, 30, 29.9375, 29.964287, 30.035713, 30, 30.125, 30.125, 30.125, 30.1875, 30.107143, 30.089287, 30.1875, 30.1875, 30.25, 30.25, 30.1875, 30.125, 30.25, 30.125, 30.1875, 30.3125, 30.3125, 30.4375, 30.5, 30.544643, 30.4375, 30.5, 30.375, 30.375, 30.4375, 30.375, 30.5625, 30.625, 30.625, 30.6875, 30.830357, 31.127977, 31.026787, 30.9375, 30.875, 30.8125, 31, 30.8125, 30.625, 30.375, 30.25, 30.25, 30.3125, 30.544641, 30.75, 30.875, 31, 31, 31, 31, 31, 31.0625, 31.125, 31.125, 31.125, 31.0625, 31, 31, 31, 31, 31, 31, 31, 31, 31, 31, 31, 30.875, 30.8125, 30.8125, 30.9375, 31.160713, 31.1875, 31.1875, 31.1875, 31.25, 31.3125, 31.25, 31.089287, 31, 31.1875, 31.5, 31.6875, 32, 32, 32.0625, 32.125, 32.0625, 32, 31.9375, 31.9375, 31.9375, 31.9375, 31.875, 31.8125, 31.8125, 31.9375, 32.0625, 32.125, 32.125, 32, 31.875, 31.75, 31.75, 32, 32.25, 32.276787, 32.3125, 32.125, 32, 31.8125, 31.75, 31.75, 31.8125, 31.9375, 32.0625, 32.125, 32.25, 32.375, 32.4375, 32.4375, 32.4375, 32.375, 32.3125, 32.366074, 32.3125, 32.5, 32.75, 32.9375, 33.0625, 33.0625, 33, 33, 32.9375, 33, 32.9375, 32.9375, 32.75, 32.75, 32.8125, 32.8125, 33, 33, 33.0625, 32.973213, 32.839287, 32.955357, 33.083332, 33.07143, 33.1875, 33.098213, 33.0625, 32.9375, 32.901787, 33.107143, 33.285713, 33.4375, 33.410713, 33.205357, 33.071426, 33, 33, 33, 33.125, 33.1875, 33.25, 33.375, 33.5, 33.6875, 33.875, 33.875, 33.8125, 33.8125, 33.8125, 33.9375, 34, 34, 34, 34, 34, 34, 34, 34, 34, 34, 34.0625, 34.09375, 34.09375, 34.09375, 33.96875, 33.9375, 33.9375, 33.9375, 34, 34, 34, 34, 33.875, 33.875, 33.9375, 34, 34.125, 34.1875, 34.1875, 34.125, 34.125, 34.125, 34.125, 34.125, 34.040176, 33.697918, 33.65625, 33.53125, 33.6875, 33.6875, 33.625, 33.767857, 33.958332, 34.116074, 34.3125, 34.5, 34.5625, 34.75, 34.875, 34.875, 35, 35, 35, 34.875, 34.875, 34.875, 34.9375, 35.0625, 35, 34.9375, 34.6875, 34.5, 34.375, 34.4375, 34.598213, 34.714287, 34.875, 34.875, 34.9375, 34.9375, 35, 35, 35, 35, 35, 35, 35, 35, 35, 35.0625, 35.1875, 35.4375, 35.732143, 35.6875, 35.625, 35.375, 35.125, 35.0625, 35, 35, 35.089287, 35.223213, 35.3125, 35.3125, 35.3125, 35.348213, 35.214287, 35.5, 35.669643, 35.8125, 35.9375, 35.9375, 35.9375, 35.9375, 36, 35.9375, 35.9375, 35.9375, 35.9375, 36, 36, 36, 36, 35.875, 35.75, 35.6875, 35.6875, 35.8125, 36, 36.125, 36.125, 36.125, 36.0625, 36, 36, 36, 36, 36.125, 36.166664, -10, -10, -10, -10, -10, -10, -10, -10, -10, -10, -10, -10, -10, -10, -10, -10, -10, -10, -10, -10, -10, -10, -10, -10, -10, 33, 32.666668, 32.5, 32.3125, 32.0625, 32, 31.875, 31.625, 31.375, 31.1875, 31.0625, 31, 30.875, 30.6875, 30.4375, 30.1875, 30.0625, 30, 30, 29.9375, 29.9375, 29.875, 29.875, 29.9375, 29.9375, 30, 30, 30, 29.875, 29.901787, 30.035713, 30.035713, 30.0625, 29.830357, 29.8125, 29.8125, 29.875, 29.875, 29.875, 29.875, 29.9375, 30.0625, 30.0625, 30, 29.964287, 30.035713, 30, 30.0625, 30, 30, 30, 30, 30.1875, 30.3125, 30.375, 30.375, 30.25, 30.1875, 30.125, 30.25, 30.1875, 30.125, 30.1875, 30.125, 30.25, 30.375, 30.482143, 30.4375, 30.4375, 30.375, 30.375, 30.5, 30.5625, 30.75, 30.8125, 30.8125, 30.875, 30.9375, 31.044643, 30.919643, 30.8125, 30.8125, 30.8125, 31, 30.8125, 30.625, 30.4375, 30.375, 30.3125, 30.25, 30.321428, 30.4375, 30.625, 30.875, 30.9375, 31, 31.0625, 31.0625, 31.0625, 31.0625, 30.9375, 30.9375, 30.9375, 30.9375, 31, 31, 31, 31, 31, 31, 31, 31, 31, 31, 30.9375, 30.875, 30.875, 31, 31.160713, 31.1875, 31.1875, 31.1875, 31.25, 31.25, 31.1875, 31.089287, 31, 31.25, 31.5625, 31.6875, 31.9375, 31.9375, 31.9375, 32, 32, 32, 32, 32, 32, 31.9375, 31.8125, 31.75, 31.75, 31.8125, 32.0625, 32.098213, 32.026787, 32.0625, 31.982143, 31.875, 31.9375, 32.1875, 32.375, 32.401787, 32.375, 32.125, 32, 31.8125, 31.75, 31.75, 31.8125, 31.9375, 32, 32, 32.0625, 32.125, 32.1875, 32.1875, 32.25, 32.25, 32.25, 32.375, 32.520832, 32.645832, 32.604168, 32.767857, 32.875, 32.9375, 33, 33, 32.9375, 33, 32.9375, 32.9375, 32.8125, 32.8125, 32.875, 32.875, 33, 33, 33.0625, 33.035713, 32.964287, 33.0625, 33, 32.964287, 33.0625, 33.035713, 33.0625, 33, 32.9375, 33, 33.169643, 33.3125, 33.348213, 33.205357, 33.071426, 33.0625, 33.125, 33.125, 33.3125, 33.375, 33.3125, 33.4375, 33.4375, 33.5625, 33.8125, 33.8125, 33.8125, 33.8125, 33.8125, 33.9375, 34, 34, 34, 34, 34, 34, 34, 34, 34.0625, 34.125, 34.1875, 34.21875, 34.15625, 34.09375, 33.96875, 33.875, 33.875, 33.875, 33.9375, 34, 34, 34, 33.875, 33.875, 33.9375, 34, 34.125, 34.1875, 34.1875, 34.125, 34.125, 34.125, 34.125, 34.125, 34.040176, 33.635418, 33.59375, 33.40625, 33.5, 33.580357, 33.575001, 33.589287, 33.851189, 33.991074, 34.3125, 34.5625, 34.6875, 34.875, 34.9375, 34.9375, 35, 35, 34.9375, 34.75, 34.75, 34.75, 34.8125, 35, 35, 34.973213, 34.6875, 34.392857, 34.1875, 34.1875, 34.4375, 34.6875, 34.9375, 35, 35, 35, 35, 35, 35, 35, 35, 35, 35.0625, 35.0625, 35.0625, 35.0625, 35.0625, 35.3125, 35.544643, 35.5625, 35.5625, 35.3125, 35.125, 35.0625, 35, 35.0625, 35.125, 35.1875, 35.375, 35.3125, 35.375, 35.410713, 35.151787, 35.375, 35.544643, 35.625, 35.8125, 35.875, 35.875, 35.9375, 35.9375, 35.8125, 35.8125, 35.8125, 35.875, 36, 36, 36, 36, 35.875, 35.6875, 35.5625, 35.5625, 35.6875, 35.9375, 36.1875, 36.1875, 36.1875, 36.125, 36, 36, 36.0625, 36.0625, 36.1875, 36.25, -10, -10, -10
30, 30, 30, 30, 30, 29.875, 29.901787, 29.973213, 29.9375, 30.0625, 29.9375, 29.9375, 29.9375, 29.9375, 29.875, 29.875, 29.875, 29.9375, 30, 30, 29.9375, 29.901787, 30.035713, 30, 30.0625, 30, 30, 30, 30.0625, 30.25, 30.375, 30.4375, 30.3125, 30.214287, 30.294643, 30.303572, 30.375, 30.25, 30.125, 30.125, 30.1875, 30.3125, 30.375, 30.375, 30.3125, 30.3125, 30.3125, 30.3125, 30.4375, 30.5625, 30.75, 30.875, 30.9375, 30.9375, 30.9375, 30.9375, 30.8125, 30.8125, 30.8125, 30.875, 30.9375, 30.75, 30.625, 30.5, 30.5625, 30.5625, 30.5, 30.5, 30.4375, 30.625, 30.8125, 30.9375, 31, 31.0625, 31, 31, 31, 30.9375, 31.0625, 31.0625, 31.0625, 31.0625, 31, 31, 31, 31, 31, 31.0625, 31.125, 31.1875, 31.25, 31.25, 31.25, 31.25, 31.3125, 31.375, 31.3125, 31.25, 31.1875, 31.1875, 31.25, 31.3125, 31.375, 31.25, 31.4375, 31.625, 31.6875, 31.875, 31.875, 31.875, 31.9375, 32, 32, 32.0625, 32.0625, 32.0625, 31.9375, 31.75, 31.75, 31.75, 31.875, 32.1875, 32.133926, 31.991074, 32.0625, 32.044643, 32.125, 32.25, 32.5, 32.446426, 32.214287, 32.1875, 31.9375, 31.9375, 31.8125, 31.75, 31.75, 31.8125, 31.9375, 32, 32, 32, 32, 32, 32, 32.0625, 32.125, 32.1875, 32.375, 32.583332, 32.708332, 32.604168, 32.642857, 32.75, 32.8125, 32.9375, 33, 32.9375, 33, 33, 33.0625, 33.0625, 33.0625, 33.0625, 33, 33, 33, 33, 33, 33, 33, 33, 33, 33, 33, 33.0625, 33.125, 33.1875, 33.25, 33.3125, 33.25, 33.1875, 33.0625, 32.964287, 33.169643, 33.232143, 33.25, 33.375, 33.375, 33.375, 33.5625, 33.5625, 33.6875, 33.875, 33.8125, 33.8125, 33.8125, 33.8125, 33.9375, 34, 34.0625, 34.0625, 34.0625, 34.125, 34.125, 34.125, 34.125, 34.1875, 34.1875, 34.25, 34.28125, 34.15625, 34.09375, 33.96875, 33.875, 33.875, 33.875, 33.9375, 34, 34, 34, 33.875, 33.8125, 33.8125, 33.875, 34, 34.125, 34.1875, 34.125, 34.0625, 34.0625, 34.0625, 34.125, 34.075893, 33.528275, 33.424107, 33.21875, 33.375, 33.517857, 33.512501, 33.526787, 33.851189, 34.098213, 34.5, 34.75, 34.8125, 34.9375, 34.9375, 34.9375, 35, 35, 34.875, 34.6875, 34.6875, 34.6875, 34.75, 34.9375, 34.9375, 34.910713, 34.75, 34.517857, 34.375, 34.4375, 34.625, 34.8125, 35, 35, 35, 35, 35, 35, 35, 35, 34.9375, 34.9375, 35.0625, 35.169643, 35.1875, 35.125, 35, 35.1875, 35.357143, 35.4375, 35.5, 35.25, 35.1875, 35.125, 35.0625, 35.0625, 35, 35.0625, 35.1875, 35.1875, 35.3125, 35.285713, 35.151787, 35.3125, 35.419643, 35.5625, 35.75, 35.875, 35.9375, 36, 35.9375, 35.8125, 35.8125, 35.8125, 35.875, 36, 36, 36, 36, 35.875, 35.6875, 35.5625, 35.5625, 35.6875, 35.9375, 36.1875, 36.1875, 36.1875, 36.125, 36, 36, 36.125, 36.1875, 36.3125, 36.416668, -10, -10, -10, -10, -10, -10, -10, -10, -10, -10, -10, -10, -10, -10, -10, -10, -10, -10, -10, -10, -10, -10, -10, -10, -10, 32.708332, 32.479168, 32.5, 32.3125, 32.1875, 32.1875, 31.9375, 31.75, 31.5, 31.25, 31.125, 31, 30.75, 30.5, 30.25, 30, 30, 30, 30, 30, 30, 30, 30, 30, 30, 30, 29.9375, 29.875, 29.75, 29.75, 29.8125, 29.875, 30.0625, 30.0625, 30.125, 30.125, 30.0625, 29.9375, 29.875, 29.875, 29.9375, 30, 30, 29.9375, 29.901787, 30.035713, 30, 30.0625, 30, 30, 30, 30.0625, 30.1875, 30.3125, 30.4375, 30.375, 30.339287, 30.482143, 30.491072, 30.5625, 30.4375, 30.25, 30.1875, 30.125, 30.25, 30.3125, 30.25, 30.1875, 30.125, 30.125, 30.1875, 30.375, 30.5625, 30.75, 30.875, 30.9375, 30.9375, 30.9375, 31, 30.9375, 30.9375, 30.9375, 30.9375, 30.9375, 30.8125, 30.75, 30.6875, 30.6875, 30.6875, 30.625, 30.625, 30.6875, 30.8125, 30.875, 30.901787, 30.9375, 31, 31, 31, 31, 30.875, 30.9375, 30.9375, 30.9375, 31, 31, 31, 31, 31, 31, 31.125, 31.25, 31.375, 31.5, 31.5, 31.4375, 31.375, 31.375, 31.375, 31.3125, 31.25, 31.125, 31.125, 31.25, 31.375, 31.5625, 31.5, 31.625, 31.75, 31.875, 32, 31.9375, 31.830357, 31.8125, 31.875, 32, 32.1875, 32.1875, 32.1875, 32.0625, 31.8125, 31.8125, 31.8125, 31.875, 32.25, 32.196426, 32.053574, 32.1875, 32.169643, 32.375, 32.5625, 32.75, 32.51786, 32.089287, 32.0625, 31.875, 32.0625, 32, 31.9375, 31.875, 31.875, 31.9375, 32, 32, 32, 32, 32, 32, 32, 32, 32, 32.258926, 32.708332, 32.895832, 32.854168, 32.705357, 32.75, 32.8125, 32.9375, 33.0625, 33, 32.9375, 32.9375, 33, 33.0625, 33.125, 33.125, 33.0625, 32.9375, 32.9375, 32.9375, 32.9375, 33, 33, 33, 33, 33, 33, 33.0625, 33.125, 33.25, 33.375, 33.5, 33.5, 33.375, 33.1875, 33.107143, 33.502975, 33.565475, 33.5, 33.5625, 33.4375, 33.5, 33.625, 33.625, 33.75, 33.875, 33.875, 33.9375, 33.9375, 33.9375, 33.9375, 33.9375, 34, 34, 34.0625, 34.1875, 34.160713, 34.089287, 34.125, 34.1875, 34.25, 34.3125, 34.34375, 34.15625, 34.09375, 33.96875, 33.875, 33.875, 33.875, 33.9375, 34, 34, 34, 33.875, 33.8125, 33.8125, 33.875, 34, 34.0625, 34.0625, 34, 33.9375, 34, 34.0625, 34.1875, 34.183037, 33.653275, 33.566963, 33.316963, 33.276787, 33.486607, 33.481251, 33.558037, 34.011906, 34.410713, 34.6875, 34.9375, 34.9375, 35, 35, 35, 34.9375, 34.9375, 34.8125, 34.6875, 34.75, 34.75, 34.8125, 34.9375, 35, 35.035713, 34.9375, 34.767857, 34.625, 34.625, 34.75, 34.875, 35, 35, 35, 35, 34.9375, 34.875, 34.8125, 34.8125, 34.75, 34.830357, 35.098213, 35.169643, 35.25, 35.1875, 35.0625, 35.1875, 35.25, 35.3125, 35.375, 35.25, 35.3125, 35.3125, 35.25, 35.1875, 35.0625, 35.0625, 35.25, 35.3125, 35.375, 35.4375, 35.375, 35.375, 35.4375, 35.5, 35.625, 35.8125, 35.9375, 36, 35.9375, 35.8125, 35.8125, 35.8125, 35.875, 36, 36, 36, 36.0625, 36, 35.875, 35.75, 35.6875, 35.75, 35.9375, 36.1875, 36.1875, 36.1875, 36.125, 36, 36, 36.125, 36.1875, 36.25, 36.333332, -10, -10, -10
29.875, 29.9375, 30, 29.875, 29.8125, 29.6875, 29.6875, 29.8125, 29.875, 30.125, 30.125, 30.125, 30.125, 30, 29.9375, 29.9375, 29.9375, 30, 30, 30, 30, 29.9375, 30, 30, 30, 30, 30, 30, 30, 30.0625, 30.125, 30.1875, 30.25, 30.276787, 30.544643, 30.678572, 30.6875, 30.625, 30.4375, 30.3125, 30.1875, 30.25, 30.3125, 30.3125, 30.375, 30.241072, 29.979166, 30.020834, 30.354166, 30.625, 30.8125, 30.875, 30.875, 30.875, 30.875, 30.9375, 31, 31, 31, 31, 30.9375, 30.75, 30.625, 30.5625, 30.5, 30.633928, 30.8125, 30.75, 30.9375, 30.9375, 30.9375, 30.964287, 30.9375, 31, 31, 31, 31, 30.9375, 31, 31, 31, 31, 31, 31, 31, 31.0625, 31.125, 31.3125, 31.5, 31.625, 31.75, 31.6875, 31.625, 31.5625, 31.5, 31.5, 31.375, 31.3125, 31.25, 31.3125, 31.5, 31.5625, 31.75, 31.6875, 31.75, 31.875, 32, 32.1875, 32.125, 32.017857, 31.9375, 31.875, 32, 32.125, 32.151787, 32.223213, 32.0625, 31.875, 31.8125, 31.8125, 31.875, 32.1875, 32.133926, 31.991074, 32.125, 32.107143, 32.3125, 32.5, 32.625, 32.482143, 32.125, 32.0625, 31.9375, 32.0625, 32.0625, 32.0625, 32, 32, 32, 32, 32, 32, 32, 32, 32.071426, 32.200001, 32.071426, 32.071426, 32.258926, 32.708332, 32.895832, 32.854168, 32.642857, 32.5625, 32.625, 32.75, 32.875, 32.9375, 32.875, 32.875, 33, 33.125, 33.1875, 33.1875, 33.125, 32.9375, 32.9375, 32.9375, 32.9375, 33, 33, 33, 33, 33.0625, 33.0625, 33.125, 33.125, 33.125, 33.1875, 33.321426, 33.5, 33.375, 33.25, 33.169643, 33.627975, 33.690475, 33.625, 33.5625, 33.375, 33.5, 33.6875, 33.857143, 33.919643, 33.875, 33.9375, 33.9375, 34, 34, 33.875, 33.8125, 33.892857, 34, 34.0625, 34.25, 34.098213, 33.901787, 33.875, 34.044643, 34.178574, 34.25, 34.25, 34.0625, 34, 34, 33.9375, 33.9375, 33.9375, 33.9375, 34, 34, 34, 33.875, 33.8125, 33.75, 33.75, 33.875, 33.9375, 34, 34, 33.9375, 34.0625, 34.1875, 34.3125, 34.339287, 33.778275, 33.629463, 33.379463, 33.245537, 33.424107, 33.481251, 33.540176, 33.92857, 34.357143, 34.625, 34.9375, 34.9375, 35, 34.9375, 34.875, 34.75, 34.75, 34.6875, 34.6875, 34.8125, 34.8125, 34.875, 34.9375, 35, 35.035713, 35, 34.892857, 34.8125, 34.8125, 34.875, 34.9375, 35.03125, 35.09375, 35.09375, 35.09375, 35, 34.8125, 34.75, 34.75, 34.6875, 34.830357, 35.098213, 35.107143, 35.1875, 35.125, 35, 35.125, 35.125, 35.125, 35.1875, 35.1875, 35.375, 35.4375, 35.375, 35.25, 35.0625, 35.0625, 35.1875, 35.25, 35.25, 35.3125, 35.375, 35.3125, 35.4375, 35.5, 35.5625, 35.8125, 35.9375, 36, 35.9375, 35.8125, 35.8125, 35.8125, 35.875, 36, 36, 35.9375, 35.9375, 35.9375, 35.875, 35.875, 35.875, 35.875, 35.9375, 36.0625, 36.0625, 36.0625, 36.0625, 36, 36, 36.125, 36.1875, 36.1875, 36.25, -10, -10, -10, -10, -10, -10, -10, -10, -10, -10, -10, -10, -10, -10, -10, -10, -10, -10, -10, -10, -10, -10, -10, -10, -10, 32.708332, 32.479168, 32.5, 32.25, 32.125, 32.125, 31.9375, 31.875, 31.6875, 31.4375, 31.25, 31.0625, 30.875, 30.625, 30.375, 30.125, 30, 30, 30, 29.9375, 29.8125, 29.75, 29.75, 29.8125, 29.9375, 30, 29.875, 29.8125, 29.6875, 29.6875, 29.8125, 29.875, 30.125, 30.125, 30.125, 30.125, 30, 30, 30, 30, 30, 29.9375, 29.9375, 29.9375, 29.9375, 30, 30, 30, 30, 29.9375, 29.9375, 29.9375, 30, 30.0625, 30.125, 30.25, 30.339287, 30.669643, 30.866072, 30.875, 30.75, 30.625, 30.5, 30.3125, 30.375, 30.4375, 30.4375, 30.5625, 30.491072, 30.166666, 30.208334, 30.479166, 30.6875, 30.875, 30.875, 30.8125, 30.8125, 30.8125, 30.875, 31, 31, 31, 31, 30.9375, 30.8125, 30.75, 30.6875, 30.625, 30.758928, 30.9375, 30.9375, 31.125, 31.0625, 31, 30.964287, 30.9375, 30.9375, 30.875, 30.875, 30.9375, 31.107143, 31.25, 31.25, 31.1875, 31.125, 31.125, 31.125, 31.125, 31.1875, 31.25, 31.5, 31.75, 31.875, 31.9375, 31.8125, 31.75, 31.6875, 31.625, 31.625, 31.4375, 31.375, 31.375, 31.4375, 31.625, 31.625, 31.6875, 31.625, 31.6875, 31.8125, 32, 32.1875, 32.125, 32.017857, 31.9375, 31.875, 32, 32.125, 32.089287, 32.098213, 31.9375, 31.875, 31.910713, 31.9375, 32, 32.125, 32.098213, 32.026787, 32.0625, 32, 32.1875, 32.3125, 32.5, 32.482143, 32.125, 32.125, 32, 32.0625, 32.0625, 32.0625, 32, 32, 32, 32, 32, 32, 32, 32.0625, 32.196426, 32.387501, 32.321426, 32.258926, 32.375, 32.5625, 32.75, 32.9375, 32.6875, 32.625, 32.625, 32.6875, 32.875, 32.9375, 32.875, 32.875, 33, 33.0625, 33.125, 33.125, 33.0625, 32.9375, 32.9375, 32.9375, 32.9375, 33, 33, 33, 33, 33.0625, 33.0625, 33.125, 33.0625, 33.0625, 33.125, 33.196426, 33.4375, 33.3125, 33.1875, 33.232143, 33.690475, 33.690475, 33.625, 33.4375, 33.25, 33.5, 33.75, 34.044643, 34.044643, 33.9375, 33.875, 33.8125, 33.9375, 33.9375, 33.875, 33.8125, 33.892857, 34, 34.0625, 34.25, 34.035713, 33.776787, 33.6875, 33.794643, 33.928574, 34.0625, 34.125, 34, 34, 34, 33.9375, 33.875, 33.875, 33.875, 33.9375, 34, 34, 33.9375, 33.875, 33.8125, 33.8125, 33.875, 33.9375, 34, 34, 33.9375, 34.0625, 34.1875, 34.3125, 34.339287, 33.840775, 33.691963, 33.504463, 33.433037, 33.53125, 33.53125, 33.78125, 34.160713, 34.669643, 34.8125, 35, 34.9375, 34.9375, 34.9375, 34.8125, 34.6875, 34.6875, 34.6875, 34.8125, 34.9375, 34.9375, 35, 35, 35, 35, 35, 34.9375, 34.9375, 34.9375, 34.9375, 35.0625, 35.15625, 35.34375, 35.379463, 35.236607, 35.071426, 34.8125, 34.75, 34.75, 34.6875, 34.830357, 35.035713, 35.044643, 35.125, 35.0625, 35, 35.0625, 35.0625, 35.0625, 35.1875, 35.25, 35.4375, 35.5, 35.375, 35.25, 35.125, 35.1875, 35.25, 35.375, 35.375, 35.4375, 35.625, 35.5625, 35.5625, 35.5625, 35.5625, 35.75, 35.9375, 36, 36, 35.875, 35.8125, 35.8125, 35.8125, 35.9375, 36, 35.875, 35.8125, 35.8125, 35.8125, 35.9375, 36, 36, 36, 36, 36, 36, 36, 36, 36, 36.0625, 36.125, 36.125, 36.166668, -10, -10, -10
29.8125, 29.9375, 30, 29.8125, 29.6875, 29.625, 29.625, 29.8125, 29.9375, 30.125, 30.125, 30.0625, 30.0625, 29.9375, 29.9375, 30, 30, 30, 30, 30, 30, 30, 30, 30, 29.9375, 29.9375, 29.875, 29.875, 29.875, 29.9375, 30, 30.0625, 30.375, 30.5, 30.75, 30.9375, 30.9375, 30.875, 30.8125, 30.75, 30.5625, 30.625, 30.6875, 30.6875, 30.8125, 30.741072, 30.416666, 30.458334, 30.729166, 30.875, 31, 30.9375, 30.8125, 30.8125, 30.8125, 30.875, 31, 31, 31, 31, 31, 30.9375, 30.875, 30.8125, 30.6875, 30.758928, 30.9375, 30.9375, 31.1875, 31.125, 31.0625, 31.026787, 30.875, 30.8125, 30.75, 30.75, 30.875, 31.044643, 31.1875, 31.25, 31.1875, 31.1875, 31.25, 31.1875, 31.1875, 31.25, 31.3125, 31.5625, 31.8125, 31.9375, 31.9375, 31.8125, 31.75, 31.6875, 31.625, 31.625, 31.4375, 31.375, 31.375, 31.4375, 31.6875, 31.6875, 31.580357, 31.508928, 31.5625, 31.75, 32, 32.1875, 32.125, 32.017857, 31.9375, 31.875, 32, 32.0625, 32.026787, 32.035713, 31.9375, 32.0625, 32.098213, 32.125, 32.125, 32.0625, 32.0625, 32.0625, 32.0625, 32, 32.125, 32.25, 32.375, 32.366074, 32.089287, 32.0625, 32, 32.0625, 32.0625, 32.0625, 32, 32, 32, 32, 32, 32, 32, 32.0625, 32.258926, 32.512501, 32.508926, 32.508926, 32.5625, 32.6875, 32.8125, 33, 32.8125, 32.6875, 32.6875, 32.6875, 32.8125, 32.9375, 32.875, 32.875, 32.9375, 32.9375, 33, 33, 33, 32.9375, 32.9375, 32.9375, 32.9375, 33, 33, 33, 33, 33.0625, 33.125, 33.125, 33, 32.9375, 32.875, 32.946426, 33.25, 33.1875, 33.1875, 33.330357, 33.708332, 33.708332, 33.625, 33.375, 33.1875, 33.4375, 33.625, 33.919643, 33.919643, 33.8125, 33.8125, 33.75, 33.875, 33.875, 33.8125, 33.8125, 33.830357, 33.9375, 34, 34.125, 33.910713, 33.651787, 33.5625, 33.669643, 33.866074, 34, 34.0625, 34, 34, 34, 33.9375, 33.8125, 33.75, 33.6875, 33.75, 33.875, 33.9375, 34, 34, 34, 34, 34, 34, 34, 34, 34, 34.125, 34.25, 34.3125, 34.241074, 33.912205, 33.83482, 33.629463, 33.558037, 33.59375, 33.65625, 33.90625, 34.223213, 34.5625, 34.625, 34.75, 34.625, 34.625, 34.6875, 34.669643, 34.625, 34.6875, 34.75, 34.875, 35, 35, 35, 35, 35, 35, 35, 34.9375, 34.9375, 34.9375, 34.9375, 35.125, 35.28125, 35.53125, 35.566963, 35.361607, 35.133926, 34.875, 34.8125, 34.8125, 34.8125, 34.892857, 35.035713, 34.9375, 35, 34.9375, 34.9375, 35, 35, 34.9375, 35, 35.125, 35.25, 35.375, 35.3125, 35.1875, 35.1875, 35.25, 35.3125, 35.5, 35.5, 35.625, 35.75, 35.6875, 35.625, 35.5, 35.5625, 35.6875, 35.8125, 35.9375, 35.9375, 35.875, 35.875, 35.875, 35.875, 35.9375, 36, 35.84375, 35.71875, 35.71875, 35.71875, 35.875, 35.9375, 35.9375, 35.9375, 35.9375, 36, 36, 36, 36, 36, 36, 36, 36, 36, -10, -10, -10, -10, -10, -10, -10, -10, -10, -10, -10, -10, -10, -10, -10, -10, -10, -10, -10, -10, -10, -10, -10, -10, -10, 33, 32.666668, 32.5, 32.25, 32, 32, 32, 32, 31.8125, 31.5625, 31.3125, 31, 30.8125, 30.5625, 30.3125, 30.125, 30, 30, 30, 29.875, 29.75, 29.6875, 29.6875, 29.8125, 29.9375, 30, 29.8125, 29.6875, 29.625, 29.5625, 29.6875, 29.8125, 29.9375, 29.9375, 29.875, 29.8125, 29.75, 29.8125, 29.9375, 30, 30, 30, 30, 30, 30, 30, 30, 29.9375, 29.9375, 29.875, 29.875, 29.875, 29.9375, 30, 30, 30.25, 30.375, 30.625, 30.875, 30.9375, 30.9375, 30.875, 30.875, 30.75, 30.75, 30.8125, 30.8125, 30.9375, 30.928572, 30.666666, 30.770834, 31.041666, 31.125, 31.1875, 31, 30.8125, 30.8125, 30.875, 30.9375, 31.0625, 31.0625, 31, 31, 31, 30.9375, 30.875, 30.8125, 30.75, 30.821428, 31, 31, 31.1875, 31.098213, 30.955357, 30.883928, 30.6875, 30.625, 30.5, 30.5625, 30.75, 31.107143, 31.375, 31.5, 31.5, 31.375, 31.375, 31.25, 31.25, 31.375, 31.5, 31.6875, 31.875, 31.9375, 31.875, 31.8125, 31.8125, 31.8125, 31.75, 31.75, 31.5, 31.375, 31.4375, 31.5, 31.6875, 31.625, 31.392857, 31.321428, 31.4375, 31.6875, 31.9375, 32.0625, 32.0625, 32.0625, 32, 32, 32, 31.9375, 31.901787, 31.910713, 31.875, 32.0625, 32.098213, 32.125, 32.125, 32, 32, 32, 32.0625, 32.0625, 32.1875, 32.25, 32.25, 32.25, 32.089287, 32.0625, 32, 32, 32, 32, 32, 31.9375, 31.9375, 31.9375, 32, 32.0625, 32.0625, 32.125, 32.258926, 32.575001, 32.571426, 32.633926, 32.6875, 32.75, 32.875, 33, 32.875, 32.6875, 32.6875, 32.6875, 32.75, 32.9375, 32.9375, 32.9375, 33, 33, 33, 33, 33, 33, 33, 33, 33, 33, 33, 33, 33, 33.0625, 33.125, 33.125, 33, 32.875, 32.6875, 32.696426, 32.9375, 32.9375, 33.0625, 33.25, 33.4375, 33.4375, 33.4375, 33.1875, 33.1875, 33.4375, 33.6875, 33.982143, 33.919643, 33.8125, 33.8125, 33.75, 33.8125, 33.8125, 33.8125, 33.8125, 33.892857, 34, 34, 34.0625, 33.875, 33.6875, 33.5625, 33.669643, 33.803574, 33.9375, 34, 34, 34, 34, 33.9375, 33.8125, 33.75, 33.6875, 33.75, 33.875, 33.9375, 34, 34, 34, 34, 34, 34, 34, 34, 34, 34.0625, 34.125, 34.125, 34, 33.870537, 33.754463, 33.65625, 33.71875, 33.75, 33.875, 33.9375, 34.125, 34.25, 34.3125, 34.4375, 34.375, 34.375, 34.4375, 34.419643, 34.5, 34.625, 34.6875, 34.875, 34.9375, 34.9375, 35, 35, 35, 35, 35, 34.9375, 34.9375, 34.9375, 34.9375, 35.1875, 35.40625, 35.65625, 35.691963, 35.424107, 35.258926, 35.125, 35.125, 35.125, 35.0625, 35, 35, 35, 35, 35, 35, 35, 35, 34.9375, 35, 35.125, 35.1875, 35.25, 35.1875, 35.0625, 35.0625, 35.125, 35.142857, 35.375, 35.375, 35.5625, 35.6875, 35.75, 35.6875, 35.5625, 35.625, 35.6875, 35.8125, 35.9375, 35.9375, 35.875, 35.875, 35.875, 35.875, 35.9375, 36, 35.84375, 35.65625, 35.65625, 35.65625, 35.8125, 35.9375, 35.9375, 35.9375, 35.9375, 36, 36, 36, 36, 36, 36.0625, 36.0625, 36.0625, 36.083332, -10, -10, -10
29.9375, 30, 30, 29.8125, 29.625, 29.5, 29.375, 29.4375, 29.5625, 29.5625, 29.5625, 29.5625, 29.678572, 29.857143, 29.9375, 30.0625, 30.0625, 30, 30, 30, 30, 30, 30, 30, 29.9375, 29.9375, 29.875, 29.875, 29.875, 29.9375, 30, 30, 30.1875, 30.3125, 30.5, 30.6875, 30.8125, 30.8125, 30.75, 30.8125, 30.75, 30.6875, 30.8125, 30.8125, 30.875, 31, 31, 31.125, 31.25, 31.25, 31.25, 31.125, 30.9375, 30.9375, 31, 31, 31.0625, 31.0625, 31, 31, 31, 31, 31, 31, 31, 31, 31, 31, 31.125, 31.098213, 30.955357, 30.821428, 30.5625, 30.4375, 30.3125, 30.4375, 30.6875, 31.044643, 31.3125, 31.5, 31.5625, 31.5625, 31.625, 31.5, 31.5, 31.5625, 31.625, 31.8125, 31.9375, 32, 31.9375, 31.875, 31.875, 31.875, 31.875, 31.8125, 31.5625, 31.375, 31.3125, 31.375, 31.5, 31.5, 31.267857, 31.196428, 31.375, 31.625, 31.875, 31.875, 31.875, 31.875, 31.875, 32, 32, 32, 31.9375, 31.875, 31.875, 32, 32.098213, 32.125, 32.125, 32, 31.9375, 31.875, 31.875, 31.875, 32.0625, 32.1875, 32.25, 32.25, 32.089287, 32.0625, 32, 32, 31.9375, 31.9375, 31.9375, 31.875, 31.9375, 31.9375, 32, 32.0625, 32.0625, 32.125, 32.1875, 32.375, 32.5, 32.625, 32.75, 32.8125, 32.9375, 33, 32.9375, 32.8125, 32.8125, 32.8125, 32.875, 33.0625, 33.125, 33.125, 33.125, 33.0625, 33, 33, 33, 33, 33, 33, 33, 33, 33.0625, 33.035713, 32.964287, 33, 33, 33.125, 33.125, 33.125, 33, 32.9375, 32.9375, 32.9375, 33, 33.125, 33.25, 33.25, 33.25, 33.125, 33.1875, 33.375, 33.5, 33.6875, 33.625, 33.6875, 33.75, 33.8125, 33.848213, 33.705357, 33.767857, 33.8125, 33.9375, 34, 34, 34, 33.9375, 33.875, 33.8125, 33.8125, 33.875, 33.9375, 34, 34, 34, 34, 33.9375, 33.8125, 33.75, 33.6875, 33.75, 33.875, 33.9375, 34, 34, 34, 33.9375, 33.9375, 33.9375, 33.9375, 34, 34, 34, 34, 34, 33.875, 33.776787, 33.723213, 33.6875, 33.8125, 33.9375, 34, 33.9375, 34, 34, 34.0625, 34.1875, 34.125, 34.125, 34.25, 34.232143, 34.375, 34.5, 34.5, 34.6875, 34.6875, 34.6875, 34.8125, 34.875, 34.9375, 35.0625, 35.1875, 35.145832, 35.037498, 35.104168, 34.830357, 35.25, 35.410713, 35.625, 35.660713, 35.330357, 35.196426, 35.25, 35.25, 35.25, 35.1875, 35, 35.0625, 35.1875, 35.1875, 35.1875, 35.125, 35, 35.0625, 35, 35, 35.0625, 34.9375, 35, 35, 35, 35.125, 35.1875, 35.205357, 35.4375, 35.5, 35.6875, 35.8125, 35.875, 35.75, 35.625, 35.6875, 35.6875, 35.8125, 35.9375, 35.9375, 35.875, 35.875, 35.875, 35.875, 35.9375, 36, 35.90625, 35.78125, 35.78125, 35.78125, 35.875, 35.9375, 35.9375, 35.9375, 35.9375, 36, 36, 36, 36.0625, 36.0625, 36.1875, 36.25, 36.25, 36.333332, -10, -10, -10, -10, -10, -10, -10, -10, -10, -10, -10, -10, -10, -10, -10, -10, -10, -10, -10, -10, -10, -10, -10, -10, -10, 32.5, 32.333336, 32.25, 32.125, 32, 32, 32, 31.9375, 31.6875, 31.4375, 31.1875, 30.9375, 30.75, 30.5, 30.25, 30.0625, 30, 30, 30, 29.9375, 29.866072, 29.6875, 29.75, 29.928572, 30.107143, 30.1875, 30.0625, 29.803572, 29.416666, 29.267857, 29.375, 29.5625, 29.455357, 29.455357, 29.4375, 29.616072, 29.857143, 29.9375, 30.0625, 30.0625, 30.0625, 30.0625, 30.0625, 30.0625, 30, 30, 30, 29.9375, 29.9375, 29.9375, 29.9375, 29.9375, 29.9375, 29.9375, 29.9375, 30.0625, 30.1875, 30.3125, 30.4375, 30.625, 30.75, 30.75, 30.875, 30.875, 30.75, 30.8125, 30.8125, 30.8125, 30.875, 30.9375, 31.125, 31.285713, 31.3125, 31.3125, 31.125, 31, 31, 31.0625, 31.0625, 31.0625, 31.0625, 31, 31, 31, 31, 31, 31, 30.9375, 30.9375, 30.9375, 31, 31.1875, 31.160713, 31.080357, 30.857143, 30.455357, 30.258928, 30.1875, 30.375, 30.625, 30.9375, 31.125, 31.3125, 31.5, 31.5625, 31.6875, 31.625, 31.625, 31.6875, 31.75, 31.875, 31.9375, 32, 32, 32, 32, 32, 32, 31.9375, 31.75, 31.5625, 31.375, 31.4375, 31.5625, 31.625, 31.517857, 31.446428, 31.5625, 31.75, 31.9375, 31.875, 31.875, 31.875, 31.875, 32, 32, 32, 32, 32, 32, 32.0625, 32.0625, 32.0625, 32, 31.9375, 31.9375, 31.875, 31.839287, 31.875, 32, 32.1875, 32.1875, 32.125, 32.026787, 32, 32, 32.0625, 31.9375, 31.9375, 31.9375, 31.875, 31.9375, 32, 32.0625, 32.1875, 32.1875, 32.0625, 32.0625, 32.294643, 32.428574, 32.6875, 32.8125, 32.875, 33, 33, 33, 32.875, 32.875, 32.875, 32.875, 33.0625, 33.1875, 33.160713, 33.089287, 33.0625, 32.9375, 33, 33, 33.0625, 33.125, 33.125, 33.125, 33.125, 33.098213, 33, 32.964287, 32.9375, 33, 33.125, 33.1875, 33.1875, 33.0625, 33.0625, 33.0625, 33.125, 33.1875, 33.25, 33.25, 33.1875, 33.1875, 33.0625, 33.125, 33.25, 33.3125, 33.4375, 33.5, 33.625, 33.8125, 34, 34.035713, 33.892857, 33.892857, 33.875, 33.9375, 34, 34, 34, 34, 34, 34, 34, 34, 34, 34, 34, 34, 34.0625, 34.0625, 34, 33.9375, 33.875, 33.9375, 34, 34.0625, 34.0625, 34, 34, 33.9375, 33.875, 33.8125, 33.8125, 33.875, 33.9375, 34, 34, 34, 33.875, 33.714287, 33.598213, 33.5625, 33.75, 33.973213, 34.0625, 33.875, 33.839287, 33.848213, 33.875, 34.0625, 33.9375, 33.9375, 34, 34.044643, 34.1875, 34.25, 34.25, 34.3125, 34.3125, 34.375, 34.5625, 34.958332, 35.116074, 35.3125, 35.366074, 35.125, 34.921429, 34.916668, 34.705357, 35.125, 35.321426, 35.5, 35.5, 35.25, 35.1875, 35.3125, 35.375, 35.4375, 35.4375, 35.25, 35.3125, 35.4375, 35.375, 35.3125, 35.1875, 35.0625, 35.1875, 35.125, 35.0625, 35.125, 35.0625, 35.223213, 35.3125, 35.3125, 35.3125, 35.25, 35.205357, 35.3125, 35.375, 35.5625, 35.625, 35.75, 35.75, 35.785713, 35.875, 35.875, 35.875, 35.9375, 35.9375, 35.9375, 36, 36, 36, 36, 36, 35.96875, 35.90625, 35.90625, 35.90625, 35.9375, 35.9375, 35.9375, 35.9375, 35.9375, 36, 36, 36.0625, 36.1875, 36.1875, 36.3125, 36.3125, 36.3125, 36.416664, -10, -10, -10
29.928572, 30.044643, 30.125, 30.0625, 29.866072, 29.541666, 29.392857, 29.375, 29.4375, 29.330357, 29.330357, 29.4375, 29.678572, 29.919643, 30, 30.0625, 30.0625, 30, 30, 30, 30, 30, 30, 30, 30, 30, 30, 30, 29.9375, 29.9375, 29.9375, 29.9375, 30, 30.0625, 30.1875, 30.25, 30.5, 30.6875, 30.6875, 30.875, 30.875, 30.75, 30.75, 30.6875, 30.625, 30.625, 30.75, 31, 31.223213, 31.3125, 31.3125, 31.125, 31, 31, 31.0625, 31.0625, 31.0625, 31.0625, 31, 31, 31, 31, 31, 31, 31, 31.0625, 31.0625, 31.125, 31.1875, 31.098213, 31.049107, 30.888393, 30.674107, 30.526785, 30.375, 30.5625, 30.6875, 31, 31, 31.151787, 31.482143, 31.616072, 31.8125, 31.8125, 31.8125, 31.875, 31.9375, 32, 32, 32, 32, 32, 32, 32, 32, 31.9375, 31.8125, 31.6875, 31.5625, 31.625, 31.625, 31.625, 31.625, 31.625, 31.75, 31.875, 32, 31.875, 31.875, 31.875, 31.875, 32, 32.0625, 32.0625, 32.0625, 32.0625, 32, 32, 32, 32, 31.875, 31.8125, 31.8125, 31.75, 31.776787, 31.875, 31.9375, 32.0625, 32.0625, 32.0625, 32.0625, 32.0625, 32.0625, 32.0625, 31.9375, 31.9375, 31.9375, 31.84375, 31.84375, 31.84375, 31.90625, 32.0625, 32.125, 32, 31.875, 32.044643, 32.116074, 32.4375, 32.6875, 32.8125, 33, 33, 33, 32.875, 32.875, 32.875, 32.875, 33.0625, 33.1875, 33.160713, 33.089287, 33.0625, 32.9375, 33, 33, 33.125, 33.1875, 33.1875, 33.1875, 33.125, 33.098213, 33, 33.026787, 33, 33, 33.125, 33.125, 33.125, 33.125, 33.1875, 33.25, 33.375, 33.375, 33.375, 33.232143, 33.026787, 33.0625, 32.9375, 33.0625, 33.125, 33.1875, 33.375, 33.5, 33.6875, 33.875, 34.125, 34.160713, 34.017857, 34.017857, 33.875, 33.9375, 34, 34, 34, 34, 34, 34, 34, 34, 34, 34, 34, 34, 34.0625, 34, 34, 34, 34.0625, 34.25, 34.25, 34.25, 34.125, 34, 34, 33.9375, 33.8125, 33.75, 33.75, 33.8125, 33.9375, 34, 34, 34, 33.9375, 33.75, 33.625, 33.625, 33.75, 33.973213, 34, 33.875, 33.901787, 33.973213, 34, 34.125, 34, 34, 34, 33.9375, 34, 34, 33.9375, 33.9375, 33.9375, 34.0625, 34.491074, 34.958332, 35.157738, 35.5625, 35.544643, 35.267857, 34.983929, 34.916668, 34.705357, 35.125, 35.258926, 35.375, 35.375, 35.125, 35.125, 35.3125, 35.4375, 35.5625, 35.553574, 35.166668, 35.205357, 35.3125, 35.3125, 35.3125, 35.1875, 35.0625, 35.25, 35.25, 35.25, 35.3125, 35.1875, 35.348213, 35.375, 35.375, 35.3125, 35.125, 35.017857, 35.0625, 35.125, 35.3125, 35.5, 35.6875, 35.8125, 35.973213, 36, 36, 36, 36, 36, 36, 36, 36, 36, 36, 36, 36, 36, 36, 36, 36, 36, 36, 36, 36, 36, 36, 36.125, 36.25, 36.3125, 36.4375, 36.375, 36.375, 36.416664, -10, -10, -10, -10, -10, -10, -10, -10, -10, -10, -10, -10, -10, -10, -10, -10, -10, -10, -10, -10, -10, -10, -10, -10, -10, 32.5, 32.5, 32.375, 32.25, 32.0625, 31.875, 31.8125, 31.625, 31.4375, 31.25, 31, 30.875, 30.6875, 30.4375, 30.25, 30.0625, 30, 30, 29.875, 29.8125, 29.678572, 29.5, 29.6875, 29.866072, 30.044643, 30.125, 30.125, 29.991072, 29.729166, 29.642857, 29.625, 29.5625, 29.330357, 29.330357, 29.4375, 29.803572, 30.107143, 30.125, 30.0625, 30, 30, 30.035713, 30.0625, 30.0625, 30.0625, 30.0625, 30.0625, 30.0625, 30, 30, 30, 29.9375, 29.9375, 29.9375, 29.9375, 30, 30, 30.0625, 30.0625, 30.3125, 30.5625, 30.6875, 30.9375, 30.9375, 30.8125, 30.6875, 30.625, 30.5625, 30.5625, 30.75, 30.9375, 31.035713, 31.125, 31.125, 31, 31, 31.0625, 31.0625, 31.0625, 31.0625, 31, 31, 31, 31, 30.9375, 30.875, 30.875, 30.875, 31.0625, 31.1875, 31.3125, 31.3125, 31.1875, 31.21875, 31.066963, 30.986607, 30.8125, 30.589287, 30.75, 30.75, 31, 30.9375, 31.089287, 31.419643, 31.678572, 31.9375, 32, 32.03125, 32.0625, 32.125, 32.1875, 32.15625, 32.125, 32.0625, 32, 32, 32, 32, 31.866072, 31.674999, 31.741072, 31.616072, 31.75, 31.75, 31.75, 31.8125, 31.8125, 31.875, 31.9375, 32, 31.9375, 31.9375, 31.875, 31.875, 31.9375, 32, 32.0625, 32.0625, 32.0625, 32, 32, 32, 32, 31.8125, 31.6875, 31.6875, 31.625, 31.651787, 31.8125, 31.8125, 31.9375, 32, 32, 32.0625, 32.0625, 32.0625, 32.0625, 31.9375, 31.9375, 31.9375, 31.90625, 31.90625, 31.90625, 31.90625, 32, 32, 31.875, 31.8125, 31.919643, 32.053574, 32.375, 32.625, 32.8125, 33, 33, 33, 32.875, 32.8125, 32.75, 32.6875, 32.875, 33.0625, 33.098213, 33.089287, 33.0625, 32.9375, 33, 33, 33.125, 33.1875, 33.1875, 33.1875, 33.125, 33.098213, 33, 33.026787, 33, 33, 33.1875, 33.160713, 33.017857, 33.080357, 33.125, 33.25, 33.4375, 33.375, 33.3125, 33.169643, 32.964287, 33, 32.9375, 33, 33, 33.0625, 33.25, 33.4375, 33.6875, 33.875, 34.1875, 34.285713, 34.142857, 34.142857, 33.9375, 33.9375, 34, 34, 34, 34, 34, 34, 34, 34, 34, 34, 33.9375, 33.964287, 34.098213, 33.9375, 33.892857, 33.875, 34, 34.285713, 34.3125, 34.3125, 34.1875, 34.0625, 34.0625, 34, 33.75, 33.6875, 33.6875, 33.75, 33.9375, 34, 34, 34, 34, 33.875, 33.8125, 33.8125, 33.875, 34.098213, 34.0625, 34, 34.089287, 34.160713, 34.1875, 34.25, 34.0625, 34, 34, 33.9375, 33.9375, 33.8125, 33.6875, 33.625, 33.625, 33.875, 34.366074, 34.833332, 35.095238, 35.5, 35.482143, 35.205357, 34.921429, 34.854168, 34.642857, 35.0625, 35.133926, 35.25, 35.25, 35.0625, 35.125, 35.3125, 35.5, 35.6875, 35.741074, 35.345238, 35.205357, 35.25, 35.1875, 35.25, 35.125, 35.0625, 35.25, 35.25, 35.25, 35.25, 35.125, 35.285713, 35.3125, 35.375, 35.375, 35.25, 35.125, 35.0625, 35.125, 35.258926, 35.625, 35.75, 35.9375, 36.035713, 36.0625, 36.0625, 36, 36, 36, 36, 36, 36, 36, 36, 36, 36.0625, 36.125, 36.1875, 36.1875, 36.125, 36.0625, 36, 36, 36, 36, 36, 36.1875, 36.375, 36.4375, 36.5, 36.375, 36.3125, 36.333332, -10, -10, -10
29.803572, 30.044643, 30.125, 30.1875, 30.116072, 29.916666, 29.892857, 29.875, 29.8125, 29.642857, 29.642857, 29.6875, 29.875, 30, 30, 29.9375, 29.9375, 30, 30.035713, 30.0625, 30.0625, 30.0625, 30.0625, 30.0625, 30.0625, 30, 30, 30, 29.9375, 29.9375, 30, 30, 30.0625, 30.125, 30.125, 30.125, 30.375, 30.5, 30.6875, 30.875, 30.8125, 30.75, 30.5, 30.5, 30.5, 30.5, 30.75, 30.875, 30.848213, 30.9375, 30.9375, 30.875, 31, 31.0625, 31.0625, 31.0625, 31.0625, 31, 31, 31, 31, 30.875, 30.8125, 30.8125, 30.8125, 31.0625, 31.25, 31.4375, 31.4375, 31.3125, 31.28125, 31.129463, 31.111607, 31, 30.776787, 30.875, 30.8125, 31, 30.9375, 31.026787, 31.357143, 31.616072, 31.8125, 31.875, 31.78125, 31.6875, 31.892857, 31.918367, 32.010414, 32.0625, 32, 31.9375, 31.9375, 31.9375, 32, 31.857143, 31.549999, 31.678572, 31.553572, 31.75, 31.8125, 31.875, 32, 32, 32, 32, 32, 32, 32, 31.9375, 31.9375, 31.9375, 32, 32, 32, 32, 31.9375, 32, 32, 32, 31.875, 31.8125, 31.875, 31.875, 31.901787, 32, 31.9375, 32, 32, 32, 32.0625, 32.0625, 32.0625, 32.0625, 32, 32.0625, 32.1875, 32.177082, 32.006248, 32.072918, 31.822916, 32.178574, 32.178574, 32.053574, 31.8125, 31.919643, 31.991072, 32.375, 32.625, 32.8125, 33, 33, 33, 32.8125, 32.6875, 32.5625, 32.5, 32.6875, 32.875, 32.973213, 32.964287, 33, 32.9375, 33, 33, 33.125, 33.1875, 33.1875, 33.125, 33, 32.848213, 32.776787, 32.9375, 32.9375, 33.0625, 33.125, 33.035713, 32.830357, 32.892857, 33, 33.1875, 33.4375, 33.375, 33.375, 33.232143, 33.089287, 33.125, 33, 33, 32.9375, 33, 33.125, 33.375, 33.5625, 33.75, 34.0625, 34.1875, 34.25, 34.25, 34.0625, 34, 33.9375, 33.875, 33.8125, 33.8125, 33.875, 33.9375, 34, 34, 34.0625, 34.125, 34.1875, 34.25, 34.241074, 34.008926, 33.892857, 33.8125, 33.9375, 34.223213, 34.25, 34.375, 34.3125, 34.3125, 34.348213, 34.133926, 33.8125, 33.6875, 33.625, 33.714287, 34.044643, 34.178574, 34.1875, 34.125, 34.0625, 33.9375, 33.9375, 33.9375, 34, 34.160713, 34.125, 34.125, 34.276787, 34.410713, 34.375, 34.375, 34.125, 34, 34.0625, 34.125, 34.125, 34, 33.8125, 33.625, 33.625, 33.9375, 34.491074, 34.994045, 35.220238, 35.5, 35.294643, 34.997025, 34.821426, 34.6875, 34.75, 35.0625, 35.160713, 35.25, 35.25, 35.0625, 35.125, 35.3125, 35.5625, 35.8125, 35.857143, 35.261906, 35.059525, 35.208332, 35.169643, 35.25, 35.205357, 35.262501, 35.258926, 35.258926, 35.1875, 35.1875, 35.1875, 35.348213, 35.375, 35.4375, 35.375, 35.25, 35.1875, 35.0625, 35.0625, 35.133926, 35.4375, 35.625, 35.875, 36.035713, 36.0625, 36.0625, 36, 36, 36, 36, 36, 36, 36, 36, 36, 36.0625, 36.125, 36.25, 36.25, 36.1875, 36.125, 36, 36, 36, 36, 36, 36.1875, 36.3125, 36.375, 36.375, 36.1875, 36.125, 36.083332, -10, -10, -10, -10, -10, -10, -10, -10, -10, -10, -10, -10, -10, -10, -10, -10, -10, -10, -10, -10, -10, -10, -10, -10, -10, 33, 33, 32.75, 32.5, 32.1875, 31.875, 31.6875, 31.4375, 31.25, 31.0625, 30.9375, 30.8125, 30.5625, 30.3125, 30.125, 30, 30, 30, 29.8125, 29.625, 29.5, 29.5, 29.6875, 29.875, 29.9375, 29.9375, 29.9375, 29.9375, 30, 30, 29.9375, 29.8125, 29.75, 29.75, 29.8125, 29.9375, 30, 30.0625, 30, 30, 30, 29.973213, 30.0625, 30.0625, 30.125, 30.125, 30.0625, 30.0625, 30, 30, 30, 29.9375, 29.9375, 30, 30.0625, 30.1875, 30.3125, 30.3125, 30.25, 30.375, 30.375, 30.5625, 30.75, 30.6875, 30.6875, 30.5, 30.5, 30.5625, 30.625, 30.8125, 30.875, 30.8125, 30.875, 30.875, 30.8125, 30.9375, 31, 31, 31.0625, 31.0625, 31, 31, 31, 31, 30.875, 30.8125, 30.8125, 30.875, 31.125, 31.3125, 31.4375, 31.375, 31.25, 31.15625, 31.09375, 31.21875, 31.17857, 31.035715, 31.25, 31.053572, 31.041666, 30.9375, 30.964287, 31.366072, 31.824404, 31.982143, 32, 31.90625, 31.714285, 31.583334, 31.642859, 32.072914, 32.0625, 31.9375, 31.875, 31.875, 31.875, 32, 31.794643, 31.424999, 31.553572, 31.428572, 31.6875, 31.8125, 31.875, 32, 32, 32, 32, 32, 32, 32, 31.9375, 31.9375, 31.9375, 31.9375, 31.875, 31.875, 31.875, 31.875, 32, 32, 32, 32, 32, 32, 32, 32, 32, 32, 32, 32, 32, 32, 32, 32.0625, 32.035713, 31.964287, 32.125, 32.366074, 32.427082, 32.220535, 32.260418, 31.885416, 32.241074, 32.178574, 32.116074, 31.875, 31.8125, 31.8125, 32.1875, 32.5, 32.75, 33, 32.9375, 32.964287, 32.919643, 32.770832, 32.5625, 32.5, 32.625, 32.8125, 32.9375, 33, 33, 33, 33, 33, 33.0625, 33.0625, 33.0625, 33, 32.875, 32.8125, 32.8125, 32.9375, 33, 33.0625, 33.1875, 33.098213, 32.892857, 32.955357, 32.9375, 33.0625, 33.3125, 33.25, 33.25, 33.232143, 33.151787, 33.25, 33.1875, 33.125, 33, 33, 33.125, 33.3125, 33.4375, 33.5625, 33.8125, 33.9375, 34.0625, 34.125, 34, 34, 33.9375, 33.875, 33.75, 33.6875, 33.75, 33.8125, 33.9375, 34, 34.125, 34.160713, 34.080357, 34.142857, 34.053574, 33.883926, 33.830357, 33.8125, 33.9375, 34.160713, 34.1875, 34.25, 34.3125, 34.375, 34.410713, 34.196426, 33.875, 33.8125, 33.75, 33.839287, 34.107143, 34.178574, 34.1875, 34.125, 34.0625, 34, 34.0625, 34.0625, 34.0625, 34.125, 34.0625, 34.125, 34.3125, 34.375, 34.375, 34.3125, 34.125, 34.0625, 34.1875, 34.3125, 34.3125, 34.1875, 33.9375, 33.75, 33.8125, 34.0625, 34.633926, 34.910713, 34.958336, 35.357143, 35.116074, 35.142857, 35, 34.9375, 35, 35.1875, 35.1875, 35.1875, 35.1875, 35.0625, 35.125, 35.3125, 35.4375, 35.5625, 35.482143, 34.824406, 34.559525, 34.770832, 34.857143, 35.0625, 35.205357, 35.262501, 35.196426, 35.196426, 35.0625, 35.0625, 35, 35.0625, 35.125, 35.25, 35.3125, 35.3125, 35.3125, 35.25, 35.25, 35.321426, 35.625, 35.75, 35.9375, 36, 36, 36, 36, 36, 36, 36, 36, 36, 36, 36, 36, 36.0625, 36.125, 36.25, 36.25, 36.1875, 36.125, 36, 36, 36, 36, 36, 36.125, 36.1875, 36.25, 36.3125, 36.1875, 36.125, 36.083332, -10, -10, -10
29.875, 30, 30, 30, 30, 30, 29.9375, 29.9375, 29.875, 29.8125, 29.875, 29.875, 29.9375, 30, 30.125, 30.0625, 30.0625, 30.125, 30.035713, 30.1875, 30.1875, 30.1875, 30.1875, 30.0625, 30.0625, 30, 30, 30, 30, 30, 30.0625, 30.125, 30.1875, 30.3125, 30.25, 30.1875, 30.25, 30.25, 30.5, 30.6875, 30.625, 30.5625, 30.4375, 30.5, 30.6875, 30.875, 31, 31, 30.875, 30.875, 30.875, 30.8125, 30.9375, 31, 31, 31, 30.9375, 30.875, 30.875, 30.9375, 31, 30.875, 30.8125, 30.8125, 30.8125, 31, 31.1875, 31.3125, 31.3125, 31.25, 31.125, 31, 31.125, 31.098213, 31.160715, 31.4375, 31.223215, 30.958332, 30.892857, 30.875, 31.258928, 31.770832, 31.919643, 32, 31.90625, 32, 32.035713, 32.061226, 32.072914, 32.0625, 31.9375, 31.875, 31.875, 31.875, 32, 31.732143, 31.362499, 31.491072, 31.366072, 31.6875, 31.8125, 31.875, 32, 32, 32, 32, 32, 32, 32, 31.875, 31.875, 31.875, 31.875, 31.875, 31.875, 31.875, 31.875, 32, 32, 32, 32.0625, 32.125, 32.1875, 32.1875, 32.125, 32.125, 32.125, 32.125, 32.125, 32.0625, 32, 32, 32.0625, 32.035713, 31.964287, 32.125, 32.366074, 32.458332, 32.314285, 32.479168, 32.104164, 32.428574, 32.303574, 32.178574, 32, 31.9375, 32, 32.3125, 32.5625, 32.8125, 33, 32.9375, 33.026787, 33.107143, 33.020832, 32.803574, 32.395832, 32.375, 32.5625, 32.794643, 32.9375, 33, 33, 33, 33, 33.0625, 33.0625, 33.0625, 33, 32.875, 32.8125, 32.8125, 32.875, 32.9375, 32.9375, 33.0625, 33.035713, 32.830357, 32.892857, 32.8125, 32.875, 33.125, 33.1875, 33.25, 33.375, 33.375, 33.375, 33.3125, 33.125, 33, 32.9375, 33, 33.125, 33.1875, 33.3125, 33.5625, 33.75, 33.9375, 34.0625, 34, 34, 33.9375, 33.875, 33.6875, 33.625, 33.6875, 33.75, 33.9375, 34.0625, 34.25, 34.348213, 34.267857, 34.267857, 34.116074, 33.946426, 33.892857, 33.875, 33.9375, 34.035713, 34.0625, 34.125, 34.25, 34.375, 34.410713, 34.196426, 34, 33.9375, 33.875, 33.964287, 34.107143, 34.178574, 34.1875, 34.0625, 34, 33.9375, 33.9375, 34.0625, 34.0625, 34.125, 34.125, 34.0625, 34.125, 34.1875, 34.1875, 34.1875, 34.0625, 34, 34.1875, 34.419643, 34.4375, 34.3125, 34.0625, 33.9375, 34.0625, 34.25, 34.580357, 34.785713, 34.791668, 35.044643, 34.875, 34.875, 34.8125, 34.8125, 34.9375, 35.125, 35.125, 35.125, 35.1875, 35.125, 35.1875, 35.3125, 35.3125, 35.375, 35.303574, 34.907738, 34.666668, 34.958332, 35.044643, 35.1875, 35.330357, 35.325001, 35.133926, 35.196426, 35.0625, 35.0625, 35, 34.9375, 35, 35.125, 35.3125, 35.4375, 35.5, 35.5, 35.5, 35.571426, 35.8125, 35.875, 36, 36, 36, 36, 36, 36, 36, 36, 36, 36, 36, 36, 36, 36.0625, 36.125, 36.25, 36.25, 36.1875, 36.125, 36, 36, 36, 36, 36, 36.0625, 36.125, 36.125, 36.25, 36.25, 36.1875, 36.25, -10, -10, -10, -10, -10, -10, -10, -10, -10, -10, -10, -10, -10, -10, -10, -10, -10, -10, -10, -10, -10, -10, -10, -10, 32.5, 32.833336, 32.75, 32.6875, 32.4375, 32.1875, 32.0625, 31.875, 31.6875, 31.5, 31.25, 31.125, 31, 30.6875, 30.4375, 30.1875, 30, 30, 30, 29.9375, 29.8125, 29.75, 29.75, 29.8125, 29.9375, 30, 30, 30, 30, 30, 29.875, 29.875, 29.875, 29.875, 30, 30, 30, 30, 30.0625, 30.0625, 30.0625, 30.0625, 30, 30.125, 30.125, 30.125, 30.125, 30, 30, 30, 30, 30, 30, 30, 30.0625, 30.125, 30.1875, 30.3125, 30.25, 30.1875, 30.25, 30.25, 30.4375, 30.625, 30.5625, 30.4375, 30.4375, 30.4375, 30.642857, 30.9375, 30.892857, 31, 30.875, 30.9375, 30.9375, 30.875, 30.9375, 30.9375, 30.9375, 30.875, 30.75, 30.75, 30.75, 30.875, 31, 30.9375, 30.9375, 30.9375, 30.9375, 31, 31.0625, 31.125, 31.125, 31.125, 31.0625, 31, 31.125, 31.125, 31.258928, 31.5, 31.357143, 31.291666, 31.25, 31.125, 31.348215, 31.770832, 31.857143, 32, 31.875, 31.6875, 31.625, 31.669643, 31.916666, 32, 31.9375, 31.875, 31.875, 31.9375, 32.0625, 31.866072, 31.625, 31.5625, 31.4375, 31.6875, 31.8125, 31.875, 32, 32, 32, 32, 32, 32, 32, 31.9375, 31.9375, 31.9375, 31.9375, 31.875, 31.875, 31.875, 31.875, 32.0625, 32.125, 32.1875, 32.3125, 32.375, 32.375, 32.375, 32.3125, 32.3125, 32.375, 32.3125, 32.3125, 32.1875, 32.0625, 32.0625, 32.0625, 32.035713, 32.026787, 32.1875, 32.428574, 32.583332, 32.376785, 32.541668, 32.229164, 32.553574, 32.553574, 32.491074, 32.25, 32.125, 32.125, 32.375, 32.5625, 32.75, 32.875, 32.8125, 32.901787, 33.13393, 33.145832, 32.8125, 32.538689, 32.4375, 32.5625, 32.794643, 32.875, 32.9375, 33, 33, 33, 33.125, 33.125, 33.125, 33.0625, 32.8125, 32.6875, 32.6875, 32.75, 32.875, 32.875, 32.875, 32.875, 32.8125, 32.9375, 33, 33, 33.25, 33.375, 33.4375, 33.5625, 33.5, 33.4375, 33.3125, 33.125, 33, 32.8125, 32.75, 32.8125, 32.875, 33.098213, 33.25, 33.479168, 33.833332, 34, 34.125, 34.0625, 34, 33.9375, 33.6875, 33.625, 33.6875, 33.6875, 33.875, 34.0625, 34.357143, 34.473213, 34.455357, 34.36607, 34.080357, 34.008926, 34, 34, 34, 34, 34, 34.0625, 34.1875, 34.3125, 34.348213, 34.133926, 34.0625, 34, 33.9375, 34.089287, 34.232143, 34.285713, 34.1875, 34.0625, 33.875, 33.8125, 33.75, 33.883926, 34.0625, 34.0625, 34.125, 33.9375, 33.9375, 34, 34, 34.0625, 34, 34, 34.25, 34.482143, 34.5625, 34.5625, 34.375, 34.3125, 34.375, 34.4375, 34.642857, 34.848213, 34.854168, 35.107143, 34.875, 34.875, 34.8125, 34.8125, 35, 35.125, 35.0625, 35.0625, 35.125, 35.0625, 35.125, 35.1875, 35.125, 35.125, 35.053574, 34.729168, 34.729168, 35.083332, 35.294643, 35.366074, 35.247025, 35.217857, 35.008926, 35.071426, 35, 34.9375, 34.8125, 34.8125, 34.875, 35.0625, 35.375, 35.5625, 35.625, 35.5625, 35.5, 35.607143, 35.741074, 35.875, 35.9375, 36, 36, 36, 36, 36, 36, 36, 36, 36, 36, 36, 36, 36, 36, 36.0625, 36.0625, 36.0625, 36.0625, 36, 36, 35.9375, 35.9375, 35.9375, 35.9375, 36, 36, 36.125, 36.25, 36.25, 36.333332, -10, -10, -10
29.9375, 29.875, 29.875, 29.875, 29.9375, 30, 29.875, 29.875, 29.875, 29.875, 30, 30, 30, 30.0625, 30.098213, 30.026787, 30.0625, 30, 30, 30.125, 30.125, 30.125, 30.125, 30, 30, 30, 30, 30, 30, 30, 30.0625, 30.125, 30.1875, 30.25, 30.1875, 30.1875, 30.25, 30.375, 30.5, 30.6875, 30.6875, 30.5625, 30.625, 30.5, 30.580357, 30.75, 30.705357, 30.875, 30.875, 30.9375, 30.9375, 30.875, 30.8125, 30.875, 30.875, 30.8125, 30.75, 30.75, 30.75, 30.875, 31, 31, 31, 31, 31, 31, 31, 31, 31.0625, 31.0625, 31.0625, 31.0625, 31.1875, 31.1875, 31.321428, 31.5625, 31.294643, 31.255951, 31.285713, 31.125, 31.410715, 31.770832, 31.919643, 32.125, 32.125, 31.991072, 31.862499, 31.991072, 31.928572, 31.9375, 31.875, 31.875, 31.875, 32, 32.0625, 31.9375, 31.875, 31.8125, 31.75, 31.875, 31.9375, 32, 32.0625, 32.0625, 32.0625, 32, 32, 32, 32, 31.9375, 31.9375, 31.9375, 31.9375, 31.9375, 31.9375, 31.9375, 32, 32.1875, 32.3125, 32.375, 32.375, 32.3125, 32.25, 32.3125, 32.3125, 32.4375, 32.5625, 32.5, 32.5625, 32.4375, 32.3125, 32.25, 32.1875, 32.098213, 32.026787, 32.125, 32.241074, 32.375, 32.276787, 32.375, 32.375, 32.5, 32.5, 32.4375, 32.3125, 32.1875, 32.3125, 32.5, 32.625, 32.6875, 32.75, 32.625, 32.714287, 33.00893, 33.020832, 32.75, 32.538689, 32.375, 32.4375, 32.607143, 32.6875, 32.75, 32.875, 32.9375, 32.9375, 33.125, 33.125, 33.1875, 33.25, 33.044643, 32.791668, 32.791668, 32.958332, 33.116074, 33.125, 33.0625, 33, 32.9375, 33, 33.125, 33.125, 33.3125, 33.4375, 33.4375, 33.5625, 33.4375, 33.375, 33.25, 33.125, 33.0625, 32.803574, 32.5625, 32.633926, 32.916668, 33.142857, 33.25, 33.416668, 33.708332, 33.9375, 34.125, 34.0625, 34.0625, 34.0625, 33.875, 33.8125, 33.8125, 33.75, 33.875, 34.125, 34.357143, 34.348213, 34.098213, 33.955357, 33.8125, 33.875, 34, 34.0625, 34.0625, 34.0625, 34.0625, 34.0625, 34.125, 34.125, 34.125, 34.0625, 34.0625, 34.0625, 34.0625, 34.125, 34.125, 34.107143, 34, 33.9375, 33.75, 33.6875, 33.642857, 33.925594, 34.09375, 34.15625, 34.15625, 33.875, 33.8125, 33.8125, 33.875, 34.0625, 34.0625, 34.125, 34.25, 34.419643, 34.5625, 34.625, 34.5625, 34.5625, 34.625, 34.625, 34.705357, 34.8125, 34.791668, 35.044643, 34.875, 34.875, 34.8125, 34.8125, 35, 35.0625, 34.9375, 34.9375, 35, 35, 35.125, 35.125, 35, 34.9375, 34.875, 34.8125, 34.875, 35.125, 35.294643, 35.157738, 34.925594, 34.767857, 34.75, 34.875, 34.9375, 35, 34.848213, 34.776787, 34.875, 34.9375, 35.3125, 35.5, 35.5, 35.5, 35.4375, 35.607143, 35.803574, 35.9375, 36, 36, 36, 36, 36, 36, 36, 36, 36, 36, 36, 36, 36, 36, 36, 36, 36, 36, 36, 36, 35.9375, 35.901787, 36.044643, 36.044643, 36.0625, 36.0625, 36, 36.125, 36.1875, 36.1875, 36.25, -10, -10, -10, -10, -10, -10, -10, -10, -10, -10, -10, -10, -10, -10, -10, -10, -10, -10, -10, -10, -10, -10, -10, -10, 32.5, 32.583336, 32.5625, 32.625, 32.375, 32.1875, 32.0625, 32, 31.9375, 31.8125, 31.5625, 31.3125, 31.125, 30.75, 30.5625, 30.3125, 30.0625, 30.0625, 30, 30, 30, 30, 30, 30, 29.875, 29.75, 29.6875, 29.6875, 29.8125, 29.9375, 29.875, 29.875, 29.875, 29.875, 30, 30, 30, 30.0625, 30.035713, 29.964287, 30, 30, 30.0625, 30.125, 30.125, 30.0625, 30.0625, 30, 30, 30, 30, 30, 30, 30, 30.125, 30.1875, 30.25, 30.25, 30.125, 30.1875, 30.25, 30.4375, 30.5, 30.5625, 30.625, 30.5625, 30.625, 30.5625, 30.580357, 30.6875, 30.705357, 30.875, 30.875, 30.9375, 30.9375, 30.9375, 30.8125, 30.875, 30.875, 30.75, 30.75, 30.75, 30.75, 30.875, 31, 31, 31, 31, 31, 31, 31, 31.0625, 31.1875, 31.1875, 31.1875, 31.1875, 31.3125, 31.375, 31.4375, 31.4375, 31.178572, 31.276785, 31.348213, 31.25, 31.401787, 31.5, 31.6875, 31.9375, 32, 31.866072, 31.799999, 31.928572, 31.928572, 32, 31.9375, 31.875, 31.8125, 31.9375, 31.9375, 31.9375, 32, 31.9375, 31.9375, 32.0625, 32.125, 32.169643, 32.0625, 32.0625, 32, 31.9375, 31.9375, 31.9375, 31.9375, 31.9375, 31.9375, 31.875, 31.9375, 32, 32, 32.0625, 32.0625, 32.25, 32.375, 32.4375, 32.375, 32.1875, 32.125, 32.25, 32.3125, 32.5, 32.5625, 32.4375, 32.5, 32.375, 32.375, 32.3125, 32.1875, 32.125, 32.125, 32.1875, 32.1875, 32.3125, 32.25, 32.25, 32.375, 32.375, 32.375, 32.375, 32.3125, 32.3125, 32.5, 32.6875, 32.6875, 32.625, 32.5625, 32.4375, 32.5625, 32.714287, 32.75, 32.5625, 32.288689, 32.1875, 32.1875, 32.357143, 32.508926, 32.700001, 32.791668, 33.044643, 32.9375, 33.125, 33.0625, 33.125, 33.125, 33.00893, 32.827381, 32.791668, 33.020832, 33.116074, 33.125, 33, 32.9375, 32.875, 32.9375, 33.125, 33.125, 33.25, 33.375, 33.4375, 33.5, 33.375, 33.25, 33.0625, 32.9375, 32.9375, 32.803574, 32.5625, 32.526787, 32.738098, 32.955357, 33.125, 33.398811, 33.708332, 33.9375, 34.0625, 33.9375, 33.9375, 33.9375, 33.875, 33.9375, 33.875, 33.8125, 33.875, 34.0625, 34.294643, 34.25, 34.080357, 33.9375, 33.8125, 33.875, 34, 34, 34, 34, 34, 34.0625, 34.0625, 34.0625, 34.0625, 34, 34.125, 34.1875, 34.1875, 34.25, 34.1875, 34.107143, 34, 33.9375, 33.75, 33.6875, 33.705357, 34.050594, 34.21875, 34.28125, 34.21875, 33.875, 33.8125, 33.875, 34, 34.25, 34.3125, 34.3125, 34.375, 34.482143, 34.625, 34.75, 34.75, 34.75, 34.75, 34.75, 34.75, 34.8125, 34.875, 34.9375, 34.875, 34.8125, 34.8125, 34.8125, 34.9375, 35, 34.875, 34.8125, 34.875, 34.875, 35.0625, 35.125, 35.0625, 35.0625, 34.9375, 34.875, 35, 35.125, 35.169643, 34.934525, 34.550594, 34.455357, 34.5625, 34.75, 34.875, 34.9375, 34.785713, 34.714287, 34.875, 34.875, 35.1875, 35.375, 35.375, 35.4375, 35.4375, 35.607143, 35.803574, 35.9375, 36, 36, 36, 36, 36, 36, 36, 36, 36, 36, 36, 36, 36, 36, 36, 36, 36, 36, 36, 36, 35.9375, 35.964287, 36.107143, 36.107143, 36.125, 36.0625, 36, 36.0625, 36.0625, 36.0625, 36.083336, -10, -10, -10
29.8125, 29.6875, 29.625, 29.5625, 29.6875, 29.8125, 29.875, 29.875, 29.875, 29.875, 29.9375, 30, 30, 30, 29.910713, 29.839287, 29.875, 29.9375, 30.0625, 30.0625, 30.0625, 30, 30, 30, 30, 30, 29.96875, 29.90625, 29.90625, 29.90625, 30.125, 30.25, 30.3125, 30.3125, 30.1875, 30.25, 30.3125, 30.4375, 30.375, 30.375, 30.4375, 30.4375, 30.5625, 30.5625, 30.580357, 30.6875, 30.705357, 30.875, 30.875, 30.9375, 30.9375, 30.9375, 30.8125, 30.875, 30.8125, 30.75, 30.8125, 30.8125, 30.875, 30.9375, 31, 31, 31, 31, 31, 31.0625, 31.125, 31.169643, 31.1875, 31.1875, 31.125, 31.1875, 31.25, 31.375, 31.4375, 31.375, 31.196428, 31.422619, 31.455357, 31.375, 31.401787, 31.375, 31.5625, 31.875, 32.107143, 31.991072, 31.924999, 31.991072, 31.928572, 32, 31.9375, 31.8125, 31.75, 31.875, 31.875, 32, 32.0625, 32.0625, 32.0625, 32.1875, 32.3125, 32.276787, 32.0625, 32.0625, 31.875, 31.875, 31.9375, 32.044643, 32.0625, 32.125, 32.0625, 31.9375, 31.9375, 31.9375, 31.9375, 32, 32.0625, 32.25, 32.375, 32.5, 32.4375, 32.25, 32.125, 32.25, 32.375, 32.5, 32.5625, 32.375, 32.375, 32.3125, 32.3125, 32.25, 32.125, 32.125, 32.25, 32.3125, 32.3125, 32.375, 32.1875, 32.151787, 32.348213, 32.3125, 32.375, 32.375, 32.375, 32.4375, 32.625, 32.8125, 32.75, 32.5625, 32.4375, 32.3125, 32.375, 32.526787, 32.5, 32.258926, 32.267857, 32.25, 32.3125, 32.375, 32.446426, 32.575001, 32.729168, 33.080357, 33.0625, 33.169643, 32.892857, 32.955357, 32.875, 32.88393, 32.764881, 32.729168, 33.020832, 33.116074, 33.1875, 33.0625, 33, 32.9375, 32.9375, 33.125, 33.1875, 33.25, 33.3125, 33.375, 33.375, 33.3125, 33.25, 33.125, 32.973213, 32.901787, 32.928574, 32.732143, 32.776787, 33.050598, 33.142857, 33.25, 33.461311, 33.708332, 33.9375, 34, 33.8125, 33.75, 33.6875, 33.75, 33.9375, 34.044643, 34.0625, 34.0625, 34.125, 34.232143, 34.0625, 33.830357, 33.75, 33.6875, 33.8125, 34, 34, 34, 34, 34, 34.0625, 34.0625, 34.0625, 34.0625, 34, 34.0625, 34.1875, 34.160713, 34.080357, 34.080357, 33.982143, 33.9375, 34, 33.8125, 33.75, 33.767857, 33.925594, 34.03125, 34.09375, 34.03125, 33.8125, 33.875, 33.9375, 34.0625, 34.3125, 34.4375, 34.5, 34.5625, 34.625, 34.75, 34.875, 34.9375, 35, 35, 35.0625, 35.0625, 35, 34.892857, 34.875, 34.8125, 34.875, 34.875, 34.8125, 34.875, 34.875, 34.8125, 34.8125, 34.75, 34.75, 34.9375, 35.0625, 35.125, 35.125, 34.9375, 34.75, 34.75, 34.6875, 34.607143, 34.372025, 34.113094, 34.321426, 34.598213, 34.6875, 34.705357, 34.6875, 34.598213, 34.651787, 34.875, 34.9375, 35.15625, 35.34375, 35.40625, 35.46875, 35.5, 35.669643, 35.803574, 35.9375, 36, 36, 36, 36, 36, 36, 36, 36, 36, 36, 36, 36, 36, 36, 36, 36, 36, 36, 36, 36, 35.9375, 35.964287, 36.107143, 36.107143, 36.125, 36.0625, 36, 36, 35.875, 35.875, 35.833336, -10, -10, -10, -10, -10, -10, -10, -10, -10, -10, -10, -10, -10, -10, -10, -10, -10, -10, -10, -10, -10, -10, -10, -10, -10, 32.625, 32.729168, 32.625, 32.375, 32.25, 32, 32, 32, 31.8125, 31.5625, 31.3125, 31.0625, 30.75, 30.5625, 30.3125, 30.0625, 30.0625, 29.9375, 29.8125, 29.8125, 29.8125, 29.8125, 29.9375, 29.8125, 29.6875, 29.625, 29.5625, 29.6875, 29.8125, 29.9375, 29.9375, 29.9375, 29.9375, 29.9375, 30, 30, 30, 29.973213, 29.901787, 29.875, 29.9375, 30, 30, 30, 29.9375, 29.9375, 29.9375, 30, 30, 29.90625, 29.84375, 29.84375, 29.84375, 30.125, 30.3125, 30.375, 30.375, 30.25, 30.25, 30.3125, 30.4375, 30.375, 30.3125, 30.3125, 30.375, 30.5, 30.625, 30.6875, 30.6875, 30.8125, 30.8125, 30.8125, 30.75, 30.75, 30.8125, 30.75, 30.875, 30.8125, 30.8125, 30.9375, 30.9375, 31, 31, 31, 30.9375, 30.9375, 30.9375, 30.875, 31, 31.0625, 31.107143, 31.1875, 31.1875, 31.125, 31.1875, 31.25, 31.4375, 31.5625, 31.5625, 31.3125, 31.214287, 31.160713, 31.0625, 31.25, 31.3125, 31.5625, 31.875, 32.169643, 32.116074, 32.049999, 32.116074, 31.991072, 32, 31.9375, 31.875, 31.785713, 31.776787, 31.8125, 31.875, 32, 32.0625, 32.0625, 32.1875, 32.3125, 32.276787, 32.0625, 32, 31.839287, 31.982143, 32.116074, 32.232143, 32.1875, 32.1875, 32.0625, 31.9375, 31.9375, 31.875, 31.8125, 31.875, 31.9375, 32.1875, 32.375, 32.5, 32.4375, 32.25, 32.125, 32.25, 32.375, 32.5, 32.5, 32.3125, 32.25, 32.1875, 32.25, 32.1875, 32.125, 32.125, 32.25, 32.3125, 32.25, 32.142857, 32, 32.026787, 32.330357, 32.3125, 32.3125, 32.25, 32.3125, 32.5625, 32.875, 33.125, 33.0625, 32.8125, 32.5625, 32.375, 32.4375, 32.4375, 32.375, 32.25, 32.125, 32.125, 32.1875, 32.1875, 32.258926, 32.450001, 32.604168, 33.017857, 33.0625, 33.107143, 32.830357, 32.892857, 32.75, 32.82143, 32.782738, 32.854168, 33.145832, 33.241074, 33.25, 33.25, 33.25, 33.1875, 33.125, 33.125, 33.125, 33.1875, 33.25, 33.375, 33.4375, 33.375, 33.3125, 33.1875, 32.973213, 32.933037, 33.084824, 33.013393, 33.120537, 33.300598, 33.294643, 33.375, 33.544643, 33.6875, 33.875, 33.875, 33.75, 33.6875, 33.625, 33.75, 33.875, 34.00893, 34.232143, 34.232143, 34.25, 34.1875, 33.9375, 33.705357, 33.6875, 33.6875, 33.875, 34.125, 34.125, 34.125, 34.0625, 34, 34.0625, 34.0625, 34.0625, 34.0625, 34, 34.0625, 34.25, 34.223213, 34.080357, 34.017857, 33.875, 33.9375, 34, 33.9375, 33.875, 33.955357, 34.041668, 33.995537, 34.052082, 33.71875, 33.708332, 33.895832, 34, 34.1875, 34.3125, 34.5, 34.625, 34.6875, 34.8125, 34.875, 34.9375, 35, 34.9375, 35, 35.125, 35.160713, 35.125, 34.955357, 34.875, 34.875, 34.9375, 34.866074, 34.674999, 34.803574, 34.803574, 34.875, 34.875, 34.8125, 34.8125, 34.9375, 35.0625, 35.0625, 35, 34.75, 34.4375, 34.375, 34.142857, 34.030613, 34.005955, 34.008926, 34.241074, 34.598213, 34.6875, 34.642857, 34.625, 34.598213, 34.651787, 34.875, 34.9375, 35.03125, 35.15625, 35.28125, 35.40625, 35.5625, 35.6875, 35.8125, 35.9375, 36, 35.9375, 35.875, 35.875, 35.875, 35.9375, 36, 36, 36, 36, 36, 36, 36, 36, 36, 36, 36, 36, 36, 35.9375, 35.8125, 35.901787, 36.044643, 36.107143, 36.1875, 36.0625, 36, 36, 35.8125, 35.875, 35.833336, -10, -10, -10
