-10, -10, -10, -10, -10, -10, -10, -10, 43.375, 43.25, 43.1875, 43.0625, 43.0625, 43.125, 43.1875, 43.3125, 43.232143, 42.979168, 42.883926, 42.6875, 42.5, 42.25, 41.875, 41.5625, 41.375, 41.1875, 41.125, 41.0625, 40.9375, 40.9375, 40.9375, 40.75, 40.5625, 40.3125, 40, 39.8125, 39.6875, 39.5625, 39.357143, 39.125, 38.991074, 38.651787, 38.625, 38.4375, 38.3125, 38.1875, 38.053574, 37.666668, 37.4375, 37.613094, 37.535713, 37.4375, 37.125, 37, 36.9375, 36.8125, 36.5625, 36.3125, 36.125, 36.098213, 36.151787, 36.419643, 36.401787, 36.211311, 36.080357, 35.982143, 35.666668, 35.571426, 35.3125, 35.125, 35.0625, 34.75, 34.5, 34.25, 34, 34, 33.9375, 33.875, 33.75, 33.6875, 33.625, 33.625, 33.5, 33.3125, 33.1875, 33, 32.9375, 32.75, 32.5, 32.25, 32.0625, 32, 32, 31.9375, 31.6875, 31.4375, 31.1875, 31, 31, 31, 30.875, 30.8125, 30.75, 30.5, 30.375, 30.1875, 30, 30, 29.9375, 29.6875, 29.4375, 29.25, 29.0625, 29.0625, 28.8125, 28.5, 28.375, 28.125, 28.03125, 27.861607, 27.65625, 27.46875, 27.3125, 27.1875, 27.0625, 27, 26.9375, 26.6875, 26.5, 26.3125, 26.125, 26.25, 26.1875, 26.125, 26.125, 26, 25.9375, 25.6875, 25.4375, 25.1875, 25, 25, 24.9375, 24.875, 24.6875, 24.4375, 24.25, 24.0625, 24.0625, 24.0625, 23.9375, 23.642857, 23.25, 23.104166, 23.237499, 22.875, 22.883928, 22.5, 22.3125, 22.1875, 22.0625, 22, 21.875, 21.625, 21.375, 21.1875, 21.0625, 21, 21, 21, 21, 20.9375, 20.6875, 20.4375, 20.1875, 20, 20, 20, 20, 19.875, 19.625, 19.375, 19.125, 19, 19, 19, 18.75, 18.5, 18.25, 18, 18, 18, 18, 17.875, 17.75, 17.75, 17.75, 17.8125, 17.9375, 18, 18, 18.125, 18.25, 18.4375, 18.6875, 18.875, 19.0625, 19.3125, 19.5625, 19.8125, 20, 20, 20.0625, 20.3125, 20.5625, 20.8125, 21, 21.1875, 21.4375, 21.625, 21.875, 21.9375, 21.9375, 22, 22, 22.1875, 22.3125, 22.4375, 22.705357, 22.958334, 23.3125, 23.625, 23.8125, 24, 24, 24.1875, 24.4375, 24.6875, 24.9375, 25, 25, 25.0625, 25.1875, 25.4375, 25.6875, 25.875, 26, 26, 26.25, 26.5, 26.75, 27, 27, 27.0625, 27.1875, 27.375, 27.625, 27.8125, 27.9375, 28.0625, 28.3125, 28.5625, 28.6875, 28.875, 28.875, 28.9375, 29.3125, 29.5625, 29.8125, 30, 30, 30.25, 30.5, 30.75, 31, 31.0625, 31.0625, 31.0625, 31.25, 31.4375, 31.6875, 31.9375, 32, 32, 32.125, 32.375, 32.625, 32.875, 33.0625, 33.125, 33.3125, 33.5, 33.6875, 33.875, 33.9375, 34, 34.25, 34.5, 34.75, 35, 35.1875, 35.375, 35.625, 35.875, 35.9375, 36, 36, 36.1875, 36.4375, 36.6875, 36.9375, 37, 37.03125, 37.28125, 37.53125, 37.708336, 11, 11, 11, 10.875, 10.8125, 10.5625, 10.4375, 10.4375, 10.4375, 10.6875, 10.8125, 10.9375, 11, 11, 11, 11, 11, 11, 11, 11, 11, 11, 11, 11, 10.9375, 10.75, 10.625, 10.5, 10.4375, 10.5625, 10.6875, 10.8125, 10.9375, 11, 11, 11, 11, 10.9375, 10.916667, -10, -10, -10, -10, -10, -10, -10, -10, -10, -10, -10, -10, -10, -10, -10, -10, -10, -10, -10, -10, -10, -10, -10, -10, -10, -10, -10, -10, -10, 43.375, 43.25, 43.1875, 43.125, 43.098213, 43.125, 43.232143, 43.1875, 43.125, 42.9375, 42.875, 42.6875, 42.5, 42.1875, 41.875, 41.625, 41.375, 41.25, 41.125, 41, 40.9375, 40.9375, 40.9375, 40.8125, 40.6875, 40.4375, 40.125, 39.9375, 39.6875, 39.5625, 39.4375, 39.232143, 38.979168, 38.830357, 38.75, 38.6875, 38.5, 38.375, 38.178574, 37.791668, 37.770832, 37.791668, 37.625, 37.4375, 37.0625, 37, 36.9375, 36.75, 36.5, 36.25, 36.0625, 36.098213, 36.151787, 36.419643, 36.339287, 36.086311, 35.892857, 35.732143, 35.479168, 35.446426, 35.25, 35.125, 35.0625, 34.8125, 34.5625, 34.3125, 34.0625, 34.0625, 34.0625, 34.0625, 34, 33.875, 33.75, 33.75, 33.5625, 33.375, 33.25, 33, 32.875, 32.6875, 32.4375, 32.1875, 32.0625, 32, 32, 32, 31.8125, 31.625, 31.375, 31.125, 31.0625, 31, 30.8125, 30.6875, 30.625, 30.375, 30.3125, 30.1875, 30, 29.9375, 29.8125, 29.5625, 29.3125, 29.1875, 29.0625, 29.0625, 28.875, 28.625, 28.5, 28.25, 28.09375, 27.799107, 27.53125, 27.28125, 27.125, 27.125, 27.0625, 27.0625, 27.0625, 26.8125, 26.5625, 26.3125, 26.0625, 26.125, 26.125, 26.125, 26.125, 26, 25.875, 25.625, 25.375, 25.125, 25, 25, 24.875, 24.8125, 24.5625, 24.3125, 24.1875, 24, 24, 24, 23.9375, 23.75, 23.375, 23.166666, 23.237499, 22.75, 22.696428, 22.375, 22.125, 22, 21.875, 21.8125, 21.75, 21.5, 21.3125, 21.125, 21, 21, 21, 21, 21, 20.9375, 20.6875, 20.4375, 20.1875, 19.9375, 19.9375, 19.9375, 19.875, 19.75, 19.5625, 19.375, 19.1875, 19.125, 19.0625, 19, 18.8125, 18.5625, 18.3125, 18.0625, 18, 18, 18, 17.875, 17.75, 17.75, 17.75, 17.8125, 17.9375, 17.9375, 17.9375, 18.0625, 18.1875, 18.4375, 18.6875, 18.875, 19, 19.25, 19.5, 19.75, 20, 20, 20.0625, 20.3125, 20.5625, 20.8125, 21, 21.1875, 21.375, 21.5, 21.75, 21.8125, 21.875, 22, 22.0625, 22.3125, 22.5625, 22.8125, 23.125, 23.25, 23.5, 23.75, 23.875, 24, 24, 24.1875, 24.4375, 24.6875, 24.9375, 25, 25.0625, 25.1875, 25.375, 25.625, 25.8125, 25.9375, 26, 26, 26.25, 26.5, 26.75, 27, 27, 27.0625, 27.25, 27.4375, 27.6875, 27.875, 27.9375, 28.0625, 28.3125, 28.5625, 28.75, 28.9375, 28.9375, 29, 29.3125, 29.5625, 29.8125, 30, 30, 30.1875, 30.4375, 30.6875, 30.9375, 31.125, 31.1875, 31.25, 31.5, 31.625, 31.8125, 32, 32, 32, 32.0625, 32.3125, 32.5625, 32.8125, 33, 33, 33.125, 33.25, 33.375, 33.589287, 33.866074, 34.071426, 34.375, 34.625, 34.8125, 35.0625, 35.25, 35.375, 35.625, 35.8125, 35.875, 36, 36, 36.1875, 36.4375, 36.6875, 36.9375, 37, 37.09375, 37.34375, 37.59375, 37.791668, 10.75, 10.75, 10.8125, 10.75
-10, -10, -10, -10, -10, -10, -10, -10, 43.375, 43.25, 43.1875, 43.125, 43.098213, 43.125, 43.232143, 43.125, 43.0625, 42.8125, 42.6875, 42.5, 42.25, 41.9375, 41.6875, 41.5, 41.3125, 41.25, 41.125, 40.9375, 40.875, 40.8125, 40.75, 40.6875, 40.5625, 40.375, 40.125, 40, 39.75, 39.625, 39.5, 39.232143, 38.979168, 38.892857, 38.875, 38.875, 38.6875, 38.5625, 38.4375, 38.25, 38.1875, 37.9375, 37.625, 37.375, 37.1875, 37.0625, 37, 36.8125, 36.5625, 36.375, 36.1875, 36.098213, 36.089287, 36.232143, 36.151787, 35.836311, 35.580357, 35.4375, 35.3125, 35.375, 35.25, 35.125, 35.125, 34.910713, 34.651787, 34.4375, 34.125, 34.125, 34.0625, 34.0625, 34.0625, 33.9375, 33.8125, 33.8125, 33.5625, 33.375, 33.25, 33, 32.8125, 32.5625, 32.3125, 32.0625, 32, 32, 32, 32, 31.8125, 31.625, 31.375, 31.125, 31.0625, 31, 30.8125, 30.625, 30.5625, 30.3125, 30.25, 30.1875, 29.9375, 29.8125, 29.625, 29.375, 29.1875, 29.0625, 29, 28.9375, 28.75, 28.625, 28.5, 28.3125, 28.15625, 27.727678, 27.197916, 26.986607, 26.875, 27, 27.125, 27.125, 27.125, 26.9375, 26.6875, 26.4375, 26.1875, 26.1875, 26.125, 26.125, 26.125, 26, 25.8125, 25.5625, 25.3125, 25.0625, 25, 25, 24.875, 24.75, 24.5, 24.25, 24.125, 24, 24, 24, 24, 23.8125, 23.5, 23.229166, 23.0875, 22.75, 22.633928, 22.375, 22.125, 22, 21.8125, 21.8125, 21.8125, 21.5625, 21.4375, 21.1875, 21, 21, 21, 21, 21, 20.875, 20.625, 20.375, 20.125, 20, 20, 20, 19.9375, 19.8125, 19.6875, 19.5, 19.3125, 19.1875, 19.0625, 19, 18.8125, 18.5625, 18.3125, 18.0625, 18, 18, 18, 17.875, 17.75, 17.6875, 17.6875, 17.75, 17.875, 17.9375, 17.9375, 18.0625, 18.1875, 18.4375, 18.6875, 18.875, 19, 19.25, 19.5, 19.75, 20, 20, 20.125, 20.375, 20.625, 20.9375, 21.0625, 21.1875, 21.3125, 21.3125, 21.5, 21.625, 21.75, 21.9375, 22.125, 22.3125, 22.5625, 22.8125, 23.125, 23.375, 23.5625, 23.8125, 23.875, 23.9375, 24, 24.1875, 24.4375, 24.625, 24.875, 24.9375, 25.0625, 25.3125, 25.5, 25.75, 25.875, 25.9375, 26, 26.0625, 26.3125, 26.5625, 26.8125, 27, 27, 27, 27.1875, 27.375, 27.625, 27.875, 27.9375, 28.0625, 28.3125, 28.5625, 28.8125, 29, 29, 29.125, 29.375, 29.625, 29.875, 30, 30, 30.125, 30.375, 30.625, 30.875, 31.1875, 31.3125, 31.4375, 31.6875, 31.75, 31.875, 32, 32, 32, 32.0625, 32.3125, 32.5625, 32.8125, 33, 33, 33.0625, 33.125, 33.25, 33.464287, 33.866074, 34.196426, 34.5, 34.75, 34.875, 35.0625, 35.1875, 35.25, 35.5, 35.6875, 35.8125, 36, 36, 36.1875, 36.4375, 36.6875, 36.9375, 37, 37.15625, 37.40625, 37.65625, 37.875, 10.5, 10.5, 10.625, 10.625, 10.6875, 10.625, 10.5, 10.5, 10.5, 10.625, 10.625, 10.625, 10.6875, 10.6875, 10.6875, 10.8125, 10.8125, 10.875, 11, 11, 11, 10.9375, 10.875, 10.8125, 10.6875, 10.625, 10.4375, 10.25, 10.25, 10.25, 10.4375, 10.625, 10.6875, 10.75, 10.75, 10.75, 10.75, 10.8125, 10.833333, -10, -10, -10, -10, -10, -10, -10, -10, -10, -10, -10, -10, -10, -10, -10, -10, -10, -10, -10, -10, -10, -10, -10, -10, -10, -10, -10, -10, -10, 43.125, 43.083332, 43.0625, 43.0625, 43.098213, 43.125, 43.232143, 43.125, 43.0625, 42.75, 42.5625, 42.3125, 42.0625, 41.75, 41.5625, 41.4375, 41.25, 41.25, 41.125, 40.9375, 40.875, 40.75, 40.625, 40.5625, 40.4375, 40.3125, 40.1875, 40.0625, 39.875, 39.8125, 39.625, 39.357143, 39.041668, 38.892857, 38.875, 38.9375, 38.75, 38.625, 38.5625, 38.3125, 38.3125, 38.125, 37.8125, 37.5625, 37.3125, 37.125, 37, 36.875, 36.625, 36.4375, 36.1875, 36.0625, 36.125, 36.169643, 36.044643, 35.729168, 35.517857, 35.3125, 35.25, 35.25, 35.1875, 35.125, 35.1875, 35.098213, 34.88393, 34.625, 34.3125, 34.1875, 34.125, 34.0625, 34.0625, 33.9375, 33.8125, 33.75, 33.5, 33.3125, 33.1875, 33, 32.75, 32.5, 32.25, 32, 32, 32, 31.9375, 31.875, 31.6875, 31.5, 31.3125, 31.125, 31.0625, 31, 30.875, 30.6875, 30.5625, 30.375, 30.25, 30.1875, 30, 29.75, 29.5, 29.25, 29.0625, 29, 29, 28.875, 28.6875, 28.625, 28.4375, 28.3125, 28.1875, 27.758928, 27.354166, 27.205357, 27.125, 27.1875, 27.25, 27.125, 27.0625, 26.9375, 26.75, 26.5625, 26.3125, 26.25, 26.1875, 26.1875, 26.1875, 26.0625, 25.75, 25.5, 25.25, 25, 25, 25, 24.875, 24.6875, 24.4375, 24.1875, 24.0625, 24, 24, 24, 23.9375, 23.75, 23.5, 23.1875, 22.9375, 22.75, 22.5625, 22.375, 22.1875, 22, 21.8125, 21.8125, 21.8125, 21.6875, 21.5625, 21.375, 21.125, 21.0625, 21.0625, 21, 21, 20.875, 20.625, 20.375, 20.125, 20, 20, 20, 19.9375, 19.8125, 19.6875, 19.5, 19.3125, 19.1875, 19.0625, 19, 18.8125, 18.5625, 18.3125, 18.0625, 18, 18, 18, 17.8125, 17.625, 17.5, 17.5, 17.625, 17.8125, 17.9375, 17.9375, 18.0625, 18.1875, 18.4375, 18.6875, 18.875, 19.0625, 19.3125, 19.5625, 19.8125, 20, 20, 20.125, 20.375, 20.625, 20.9375, 21.0625, 21.125, 21.1875, 21.125, 21.25, 21.4375, 21.625, 21.875, 22.125, 22.25, 22.5, 22.75, 23.0625, 23.4375, 23.5625, 23.8125, 23.875, 23.875, 24, 24.125, 24.375, 24.5625, 24.8125, 24.9375, 25.0625, 25.3125, 25.5, 25.75, 25.875, 25.9375, 26, 26.125, 26.375, 26.625, 26.875, 27, 27, 27.0625, 27.3125, 27.5625, 27.8125, 28, 28.0625, 28.1875, 28.4375, 28.6875, 28.875, 29, 29, 29.0625, 29.3125, 29.5625, 29.8125, 30, 30, 30.0625, 30.25, 30.5, 30.75, 31.125, 31.3125, 31.4375, 31.6875, 31.75, 31.875, 32.0625, 32.0625, 32.125, 32.25, 32.4375, 32.6875, 32.875, 33, 33.0625, 33.125, 33.1875, 33.3125, 33.464287, 33.866074, 34.196426, 34.5, 34.75, 34.875, 35.0625, 35.125, 35.125, 35.375, 35.5625, 35.75, 36, 36, 36.125, 36.375, 36.625, 36.875, 37, 37.125, 37.375, 37.625, 37.702381, 10.333333, 10.333333, 10.375, 10.520833
-10, -10, -10, -10, -10, -10, -10, -10, 43, 43, 43, 43.0625, 43.098213, 43.0625, 43.169643, 43.0625, 43, 42.6875, 42.4375, 42.1875, 41.9375, 41.6875, 41.5, 41.3125, 41.125, 41.125, 41.0625, 40.9375, 40.875, 40.6875, 40.5, 40.375, 40.25, 40.1875, 40.125, 40.0625, 39.9375, 39.9375, 39.75, 39.482143, 39.104168, 38.892857, 38.875, 38.9375, 38.8125, 38.6875, 38.625, 38.375, 38.3125, 38.125, 37.875, 37.625, 37.375, 37.1875, 37, 36.9375, 36.6875, 36.5625, 36.375, 36.1875, 36.1875, 36.0625, 35.9375, 35.8125, 35.5625, 35.3125, 35.125, 35, 35, 35, 35.1875, 35.223213, 35.07143, 34.875, 34.5, 34.3125, 34.1875, 34.0625, 34.0625, 33.9375, 33.8125, 33.75, 33.5, 33.3125, 33.1875, 32.9375, 32.6875, 32.4375, 32.125, 31.9375, 31.9375, 31.9375, 31.875, 31.75, 31.5625, 31.375, 31.25, 31.125, 31.0625, 31, 30.9375, 30.6875, 30.5625, 30.4375, 30.25, 30.25, 30.0625, 29.75, 29.5, 29.3125, 29.1875, 29.125, 29.125, 28.9375, 28.6875, 28.625, 28.375, 28.25, 28.1875, 27.866072, 27.541666, 27.455357, 27.375, 27.375, 27.4375, 27.3125, 27.25, 27.1875, 27, 26.8125, 26.5625, 26.4375, 26.3125, 26.25, 26.1875, 26.0625, 25.741072, 25.375, 25.1875, 24.9375, 25, 25, 24.9375, 24.6875, 24.4375, 24.1875, 24, 24, 24, 24, 23.9375, 23.75, 23.5, 23.25, 23.0625, 22.9375, 22.8125, 22.5625, 22.3125, 22.0625, 21.8125, 21.8125, 21.8125, 21.6875, 21.5625, 21.375, 21.125, 21.0625, 21.0625, 21, 21, 20.875, 20.625, 20.375, 20.125, 20, 20, 20, 19.9375, 19.8125, 19.6875, 19.5, 19.3125, 19.1875, 19.0625, 19, 18.8125, 18.5625, 18.3125, 18.0625, 18, 18, 18, 17.75, 17.5, 17.3125, 17.3125, 17.5625, 17.8125, 18, 18, 18.0625, 18.125, 18.375, 18.625, 18.875, 19.1875, 19.4375, 19.6875, 19.875, 20, 20, 20.125, 20.3125, 20.5625, 20.875, 21, 21.0625, 21.0625, 21, 21.125, 21.375, 21.625, 21.875, 22.125, 22.1875, 22.4375, 22.6875, 22.9375, 23.375, 23.5, 23.75, 23.875, 23.875, 24, 24.125, 24.375, 24.5625, 24.8125, 24.9375, 25.0625, 25.25, 25.4375, 25.6875, 25.8125, 25.9375, 26, 26.1875, 26.4375, 26.6875, 26.9375, 27, 27, 27.0625, 27.3125, 27.5625, 27.8125, 28, 28.125, 28.3125, 28.5625, 28.8125, 28.9375, 29, 29, 29.0625, 29.3125, 29.5625, 29.8125, 30, 30, 30, 30.125, 30.375, 30.625, 31, 31.25, 31.375, 31.625, 31.75, 31.875, 32.0625, 32.0625, 32.125, 32.25, 32.4375, 32.6875, 32.875, 33, 33.125, 33.25, 33.375, 33.5, 33.589287, 33.928574, 34.196426, 34.5, 34.75, 34.875, 35.0625, 35.0625, 35.0625, 35.3125, 35.5, 35.75, 36, 36, 36.125, 36.375, 36.625, 36.875, 37, 37.125, 37.375, 37.625, 37.571426, 35.333332, 34.685715, 10.166667, 10.270833, 10.3125, 10.375, 10.375, 10.375, 10.5, 10.5625, 10.4375, 10.3125, 10.3125, 10.25, 10.25, 10.4375, 10.4375, 10.5, 10.625, 10.5625, 10.5625, 10.5, 10.4375, 10.375, 10.3125, 10.4375, 10.375, 10.3125, 10.375, 10.3125, 10.375, 10.4375, 10.3125, 10.25, 10.25, 10.25, 10.3125, 10.375, 10.416666, -10, -10, -10, -10, -10, -10, -10, -10, -10, -10, -10, -10, -10, -10, -10, -10, -10, -10, -10, -10, -10, -10, -10, -10, -10, -10, -10, -10, -10, 43.125, 43.083332, 43.0625, 43.125, 43.1875, 43.25, 43.3125, 43.25, 43.125, 42.8125, 42.5, 42.25, 41.9375, 41.6875, 41.4375, 41.1875, 41, 41, 41, 40.9375, 40.875, 40.6875, 40.4375, 40.25, 40.0625, 40, 40, 40, 40, 40, 39.75, 39.5, 39.25, 39, 39, 39, 38.875, 38.6875, 38.5625, 38.3125, 38.1875, 38.0625, 37.875, 37.625, 37.375, 37.1875, 37, 37, 36.8125, 36.6875, 36.5, 36.25, 36.1875, 36.0625, 36, 35.9375, 35.6875, 35.4375, 35.1875, 35, 35, 35, 35.1875, 35.223213, 35.13393, 34.9375, 34.5625, 34.3125, 34.125, 34, 34, 33.9375, 33.8125, 33.75, 33.5625, 33.375, 33.25, 33, 32.75, 32.5625, 32.25, 32.0625, 32, 31.9375, 31.875, 31.678572, 31.270834, 31.09375, 30.96875, 30.90625, 30.875, 30.875, 30.8125, 30.625, 30.5, 30.375, 30.1875, 30.1875, 30.0625, 29.75, 29.5, 29.3125, 29.1875, 29.125, 29.125, 28.9375, 28.6875, 28.5625, 28.3125, 28.1875, 28.125, 27.928572, 27.666666, 27.580357, 27.5, 27.375, 27.375, 27.25, 27.1875, 27.1875, 27.0625, 26.9375, 26.6875, 26.5625, 26.375, 26.1875, 26.151787, 26.0625, 25.625, 25.321428, 25.125, 24.9375, 25, 25, 25, 24.75, 24.5, 24.25, 24, 24, 23.9375, 23.9375, 23.875, 23.625, 23.4375, 23.1875, 23, 23, 22.9375, 22.75, 22.625, 22.375, 22.125, 22.0625, 21.875, 21.6875, 21.5, 21.3125, 21.125, 21.0625, 21.0625, 21, 21, 20.875, 20.625, 20.375, 20.125, 20, 20, 20, 20, 19.875, 19.6875, 19.4375, 19.1875, 19.0625, 19, 18.9375, 18.6875, 18.4375, 18.1875, 18, 18, 18, 18, 17.75, 17.5, 17.25, 17.1875, 17.4375, 17.6875, 18, 18.125, 18.125, 18.125, 18.3125, 18.5, 18.8125, 19.25, 19.5, 19.75, 19.9375, 20, 20.0625, 20.1875, 20.375, 20.625, 20.875, 21, 21.0625, 21.0625, 21, 21.0625, 21.3125, 21.5625, 21.8125, 22.0625, 22.0625, 22.3125, 22.5625, 22.8125, 23.3125, 23.4375, 23.6875, 23.875, 23.875, 24.0625, 24.1875, 24.4375, 24.625, 24.8125, 24.9375, 25, 25.1875, 25.375, 25.625, 25.8125, 25.9375, 26, 26.25, 26.5, 26.75, 27, 27, 27, 27.0625, 27.3125, 27.5625, 27.8125, 28, 28.125, 28.3125, 28.5625, 28.8125, 28.9375, 29, 29, 29.0625, 29.3125, 29.5625, 29.8125, 30, 30, 30.0625, 30.1875, 30.4375, 30.6875, 30.9375, 31.125, 31.1875, 31.4375, 31.625, 31.8125, 32.0625, 32.0625, 32.125, 32.3125, 32.5, 32.75, 32.9375, 33, 33.125, 33.3125, 33.5, 33.75, 33.875, 34, 34.125, 34.3125, 34.5, 34.6875, 34.875, 34.9375, 35.0625, 35.3125, 35.5625, 35.8125, 36.0625, 36.125, 36.25, 36.5, 36.6875, 36.875, 37, 37.0625, 37.3125, 37.5625, 37.357143, 35.333332, 34.723812, 34, 10.145833
-10, -10, -10, -10, -10, -10, -10, -10, 43.25, 43.166664, 43.205357, 43.410713, 43.4375, 43.5625, 43.5625, 43.4375, 43.25, 42.875, 42.5, 42.25, 42, 41.75, 41.5, 41.25, 41, 41, 41, 41, 41, 40.875, 40.625, 40.375, 40.125, 40, 40, 40, 40, 40, 39.75, 39.5, 39.25, 39, 39, 39, 38.9375, 38.6875, 38.5, 38.25, 38.0625, 38, 37.8125, 37.5625, 37.3125, 37.125, 37, 37, 36.8125, 36.625, 36.4375, 36.25, 36.1875, 36.125, 36.0625, 36, 35.75, 35.5, 35.3125, 35.0625, 35.0625, 35.0625, 35.125, 35.1875, 35.107143, 34.875, 34.5625, 34.25, 34.125, 34, 34, 33.9375, 33.8125, 33.6875, 33.5, 33.3125, 33.1875, 33, 32.8125, 32.6875, 32.375, 32.1875, 32.03125, 31.84375, 31.78125, 31.584822, 31.208334, 31.09375, 30.96875, 30.84375, 30.8125, 30.75, 30.625, 30.5, 30.375, 30.3125, 30.1875, 30.1875, 30.125, 29.875, 29.6875, 29.5, 29.3125, 29.1875, 29.125, 29, 28.75, 28.5625, 28.375, 28.1875, 28.125, 28.0625, 28, 27.875, 27.75, 27.5, 27.3125, 27.1875, 27.125, 27.125, 27.0625, 26.9375, 26.6875, 26.5625, 26.375, 26.125, 26.026787, 25.875, 25.4375, 25.196428, 25.0625, 24.9375, 25, 25, 25, 24.75, 24.5, 24.25, 24, 24, 23.9375, 23.9375, 23.8125, 23.5625, 23.375, 23.125, 23, 23, 23, 22.875, 22.75, 22.5, 22.25, 22.0625, 21.8125, 21.6875, 21.4375, 21.3125, 21.1875, 21.0625, 21.0625, 20.9375, 20.875, 20.75, 20.5625, 20.375, 20.1875, 20.0625, 20, 20, 20, 19.8125, 19.5625, 19.3125, 19.0625, 19, 19, 18.875, 18.625, 18.375, 18.125, 18, 18, 18, 17.9375, 17.6875, 17.375, 17.151787, 17.232143, 17.419643, 17.6875, 18, 18.232143, 18.25, 18.25, 18.375, 18.5, 18.8125, 19.3125, 19.5625, 19.8125, 20, 20.0625, 20.1875, 20.3125, 20.5, 20.6875, 20.8125, 20.9375, 21, 21, 21, 21.0625, 21.3125, 21.5625, 21.8125, 22.0625, 22.125, 22.375, 22.625, 22.875, 23.25, 23.4375, 23.6875, 23.875, 23.9375, 24.125, 24.1875, 24.375, 24.5625, 24.6875, 24.875, 25, 25.1875, 25.375, 25.625, 25.8125, 25.9375, 26.0625, 26.3125, 26.5625, 26.8125, 27, 27, 27, 27.0625, 27.3125, 27.5625, 27.8125, 28, 28.125, 28.3125, 28.5625, 28.8125, 28.9375, 29, 29, 29, 29.1875, 29.4375, 29.6875, 29.9375, 30, 30.125, 30.25, 30.5, 30.75, 30.875, 31, 31, 31.1875, 31.4375, 31.6875, 32, 32, 32.0625, 32.3125, 32.544643, 32.8125, 33, 33, 33.125, 33.375, 33.625, 33.875, 34, 34, 34, 34.125, 34.25, 34.5, 34.75, 34.9375, 35.1875, 35.4375, 35.6875, 35.875, 36.125, 36.25, 36.4375, 36.6875, 36.8125, 36.9375, 37, 37.0625, 37.3125, 37.5625, 37.214287, 35.333332, 34.742859, 10, 10.083333, 10.0625, 10.0625, 10.0625, 10, 10.0625, 10.125, 10.125, 10.125, 10.125, 10.0625, 10.0625, 10.125, 10.125, 10.125, 10.125, 10.0625, 10.0625, 10.0625, 10.0625, 10.0625, 10.0625, 10.125, 10.125, 10.125, 10.125, 10.125, 10.125, 10.125, 10.0625, 10, 10, 10, 10.125, 10.125, 10.166666, -10, -10, -10, -10, -10, -10, -10, -10, -10, -10, -10, -10, -10, -10, -10, -10, -10, -10, -10, -10, -10, -10, -10, -10, -10, -10, -10, -10, -10, 43.375, 43.249996, 43.267857, 43.473213, 43.5625, 43.75, 43.8125, 43.625, 43.375, 42.9375, 42.5, 42.25, 42, 41.75, 41.5, 41.25, 41, 41, 41, 41, 41, 40.875, 40.625, 40.375, 40.125, 40, 40, 40, 40, 39.9375, 39.6875, 39.4375, 39.1875, 39, 39, 39, 39, 38.75, 38.5, 38.25, 38, 37.9375, 37.8125, 37.5625, 37.375, 37.25, 37.125, 37.125, 36.9375, 36.75, 36.625, 36.5, 36.375, 36.25, 36.125, 36, 35.8125, 35.5625, 35.4375, 35.25, 35.1875, 35.1875, 35.125, 35.0625, 35, 34.8125, 34.5, 34.25, 34.0625, 34, 34, 34, 33.875, 33.75, 33.5625, 33.3125, 33.1875, 33, 32.8125, 32.6875, 32.375, 32.1875, 32.03125, 31.78125, 31.78125, 31.647322, 31.333334, 31.34375, 31.15625, 30.96875, 30.8125, 30.625, 30.4375, 30.3125, 30.25, 30.1875, 30.125, 30.125, 30.0625, 29.9375, 29.8125, 29.625, 29.4375, 29.25, 29.125, 29.0625, 28.8125, 28.625, 28.5, 28.25, 28.1875, 28.125, 28, 27.8125, 27.625, 27.375, 27.1875, 27.1875, 27.1875, 27.125, 27, 26.8125, 26.5625, 26.4375, 26.25, 26, 25.839287, 25.6875, 25.3125, 25.071428, 25.0625, 25.0625, 25.125, 25.0625, 24.892857, 24.625, 24.375, 24.1875, 24, 24, 23.9375, 23.9375, 23.8125, 23.5625, 23.375, 23.125, 23, 23, 23, 22.9375, 22.75, 22.5, 22.25, 21.9375, 21.75, 21.625, 21.375, 21.25, 21.125, 21, 21, 20.9375, 20.8125, 20.6875, 20.5, 20.3125, 20.1875, 20.0625, 20, 20, 20, 19.75, 19.5, 19.25, 19, 19, 19, 18.875, 18.625, 18.3125, 18.026787, 18, 18.107143, 18.107143, 17.854166, 17.571428, 17.25, 17.089287, 17.169643, 17.294643, 17.5625, 17.875, 18.169643, 18.25, 18.3125, 18.4375, 18.5625, 18.875, 19.3125, 19.5625, 19.8125, 20, 20.0625, 20.25, 20.4375, 20.625, 20.8125, 20.875, 20.9375, 21, 21, 21, 21.125, 21.375, 21.625, 21.875, 22.125, 22.25, 22.5, 22.75, 22.9375, 23.25, 23.5, 23.75, 23.9375, 24, 24.125, 24.1875, 24.375, 24.5625, 24.6875, 24.875, 25.0625, 25.3125, 25.5, 25.75, 25.875, 25.9375, 26.125, 26.375, 26.625, 26.875, 27, 27, 27, 27, 27.25, 27.5, 27.75, 28, 28.0625, 28.1875, 28.375, 28.625, 28.8125, 28.9375, 29, 29, 29.1875, 29.4375, 29.6875, 29.9375, 30, 30.1875, 30.375, 30.625, 30.875, 30.9375, 31, 31, 31.125, 31.3125, 31.5625, 31.8125, 31.875, 32, 32.21875, 32.450893, 32.65625, 32.84375, 32.875, 33, 33.3125, 33.5625, 33.8125, 34.0625, 34.125, 34.125, 34.25, 34.3125, 34.5, 34.8125, 35.0625, 35.3125, 35.5625, 35.75, 35.875, 36.125, 36.25, 36.5, 36.75, 36.875, 37, 37.0625, 37.1875, 37.4375, 37.6875, 37.285713, 35.333332, 34.742859, 10, 10
-10, -10, -10, -10, -10, -10, -10, -10, 43.5, 43.333332, 43.330357, 43.535713, 43.625, 43.875, 43.9375, 43.6875, 43.4375, 42.9375, 42.5, 42.25, 42, 41.75, 41.5, 41.25, 41, 41, 41, 41, 40.9375, 40.8125, 40.5625, 40.3125, 40.125, 40, 40, 40, 39.9375, 39.8125, 39.5625, 39.3125, 39.125, 39, 39, 39, 39, 38.75, 38.5, 38.25, 38, 37.9375, 37.8125, 37.625, 37.4375, 37.3125, 37.1875, 37.125, 37, 36.8125, 36.75, 36.625, 36.4375, 36.3125, 36.125, 36, 35.8125, 35.5625, 35.5, 35.375, 35.3125, 35.3125, 35.125, 35, 34.9375, 34.75, 34.5, 34.25, 34, 33.875, 33.8125, 33.8125, 33.8125, 33.6875, 33.625, 33.357143, 33.089287, 33.0625, 32.8125, 32.75, 32.5, 32.25, 32.09375, 31.78125, 31.78125, 31.709822, 31.458334, 31.53125, 31.28125, 31.03125, 30.75, 30.5625, 30.375, 30.3125, 30.25, 30.125, 30.0625, 30, 30, 29.9375, 29.875, 29.625, 29.375, 29.1875, 29, 28.9375, 28.75, 28.625, 28.5, 28.3125, 28.25, 28.125, 28, 27.8125, 27.5625, 27.3125, 27.0625, 27, 27, 26.875, 26.8125, 26.6875, 26.4375, 26.3125, 26.125, 25.875, 25.776787, 25.625, 25.258928, 25.133928, 25.0625, 25.125, 25.125, 25.0625, 24.830357, 24.5625, 24.3125, 24.125, 24, 24, 23.9375, 23.9375, 23.75, 23.5, 23.3125, 23.0625, 23, 23, 23, 23, 22.8125, 22.5625, 22.3125, 21.9375, 21.75, 21.6875, 21.4375, 21.3125, 21.1875, 21, 21, 20.9375, 20.75, 20.5625, 20.375, 20.1875, 20.125, 20.0625, 20, 20, 20, 19.75, 19.5, 19.25, 19, 19, 19, 18.875, 18.6875, 18.375, 18.089287, 18.125, 18.232143, 18.214287, 17.770832, 17.455357, 17.125, 17.026787, 17.169643, 17.294643, 17.5625, 17.875, 18.169643, 18.3125, 18.4375, 18.5625, 18.6875, 18.9375, 19.3125, 19.5, 19.75, 19.9375, 20, 20.3125, 20.5625, 20.8125, 21, 21, 21.0625, 21.125, 21.125, 21.1875, 21.25, 21.4375, 21.6875, 21.875, 22.1875, 22.375, 22.625, 22.875, 23, 23.1875, 23.4375, 23.6875, 23.8125, 23.9375, 24.0625, 24.125, 24.375, 24.5625, 24.6875, 24.875, 25.0625, 25.375, 25.625, 25.875, 26, 26, 26.125, 26.375, 26.625, 26.875, 27, 27, 27, 27, 27.25, 27.5, 27.75, 28, 28, 28.0625, 28.1875, 28.4375, 28.6875, 28.875, 29, 29, 29.1875, 29.4375, 29.6875, 29.9375, 30, 30.25, 30.5, 30.75, 31, 31, 31, 31.0625, 31.1875, 31.375, 31.625, 31.8125, 31.875, 32.0625, 32.28125, 32.575893, 32.78125, 32.96875, 33.0625, 33.125, 33.4375, 33.625, 33.8125, 34.125, 34.25, 34.3125, 34.4375, 34.4375, 34.5625, 34.8125, 35.0625, 35.3125, 35.5625, 35.75, 35.875, 36.125, 36.25, 36.4375, 36.6875, 36.8125, 36.9375, 37.0625, 37.25, 37.5, 37.75, 37.357143, 35.333332, 34.799999, 10, 10, 10, 10, 10, 10, 10, 10, 10, 10, 10, 10, 10, 10, 10, 10, 10, 10, 10, 9.9375, 9.875, 9.8928566, 10, 10, 10.0625, 10, 9.9375, 9.9375, 9.9375, 9.875, 9.8125, 9.8125, 9.8125, 9.875, 10.0625, 10.0625, 10.083333, -10, -10, -10, -10, -10, -10, -10, -10, -10, -10, -10, -10, -10, -10, -10, -10, -10, -10, -10, -10, -10, -10, -10, -10, -10, -10, -10, -10, -10, 43.375, 43.249996, 43.267857, 43.410713, 43.5, 43.6875, 43.625, 43.4375, 43.25, 42.8125, 42.5, 42.25, 42, 41.8125, 41.5625, 41.375, 41.1875, 41.125, 41.125, 41.0625, 40.875, 40.6875, 40.4375, 40.1875, 40.0625, 40, 40, 40, 39.9375, 39.8125, 39.5625, 39.3125, 39.125, 39, 39, 39, 39, 38.75, 38.5, 38.25, 38, 38, 37.9375, 37.75, 37.5625, 37.375, 37.1875, 37.125, 37, 36.875, 36.875, 36.8125, 36.625, 36.4375, 36.1875, 35.9375, 35.75, 35.5, 35.4375, 35.4375, 35.375, 35.375, 35.1875, 35, 34.9375, 34.8125, 34.5625, 34.3125, 34.0625, 33.8125, 33.6875, 33.6875, 33.75, 33.625, 33.5625, 33.294643, 32.964287, 33, 32.75, 32.625, 32.375, 32.125, 32.09375, 31.816963, 31.674107, 31.602678, 31.5625, 31.625, 31.4375, 31.1875, 30.875, 30.6875, 30.5625, 30.5, 30.375, 30.25, 30.125, 30, 30, 30, 30, 29.75, 29.5, 29.25, 29, 28.9375, 28.75, 28.6875, 28.5625, 28.375, 28.3125, 28.125, 28, 27.875, 27.6875, 27.5, 27.25, 27.125, 27.0625, 26.875, 26.8125, 26.625, 26.375, 26.25, 26.0625, 25.9375, 25.8125, 25.625, 25.4375, 25.25, 25.1875, 25.1875, 25.125, 25.0625, 24.767857, 24.5, 24.25, 24.0625, 24, 24, 24, 24, 23.8125, 23.5625, 23.3125, 23.0625, 23, 23, 23, 22.9375, 22.6875, 22.4375, 22.1875, 21.875, 21.8125, 21.8125, 21.5625, 21.4375, 21.25, 21, 20.9375, 20.875, 20.6875, 20.5, 20.375, 20.1875, 20.125, 20.0625, 20, 20, 20, 19.75, 19.5, 19.25, 19, 19, 19, 18.9375, 18.75, 18.4375, 18.151787, 18.125, 18.232143, 18.214287, 17.708332, 17.392857, 17.0625, 16.964287, 17.169643, 17.294643, 17.5625, 17.8125, 18.044643, 18.25, 18.4375, 18.625, 18.8125, 19, 19.25, 19.375, 19.5625, 19.75, 19.875, 20.1875, 20.4375, 20.625, 20.75, 20.75, 20.875, 21, 21.0625, 21.25, 21.375, 21.5625, 21.8125, 21.9375, 22.25, 22.5, 22.75, 23, 23.0625, 23.125, 23.3125, 23.5, 23.5625, 23.758928, 24, 24, 24.3125, 24.4375, 24.625, 24.875, 25.0625, 25.375, 25.625, 25.875, 26, 26, 26.1875, 26.4375, 26.6875, 26.9375, 27, 27, 27, 27.0625, 27.3125, 27.5625, 27.8125, 28, 28, 28, 28.125, 28.375, 28.625, 28.875, 29, 29, 29.125, 29.375, 29.625, 29.875, 30, 30.1875, 30.4375, 30.6875, 30.9375, 31, 31.0625, 31.1875, 31.3125, 31.5, 31.6875, 31.8125, 31.875, 32.125, 32.34375, 32.638393, 32.84375, 33.03125, 33.1875, 33.3125, 33.5625, 33.714287, 33.982143, 34.232143, 34.375, 34.4375, 34.5625, 34.625, 34.75, 34.9375, 35.1875, 35.375, 35.625, 35.8125, 35.875, 36.0625, 36.125, 36.3125, 36.5625, 36.75, 36.9375, 37.0625, 37.3125, 37.5625, 37.8125, 37.508926, 35.785713, 34.891666, 10, 10
-10, -10, -10, -10, -10, -10, -10, -10, 43.375, 43.249996, 43.25, 43.25, 43.3125, 43.375, 43.25, 43.125, 43, 42.6875, 42.5, 42.25, 42.0625, 41.9375, 41.6875, 41.412498, 41.366074, 41.267857, 41.28125, 41.21875, 40.946426, 40.580357, 40.321426, 40.125, 40.125, 40.125, 40.125, 40.0625, 39.9375, 39.8125, 39.625, 39.375, 39.125, 38.892857, 38.8125, 38.8125, 38.8125, 38.625, 38.4375, 38.1875, 38, 38, 38, 37.8125, 37.625, 37.4375, 37.1875, 37.125, 37.0625, 37, 37, 36.9375, 36.6875, 36.4375, 36.1875, 35.9375, 35.75, 35.5, 35.375, 35.4375, 35.375, 35.375, 35.25, 35, 34.9375, 34.8125, 34.5625, 34.3125, 34.0625, 33.8125, 33.6875, 33.6875, 33.6875, 33.5625, 33.5625, 33.294643, 33.026787, 33, 32.6875, 32.5, 32.25, 32.0625, 32.0625, 31.848213, 31.642857, 31.508928, 31.4375, 31.5, 31.375, 31.25, 30.875, 30.6875, 30.625, 30.5625, 30.5, 30.375, 30.1875, 29.9375, 29.875, 29.8125, 29.75, 29.5625, 29.375, 29.1875, 29, 28.9375, 28.8125, 28.75, 28.5625, 28.375, 28.25, 28.0625, 28, 27.9375, 27.8125, 27.6875, 27.5, 27.3125, 27.1875, 26.9375, 26.75, 26.5625, 26.3125, 26.1875, 26.0625, 26, 26, 25.9375, 25.794643, 25.416666, 25.258928, 25.1875, 25.125, 25.0625, 24.767857, 24.5, 24.25, 24.0625, 24, 24, 24, 23.9375, 23.75, 23.5, 23.25, 23.0625, 23, 23, 23, 22.875, 22.625, 22.375, 22.125, 21.9375, 21.9375, 21.9375, 21.6875, 21.5, 21.25, 21, 20.875, 20.875, 20.75, 20.625, 20.5, 20.1875, 20.026787, 19.9375, 19.9375, 19.9375, 19.875, 19.625, 19.375, 19.1875, 19, 19, 19, 19, 18.875, 18.5625, 18.276787, 18.1875, 18.232143, 18.214287, 17.708332, 17.392857, 17.125, 17, 17.125, 17.3125, 17.5625, 17.8125, 18, 18.25, 18.5, 18.75, 18.9375, 19.0625, 19.1875, 19.25, 19.4375, 19.625, 19.6875, 20, 20.1875, 20.3125, 20.5, 20.5, 20.6875, 20.875, 21, 21.3125, 21.5, 21.6875, 21.9375, 22.0625, 22.3125, 22.5625, 22.8125, 23, 23, 23.0625, 23.1875, 23.3125, 23.4375, 23.633928, 23.9375, 24, 24.375, 24.5625, 24.75, 25, 25.0625, 25.3125, 25.5625, 25.8125, 26, 26, 26.125, 26.3125, 26.5625, 26.8125, 26.9375, 27, 27, 27.0625, 27.3125, 27.5625, 27.8125, 28, 28, 28, 28.125, 28.375, 28.625, 28.875, 29, 29, 29.125, 29.375, 29.625, 29.875, 30, 30.125, 30.375, 30.625, 30.875, 31, 31, 31.0625, 31.205357, 31.520834, 31.741072, 31.875, 31.9375, 32.1875, 32.40625, 32.65625, 32.84375, 33.03125, 33.1875, 33.3125, 33.5, 33.651787, 33.919643, 34.169643, 34.375, 34.5, 34.6875, 34.8125, 34.9375, 35.0625, 35.25, 35.375, 35.625, 35.8125, 35.875, 36, 36.0625, 36.25, 36.5, 36.75, 36.9375, 37.0625, 37.3125, 37.5625, 37.8125, 37.589287, 36.238094, 34.983334, 34.599998, 10, 10, 10, 10, 10, 10, 10, 10, 10, 10, 10, 9.9375, 9.875, 9.875, 9.875, 9.9375, 10, 9.875, 9.8125, 9.75, 9.7678566, 10, 10, 10.0625, 9.875, 9.8125, 9.8125, 9.8125, 9.875, 9.75, 9.75, 9.75, 9.8125, 9.9375, 9.875, 9.833333, -10, -10, -10, -10, -10, -10, -10, -10, -10, -10, -10, -10, -10, -10, -10, -10, -10, -10, -10, -10, -10, -10, -10, -10, -10, -10, -10, -10, -10, 43.25, 43.166664, 43.1875, 43.1875, 43.1875, 43.125, 42.9375, 42.875, 42.75, 42.5625, 42.4375, 42.125, 42, 41.9375, 41.6875, 41.474998, 41.491074, 41.392857, 41.46875, 41.46875, 41.125, 40.559525, 40.267857, 40.0625, 40.1875, 40.1875, 40.1875, 40.125, 39.875, 39.8125, 39.625, 39.375, 39.25, 39.017857, 38.919643, 38.8125, 38.8125, 38.5625, 38.4375, 38.1875, 38, 38, 37.9375, 37.75, 37.5, 37.25, 37.0625, 37, 37, 37, 37, 36.875, 36.625, 36.375, 36.125, 35.9375, 35.75, 35.5, 35.3125, 35.375, 35.3125, 35.3125, 35.25, 35, 34.875, 34.75, 34.5, 34.25, 34.0625, 33.8125, 33.6875, 33.6875, 33.625, 33.5, 33.5, 33.169643, 32.901787, 32.8125, 32.5625, 32.5, 32.3125, 32.1875, 32.125, 31.848213, 31.580357, 31.383928, 31.25, 31.25, 31.1875, 31.125, 30.8125, 30.75, 30.75, 30.75, 30.6875, 30.5, 30.1875, 29.8125, 29.6875, 29.5625, 29.5, 29.375, 29.25, 29.125, 29, 28.9375, 28.875, 28.75, 28.5, 28.3125, 28.125, 28, 28, 28, 27.9375, 27.875, 27.75, 27.5, 27.3125, 27.0625, 26.875, 26.6875, 26.4375, 26.25, 26.0625, 26, 26.0625, 26.0625, 25.910715, 25.416666, 25.196428, 24.9375, 24.875, 24.875, 24.6875, 24.5, 24.3125, 24.0625, 24, 24, 24, 23.875, 23.6875, 23.4375, 23.1875, 23.0625, 23, 23, 23, 22.8125, 22.5625, 22.3125, 22.0625, 22, 22, 22, 21.8125, 21.5625, 21.3125, 21.0625, 20.875, 20.875, 20.8125, 20.75, 20.6875, 20.4375, 20.214287, 20.0625, 20, 19.9375, 19.8125, 19.5625, 19.3125, 19.125, 19, 19, 19, 19, 18.875, 18.625, 18.375, 18.1875, 18.125, 18.107143, 17.729166, 17.446428, 17.1875, 17.0625, 17.25, 17.5, 17.75, 17.9375, 18.125, 18.375, 18.625, 18.875, 19, 19.0625, 19.125, 19.125, 19.3125, 19.5, 19.625, 19.9375, 20.125, 20.25, 20.4375, 20.5, 20.6875, 20.875, 21.0625, 21.4375, 21.625, 21.8125, 22, 22.125, 22.375, 22.625, 22.875, 23, 23, 23, 23, 23.089287, 23.294643, 23.5625, 23.9375, 24, 24.3125, 24.5, 24.625, 24.875, 24.9375, 25.125, 25.4375, 25.6875, 25.9375, 26, 26.0625, 26.1875, 26.4375, 26.6875, 26.875, 27, 27, 27.0625, 27.3125, 27.5625, 27.8125, 28, 28.0625, 28.0625, 28.25, 28.5, 28.6875, 28.9375, 29, 29, 29.125, 29.375, 29.625, 29.875, 30, 30.0625, 30.3125, 30.5625, 30.8125, 30.9375, 30.875, 30.955357, 31.288691, 31.699406, 31.928572, 32, 32, 32.125, 32.375, 32.6875, 32.9375, 33.1875, 33.375, 33.5, 33.625, 33.776787, 33.982143, 34.107143, 34.3125, 34.5, 34.6875, 34.875, 35, 35, 35.125, 35.3125, 35.5625, 35.8125, 35.9375, 36, 36.125, 36.3125, 36.5625, 36.8125, 36.9375, 37, 37.1875, 37.4375, 37.6875, 37.517857, 36.238094, 34.926193, 34.399998, 9.875
-10, -10, -10, -10, -10, -10, -10, -10, 43.125, 43.166664, 43.25, 43.25, 43.1875, 43, 42.75, 42.75, 42.625, 42.5, 42.375, 42.0625, 42, 42, 41.741074, 41.412498, 41.491074, 41.330357, 41.46875, 41.46875, 41.1875, 40.684525, 40.392857, 40.1875, 40.1875, 40.125, 40.125, 40, 39.8125, 39.75, 39.5625, 39.375, 39.25, 38.955357, 38.857143, 38.6875, 38.625, 38.4375, 38.3125, 38.125, 38, 37.9375, 37.8125, 37.5625, 37.3125, 37.125, 37, 37, 37, 37, 37, 36.9375, 36.6875, 36.4375, 36.1875, 35.9375, 35.8125, 35.5625, 35.3125, 35.3125, 35.1875, 35.1875, 35.1875, 35, 34.8125, 34.6875, 34.4375, 34.1875, 34.125, 33.9375, 33.875, 33.875, 33.6875, 33.5, 33.375, 33.0625, 32.9375, 32.8125, 32.6875, 32.625, 32.4375, 32.3125, 32.1875, 31.910713, 31.580357, 31.321428, 31.125, 31.0625, 31.0625, 31.0625, 30.875, 30.8125, 30.8125, 30.8125, 30.75, 30.5625, 30.25, 29.8125, 29.5625, 29.375, 29.1875, 29.0625, 28.96875, 28.90625, 28.84375, 28.84375, 28.8125, 28.625, 28.4375, 28.25, 28.0625, 28, 28, 28, 27.9375, 27.9375, 27.8125, 27.5625, 27.375, 27.125, 26.9375, 26.6875, 26.4375, 26.1875, 26, 26, 26.0625, 26.125, 25.973215, 25.479166, 25.258928, 24.9375, 24.875, 24.875, 24.75, 24.625, 24.4375, 24.1875, 24.0625, 24, 24, 23.8125, 23.625, 23.375, 23.125, 23.0625, 23, 23, 23, 22.75, 22.5, 22.25, 22, 22, 22, 22, 21.875, 21.625, 21.375, 21.125, 20.875, 20.875, 20.875, 20.875, 20.875, 20.6875, 20.464287, 20.25, 20.0625, 19.901787, 19.75, 19.5, 19.3125, 19.125, 19, 19, 19, 19, 18.8125, 18.5625, 18.3125, 18.0625, 18, 18, 17.75, 17.5, 17.25, 17.125, 17.3125, 17.5625, 17.8125, 18, 18.25, 18.5, 18.75, 18.9375, 19, 19, 19, 19, 19.125, 19.375, 19.5625, 19.8125, 20.0625, 20.1875, 20.375, 20.5, 20.625, 20.8125, 21.0625, 21.4375, 21.6875, 21.875, 22, 22.125, 22.375, 22.625, 22.875, 23, 23, 23.0625, 23.0625, 23.151787, 23.419643, 23.625, 24, 24.0625, 24.3125, 24.5, 24.625, 24.875, 24.9375, 25.125, 25.4375, 25.6875, 25.9375, 26, 26.0625, 26.1875, 26.4375, 26.6875, 26.875, 27, 27, 27.125, 27.375, 27.625, 27.875, 28, 28.125, 28.125, 28.375, 28.625, 28.75, 29, 29, 29, 29.125, 29.375, 29.625, 29.875, 30, 30, 30.25, 30.5, 30.75, 30.9375, 30.875, 30.892857, 31.101191, 31.386906, 31.553572, 31.6875, 31.928572, 32.169643, 32.4375, 32.6875, 32.875, 33.0625, 33.25, 33.4375, 33.5625, 33.776787, 33.982143, 34.044643, 34.1875, 34.375, 34.5625, 34.8125, 35, 35, 35.1875, 35.4375, 35.6875, 35.9375, 36, 36, 36.1875, 36.4375, 36.6875, 36.9375, 37, 37, 37.1875, 37.4375, 37.6875, 37.517857, 36.238094, 34.869049, 34.299999, 9.75, 9.833334, 9.8125, 9.875, 9.8125, 9.8125, 9.8125, 9.75, 9.75, 9.625, 9.625, 9.5625, 9.5, 9.625, 9.6875, 9.8125, 9.9375, 9.8125, 9.75, 9.75, 9.6875, 9.75, 9.75, 9.75, 9.5625, 9.5, 9.4375, 9.375, 9.5625, 9.5625, 9.625, 9.6875, 9.75, 9.6875, 9.5625, 9.5, -10, -10, -10, -10, -10, -10, -10, -10, -10, -10, -10, -10, -10, -10, -10, -10, -10, -10, -10, -10, -10, -10, -10, -10, -10, -10, -10, -10, -10, 43.375, 43.416664, 43.4375, 43.375, 43.1875, 42.9375, 42.75, 42.75, 42.6875, 42.625, 42.5, 42.1875, 42.125, 42.0625, 41.741074, 41.287498, 41.196426, 41.080357, 41.21875, 41.34375, 41.25, 40.809525, 40.517857, 40.3125, 40.1875, 40, 40, 39.928574, 39.912498, 39.678574, 39.482143, 39.25, 39.1875, 38.955357, 38.857143, 38.6875, 38.5625, 38.375, 38.3125, 38.125, 38.0625, 37.9375, 37.6875, 37.4375, 37.1875, 37.0625, 37, 37, 37, 37, 37, 36.9375, 36.6875, 36.4375, 36.1875, 36, 35.9375, 35.6875, 35.4375, 35.3125, 35.125, 35.125, 35.0625, 34.875, 34.6875, 34.5625, 34.375, 34.1875, 34.125, 34, 34, 34, 33.8125, 33.5625, 33.375, 33.0625, 32.9375, 32.8125, 32.75, 32.6875, 32.5, 32.375, 32.125, 31.875, 31.625, 31.375, 31.125, 31, 31, 31, 30.875, 30.8125, 30.8125, 30.8125, 30.75, 30.5625, 30.25, 29.75, 29.5, 29.25, 28.9375, 28.767857, 28.71875, 28.71875, 28.71875, 28.78125, 28.6875, 28.4375, 28.3125, 28.125, 28, 28, 28, 27.9375, 27.8125, 27.75, 27.625, 27.4375, 27.3125, 27.125, 26.9375, 26.75, 26.5625, 26.3125, 26.125, 26.0625, 26.0625, 26.125, 25.973215, 25.479166, 25.258928, 24.9375, 24.875, 24.8125, 24.6875, 24.5625, 24.375, 24.1875, 24.0625, 24, 24, 23.8125, 23.5625, 23.3125, 23.0625, 23, 23, 23, 23, 22.8125, 22.625, 22.4375, 22.1875, 22.125, 22.0625, 22, 21.9375, 21.75, 21.5, 21.25, 21, 20.9375, 20.9375, 20.9375, 20.9375, 20.75, 20.526787, 20.3125, 20.0625, 19.901787, 19.75, 19.5, 19.3125, 19.125, 19, 19, 19, 19, 18.8125, 18.5625, 18.3125, 18.0625, 18, 18, 17.8125, 17.5625, 17.3125, 17.25, 17.4375, 17.6875, 17.9375, 18.0625, 18.25, 18.5, 18.75, 18.9375, 19, 19, 19, 19, 19.125, 19.375, 19.5625, 19.8125, 20.0625, 20.25, 20.5, 20.6875, 20.8125, 21, 21.25, 21.5625, 21.8125, 21.9375, 22, 22.125, 22.375, 22.625, 22.875, 23, 23, 23.0625, 23.0625, 23.214287, 23.544643, 23.741072, 24, 24.0625, 24.1875, 24.4375, 24.5625, 24.8125, 24.9375, 25.125, 25.4375, 25.6875, 25.9375, 26, 26, 26.125, 26.375, 26.625, 26.875, 27, 27, 27.0625, 27.3125, 27.5625, 27.8125, 28, 28.125, 28.125, 28.375, 28.625, 28.75, 29, 29, 29.03125, 29.21875, 29.46875, 29.71875, 29.9375, 30, 30, 30.25, 30.5, 30.75, 30.9375, 30.8125, 30.767857, 30.851191, 31.011906, 31.178572, 31.375, 31.857143, 32.214287, 32.5, 32.75, 32.875, 33, 33.125, 33.3125, 33.5, 33.75, 33.875, 33.9375, 34.125, 34.375, 34.625, 34.875, 35, 35.0625, 35.25, 35.5, 35.75, 35.9375, 36, 36, 36.25, 36.5, 36.75, 37, 37, 37.0625, 37.25, 37.5, 37.75, 37.4375, 35.785713, 34.777382, 34.200001, 9.583333
-10, -10, -10, -10, -10, -10, -10, -10, 43.5, 43.583332, 43.5, 43.375, 43.1875, 42.9375, 42.875, 42.875, 42.8125, 42.6875, 42.5625, 42.25, 42.125, 42.0625, 41.678574, 41.25, 40.910713, 40.8125, 40.9375, 41.125, 41.178574, 40.854168, 40.571426, 40.3125, 40.0625, 39.875, 39.875, 39.928574, 40.037498, 39.785713, 39.398811, 39.133926, 39.1875, 39.098213, 38.9375, 38.696426, 38.5, 38.3125, 38.25, 38.125, 38.0625, 37.875, 37.5625, 37.3125, 37.125, 37.0625, 37.0625, 37.0625, 36.9375, 36.9375, 36.9375, 36.875, 36.6875, 36.4375, 36.1875, 36, 36, 35.8125, 35.625, 35.4375, 35.1875, 35.125, 35, 34.8125, 34.6875, 34.5625, 34.375, 34.25, 34.125, 34, 34, 34, 33.875, 33.625, 33.375, 33.0625, 32.875, 32.8125, 32.8125, 32.75, 32.5625, 32.375, 32.125, 31.875, 31.625, 31.4375, 31.1875, 31.0625, 31.0625, 31, 30.9375, 30.9375, 30.9375, 30.9375, 30.8125, 30.5625, 30.1875, 29.6875, 29.4375, 29.1875, 28.9375, 28.767857, 28.71875, 28.71875, 28.71875, 28.78125, 28.625, 28.375, 28.25, 28.0625, 28, 28, 28, 27.9375, 27.8125, 27.6875, 27.5, 27.3125, 27.1875, 27.0625, 26.9375, 26.8125, 26.6875, 26.4375, 26.25, 26.125, 26, 26, 25.866072, 25.5, 25.3125, 25, 24.8125, 24.75, 24.5625, 24.4375, 24.3125, 24.125, 24.0625, 24, 24, 23.875, 23.625, 23.375, 23.125, 23, 23, 23, 22.9375, 22.839287, 22.785713, 22.625, 22.4375, 22.25, 22.125, 22, 22, 21.8125, 21.5625, 21.3125, 21.0625, 21, 21, 21, 21, 20.9375, 20.8125, 20.5625, 20.25, 20.026787, 19.875, 19.625, 19.4375, 19.1875, 19, 19, 19, 19, 18.75, 18.5, 18.25, 18, 18, 18, 17.875, 17.6875, 17.5, 17.5, 17.625, 17.8125, 18, 18.0625, 18.1875, 18.4375, 18.6875, 18.875, 19, 19, 19, 19, 19.133928, 19.5, 19.6875, 19.9375, 20.125, 20.375, 20.625, 20.875, 21, 21.1875, 21.4375, 21.6875, 21.9375, 22, 22, 22.0625, 22.3125, 22.5625, 22.8125, 23, 23, 23.0625, 23.0625, 23.276787, 23.607143, 23.803572, 24, 24, 24.0625, 24.25, 24.4375, 24.6875, 24.875, 25.125, 25.4375, 25.6875, 25.9375, 26, 26, 26.125, 26.375, 26.625, 26.875, 27, 27.0625, 27.1875, 27.4375, 27.6875, 27.875, 28, 28.125, 28.125, 28.375, 28.625, 28.75, 29, 29, 29.03125, 29.28125, 29.53125, 29.78125, 30, 30, 30, 30.25, 30.5, 30.75, 31, 31, 31.080357, 31.208334, 31.178572, 31.25, 31.375, 31.919643, 32.339287, 32.625, 32.875, 32.9375, 33, 33.125, 33.375, 33.625, 33.875, 34, 34, 34.1875, 34.375, 34.625, 34.875, 34.9375, 35.125, 35.3125, 35.5625, 35.8125, 35.9375, 36, 36, 36.1875, 36.4375, 36.6875, 36.9375, 37, 37.0625, 37.25, 37.5, 37.75, 37.357143, 35.333332, 34.685715, 9, 9.333333, 9.395834, 9.375, 9.4375, 9.375, 9.4375, 9.4375, 9.375, 9.3125, 9.125, 9.125, 9.125, 9.125, 9.25, 9.3125, 9.375, 9.5, 9.5625, 9.5, 9.625, 9.5625, 9.4375, 9.4375, 9.3125, 9.1875, 9.125, 9.0625, 9.125, 9.25, 9.3125, 9.375, 9.3125, 9.375, 9.3125, 9.25, 9.25, -10, -10, -10, -10, -10, -10, -10, -10, -10, -10, -10, -10, -10, -10, -10, -10, -10, -10, -10, -10, -10, -10, -10, -10, -10, -10, -10, -10, -10, 43.625, 43.666664, 43.5625, 43.375, 43.1875, 43, 42.9375, 42.9375, 42.9375, 42.75, 42.625, 42.375, 42.1875, 42.125, 41.803574, 41.3125, 40.910713, 40.75, 40.75, 40.875, 41, 41, 40.785713, 40.455357, 40.071426, 39.8125, 39.8125, 39.803574, 39.974998, 39.660713, 39.273811, 39.071426, 39.0625, 38.973213, 38.767857, 38.571426, 38.3125, 38.1875, 38.125, 38, 38, 37.75, 37.4375, 37.25, 37.0625, 37.0625, 37.0625, 37.0625, 36.875, 36.875, 36.875, 36.8125, 36.6875, 36.4375, 36.1875, 36, 36, 35.875, 35.75, 35.5, 35.25, 35.125, 34.9375, 34.8125, 34.6875, 34.5625, 34.375, 34.25, 34.125, 34, 34, 34, 33.875, 33.625, 33.375, 33.125, 33, 32.9375, 32.9375, 32.75, 32.5, 32.3125, 32.0625, 31.875, 31.625, 31.4375, 31.1875, 31, 31, 30.9375, 30.875, 30.9375, 30.9375, 30.9375, 30.8125, 30.5625, 30.25, 29.741072, 29.375, 29.25, 29.044643, 28.892857, 28.84375, 28.78125, 28.71875, 28.78125, 28.5625, 28.375, 28.3125, 28.125, 28.0625, 27.964287, 27.9375, 27.875, 27.8125, 27.625, 27.375, 27.1875, 27.0625, 26.9375, 26.875, 26.8125, 26.75, 26.5625, 26.375, 26.1875, 26, 26, 25.9375, 25.6875, 25.4375, 25.1875, 24.9375, 24.875, 24.75, 24.5625, 24.375, 24.1875, 24.0625, 24, 24, 23.9375, 23.75, 23.5, 23.3125, 23.125, 23.0625, 23.0625, 22.9375, 22.830357, 22.577381, 22.455357, 22.375, 22.285713, 22.1875, 22.0625, 22, 21.8125, 21.5625, 21.3125, 21.0625, 21, 21, 21, 20.9375, 20.8125, 20.6875, 20.4375, 20.1875, 20.026787, 19.9375, 19.6875, 19.5, 19.25, 19, 19, 18.9375, 18.9375, 18.6875, 18.4375, 18.25, 18, 18, 18, 17.9375, 17.8125, 17.6875, 17.6875, 17.75, 17.875, 18, 18.0625, 18.125, 18.375, 18.625, 18.8125, 19, 19, 19, 19, 19.133928, 19.5, 19.6875, 19.9375, 20.0625, 20.3125, 20.5625, 20.8125, 21, 21.1875, 21.375, 21.625, 21.875, 21.9375, 22, 22, 22.25, 22.5, 22.75, 23, 23, 23.0625, 23.125, 23.375, 23.625, 23.8125, 24, 24, 24.0625, 24.1875, 24.4375, 24.6875, 24.875, 25.1875, 25.4375, 25.6875, 25.9375, 26, 26, 26.1875, 26.4375, 26.6875, 26.9375, 27, 27.0625, 27.25, 27.5, 27.75, 27.9375, 28.0625, 28.1875, 28.25, 28.5, 28.6875, 28.8125, 28.9375, 28.9375, 28.96875, 29.21875, 29.53125, 29.78125, 30, 30, 30.0625, 30.3125, 30.5625, 30.8125, 31.0625, 31.0625, 31.151787, 31.232143, 31.178572, 31.25, 31.4375, 32.044643, 32.526787, 32.8125, 33, 33, 33, 33.0625, 33.3125, 33.5625, 33.8125, 34, 34, 34.125, 34.3125, 34.5625, 34.8125, 34.9375, 35.125, 35.375, 35.625, 35.875, 36, 36, 36, 36.1875, 36.4375, 36.6875, 36.9375, 37, 37.125, 37.375, 37.625, 37.875, 37.42857, 35.333332, 34.742859, 9, 9.208333
-10, -10, -10, -10, -10, -10, -10, -10, 43.75, 43.666664, 43.5, 43.25, 43.0625, 42.9375, 42.9375, 42.9375, 43, 42.8125, 42.6875, 42.4375, 42.1875, 42.125, 41.875, 41.5, 41.035713, 40.875, 40.6875, 40.8125, 41, 41.035713, 40.848213, 40.372025, 40.071426, 39.8125, 39.803574, 39.595238, 39.742859, 39.473213, 39.211311, 39.071426, 39, 38.910713, 38.642857, 38.508926, 38.3125, 38.1875, 38.125, 37.875, 37.875, 37.625, 37.375, 37.25, 37.0625, 37.0625, 37.125, 37.25, 37.083332, 36.916668, 36.875, 36.75, 36.6875, 36.4375, 36.1875, 36, 36, 35.9375, 35.8125, 35.5625, 35.3125, 35.125, 34.875, 34.75, 34.6875, 34.5, 34.375, 34.25, 34.0625, 34, 34.0625, 34.125, 34.044643, 33.666668, 33.383926, 33.125, 33, 32.9375, 32.9375, 32.6875, 32.4375, 32.25, 32, 31.875, 31.625, 31.4375, 31.1875, 31, 30.9375, 30.8125, 30.6875, 30.6875, 30.6875, 30.6875, 30.5625, 30.375, 30.125, 29.669643, 29.299999, 29.366072, 29.214287, 29.142857, 29.0625, 28.9375, 28.875, 28.9375, 28.6875, 28.5, 28.4375, 28.1875, 28.125, 28.089287, 28, 27.9375, 27.875, 27.5625, 27.3125, 27.125, 27, 26.9375, 26.875, 26.875, 26.875, 26.6875, 26.5, 26.25, 26, 26, 26, 25.75, 25.5, 25.25, 24.9375, 24.875, 24.75, 24.5, 24.3125, 24.125, 24, 24, 24, 24, 23.875, 23.625, 23.4375, 23.1875, 23.0625, 23.0625, 22.9375, 22.830357, 22.577381, 22.392857, 22.3125, 22.223213, 22.125, 22.0625, 21.9375, 21.75, 21.5, 21.25, 21.0625, 21, 21, 21, 20.875, 20.6875, 20.5, 20.25, 20.0625, 20, 19.9375, 19.6875, 19.5, 19.25, 19, 18.9375, 18.8125, 18.75, 18.5, 18.3125, 18.1875, 18, 18, 18, 18, 17.875, 17.75, 17.6875, 17.625, 17.6875, 17.8125, 17.875, 17.9375, 18.25, 18.5, 18.75, 19, 19, 19.0625, 19.125, 19.321428, 19.6875, 19.8125, 20, 20.0625, 20.3125, 20.5625, 20.8125, 21, 21.125, 21.25, 21.5, 21.75, 21.875, 22, 22, 22.25, 22.5, 22.75, 23, 23, 23.0625, 23.125, 23.375, 23.625, 23.8125, 24, 24, 24, 24.0625, 24.3125, 24.5625, 24.8125, 25.125, 25.375, 25.625, 25.875, 26, 26, 26.125, 26.375, 26.625, 26.875, 27, 27.0625, 27.25, 27.5, 27.75, 27.9375, 28.0625, 28.125, 28.1875, 28.375, 28.5625, 28.75, 28.875, 28.9375, 28.96875, 29.21875, 29.53125, 29.78125, 30, 30, 30.125, 30.375, 30.625, 30.875, 31.0625, 31, 31.089287, 31.232143, 31.303572, 31.5, 31.6875, 32.116074, 32.482143, 32.75, 32.9375, 33, 33, 33, 33.25, 33.5, 33.75, 34, 34, 34.125, 34.3125, 34.5625, 34.8125, 34.9375, 35.125, 35.375, 35.625, 35.875, 36, 36, 36, 36.125, 36.375, 36.625, 36.875, 37, 37.125, 37.375, 37.625, 37.875, 37.42857, 35.333332, 34.742859, 9, 9.083333, 9.0625, 9.0625, 9.0625, 9.0625, 9.125, 9.125, 9.125, 9.0625, 9, 9, 9, 9, 9, 9, 9, 9.0625, 9.125, 9.1875, 9.375, 9.375, 9.3125, 9.25, 9.0625, 9, 9, 9, 9.125, 9.1875, 9.1875, 9.1875, 9.0625, 9.0625, 9.0625, 9.0625, 9.083333, -10, -10, -10, -10, -10, -10, -10, -10, -10, -10, -10, -10, -10, -10, -10, -10, -10, -10, -10, -10, -10, -10, -10, -10, -10, -10, -10, -10, -10, 43.5, 43.416664, 43.3125, 43.125, 43.0625, 43, 43, 43, 43, 42.75, 42.5, 42.25, 42.098213, 42.0625, 42, 41.6875, 41.330357, 41.125, 40.8125, 40.8125, 40.9375, 40.973213, 40.848213, 40.372025, 40.133926, 39.9375, 39.928574, 39.604168, 39.517857, 39.357143, 39.166668, 39.133926, 39.0625, 38.910713, 38.517857, 38.321426, 38.125, 38.0625, 38, 37.75, 37.6875, 37.4375, 37.25, 37.1875, 37.0625, 37.0625, 37.125, 37.25, 37.020832, 36.854168, 36.8125, 36.625, 36.625, 36.375, 36.1875, 36.035713, 35.964287, 36, 35.875, 35.6875, 35.4375, 35.1875, 34.875, 34.8125, 34.75, 34.5, 34.375, 34.1875, 34, 34, 34.0625, 34.125, 33.982143, 33.604168, 33.321426, 33.0625, 33, 32.9375, 32.9375, 32.6875, 32.5, 32.3125, 32.0625, 31.9375, 31.6875, 31.5, 31.3125, 31.1875, 31.044643, 30.645834, 30.294643, 30.270834, 30.487499, 30.4375, 30.446428, 30.25, 30, 29.607143, 29.174999, 29.241072, 29.214287, 29.25, 29.1875, 29.0625, 29, 29, 28.75, 28.625, 28.5, 28.1875, 28.089287, 28.026787, 27.9375, 27.9375, 27.875, 27.5625, 27.3125, 27.125, 27, 26.9375, 26.875, 26.875, 26.875, 26.678572, 26.375, 26.1875, 25.9375, 26, 26, 25.75, 25.5, 25.25, 24.9375, 24.9375, 24.875, 24.6875, 24.5, 24.25, 24.0625, 24, 24, 24, 23.9375, 23.6875, 23.5, 23.25, 23.0625, 23.0625, 22.875, 22.705357, 22.389881, 22.080357, 22.0625, 22.035713, 22, 22.0625, 21.875, 21.625, 21.375, 21.125, 21, 21, 21, 21, 20.875, 20.6875, 20.5, 20.25, 20.0625, 20, 19.9375, 19.6875, 19.5, 19.25, 19, 18.9375, 18.875, 18.785713, 18.455357, 18.258928, 18.125, 18, 18, 18, 17.9375, 17.8125, 17.6875, 17.5625, 17.5, 17.5, 17.625, 17.8125, 17.973213, 18.3125, 18.5625, 18.75, 19, 19, 19.0625, 19.125, 19.383928, 19.75, 19.875, 20.0625, 20.125, 20.3125, 20.5625, 20.8125, 20.9375, 21.0625, 21.125, 21.375, 21.625, 21.8125, 22, 22, 22.25, 22.5, 22.75, 23, 23.0625, 23.1875, 23.3125, 23.5625, 23.75, 23.875, 24, 24, 24, 24.0625, 24.3125, 24.5625, 24.8125, 25.0625, 25.25, 25.5, 25.75, 25.9375, 26, 26.125, 26.375, 26.625, 26.875, 27, 27.0625, 27.3125, 27.5625, 27.8125, 28, 28.0625, 28.125, 28.1875, 28.3125, 28.5, 28.6875, 28.8125, 28.9375, 28.9375, 29.1875, 29.5, 29.75, 30, 30, 30.1875, 30.4375, 30.6875, 30.9375, 31.0625, 31, 31.151787, 31.419643, 31.616072, 31.875, 32, 32.1875, 32.4375, 32.6875, 32.875, 33, 33, 33, 33.25, 33.5, 33.75, 34, 34, 34.0625, 34.1875, 34.4375, 34.6875, 34.875, 35.0625, 35.25, 35.5, 35.75, 35.9375, 36, 36, 36.0625, 36.3125, 36.5625, 36.8125, 37.0625, 37.1875, 37.375, 37.5625, 37.75, 37.285713, 35.291664, 34.742859, 34, 9
-10, -10, -10, -10, -10, -10, -10, -10, 43.25, 43.166664, 43.125, 43, 42.9375, 42.875, 42.875, 42.875, 42.9375, 42.8125, 42.491074, 42.125, 42.035713, 41.9375, 42.0625, 41.875, 41.625, 41.375, 41, 40.875, 40.9375, 41.035713, 40.973213, 40.559525, 40.383926, 40.1875, 40.178574, 39.791668, 39.571426, 39.166668, 39.071426, 39.0625, 39, 38.875, 38.625, 38.4375, 38.25, 38.125, 38, 37.75, 37.625, 37.4375, 37.3125, 37.25, 37.125, 37.0625, 37.0625, 37.1875, 37.083332, 36.916668, 36.8125, 36.5625, 36.5, 36.25, 36.125, 35.973213, 35.901787, 35.9375, 35.8125, 35.6875, 35.4375, 35.1875, 34.875, 34.8125, 34.6875, 34.4375, 34.3125, 34.125, 34, 34, 34.0625, 34.125, 33.919643, 33.541668, 33.258926, 33, 33, 32.9375, 32.875, 32.625, 32.5, 32.3125, 32.125, 32.0625, 31.8125, 31.5625, 31.4375, 31.3125, 31.107143, 30.770834, 30.357143, 30.333334, 30.612499, 30.544643, 30.425594, 30.125, 29.875, 29.544643, 29.112499, 29.303572, 29.276787, 29.3125, 29.25, 29.0625, 28.9375, 28.9375, 28.6875, 28.625, 28.625, 28.34375, 28.245537, 28.120537, 27.96875, 27.9375, 27.8125, 27.5, 27.25, 27.0625, 27, 26.9375, 26.9375, 26.9375, 26.9375, 26.741072, 26.375, 26.1875, 25.9375, 26, 26, 25.75, 25.5, 25.25, 25, 25, 25, 24.8125, 24.5625, 24.3125, 24.0625, 24, 24, 24, 23.9375, 23.6875, 23.5, 23.25, 23.0625, 23.0625, 22.875, 22.616072, 22.166666, 21.830357, 21.8125, 21.910713, 21.9375, 22, 21.75, 21.5, 21.25, 21.0625, 21, 21, 21, 21, 20.875, 20.6875, 20.4375, 20.1875, 20, 19.9375, 19.9375, 19.6875, 19.5, 19.25, 19, 18.9375, 18.875, 18.723213, 18.392857, 18.258928, 18.125, 18.0625, 18, 17.9375, 17.8125, 17.625, 17.5, 17.3125, 17.25, 17.25, 17.4375, 17.6875, 17.910713, 18.3125, 18.5625, 18.75, 19, 19.0625, 19.125, 19.1875, 19.4375, 19.625, 19.8125, 20, 20.1875, 20.375, 20.5625, 20.8125, 20.875, 20.9375, 21, 21.25, 21.5, 21.75, 22, 22, 22.25, 22.5, 22.75, 23, 23.0625, 23.1875, 23.3125, 23.5625, 23.75, 23.875, 24, 24, 24, 24.125, 24.375, 24.625, 24.875, 25, 25.1875, 25.4375, 25.6875, 25.9375, 26.0625, 26.25, 26.5, 26.75, 26.9375, 27, 27.0625, 27.3125, 27.5625, 27.8125, 28, 28.0625, 28.0625, 28.0625, 28.125, 28.3125, 28.607143, 28.75, 28.9375, 28.9375, 29.1875, 29.5, 29.75, 30, 30.0625, 30.3125, 30.5625, 30.8125, 31, 31, 30.875, 31.026787, 31.294643, 31.553572, 31.875, 32, 32.125, 32.375, 32.625, 32.8125, 33, 33, 33, 33.1875, 33.4375, 33.6875, 33.9375, 34, 34, 34.1875, 34.4375, 34.6875, 34.9375, 35, 35.125, 35.375, 35.625, 35.875, 36, 36, 36.125, 36.375, 36.625, 36.875, 37.0625, 37.25, 37.4375, 37.625, 37.8125, 37.285713, 35.291664, 34.742859, 9, 9, 9, 9, 9, 9, 9, 9, 8.9375, 8.9375, 8.875, 8.875, 8.9375, 8.9375, 9, 9, 9, 9, 9, 9.0625, 9.125, 9.125, 9.125, 9, 8.8125, 8.6875, 8.5625, 8.625, 8.75, 8.875, 9, 9, 9, 9, 9, 9, 9, -10, -10, -10, -10, -10, -10, -10, -10, -10, -10, -10, -10, -10, -10, -10, -10, -10, -10, -10, -10, -10, -10, -10, -10, -10, -10, -10, -10, -10, 43.125, 43.083332, 43.0625, 43.0625, 43, 42.875, 42.767857, 42.75, 42.75, 42.75, 42.553574, 42.25, 42.223213, 42.0625, 42.125, 41.9375, 41.6875, 41.4375, 41.0625, 40.875, 40.9375, 40.973213, 40.9375, 40.604168, 40.5, 40.3125, 40.178574, 39.90136, 39.642857, 39.104168, 39.133926, 39.098213, 38.892857, 38.696426, 38.5, 38.4375, 38.375, 38.3125, 38.125, 37.875, 37.75, 37.6875, 37.625, 37.5, 37.267857, 37.1875, 37.125, 37.25, 37.208332, 36.979168, 36.875, 36.625, 36.5, 36.25, 36.125, 35.973213, 35.839287, 35.8125, 35.625, 35.5, 35.3125, 35.125, 34.875, 34.75, 34.625, 34.375, 34.25, 34.125, 34, 34, 34.0625, 34.125, 33.919643, 33.541668, 33.258926, 33, 33, 33, 32.875, 32.6875, 32.5625, 32.3125, 32.1875, 32.125, 31.875, 31.6875, 31.625, 31.5, 31.294643, 30.895834, 30.482143, 30.333334, 30.549999, 30.482143, 30.363094, 30.107143, 29.729166, 29.508928, 29.237499, 29.366072, 29.294643, 29.25, 29.125, 29, 28.875, 28.875, 28.625, 28.5625, 28.625, 28.34375, 28.308037, 28.21875, 28.03125, 28, 27.75, 27.4375, 27.1875, 27, 27.0625, 27.035713, 26.892857, 26.821428, 26.75, 26.553572, 26.25, 26.125, 25.9375, 26, 25.9375, 25.6875, 25.4375, 25.1875, 25, 25, 25, 24.875, 24.625, 24.375, 24.125, 24, 24, 24, 23.9375, 23.75, 23.5625, 23.3125, 23.125, 23.0625, 22.8125, 22.5625, 22.3125, 21.9375, 21.875, 21.875, 21.875, 21.875, 21.625, 21.375, 21.125, 21, 21, 21, 21, 20.9375, 20.8125, 20.625, 20.375, 20.1875, 20, 19.9375, 19.9375, 19.6875, 19.5, 19.1875, 18.9375, 18.875, 18.875, 18.785713, 18.455357, 18.321428, 18.125, 18.0625, 17.9375, 17.875, 17.6875, 17.4375, 17.3125, 17.0625, 17.0625, 17.0625, 17.3125, 17.625, 17.848213, 18.3125, 18.5625, 18.75, 19, 19.0625, 19.125, 19.25, 19.5, 19.6875, 19.875, 20.0625, 20.25, 20.4375, 20.625, 20.8125, 20.875, 20.9375, 21, 21.1875, 21.375, 21.625, 21.875, 21.9375, 22.25, 22.5, 22.75, 23, 23.0625, 23.25, 23.375, 23.625, 23.8125, 23.875, 24, 24, 24, 24.1875, 24.4375, 24.6875, 24.9375, 25, 25.1875, 25.4375, 25.6875, 25.9375, 26.125, 26.3125, 26.5625, 26.8125, 26.9375, 27, 27.125, 27.375, 27.625, 27.875, 28.0625, 28.125, 28.125, 28.053572, 27.924999, 28.241072, 28.535715, 28.8125, 29, 29, 29.25, 29.5, 29.75, 30, 30.125, 30.375, 30.625, 30.875, 31, 31, 31, 31.1875, 31.375, 31.625, 31.875, 31.9375, 32.0625, 32.3125, 32.5625, 32.8125, 33, 33, 33, 33.1875, 33.4375, 33.6875, 33.9375, 34, 34, 34.1875, 34.4375, 34.6875, 34.9375, 35, 35.125, 35.375, 35.625, 35.875, 36, 36, 36.0625, 36.3125, 36.5625, 36.8125, 37.0625, 37.1875, 37.3125, 37.5, 37.6875, 37.366074, 35.58503, 35.042858, 9, 9
-10, -10, -10, -10, -10, -10, -10, -10, 43.125, 43.083332, 43.0625, 43.0625, 43, 42.875, 42.767857, 42.75, 42.75, 42.8125, 42.678574, 42.375, 42.348213, 42.125, 42.0625, 41.875, 41.625, 41.375, 41.125, 40.9375, 40.9375, 40.9375, 40.9375, 40.8125, 40.75, 40.625, 40.428574, 39.997025, 39.758926, 39.291668, 39.258926, 39.098213, 38.830357, 38.633926, 38.4375, 38.375, 38.3125, 38.25, 38.125, 38, 37.9375, 38, 37.9375, 37.75, 37.482143, 37.375, 37.1875, 37.1875, 37.0625, 36.9375, 36.875, 36.6875, 36.5625, 36.3125, 36.1875, 36.035713, 35.839287, 35.75, 35.5625, 35.4375, 35.25, 35.125, 34.9375, 34.8125, 34.625, 34.375, 34.1875, 34.0625, 34, 34, 34, 34, 33.75, 33.5, 33.25, 33, 33.0625, 33.035713, 32.767857, 32.571426, 32.4375, 32.25, 32.1875, 32.125, 31.9375, 31.75, 31.6875, 31.5625, 31.357143, 31.020834, 30.669643, 30.520834, 30.674999, 30.544643, 30.363094, 30.107143, 29.729166, 29.580357, 29.4375, 29.375, 29.3125, 29.1875, 29.0625, 29.0625, 28.910713, 28.767857, 28.508928, 28.4375, 28.5, 28.28125, 28.245537, 28.09375, 27.96875, 27.9375, 27.6875, 27.4375, 27.1875, 27, 27.0625, 27.035713, 26.892857, 26.821428, 26.6875, 26.491072, 26.1875, 26.0625, 25.9375, 26, 25.875, 25.625, 25.375, 25.125, 25, 25, 24.9375, 24.8125, 24.5625, 24.3125, 24.125, 24, 24, 24, 23.9375, 23.75, 23.5625, 23.3125, 23.125, 23.0625, 22.75, 22.5, 22.25, 22, 22, 22, 22, 21.875, 21.6875, 21.4375, 21.1875, 21.0625, 21, 20.9375, 20.875, 20.75, 20.625, 20.5, 20.3125, 20.1875, 20.0625, 20, 20, 19.75, 19.5, 19.1875, 18.875, 18.875, 18.9375, 18.910713, 18.642857, 18.446428, 18.1875, 18.0625, 17.9375, 17.8125, 17.5625, 17.3125, 17.1875, 17.03125, 17.15625, 17.15625, 17.40625, 17.6875, 17.910713, 18.375, 18.625, 18.8125, 19, 19.125, 19.1875, 19.3125, 19.5625, 19.6875, 19.875, 20.125, 20.3125, 20.4375, 20.5625, 20.6875, 20.75, 20.875, 21, 21.125, 21.3125, 21.5625, 21.8125, 21.9375, 22.25, 22.5, 22.75, 23, 23.0625, 23.25, 23.375, 23.625, 23.8125, 23.875, 24, 24, 24, 24.25, 24.5, 24.75, 25, 25, 25.125, 25.375, 25.625, 25.875, 26.125, 26.375, 26.625, 26.8125, 26.9375, 26.9375, 27.0625, 27.3125, 27.5, 27.75, 27.875, 28, 28.0625, 27.991072, 27.924999, 28.241072, 28.535715, 28.8125, 29.0625, 29.125, 29.375, 29.625, 29.8125, 30, 30.1875, 30.4375, 30.6875, 30.9375, 31, 31, 31.125, 31.3125, 31.5625, 31.8125, 31.9375, 32, 32.125, 32.375, 32.625, 32.875, 33, 33, 33, 33.125, 33.375, 33.625, 33.875, 34, 34, 34.1875, 34.4375, 34.6875, 34.9375, 35, 35.125, 35.375, 35.625, 35.875, 36, 36, 36.0625, 36.3125, 36.5625, 36.8125, 37.0625, 37.1875, 37.25, 37.375, 37.5625, 37.38393, 36.607143, 35.233334, 9, 9, 8.916667, 8.9375, 8.9375, 8.9375, 9, 9, 8.9375, 8.9375, 8.875, 8.875, 8.9375, 8.9375, 9, 9, 9, 8.9375, 8.875, 8.875, 8.875, 8.9375, 8.875, 8.6875, 8.4375, 8.3125, 8.3125, 8.5, 8.75, 8.875, 9, 9, 9, 9, 9, 9, 9, -10, -10, -10, -10, -10, -10, -10, -10, -10, -10, -10, -10, -10, -10, -10, -10, -10, -10, -10, -10, -10, -10, -10, -10, -10, -10, -10, -10, -10, 43.25, 43.166664, 43.125, 43.0625, 43, 42.875, 42.767857, 42.75, 42.75, 42.875, 42.866074, 42.5625, 42.4375, 42.1875, 41.9375, 41.75, 41.5, 41.25, 41.125, 40.9375, 40.875, 40.875, 40.8125, 40.75, 40.75, 40.625, 40.428574, 39.997025, 39.821426, 39.416668, 39.321426, 39.223213, 38.875, 38.526787, 38.383926, 38.3125, 38.3125, 38.25, 38.125, 38.0625, 38.125, 38.3125, 38.3125, 38.0625, 37.69643, 37.5625, 37.3125, 37.3125, 37.1875, 37, 36.875, 36.75, 36.5625, 36.3125, 36.1875, 36, 35.875, 35.75, 35.5625, 35.375, 35.1875, 35.0625, 35, 34.875, 34.6875, 34.4375, 34.1875, 34.0625, 34, 34, 34, 34, 33.75, 33.5, 33.25, 33, 33.0625, 33.035713, 32.705357, 32.508926, 32.3125, 32.125, 32.125, 32.0625, 31.9375, 31.75, 31.625, 31.517857, 31.450001, 31.258928, 31.133928, 30.9375, 30.875, 30.794643, 30.541666, 30.294643, 29.916666, 29.767857, 29.625, 29.5625, 29.4375, 29.25, 29.0625, 29.0625, 28.910713, 28.705357, 28.446428, 28.392857, 28.575001, 28.352678, 28.352678, 28.15625, 28.03125, 28, 27.75, 27.5, 27.25, 27, 27.0625, 27.035713, 26.892857, 26.821428, 26.6875, 26.5, 26.3125, 26.125, 26, 26, 25.8125, 25.5625, 25.3125, 25.0625, 25, 25, 24.875, 24.6875, 24.4375, 24.1875, 24.0625, 24, 24, 24, 23.9375, 23.75, 23.5625, 23.3125, 23.125, 23.0625, 22.75, 22.5, 22.25, 22.0625, 22.0625, 22.0625, 22.0625, 21.875, 21.75, 21.5, 21.25, 21.125, 21, 20.9375, 20.8125, 20.6875, 20.5625, 20.4375, 20.3125, 20.1875, 20.0625, 20, 20, 19.75, 19.5, 19.1875, 18.875, 18.875, 18.875, 18.875, 18.6875, 18.5, 18.25, 18.0625, 17.9375, 17.8125, 17.5625, 17.3125, 17.1875, 16.96875, 17.09375, 17.09375, 17.34375, 17.625, 17.8125, 18.25, 18.5, 18.75, 18.9375, 19.1875, 19.3125, 19.5, 19.75, 19.8125, 19.9375, 20.1875, 20.375, 20.5, 20.5625, 20.5625, 20.625, 20.75, 20.9375, 21.125, 21.3125, 21.5625, 21.8125, 22.008928, 22.4375, 22.625, 22.875, 23, 23, 23.1875, 23.3125, 23.5625, 23.8125, 23.875, 24, 24, 24, 24.25, 24.5, 24.75, 25, 25, 25.125, 25.3125, 25.5, 25.758928, 26.125, 26.3125, 26.5625, 26.625, 26.6875, 26.6875, 26.875, 27.125, 27.3125, 27.625, 27.75, 27.9375, 28.0625, 28.053572, 28.049999, 28.366072, 28.660715, 28.875, 29.125, 29.25, 29.5, 29.75, 29.875, 30, 30.1875, 30.4375, 30.6875, 30.9375, 31, 31, 31.125, 31.25, 31.5, 31.75, 31.875, 32, 32.125, 32.375, 32.625, 32.875, 33, 33, 33.0625, 33.1875, 33.4375, 33.6875, 33.875, 34, 34, 34.25, 34.5, 34.75, 35, 35.0625, 35.25, 35.5, 35.75, 35.9375, 36, 36, 36.125, 36.375, 36.625, 36.875, 37, 37.0625, 37.125, 37.3125, 37.5625, 37.455357, 36.309521, 35.176189, 34.400002, 8.75
-10, -10, -10, -10, -10, -10, -10, -10, 43.25, 43.166664, 43.125, 43.0625, 43.0625, 43, 42.892857, 42.875, 42.8125, 42.875, 42.875, 42.6875, 42.5, 42.25, 41.875, 41.6875, 41.4375, 41.1875, 41.125, 40.9375, 40.875, 40.8125, 40.6875, 40.5625, 40.5, 40.375, 40.178574, 39.684525, 39.580357, 39.4375, 39.375, 39.410713, 38.982143, 38.419643, 38.205357, 38.1875, 38.3125, 38.375, 38.375, 38.25, 38.375, 38.5625, 38.5, 38.3125, 37.88393, 37.6875, 37.4375, 37.375, 37.1875, 37, 36.9375, 36.875, 36.6875, 36.4375, 36.25, 36.0625, 35.9375, 35.8125, 35.5625, 35.3125, 35.125, 35, 35, 34.9375, 34.8125, 34.5625, 34.3125, 34.0625, 33.875, 33.8125, 33.8125, 33.8125, 33.625, 33.4375, 33.1875, 33, 33, 32.910713, 32.580357, 32.383926, 32.25, 32.125, 32.125, 32.0625, 31.9375, 31.8125, 31.6875, 31.580357, 31.512501, 31.258928, 31.133928, 30.875, 30.75, 30.625, 30.5625, 30.419643, 30.104166, 30.017857, 29.8125, 29.625, 29.5, 29.3125, 29.125, 29.1875, 28.973213, 28.642857, 28.383928, 28.330357, 28.450001, 28.258928, 28.258928, 28.0625, 28, 28, 27.75, 27.5, 27.25, 27, 27.0625, 27.035713, 26.892857, 26.821428, 26.6875, 26.5, 26.3125, 26.125, 26, 26, 25.75, 25.5, 25.25, 25, 25, 24.9375, 24.75, 24.5625, 24.375, 24.1875, 24.125, 24.0625, 24, 24, 24, 23.8125, 23.625, 23.375, 23.125, 23.0625, 22.8125, 22.5625, 22.3125, 22.125, 22.0625, 22, 22, 21.875, 21.75, 21.5625, 21.3125, 21.125, 21, 20.9375, 20.75, 20.5625, 20.375, 20.1875, 20.125, 20.0625, 20, 19.9375, 19.9375, 19.6875, 19.4375, 19.1875, 18.875, 18.875, 18.875, 18.9375, 18.75, 18.5, 18.25, 18, 17.9375, 17.875, 17.625, 17.375, 17.1875, 16.90625, 16.96875, 16.986607, 17.364584, 17.678572, 17.875, 18.1875, 18.4375, 18.6875, 18.875, 19.1875, 19.375, 19.625, 19.875, 19.9375, 20, 20.1875, 20.3125, 20.375, 20.4375, 20.375, 20.508928, 20.895834, 21.116072, 21.3125, 21.4375, 21.625, 21.8125, 22.071428, 22.5, 22.6875, 22.9375, 23, 23, 23.1875, 23.375, 23.625, 23.875, 23.9375, 24, 24, 24.0625, 24.3125, 24.5625, 24.8125, 25, 25, 25.125, 25.3125, 25.5, 25.821428, 26.125, 26.25, 26.4375, 26.375, 26.5, 26.5, 26.705357, 27.035713, 27.1875, 27.5625, 27.6875, 27.9375, 28.125, 28.241072, 28.299999, 28.616072, 28.803572, 28.9375, 29.1875, 29.375, 29.625, 29.875, 29.9375, 30, 30.125, 30.375, 30.625, 30.875, 31, 31, 31.125, 31.1875, 31.4375, 31.6875, 31.8125, 32, 32.125, 32.375, 32.625, 32.875, 33, 33, 33.125, 33.3125, 33.5625, 33.875, 34, 34.0625, 34.0625, 34.1875, 34.4375, 34.6875, 34.9375, 35.125, 35.375, 35.625, 35.875, 36, 36, 36, 36.125, 36.375, 36.625, 36.875, 37, 37, 37, 37.1875, 37.4375, 37.383926, 36.149658, 35.119045, 34.266666, 8.5, 8.416667, 8.5, 8.625, 8.6875, 8.8125, 8.875, 8.8125, 8.8125, 8.75, 8.6875, 8.75, 8.8125, 8.875, 8.8125, 8.6875, 8.5, 8.375, 8.375, 8.375, 8.4375, 8.375, 8.25, 8.125, 8.125, 8.3125, 8.5, 8.6875, 8.75, 8.75, 8.8125, 8.8125, 8.75, 8.6875, 8.625, 8.583333, -10, -10, -10, -10, -10, -10, -10, -10, -10, -10, -10, -10, -10, -10, -10, -10, -10, -10, -10, -10, -10, -10, -10, -10, -10, -10, -10, -10, -10, 43.25, 43.166664, 43.125, 43, 43, 43, 43, 43, 43, 43, 42.875, 42.625, 42.375, 42.1875, 41.875, 41.75, 41.5625, 41.25, 41.1875, 41, 40.875, 40.75, 40.625, 40.5625, 40.4375, 40.4375, 40.303574, 39.854168, 39.830357, 39.625, 39.4375, 39.4375, 39.026787, 38.473213, 38.205357, 38, 38, 38.0625, 38.0625, 38, 38.125, 38.1875, 38.125, 38, 37.803574, 37.598213, 37.339287, 37.3125, 37.0625, 37, 36.9375, 36.9375, 36.75, 36.5, 36.3125, 36.0625, 36, 35.875, 35.625, 35.375, 35.125, 35, 35, 35, 34.9375, 34.6875, 34.4375, 34.125, 33.875, 33.8125, 33.8125, 33.8125, 33.6875, 33.5, 33.25, 33.0625, 33, 32.910713, 32.642857, 32.383926, 32.25, 32.125, 32.0625, 32.0625, 32, 31.875, 31.75, 31.705357, 31.575001, 31.321428, 31.196428, 30.9375, 30.875, 30.6875, 30.625, 30.5, 30.3125, 30.3125, 30.044643, 29.714287, 29.625, 29.4375, 29.3125, 29.3125, 29.098213, 28.705357, 28.508928, 28.455357, 28.450001, 28.258928, 28.196428, 28, 28, 28, 27.75, 27.5, 27.25, 27, 27, 27, 27, 26.9375, 26.8125, 26.5625, 26.3125, 26.125, 26, 26, 25.8125, 25.5625, 25.3125, 25.0625, 25, 24.875, 24.625, 24.4375, 24.3125, 24.1875, 24.1875, 24.125, 23.9375, 23.875, 23.8125, 23.625, 23.4375, 23.25, 23.0625, 23, 22.875, 22.6875, 22.4375, 22.25, 22.0625, 21.875, 21.875, 21.75, 21.6875, 21.5625, 21.3125, 21.125, 21, 20.9375, 20.75, 20.6875, 20.535713, 20.267857, 20.196428, 20.0625, 20, 19.875, 19.875, 19.625, 19.375, 19.25, 18.9375, 18.9375, 18.9375, 18.9375, 18.75, 18.5, 18.25, 18, 18, 17.875, 17.625, 17.375, 17.125, 16.90625, 16.96875, 17.049107, 17.427084, 17.803572, 18.0625, 18.3125, 18.5625, 18.75, 18.875, 19.25, 19.5, 19.75, 20, 20, 20, 20.125, 20.25, 20.25, 20.25, 20.1875, 20.330357, 20.979168, 21.294643, 21.5625, 21.6875, 21.8125, 21.9375, 22.196428, 22.5625, 22.75, 23, 23, 23, 23.125, 23.375, 23.625, 23.875, 24, 24, 24, 24.125, 24.375, 24.625, 24.875, 25, 25, 25.125, 25.3125, 25.5, 25.821428, 26.0625, 26.125, 26.25, 26.1875, 26.375, 26.4375, 26.674107, 27.004463, 27.15625, 27.53125, 27.625, 27.8125, 27.9375, 28.0625, 28.3125, 28.5625, 28.8125, 28.9375, 29.25, 29.5, 29.75, 30, 30, 30, 30.0625, 30.25, 30.5, 30.75, 30.9375, 31, 31.0625, 31.125, 31.375, 31.625, 31.8125, 32, 32.125, 32.375, 32.625, 32.875, 33, 33, 33.1875, 33.375, 33.625, 33.9375, 34, 34.0625, 34.0625, 34.125, 34.375, 34.625, 34.875, 35.1875, 35.4375, 35.6875, 35.9375, 36, 36, 36, 36.1875, 36.4375, 36.6875, 36.9375, 37, 37, 37.03125, 37.21875, 37.46875, 37.267857, 35.785713, 34.761906, 34.200001, 8.375
-10, -10, -10, -10, -10, -10, -10, -10, 43.1875, 43.041664, 43.03125, 42.9375, 42.875, 42.875, 42.875, 42.875, 42.9375, 43, 42.8125, 42.5625, 42.3125, 42.1875, 41.9375, 41.666668, 41.5, 41.1875, 41.1875, 41, 40.8125, 40.625, 40.5, 40.4375, 40.375, 40.375, 40.25, 40, 39.9375, 39.8125, 39.5625, 39.5625, 39.214287, 38.598213, 38.330357, 38.0625, 38, 38.0625, 38, 37.875, 37.9375, 37.875, 37.8125, 37.75, 37.589287, 37.473213, 37.339287, 37.375, 37.25, 37.178574, 36.854168, 36.6875, 36.4375, 36.1875, 36.0625, 35.9375, 35.875, 35.8125, 35.625, 35.375, 35.1875, 35.0625, 35, 35, 35, 34.75, 34.5, 34.1875, 33.875, 33.8125, 33.8125, 33.8125, 33.75, 33.5625, 33.3125, 33.125, 32.9375, 32.875, 32.6875, 32.4375, 32.3125, 32.125, 32.0625, 32.0625, 31.9375, 31.8125, 31.75, 31.705357, 31.637501, 31.383928, 31.196428, 31, 31, 30.875, 30.8125, 30.6875, 30.4375, 30.375, 30.107143, 29.776787, 29.75, 29.625, 29.5, 29.375, 29.125, 28.8125, 28.6875, 28.705357, 28.628571, 28.258928, 28.196428, 27.90625, 27.90625, 27.84375, 27.59375, 27.375, 27.1875, 27, 27, 27, 26.9375, 26.8125, 26.75, 26.5, 26.3125, 26.125, 25.9375, 25.9375, 25.8125, 25.625, 25.3125, 25.026787, 24.9375, 24.8125, 24.625, 24.4375, 24.3125, 24.1875, 24.25, 24.160713, 23.830357, 23.696428, 23.5625, 23.4375, 23.3125, 23.1875, 23.0625, 23, 22.9375, 22.8125, 22.5625, 22.3125, 22.0625, 21.8125, 21.8125, 21.75, 21.625, 21.5, 21.25, 21.0625, 21, 21, 20.8125, 20.75, 20.598213, 20.267857, 20.196428, 20.0625, 20, 19.875, 19.875, 19.6875, 19.4375, 19.3125, 19.0625, 19, 19, 19, 18.8125, 18.5625, 18.3125, 18.0625, 18, 17.9375, 17.6875, 17.4375, 17.1875, 16.875, 16.9375, 17.080357, 17.458334, 17.928572, 18.1875, 18.375, 18.625, 18.75, 18.875, 19.25, 19.5, 19.75, 20, 20, 20, 20.0625, 20.125, 20.1875, 20.25, 20.25, 20.455357, 21.041668, 21.357143, 21.6875, 21.8125, 21.9375, 22, 22.196428, 22.5625, 22.75, 23, 23, 23, 23.0625, 23.3125, 23.5625, 23.8125, 24, 24, 24, 24.1875, 24.4375, 24.6875, 24.9375, 25, 25, 25.1875, 25.375, 25.5625, 25.883928, 26.0625, 26.0625, 26.125, 26.125, 26.3125, 26.4375, 26.736607, 27.004463, 27.21875, 27.59375, 27.75, 27.9375, 28, 28.125, 28.375, 28.625, 28.875, 29, 29.1875, 29.4375, 29.6875, 29.9375, 30, 30, 30, 30.125, 30.3125, 30.5625, 30.8125, 30.9375, 31, 31.125, 31.3125, 31.5625, 31.8125, 32, 32.125, 32.375, 32.625, 32.8125, 33, 33, 33.25, 33.4375, 33.6875, 34, 34, 34.0625, 34.0625, 34.125, 34.375, 34.625, 34.875, 35.1875, 35.375, 35.5625, 35.8125, 35.875, 35.9375, 36, 36.25, 36.5, 36.75, 37, 37, 37, 37.0625, 37.3125, 37.5625, 37.361607, 35.632652, 34.761906, 34.200001, 8.125, 8.083333, 8.125, 8.25, 8.25, 8.3125, 8.375, 8.3125, 8.3125, 8.25, 8.1875, 8.25, 8.3125, 8.375, 8.3125, 8.1875, 8.0625, 8, 8, 8, 8, 8, 8, 8, 8, 8.0625, 8.1875, 8.25, 8.3125, 8.3125, 8.3125, 8.3125, 8.25, 8.1875, 8.125, 8.083333, -10, -10, -10, -10, -10, -10, -10, -10, -10, -10, -10, -10, -10, -10, -10, -10, -10, -10, -10, -10, -10, -10, -10, -10, -10, -10, -10, -10, -10, 43.1875, 43.041664, 43.03125, 42.9375, 42.8125, 42.75, 42.6875, 42.625, 42.6875, 42.8125, 42.625, 42.4375, 42.25, 42.125, 42, 41.729168, 41.5625, 41.25, 41.1875, 41, 40.875, 40.6875, 40.625, 40.625, 40.5, 40.5, 40.3125, 40.0625, 40, 39.875, 39.625, 39.5, 39.169643, 38.705357, 38.446426, 38.1875, 38.0625, 38, 37.9375, 37.8125, 37.8125, 37.6875, 37.5625, 37.5, 37.375, 37.285713, 37.214287, 37.25, 37.1875, 37.116074, 36.791668, 36.5625, 36.3125, 36.125, 36, 35.9375, 35.875, 35.75, 35.625, 35.375, 35.1875, 35.125, 35, 35, 35, 34.75, 34.5, 34.1875, 33.875, 33.8125, 33.8125, 33.75, 33.75, 33.5625, 33.3125, 33.1875, 32.875, 32.75, 32.5625, 32.3125, 32.25, 32.125, 32.0625, 32.0625, 31.875, 31.75, 31.6875, 31.5625, 31.4375, 31.3125, 31.125, 31, 31, 30.875, 30.75, 30.625, 30.375, 30.3125, 30.044643, 29.776787, 29.8125, 29.75, 29.6875, 29.5, 29.1875, 28.875, 28.8125, 28.8125, 28.616072, 28.3125, 28.1875, 27.84375, 27.78125, 27.65625, 27.40625, 27.25, 27.125, 27, 27, 26.9375, 26.8125, 26.6875, 26.5625, 26.375, 26.25, 26.0625, 25.866072, 25.6875, 25.625, 25.4375, 25.3125, 25.089287, 25, 24.8125, 24.5625, 24.375, 24.25, 24.1875, 24.3125, 24.196428, 23.723213, 23.517857, 23.3125, 23.25, 23.1875, 23.125, 23.0625, 23, 23, 22.9375, 22.75, 22.5, 22.1875, 21.875, 21.8125, 21.75, 21.5625, 21.5, 21.25, 21.0625, 21.0625, 21, 20.875, 20.741072, 20.410713, 20.142857, 20.008928, 20, 19.9375, 19.8125, 19.8125, 19.6875, 19.5, 19.375, 19.125, 19, 19, 19, 18.8125, 18.5625, 18.3125, 18.0625, 18, 17.875, 17.625, 17.375, 17.125, 16.9375, 17.0625, 17.267857, 17.645834, 18.053572, 18.25, 18.4375, 18.6875, 18.8125, 18.9375, 19.1875, 19.4375, 19.6875, 19.9375, 20, 20, 20, 20, 20.125, 20.25, 20.375, 20.642857, 21.166668, 21.419643, 21.625, 21.75, 21.875, 21.9375, 22.125, 22.3125, 22.5625, 22.8125, 22.9375, 23, 23, 23.1875, 23.4375, 23.6875, 23.9375, 24, 24, 24.25, 24.5, 24.75, 25, 25, 25, 25.25, 25.5, 25.75, 26.0625, 26.0625, 26.125, 26.1875, 26.3125, 26.5625, 26.6875, 26.924107, 27.129463, 27.34375, 27.59375, 27.75, 27.9375, 27.9375, 28.0625, 28.3125, 28.5625, 28.8125, 29, 29.125, 29.3125, 29.5625, 29.8125, 29.9375, 30, 30, 30.0625, 30.25, 30.5, 30.75, 30.9375, 31, 31.125, 31.3125, 31.5625, 31.8125, 32, 32.125, 32.375, 32.625, 32.8125, 33, 33, 33.25, 33.4375, 33.6875, 34, 34, 34.0625, 34.0625, 34.125, 34.375, 34.625, 34.875, 35.125, 35.3125, 35.4375, 35.625, 35.75, 35.8125, 35.9375, 36.25, 36.5, 36.75, 37, 37, 37, 37.125, 37.375, 37.625, 37.575893, 36.730156, 34.952381, 34.400002, 8.125
-10, -10, -10, -10, -10, -10, -10, -10, 43.4375, 43.208332, 43.15625, 43, 42.8125, 42.75, 42.616074, 42.291668, 42.330357, 42.5, 42.544643, 42.5, 42.375, 42.25, 42.125, 41.791668, 41.6875, 41.375, 41.25, 41.0625, 40.875, 40.6875, 40.625, 40.625, 40.5, 40.5, 40.3125, 40.125, 40.0625, 39.9375, 39.6875, 39.4375, 39.125, 38.8125, 38.5625, 38.25, 38, 37.8125, 37.6875, 37.625, 37.625, 37.5, 37.375, 37.3125, 37.25, 37.285713, 37.276787, 37.3125, 37.25, 37.116074, 36.729168, 36.5, 36.3125, 36.125, 36.0625, 36, 35.875, 35.6875, 35.5625, 35.3125, 35.125, 35.125, 35, 35, 35, 34.8125, 34.5625, 34.3125, 34.0625, 34, 33.928574, 33.6875, 33.6875, 33.375, 33.25, 33.125, 32.875, 32.8125, 32.625, 32.4375, 32.25, 32.125, 32.0625, 32, 31.8125, 31.625, 31.5, 31.3125, 31.25, 31.1875, 31.0625, 31, 31, 30.9375, 30.75, 30.625, 30.375, 30.25, 30.044643, 29.776787, 29.75, 29.6875, 29.625, 29.4375, 29.25, 29, 29, 28.9375, 28.741072, 28.4375, 28.25, 27.96875, 27.78125, 27.53125, 27.28125, 27.1875, 27.098213, 26.892857, 26.892857, 26.8125, 26.75, 26.625, 26.4375, 26.25, 26.125, 26, 25.866072, 25.625, 25.5625, 25.375, 25.25, 25.089287, 25, 24.875, 24.6875, 24.5625, 24.4375, 24.3125, 24.375, 24.196428, 23.723213, 23.455357, 23.1875, 23.125, 23.0625, 23.0625, 23.0625, 23, 23, 23, 22.8125, 22.5625, 22.25, 21.9375, 21.875, 21.8125, 21.6875, 21.5625, 21.3125, 21.125, 21.0625, 21, 20.9375, 20.866072, 20.526785, 20.142857, 20.008928, 19.9375, 19.9375, 19.875, 19.875, 19.75, 19.5625, 19.375, 19.125, 19, 19, 18.9375, 18.75, 18.5, 18.25, 18.0625, 18, 17.875, 17.625, 17.375, 17.125, 17, 17.25, 17.5, 17.75, 18.125, 18.25, 18.5, 18.75, 18.875, 19, 19.15625, 19.375, 19.625, 19.875, 19.96875, 20, 20, 20, 20.1875, 20.375, 20.5625, 20.821428, 21.083334, 21.241072, 21.4375, 21.625, 21.8125, 21.9375, 22.0625, 22.25, 22.5, 22.75, 22.9375, 23, 23, 23.125, 23.375, 23.5625, 23.8125, 23.9375, 23.9375, 24.25, 24.5, 24.75, 25, 25, 25, 25.25, 25.5, 25.75, 26, 26, 26.125, 26.25, 26.5, 26.75, 26.875, 27.03125, 27.15625, 27.40625, 27.59375, 27.75, 27.875, 27.875, 28, 28.3125, 28.5625, 28.8125, 29, 29.0625, 29.1875, 29.4375, 29.6875, 29.875, 30, 30, 30.0625, 30.25, 30.5, 30.75, 31, 31.0625, 31.1875, 31.375, 31.5625, 31.8125, 32, 32.125, 32.375, 32.625, 32.8125, 33, 33.0625, 33.3125, 33.5, 33.75, 33.9375, 33.9375, 34, 34, 34.1875, 34.4375, 34.6875, 34.9375, 35.0625, 35.25, 35.375, 35.5625, 35.75, 35.8125, 35.9375, 36.25, 36.4375, 36.625, 36.8125, 36.8125, 36.875, 37.125, 37.4375, 37.6875, 37.64732, 36.730156, 34.952381, 34.400002, 8.125, 8.083333, 8.0625, 8.0625, 8, 8, 8, 8, 8, 8, 8, 8, 8, 8, 8, 8, 8, 8, 8, 8, 8, 8, 8, 8, 8, 8, 8.0625, 8.0625, 8.0625, 8.0625, 8, 8, 8, 8, 8, 8, -10, -10, -10, -10, -10, -10, -10, -10, -10, -10, -10, -10, -10, -10, -10, -10, -10, -10, -10, -10, -10, -10, -10, -10, -10, -10, -10, -10, -10, 43.6875, 43.458332, 43.40625, 43.1875, 42.9375, 42.8125, 42.616074, 42.220238, 42.080357, 42.321426, 42.457142, 42.303574, 42.241074, 42, 41.875, 41.541668, 41.375, 41.1875, 41.125, 41, 40.875, 40.6875, 40.5625, 40.5, 40.375, 40.3125, 40.1875, 40.0625, 40, 40, 39.75, 39.5, 39.25, 38.9375, 38.6875, 38.4375, 38.1875, 37.9375, 37.875, 37.8125, 37.8125, 37.75, 37.625, 37.5625, 37.4375, 37.5, 37.5, 37.5, 37.5, 37.241074, 36.791668, 36.464287, 36.25, 36.0625, 36.0625, 36, 35.8125, 35.625, 35.5, 35.3125, 35.1875, 35.1875, 35.0625, 35, 35, 34.875, 34.6875, 34.5, 34.3125, 34.1875, 34.053574, 33.75, 33.75, 33.473213, 33.267857, 33.133926, 32.875, 32.75, 32.5, 32.3125, 32.125, 32.0625, 32.0625, 31.9375, 31.6875, 31.4375, 31.25, 31.0625, 31.0625, 31.0625, 31, 31, 31, 31, 30.8125, 30.6875, 30.5, 30.25, 30.0625, 29.875, 29.75, 29.75, 29.625, 29.4375, 29.25, 29, 28.9375, 28.8125, 28.616072, 28.3125, 28.1875, 27.96875, 27.78125, 27.53125, 27.34375, 27.25, 27.098213, 26.857143, 26.830357, 26.75, 26.75, 26.625, 26.5, 26.294643, 26.125, 26.107143, 25.866072, 25.6875, 25.5, 25.3125, 25.1875, 25.026787, 25, 24.9375, 24.8125, 24.625, 24.4375, 24.25, 24.25, 24.133928, 23.785713, 23.517857, 23.1875, 22.955357, 22.8125, 22.8125, 22.875, 22.9375, 23, 23, 22.8125, 22.5625, 22.3125, 22.0625, 22, 22, 21.875, 21.75, 21.5, 21.25, 21.125, 21, 20.9375, 20.803572, 20.419643, 20, 19.9375, 19.875, 19.9375, 19.9375, 19.875, 19.75, 19.5625, 19.3125, 19.125, 19, 19, 18.9375, 18.75, 18.5, 18.25, 18.0625, 18, 17.9375, 17.6875, 17.4375, 17.1875, 17, 17.25, 17.5, 17.75, 18.0625, 18.125, 18.3125, 18.5625, 18.75, 18.9375, 19.125, 19.3125, 19.5625, 19.8125, 19.9375, 20, 20, 20, 20.25, 20.5, 20.75, 21, 21, 21.125, 21.3125, 21.5625, 21.8125, 21.9375, 22, 22.125, 22.375, 22.625, 22.875, 23, 23, 23.0625, 23.3125, 23.4375, 23.6875, 23.875, 23.875, 24.25, 24.5, 24.75, 25, 25, 25, 25.25, 25.5, 25.75, 26, 26, 26.125, 26.3125, 26.5625, 26.8125, 26.9375, 27.0625, 27.1875, 27.4375, 27.625, 27.6875, 27.8125, 27.8125, 27.9375, 28.3125, 28.5625, 28.8125, 29, 29, 29.125, 29.375, 29.5625, 29.8125, 30, 30.035713, 30.1875, 30.375, 30.5625, 30.8125, 31.0625, 31.1875, 31.25, 31.4375, 31.5625, 31.75, 32, 32.0625, 32.3125, 32.5625, 32.75, 33, 33.0625, 33.3125, 33.5, 33.75, 33.9375, 33.9375, 34, 34, 34.25, 34.5, 34.75, 35, 35, 35.125, 35.1875, 35.375, 35.625, 35.75, 36, 36.3125, 36.5, 36.6875, 36.8125, 36.8125, 36.90625, 37.1875, 37.5, 37.75, 37.683037, 36.031742, 34.952381, 34.400002, 7.875
-10, -10, -10, -10, -10, -10, -10, -10, 43.875, 43.75, 43.625, 43.375, 43.125, 42.9375, 42.678574, 42.282738, 42.017857, 42.196426, 42.457142, 42.303574, 42.303574, 41.9375, 41.75, 41.5625, 41.375, 41.25, 41.125, 41, 40.875, 40.6875, 40.5, 40.375, 40.1875, 40.125, 40.0625, 40, 40, 40, 39.75, 39.5, 39.25, 39, 38.8125, 38.5625, 38.3125, 38, 37.875, 37.875, 37.875, 37.875, 37.75, 37.625, 37.5, 37.4375, 37.375, 37.3125, 37.25, 37.0625, 36.8125, 36.589287, 36.375, 36.1875, 36.1875, 36.0625, 35.9375, 35.6875, 35.5, 35.375, 35.1875, 35.1875, 35.125, 35, 35, 34.9375, 34.75, 34.5625, 34.375, 34.1875, 34.053574, 33.6875, 33.6875, 33.410713, 33.205357, 33.133926, 32.875, 32.6875, 32.4375, 32.25, 32.0625, 32.0625, 32.0625, 31.9375, 31.75, 31.5625, 31.375, 31.1875, 31.125, 31.0625, 31, 31, 31, 31, 30.875, 30.6875, 30.5, 30.25, 30, 29.875, 29.75, 29.75, 29.75, 29.625, 29.4375, 29.041666, 28.875, 28.625, 28.5, 28.3125, 28.1875, 28.0625, 27.875, 27.6875, 27.5625, 27.4375, 27.223213, 26.919643, 26.830357, 26.75, 26.8125, 26.6875, 26.5625, 26.357143, 26.1875, 26.232143, 25.991072, 25.8125, 25.5, 25.25, 25.1875, 25.0625, 25.0625, 25, 24.875, 24.6875, 24.5, 24.3125, 24.1875, 24.098213, 23.892857, 23.633928, 23.3125, 23.017857, 22.8125, 22.8125, 22.875, 22.9375, 23, 22.9375, 22.75, 22.5, 22.25, 22.0625, 22, 22, 21.9375, 21.875, 21.625, 21.375, 21.1875, 21, 21, 20.866072, 20.482143, 20.0625, 20, 19.9375, 20, 20, 19.8125, 19.625, 19.4375, 19.1875, 19.0625, 19, 19, 18.9375, 18.6875, 18.4375, 18.1875, 18, 18, 17.9375, 17.6875, 17.4375, 17.1875, 17, 17.25, 17.5, 17.75, 18, 18, 18.125, 18.3125, 18.5, 18.75, 18.9375, 19.15625, 19.46875, 19.71875, 19.90625, 20, 20, 20, 20.25, 20.5, 20.75, 21, 21.0625, 21.125, 21.3125, 21.5625, 21.75, 21.9375, 22, 22.0625, 22.3125, 22.5625, 22.8125, 23, 23, 23, 23.1875, 23.3125, 23.5625, 23.8125, 23.9375, 24.3125, 24.5625, 24.8125, 25, 25, 25, 25.25, 25.5, 25.75, 26, 26, 26.125, 26.3125, 26.5, 26.75, 26.875, 27.0625, 27.3125, 27.5625, 27.75, 27.75, 27.8125, 27.8125, 27.9375, 28.3125, 28.5625, 28.8125, 29, 29, 29.125, 29.375, 29.5625, 29.8125, 30, 30.098213, 30.3125, 30.5625, 30.75, 30.9375, 31.125, 31.25, 31.3125, 31.5625, 31.6875, 31.8125, 32, 32.0625, 32.3125, 32.5625, 32.8125, 33, 33.0625, 33.3125, 33.5625, 33.8125, 34, 34, 34, 34, 34.25, 34.5, 34.75, 35, 35, 35.125, 35.1875, 35.375, 35.625, 35.8125, 36.0625, 36.375, 36.5, 36.625, 36.75, 36.75, 36.90625, 37.21875, 37.53125, 37.78125, 37.571426, 35.632652, 34.761906, 34.200001, 7.875, 8, 8, 8.0625, 8.0625, 8, 8, 8, 8, 8, 8, 8, 8, 8, 8, 8, 8, 8, 8, 8, 8, 8, 8, 7.9375, 7.875, 7.8125, 7.75, 7.8125, 7.875, 7.9375, 8, 8, 8, 8, 7.9375, 7.9166665, -10, -10, -10, -10, -10, -10, -10, -10, -10, -10, -10, -10, -10, -10, -10, -10, -10, -10, -10, -10, -10, -10, -10, -10, -10, -10, -10, -10, -10, 43.875, 43.75, 43.6875, 43.4375, 43.25, 43.0625, 42.741074, 42.345238, 42.017857, 42.196426, 42.519642, 42.366074, 42.366074, 42, 41.75, 41.5625, 41.375, 41.25, 41.125, 41.0625, 40.866074, 40.5, 40.3125, 40.0625, 40, 40, 40, 40, 40, 40, 39.75, 39.5, 39.25, 39, 38.8125, 38.625, 38.4375, 38.25, 38.125, 38.0625, 38, 37.9375, 37.875, 37.75, 37.625, 37.5, 37.375, 37.3125, 37.25, 37.125, 36.875, 36.651787, 36.5, 36.223213, 36.151787, 36.0625, 35.875, 35.6875, 35.4375, 35.3125, 35.125, 35.125, 35.125, 35, 35, 35, 34.8125, 34.625, 34.4375, 34.1875, 33.991074, 33.625, 33.625, 33.410713, 33.267857, 33.196426, 33, 32.8125, 32.5625, 32.375, 32.125, 32.0625, 32.0625, 31.875, 31.75, 31.625, 31.4375, 31.375, 31.25, 31.125, 31.0625, 31, 31, 30.9375, 30.875, 30.6875, 30.5, 30.3125, 30.0625, 29.9375, 29.8125, 29.8125, 29.75, 29.625, 29.4375, 29.041666, 28.875, 28.625, 28.5625, 28.375, 28.25, 28.1875, 28, 27.875, 27.75, 27.5625, 27.285713, 26.919643, 26.830357, 26.8125, 26.9375, 26.75, 26.625, 26.357143, 26.125, 26.232143, 26.0625, 26.0625, 25.6875, 25.4375, 25.1875, 25, 25, 25, 25, 24.8125, 24.625, 24.375, 24.125, 24.0625, 24, 23.75, 23.4375, 23.080357, 22.8125, 22.8125, 22.8125, 22.875, 22.875, 22.8125, 22.6875, 22.4375, 22.25, 22.0625, 22, 21.9375, 21.875, 21.75, 21.5, 21.3125, 21.125, 21, 21, 20.875, 20.607143, 20.1875, 20.1875, 20.0625, 20.1875, 20.0625, 19.75, 19.5, 19.25, 19.0625, 19, 19, 19, 18.9375, 18.6875, 18.4375, 18.1875, 18, 18, 18, 17.75, 17.5, 17.25, 17, 17.25, 17.5, 17.75, 18, 18, 18.0625, 18.1875, 18.375, 18.625, 18.875, 19.03125, 19.308037, 19.638393, 19.834822, 20, 20, 20, 20.25, 20.5, 20.75, 21, 21.0625, 21.125, 21.375, 21.625, 21.8125, 22, 22, 22.125, 22.375, 22.625, 22.875, 23, 23, 23.0625, 23.1875, 23.3125, 23.5625, 23.75, 24, 24.375, 24.625, 24.875, 25, 25, 25, 25.25, 25.5, 25.75, 26, 26, 26.0625, 26.1875, 26.3125, 26.5625, 26.75, 27, 27.375, 27.625, 27.875, 27.875, 27.875, 27.875, 27.9375, 28.3125, 28.5625, 28.8125, 29, 29, 29.1875, 29.4375, 29.625, 29.875, 30, 30.098213, 30.375, 30.625, 30.8125, 31, 31.125, 31.3125, 31.4375, 31.6875, 31.8125, 31.875, 32, 32.125, 32.375, 32.625, 32.875, 33, 33.0625, 33.25, 33.5, 33.75, 33.9375, 34, 34, 34, 34.25, 34.5, 34.75, 35, 35, 35.125, 35.25, 35.5, 35.75, 35.9375, 36.125, 36.3125, 36.375, 36.4375, 36.5625, 36.625, 36.84375, 37.21875, 37.53125, 37.78125, 37.42857, 35.333332, 34.57143, 34, 7.875
-10, -10, -10, -10, -10, -10, -10, -10, 43.625, 43.583332, 43.5625, 43.375, 43.25, 43, 42.625, 42.392857, 42.0625, 42.196426, 42.412498, 42.178574, 42.178574, 41.875, 41.6875, 41.5, 41.25, 41.125, 41, 41, 40.866074, 40.5, 40.3125, 40.0625, 40, 40, 40, 40, 40, 40, 39.75, 39.5, 39.25, 39, 38.8125, 38.6875, 38.5625, 38.4375, 38.375, 38.3125, 38.1875, 38.0625, 38, 37.75, 37.5625, 37.375, 37.1875, 37.1875, 37.1875, 37.125, 36.9375, 36.714287, 36.5625, 36.276787, 35.943455, 35.821426, 35.625, 35.5, 35.3125, 35.25, 35.125, 35.125, 35.125, 35, 35, 35, 34.8125, 34.625, 34.4375, 34.1875, 34, 33.75, 33.6875, 33.535713, 33.392857, 33.321426, 33.125, 32.9375, 32.625, 32.375, 32.125, 32, 32, 31.875, 31.8125, 31.6875, 31.5, 31.5, 31.3125, 31.1875, 31.125, 31, 31, 30.9375, 30.9375, 30.75, 30.5625, 30.375, 30.125, 30, 29.875, 29.8125, 29.6875, 29.5625, 29.375, 29.041666, 28.875, 28.6875, 28.5625, 28.3125, 28.1875, 28.0625, 28, 28, 27.875, 27.625, 27.3125, 27.026787, 26.875, 26.8125, 26.8125, 26.5625, 26.5, 26.294643, 26.125, 26.232143, 26.0625, 26.125, 25.8125, 25.5625, 25.3125, 25.0625, 25, 25, 25, 24.75, 24.5625, 24.3125, 24.0625, 24.0625, 24, 23.8125, 23.5, 23.142857, 22.875, 22.8125, 22.75, 22.75, 22.6875, 22.5625, 22.5, 22.3125, 22.1875, 22.0625, 22, 21.9375, 21.8125, 21.6875, 21.4375, 21.25, 21.125, 21, 21, 20.8125, 20.553572, 20.25, 20.1875, 20.125, 20.1875, 20.0625, 19.6875, 19.4375, 19.1875, 19, 19, 19, 19, 19, 18.75, 18.5, 18.25, 17.9375, 17.875, 17.8125, 17.5625, 17.375, 17.1875, 17.0625, 17.3125, 17.5625, 17.75, 17.875, 17.875, 17.875, 18.0625, 18.3125, 18.5625, 18.84375, 19.03125, 19.308037, 19.638393, 19.866072, 20, 19.9375, 19.875, 20.080357, 20.458334, 20.741072, 21, 21.0625, 21.1875, 21.4375, 21.6875, 21.875, 22, 22, 22.0625, 22.25, 22.5, 22.75, 22.9375, 23.0625, 23.1875, 23.3125, 23.5, 23.6875, 23.8125, 24.0625, 24.375, 24.625, 24.875, 25, 25, 25.03125, 25.28125, 25.53125, 25.71875, 25.875, 25.875, 25.9375, 26.169643, 26.3125, 26.5625, 26.75, 27, 27.3125, 27.5, 27.75, 27.8125, 27.875, 27.9375, 27.9375, 28.25, 28.5, 28.75, 29, 29, 29.1875, 29.4375, 29.625, 29.875, 30, 30.098213, 30.375, 30.625, 30.8125, 31, 31.0625, 31.3125, 31.5, 31.75, 31.9375, 31.9375, 32, 32.1875, 32.4375, 32.6875, 32.9375, 33, 33, 33.125, 33.375, 33.625, 33.875, 34, 34, 34.0625, 34.3125, 34.5625, 34.8125, 35, 35, 35.0625, 35.125, 35.375, 35.625, 35.875, 36.125, 36.28125, 36.40625, 36.53125, 36.71875, 36.8125, 36.96875, 37.28125, 37.53125, 37.629463, 37.12925, 35.142857, 34.428574, 34, 7.75, 7.9166665, 7.9375, 8.0625, 8.0625, 8, 8, 8, 7.9375, 7.9375, 7.9375, 7.8125, 7.8125, 7.8125, 7.8125, 7.9375, 8, 8, 7.9375, 7.8125, 7.75, 7.75, 7.8125, 7.875, 7.875, 7.8125, 7.75, 7.8125, 7.75, 7.6875, 7.75, 7.75, 7.875, 7.875, 7.6875, 7.5833335, -10, -10, -10, -10, -10, -10, -10, -10, -10, -10, -10, -10, -10, -10, -10, -10, -10, -10, -10, -10, -10, -10, -10, -10, -10, -10, -10, -10, -10, 43.5, 43.416664, 43.375, 43.125, 43.0625, 42.875, 42.482143, 42.264286, 42.241074, 42.232143, 42.4375, 42.3125, 42.25, 42.0625, 41.8125, 41.625, 41.4375, 41.25, 41.125, 41.0625, 40.866074, 40.5625, 40.375, 40.125, 40.125, 40.0625, 40.0625, 40.0625, 40, 39.9375, 39.75, 39.5625, 39.3125, 39.125, 38.9375, 38.8125, 38.75, 38.6875, 38.625, 38.5, 38.3125, 38.125, 37.9375, 37.625, 37.375, 37.125, 37, 37, 37, 37, 36.875, 36.75, 36.625, 36.276787, 35.773811, 35.633926, 35.4375, 35.375, 35.25, 35.25, 35.125, 35.125, 35.125, 35, 35, 35, 34.75, 34.5, 34.25, 34, 33.875, 33.625, 33.5, 33.3125, 33.25, 33.25, 33.125, 32.9375, 32.625, 32.375, 32.0625, 31.9375, 31.9375, 31.875, 31.9375, 31.8125, 31.625, 31.5625, 31.3125, 31.1875, 31.125, 31, 31, 30.9375, 30.9375, 30.6875, 30.4375, 30.25, 30, 29.875, 29.75, 29.625, 29.5, 29.4375, 29.3125, 29.041666, 28.9375, 28.75, 28.625, 28.375, 28.1875, 28.0625, 27.9375, 27.875, 27.6875, 27.4375, 27.25, 27.0625, 26.9375, 26.8125, 26.75, 26.5, 26.375, 26.25, 26.125, 26.125, 26.125, 26.098213, 25.767857, 25.508928, 25.25, 25.0625, 25, 25, 24.9375, 24.6875, 24.5625, 24.3125, 24.125, 24.125, 24, 23.875, 23.6875, 23.4375, 23.1875, 23.0625, 22.875, 22.8125, 22.6875, 22.5, 22.4375, 22.25, 22.125, 22.0625, 22, 21.9375, 21.8125, 21.6875, 21.4375, 21.25, 21.125, 21, 21, 20.8125, 20.625, 20.5, 20.375, 20.3125, 20.25, 20.0625, 19.6875, 19.5, 19.25, 19.0625, 19.0625, 18.9375, 18.875, 18.8125, 18.5625, 18.375, 18.1875, 17.9375, 17.875, 17.75, 17.5, 17.3125, 17.0625, 17, 17.25, 17.544643, 17.75, 17.875, 17.875, 17.875, 18.0625, 18.3125, 18.5625, 18.8125, 19.03125, 19.308037, 19.638393, 19.897322, 20, 20, 20, 20.205357, 20.583334, 20.803572, 21, 21.125, 21.25, 21.5, 21.75, 21.875, 22, 22, 22.0625, 22.25, 22.5, 22.75, 23, 23.1875, 23.3125, 23.375, 23.5625, 23.6875, 23.8125, 24.1875, 24.4375, 24.6875, 24.9375, 25, 25, 25.0625, 25.28125, 25.53125, 25.71875, 25.84375, 25.875, 26, 26.232143, 26.375, 26.625, 26.75, 26.9375, 27.1875, 27.375, 27.625, 27.8125, 27.9375, 28, 28.0625, 28.3125, 28.5625, 28.8125, 29, 29, 29.125, 29.3125, 29.5625, 29.8125, 29.9375, 30.0625, 30.3125, 30.5625, 30.8125, 31, 31, 31.25, 31.5, 31.75, 32, 32, 32, 32.25, 32.5, 32.75, 33, 33, 33, 33.125, 33.375, 33.625, 33.875, 34, 34, 34.0625, 34.3125, 34.5625, 34.8125, 35, 35, 35.0625, 35.125, 35.375, 35.625, 35.875, 36.0625, 36.15625, 36.28125, 36.34375, 36.59375, 36.75, 36.875, 37.21875, 37.46875, 37.566963, 36.67976, 35.414967, 34.619049, 34.200001, 7.875
-10, -10, -10, -10, -10, -10, -10, -10, 43.25, 43.166664, 43.1875, 42.9375, 42.875, 42.75, 42.419643, 42.201786, 42.241074, 42.169643, 42.25, 42.1875, 42.125, 42.0625, 41.875, 41.6875, 41.5, 41.25, 41.125, 41.0625, 40.928574, 40.6875, 40.5625, 40.3125, 40.25, 40.125, 40.0625, 40.0625, 40, 39.875, 39.625, 39.4375, 39.285713, 39.125, 39, 38.875, 38.8125, 38.75, 38.75, 38.5625, 38.375, 38.1875, 38, 37.6875, 37.4375, 37.1875, 37, 37, 37, 37, 36.9375, 36.8125, 36.6875, 36.339287, 35.711311, 35.508926, 35.3125, 35.3125, 35.3125, 35.375, 35.25, 35.1875, 35.0625, 34.875, 34.875, 34.875, 34.6875, 34.5, 34.25, 34, 33.875, 33.625, 33.4375, 33.1875, 33.09375, 33.09375, 33.03125, 32.90625, 32.625, 32.375, 32.0625, 31.9375, 31.9375, 31.875, 31.9375, 31.8125, 31.625, 31.5625, 31.3125, 31.1875, 31.0625, 30.9375, 30.9375, 30.875, 30.9375, 30.6875, 30.4375, 30.25, 30, 29.8125, 29.625, 29.4375, 29.25, 29.1875, 29.125, 29.0625, 29, 28.9375, 28.75, 28.5, 28.25, 28.0625, 27.9375, 27.8125, 27.5625, 27.375, 27.160713, 26.964287, 26.9375, 26.75, 26.75, 26.5, 26.3125, 26.1875, 25.9375, 25.875, 25.875, 25.848213, 25.642857, 25.446428, 25.25, 25.0625, 24.9375, 24.9375, 24.794643, 24.464287, 24.4375, 24.1875, 24.0625, 24, 23.8125, 23.6875, 23.625, 23.4375, 23.25, 23.125, 22.8125, 22.6875, 22.5625, 22.4375, 22.4375, 22.3125, 22.1875, 22.0625, 22, 21.9375, 21.75, 21.5625, 21.3125, 21.125, 21.0625, 21, 21, 20.875, 20.75, 20.6875, 20.5, 20.375, 20.25, 20, 19.6875, 19.5, 19.25, 19.0625, 19.0625, 18.9375, 18.875, 18.75, 18.5, 18.3125, 18.125, 17.9375, 17.875, 17.75, 17.5625, 17.375, 17.0625, 16.964287, 17.1875, 17.526787, 17.75, 17.875, 17.875, 17.9375, 18.1875, 18.5, 18.8125, 19, 19.1875, 19.401787, 19.669643, 19.928572, 20, 20.0625, 20.125, 20.330357, 20.708334, 20.866072, 21, 21.125, 21.3125, 21.5625, 21.8125, 21.9375, 22, 22, 22.0625, 22.25, 22.5, 22.75, 23, 23.25, 23.4375, 23.5, 23.625, 23.6875, 23.75, 24.0625, 24.375, 24.625, 24.875, 25, 25, 25.09375, 25.3125, 25.5625, 25.75, 25.84375, 25.875, 26, 26.294643, 26.5, 26.75, 26.875, 26.9375, 27.0625, 27.1875, 27.4375, 27.75, 27.973213, 28.0625, 28.1875, 28.375, 28.625, 28.875, 29, 29, 29.0625, 29.1875, 29.375, 29.625, 29.875, 30.107143, 30.375, 30.625, 30.8125, 31, 31, 31.25, 31.5, 31.75, 32, 32, 32.0625, 32.3125, 32.5625, 32.8125, 33, 33, 33, 33.125, 33.375, 33.625, 33.875, 34, 34, 34.0625, 34.3125, 34.5625, 34.8125, 35, 35, 35.0625, 35.125, 35.375, 35.625, 35.8125, 36, 36.03125, 36.21875, 36.34375, 36.59375, 36.8125, 36.875, 37.21875, 37.46875, 37.566963, 37.420071, 36.603172, 34.809525, 34.400002, 7.875, 7.833333, 7.8125, 7.8125, 7.75, 7.75, 7.75, 7.75, 7.625, 7.6875, 7.75, 7.5625, 7.5625, 7.5, 7.4375, 7.625, 7.75, 7.6875, 7.5625, 7.375, 7.25, 7.25, 7.3125, 7.5, 7.5625, 7.5625, 7.625, 7.625, 7.5625, 7.4375, 7.375, 7.3125, 7.4375, 7.5, 7.5, 7.5, -10, -10, -10, -10, -10, -10, -10, -10, -10, -10, -10, -10, -10, -10, -10, -10, -10, -10, -10, -10, -10, -10, -10, -10, -10, -10, -10, -10, -10, 43, 43, 43, 42.875, 42.75, 42.625, 42.357143, 42.139286, 42.241074, 42.107143, 42.125, 42.0625, 42, 42, 41.8125, 41.625, 41.5, 41.25, 41.25, 41.25, 41.125, 41.0625, 40.8125, 40.5, 40.3125, 40.125, 40.0625, 40.0625, 39.9375, 39.75, 39.5, 39.3125, 39.223213, 39.1875, 39.1875, 39.125, 39.053574, 38.729168, 38.633926, 38.5, 38.375, 38.25, 38.0625, 37.75, 37.5, 37.25, 37.0625, 37, 36.9375, 36.875, 36.8125, 36.6875, 36.5625, 36.303574, 35.747025, 35.508926, 35.375, 35.375, 35.4375, 35.5, 35.375, 35.25, 35.0625, 34.875, 34.875, 34.8125, 34.625, 34.4375, 34.1875, 33.9375, 33.875, 33.625, 33.3125, 32.955357, 32.78125, 32.790176, 33.052082, 33.013393, 32.8125, 32.5, 32.1875, 32.0625, 32, 32, 31.9375, 31.8125, 31.6875, 31.5, 31.3125, 31.1875, 30.9375, 30.875, 30.875, 30.875, 31, 30.75, 30.5, 30.25, 30, 29.75, 29.5, 29.25, 29.0625, 29.0625, 29.0625, 29.0625, 29, 28.875, 28.625, 28.375, 28.125, 28, 27.9375, 27.8125, 27.5625, 27.375, 27.160713, 27.026787, 27, 26.75, 26.642857, 26.375, 26.1875, 26.125, 25.9375, 25.875, 25.875, 25.910713, 25.767857, 25.571428, 25.330357, 25.125, 24.875, 24.8125, 24.669643, 24.339287, 24.375, 24.1875, 24, 23.875, 23.625, 23.5625, 23.625, 23.5, 23.375, 23.25, 22.910713, 22.642857, 22.580357, 22.4375, 22.375, 22.3125, 22.125, 22, 22, 22, 21.8125, 21.625, 21.375, 21.125, 21.0625, 21, 21, 20.9375, 20.8125, 20.6875, 20.4375, 20.25, 20.125, 20, 19.75, 19.5625, 19.3125, 19.0625, 19.0625, 18.9375, 18.8125, 18.625, 18.375, 18.1875, 18.0625, 17.9375, 17.875, 17.75, 17.625, 17.5, 17.25, 17.183037, 17.28125, 17.558037, 17.71875, 17.8125, 17.875, 18, 18.3125, 18.625, 18.9375, 19.0625, 19.3125, 19.5625, 19.75, 20, 20.0625, 20.1875, 20.3125, 20.517857, 20.833334, 20.928572, 21, 21.125, 21.25, 21.4375, 21.6875, 21.857143, 21.9375, 22, 22, 22.1875, 22.4375, 22.6875, 23, 23.3125, 23.5, 23.5625, 23.625, 23.625, 23.6875, 23.9375, 24.25, 24.5, 24.75, 24.9375, 25, 25.09375, 25.3125, 25.5625, 25.75, 25.84375, 25.875, 26, 26.357143, 26.625, 26.875, 27, 27, 27, 27.125, 27.375, 27.75, 28.098213, 28.25, 28.4375, 28.5625, 28.75, 28.9375, 29, 29, 29.0625, 29.1875, 29.375, 29.625, 29.9375, 30.169643, 30.4375, 30.6875, 30.8125, 31, 31, 31.1875, 31.4375, 31.625, 31.875, 31.9375, 32.0625, 32.375, 32.625, 32.875, 33, 33, 33, 33.1875, 33.4375, 33.6875, 33.9375, 34, 34, 34.0625, 34.3125, 34.5625, 34.8125, 35, 35, 35, 35, 35.25, 35.5, 35.75, 36, 36.03125, 36.28125, 36.46875, 36.71875, 36.9375, 36.9375, 37.21875, 37.46875, 37.566963, 37.583336, 37.020409, 35, 34.599998, 7.625
