-10, -10, -10, -10, -10, -10, -10, -10, -10, -10, -10, -10, -10, -10, -10, -10, -10, -10, -10, -10, -10, -10, -10, -10, -10, -10, -10, -10, -10, -10, 99.75, 99.300003, 98.690468, 98.127975, 96.863098, 95.833336, 95.223221, 94.75, 94.178566, 92.508331, 91.578575, 90.907738, 90.095238, 89.5625, 88.553574, 87.761909, 87.116074, 86.66964, 86.125, 85.283928, 84.863098, 84, 83.061905, 82.833336, 82.053574, 81.550598, 81.196426, 80.772324, 80.251488, 79.440475, 78.3125, 77.386909, 76.622025, 75.815483, 74.749992, 74.0625, 73.258926, 72.428574, 71.785713, 71.25, 70.625, 69.642853, 68.845238, 68.133926, 67.154762, 66.440475, 65.565475, 64.404762, 63.916664, 63.25, 62.547619, 61.9375, 61.25, 60.5, 59.892857, 59.25, 58.467262, 57.184525, 56.464283, 55.830357, 55.1875, 54.55357, 54, 53.25, 52.285713, 51.57143, 51, 50.25, 49.285713, 48.5, 47.892857, 47.25, 46.526787, 45.85714, 45.145832, 44.5625, 43.425594, 42.678574, 41.744045, 41.133926, 40.220238, 39.369045, 38.803574, 37.895836, 37.415176, 36.684525, 36.321426, 35.6875, 34.797619, 33.958332, 33.113094, 32.321426, 31.288691, 30.535713, 29.955357, 29.011904, 28.145834, 27.303572, 26.571428, 26, 25.375, 24.785713, 24.1875, 23.369047, 21.988096, 21.392857, 20.8125, 20.375, 19.642857, 18.416668, 17.825893, 17.21875, 16.71875, 16.1875, 15.583333, 14.541666, 13.541667, 12.901786, 12.072917, 11.513393, 11.1875, 10.9375, 10.9375, 10.9375, 11, 11.1875, 11.125, 11.125, 11.125, 11.0625, 11.15625, 11.28125, 11.40625, 11.53125, 11.75, 11.875, 11.9375, 11.9375, 11.875, 11.75, 11.75, 11.875, 12.044643, 12.1875, 12.125, 12.0625, 12.0625, 12, 12.151786, 12.25, 12.330357, 12.6875, 12.785714, 12.75, 12.377976, 12.452382, 12.928572, 13.285715, 13.4375, 13.6875, 13.75, 13.9375, 14.25, 14.5, 14.75, 15, 15, 15, 15, 15, 15.125, 15.25, 15.25, 15.3125, 15.25, 15.1875, 15.1875, 15.125, 15.1875, 15.080357, 14.491072, 13.217687, 12.883928, 12.369047, 11.992857, 12, 11.9375, 12.160714, 12.125, 12.125, 12.125, 12.1875, 12.1875, 12.1875, 12.125, 12, 12, 12.0625, 12.0625, 12.0625, 12.125, 12.1875, 12.1875, 12.1875, 12.125, 12, 12.0625, 12.035714, 11.964286, 12, 11.9375, 12, 12, 12, 12.0625, 12.25, 12.3125, 12.3125, 12.25, 12.0625, 12.0625, 12.1875, 12.25, 12.25, 12.3125, 12.1875, 12.3125, 12.3125, 12.1875, 12.25, 12.1875, 12.375, 12.5625, 12.625, 12.625, 12.4375, 12.25, 12.1875, 12.3125, 12.4375, 12.5625, 12.75, 12.75, 12.8125, 12.9375, 12.9375, 12.9375, 12.875, 12.6875, 12.6875, 12.6875, 12.8125, 12.9375, 12.9375, 13, 12.982143, 12.9375, 12.875, 12.8125, 12.875, 12.875, 13, 13, 13, 13, 13, 13, 13.0625, 13.03125, 13.03125, 13.03125, 12.96875, 13, 13, 12.875, 12.875, 12.875, 12.875, 13, 13, 12.9375, 12.964286, 13.035714, 13, 13.0625, 13, 13, 13.0625, 13.0625, 13.0625, 13.0625, 13, 13.125, 13.1875, 13.1875, 13.1875, 13.0625, 13, 13, 13, 13.0625, 13.0625, 13.0625, 13.0625, 13, 13, -10, -10, -10, -10, -10, -10, -10, -10, -10, -10, -10, -10, -10, -10, -10, -10, -10, -10, -10, -10, -10, -10, -10, -10, -10, -10, -10, -10, -10, -10, -10, -10, -10, -10, -10, -10, -10, -10, -10, -10, -10, -10, -10, -10, -10, -10, -10, -10, -10, -10, -10, -10, -10, -10, -10, -10, -10, -10, -10, -10, -10, -10, -10, -10, -10, -10, -10, -10, -10, -10, 99.875, 99.450005, 98.714279, 98.065475, 96.782738, 95.976189, 95.366074, 94.875, 94.214279, 92.859528, 91.824486, 91.053574, 90.077385, 89.333336, 88.041664, 87.39286, 86.78125, 86.32589, 85.857147, 85.133926, 84.508926, 83.892853, 82.883331, 82.520836, 81.8125, 81.446426, 81.125, 80.584824, 79.965775, 79.35714, 78.258926, 77.386909, 76.383926, 75.714287, 74.642853, 74, 73.25, 72.5, 71.892853, 71.020836, 70.375, 69.622025, 68.845238, 68.050591, 67.092262, 66.482147, 65.85714, 64.5, 63.916664, 63.13393, 62.523808, 61.9375, 61.25, 60.428574, 59.785713, 59.125, 58.279762, 57.184525, 56.315475, 55.758926, 55.125, 54.49107, 53.892857, 53.25, 52.392853, 51.595238, 51, 50.3125, 49.464287, 48.74107, 48.071426, 47.321426, 46.607143, 45.964287, 45.0625, 44.5, 43.479164, 42.785713, 41.815475, 41.020832, 40.303574, 39.494045, 38.928574, 37.958336, 37.392857, 36.684525, 36.258926, 35.5625, 34.619049, 34, 33.104168, 32.214287, 31.276785, 30.571428, 30.0625, 29.074404, 28.154762, 27.375, 26.67857, 26.0625, 25.321428, 24.67857, 24.125, 23.422619, 22.166668, 21.416666, 20.883928, 20.491072, 19.654762, 18.452381, 17.825893, 17.15625, 16.611607, 16.0625, 15.404762, 14.416666, 13.363095, 12.776786, 12.21875, 11.629464, 11.3125, 11.0625, 11, 11, 11.1875, 11.3125, 11.25, 11.25, 11.125, 11.125, 11.25, 11.3125, 11.375, 11.375, 11.5, 11.6875, 11.75, 11.75, 11.6875, 11.5625, 11.5625, 11.6875, 11.8125, 11.9375, 11.875, 11.8125, 11.8125, 11.8125, 11.9375, 12, 12.25, 12.5625, 12.785714, 12.741072, 12.16369, 12.157739, 12.535714, 12.848215, 13.0625, 13.375, 13.607143, 13.875, 14.1875, 14.4375, 14.6875, 14.9375, 15, 15, 15, 15, 15.0625, 15.125, 15.125, 15.125, 15.0625, 15, 15, 15, 15.0625, 14.910713, 13.755102, 12.797619, 12.321428, 12.035714, 11.892857, 11.892857, 11.9375, 12.035714, 12.0625, 12.0625, 12, 12.0625, 12.0625, 12.0625, 12.0625, 12, 12, 12.0625, 12.0625, 12.0625, 12.125, 12.125, 12.125, 12.125, 12.0625, 12, 12.125, 12.071428, 11.928572, 12, 11.875, 12, 12, 12, 12.0625, 12.25, 12.3125, 12.3125, 12.25, 12.0625, 12.0625, 12.125, 12.125, 12.125, 12.125, 12.0625, 12.1875, 12.1875, 12.125, 12.1875, 12.25, 12.4375, 12.625, 12.6875, 12.625, 12.4375, 12.25, 12.1875, 12.25, 12.3125, 12.375, 12.5, 12.571428, 12.875, 13, 13.0625, 12.9375, 12.75, 12.625, 12.625, 12.625, 12.75, 12.8125, 12.6875, 12.6875, 12.75, 12.8125, 12.875, 12.9375, 12.9375, 12.9375, 13, 13, 13, 13, 13, 13, 13, 12.96875, 12.96875, 12.96875, 12.96875, 13, 13, 12.8125, 12.75, 12.75, 12.75, 12.9375, 13, 13, 13, 13, 13, 13, 13
-10, -10, -10, -10, -10, -10, -10, -10, -10, -10, -10, -10, -10, -10, -10, -10, -10, -10, -10, -10, -10, -10, -10, -10, -10, -10, -10, -10, -10, -10, 99.875, 99.450005, 98.642853, 98.029762, 97.053574, 96.226189, 95.678574, 95.125, 94.464279, 93.042862, 92.028572, 90.875, 89.973213, 89.226189, 88.125, 87.45536, 86.790176, 86.254463, 85.75, 85.071426, 84.282738, 83.714287, 82.811905, 82.333336, 81.741074, 81.26786, 81, 80.366074, 79.702377, 79.071426, 78.142853, 77.095245, 76.217262, 75.526787, 74.619041, 74, 73.104164, 72.428574, 71.8125, 70.913689, 70.25, 69.497025, 68.928574, 67.967262, 67.029762, 66.401779, 65.678566, 64.476196, 63.907738, 63.142857, 62.732143, 62.1875, 61.508926, 60.410713, 59.714287, 59.0625, 58.258926, 57.297615, 56.386906, 55.821426, 55.125, 54.419643, 53.785713, 53.25, 52.508926, 51.764881, 51.071426, 50.321426, 49.535713, 48.848213, 48.133926, 47.330357, 46.535713, 45.785713, 44.830357, 44.25, 43.520832, 42.928574, 41.985119, 41.029762, 40.196426, 39.482143, 38.892857, 37.895836, 37.276787, 36.660713, 36.1875, 35.508926, 34.702381, 34.0625, 33.113094, 32.214287, 31.276785, 30.571428, 30.0625, 29.282738, 28.404762, 27.625, 26.869047, 26.020834, 25.258928, 24.660713, 24.0625, 23.342262, 22.238096, 21.452381, 21.008928, 20.544643, 19.488096, 18.547619, 17.897322, 17.15625, 16.53125, 15.96875, 15.415178, 14.636905, 13.291667, 12.696429, 12.15625, 11.674107, 11.375, 11.125, 11, 11, 11.1875, 11.3125, 11.3125, 11.3125, 11.1875, 11.1875, 11.25, 11.25, 11.25, 11.1875, 11.25, 11.4375, 11.4375, 11.4375, 11.375, 11.25, 11.3125, 11.4375, 11.625, 11.8125, 11.75, 11.6875, 11.6875, 11.6875, 11.875, 11.9375, 12.0625, 12.3125, 12.473214, 12.428572, 11.78869, 11.747024, 12.160714, 12.366072, 12.6875, 13.008928, 13.502976, 13.803572, 14.125, 14.375, 14.625, 14.875, 15, 15, 15, 15, 15.125, 15.1875, 15.1875, 15.1875, 15.0625, 15, 15, 15, 15, 14.785713, 13.785714, 12.714287, 12.214286, 12, 12, 12, 12, 12, 12, 12, 11.9375, 11.9375, 11.9375, 11.9375, 12, 12, 12, 12.0625, 12.0625, 12.0625, 12.0625, 12, 12, 12, 12, 12, 12.125, 12.071428, 11.928572, 12, 11.875, 12, 12, 12, 12.0625, 12.1875, 12.25, 12.25, 12.1875, 12.0625, 12, 12, 12, 12, 12, 12, 12.0625, 12.0625, 12.0625, 12.125, 12.3125, 12.410714, 12.464286, 12.5, 12.375, 12.3125, 12.1875, 12.1875, 12.1875, 12.25, 12.3125, 12.375, 12.446428, 12.75, 12.9375, 13.098214, 13, 12.875, 12.75, 12.75, 12.6875, 12.6875, 12.6875, 12.5625, 12.5625, 12.6875, 12.75, 12.875, 13, 13, 13, 13, 13, 12.9375, 12.9375, 12.9375, 12.9375, 12.9375, 12.90625, 12.90625, 12.90625, 12.96875, 13, 13, 12.875, 12.8125, 12.8125, 12.8125, 12.9375, 13, 13, 13, 13, 13, 13, 13, 13, 13, 13, 13, 13, 13, 13, 13, 13, 13, 13, 13, 13, 13, 13.125, 13.1875, 13.1875, 13.125, 12.964286, 12.916667, -10, -10, -10, -10, -10, -10, -10, -10, -10, -10, -10, -10, -10, -10, -10, -10, -10, -10, -10, -10, -10, -10, -10, -10, -10, -10, -10, -10, -10, -10, -10, -10, -10, -10, -10, -10, -10, -10, -10, -10, -10, -10, -10, -10, -10, -10, -10, -10, -10, -10, -10, -10, -10, -10, -10, -10, -10, -10, -10, -10, -10, -10, -10, -10, -10, -10, -10, -10, -10, -10, 99.75, 99.300003, 98.619041, 98.071426, 97.366074, 96.511909, 95.928574, 95.3125, 94.60714, 93.059525, 91.964287, 90.833336, 90.107147, 89.261902, 88.14286, 87.45536, 86.790176, 86.183029, 85.642853, 85.0625, 84.175591, 83.607147, 82.761909, 82.125, 81.803574, 81.276787, 81.008926, 80.229164, 79.714287, 78.964287, 78.029762, 76.886909, 76.002975, 75.285713, 74.577377, 74, 72.958328, 72.285713, 71.625, 70.681549, 70, 69.455353, 68.928574, 67.895828, 67.214287, 66.288696, 65.642853, 64.58036, 64.116074, 63.464287, 62.660713, 62.178574, 61.482143, 60.339287, 59.642857, 59, 58.25, 57.297615, 56.386906, 55.821426, 55.125, 54.348213, 53.678574, 53.1875, 52.5, 51.764881, 51.071426, 50.321426, 49.535713, 48.848213, 48.133926, 47.330357, 46.535713, 45.714287, 44.660713, 44.071426, 43.5625, 43.071426, 42.008926, 41.029762, 40.205357, 39.297619, 38.714287, 37.916668, 37.267857, 36.616074, 36.0625, 35.321426, 34.67857, 34.125, 33.383926, 32.535713, 31.339285, 30.535713, 29.955357, 29.428572, 28.592262, 27.848213, 26.767857, 25.877977, 25.071428, 24.473213, 23.892857, 23.258928, 22.342262, 21.523809, 21.071428, 20.544643, 19.488096, 18.547619, 17.897322, 17.15625, 16.46875, 15.861607, 15.352678, 14.574405, 13.4375, 12.767858, 12.165178, 11.674107, 11.375, 11.125, 11, 11, 11.125, 11.1875, 11.25, 11.25, 11.1875, 11.25, 11.25, 11.3125, 11.25, 11.125, 11.125, 11.1875, 11.125, 11.151786, 11.232143, 11.107143, 11.1875, 11.25, 11.375, 11.5625, 11.5, 11.5, 11.5, 11.5, 11.6875, 11.75, 11.875, 12.125, 12.348214, 12.303572, 11.770833, 11.729167, 11.869047, 12.053572, 12.375, 12.705357, 13.461309, 13.794643, 14.0625, 14.25, 14.5, 14.75, 14.9375, 15, 15, 15, 15.0625, 15.0625, 15.0625, 15.0625, 15, 15, 15, 15, 15, 14.714285, 13.476191, 12.642857, 12.169643, 12, 12, 12, 12, 12, 12, 12, 11.875, 11.8125, 11.8125, 11.8125, 11.9375, 12, 11.9375, 11.9375, 11.9375, 11.9375, 12.0625, 12.0625, 12.0625, 12.0625, 12, 12, 12.1875, 12.133928, 11.991072, 12.0625, 11.875, 12, 12, 12, 12, 12.0625, 12.0625, 12.0625, 12.0625, 12, 12, 12, 12, 12, 12, 12, 12, 12, 12, 12, 12.25, 12.348214, 12.321428, 12.166667, 12.017857, 12, 12, 12.125, 12.125, 12.1875, 12.3125, 12.3125, 12.383928, 12.625, 12.758928, 13.048214, 12.892857, 12.875, 12.6875, 12.75, 12.625, 12.625, 12.625, 12.5, 12.5, 12.5625, 12.625, 12.75, 12.9375, 13, 13, 13, 13, 12.9375, 12.875, 12.875, 12.875, 12.875, 12.90625, 12.90625, 12.96875, 13.03125, 13.0625, 13.0625, 12.9375, 12.875, 12.875, 12.875, 12.9375, 13, 13, 13, 13, 13, 13, 13
-10, -10, -10, -10, -10, -10, -10, -10, -10, -10, -10, -10, -10, -10, -10, -10, -10, -10, -10, -10, -10, -10, -10, -10, -10, -10, -10, -10, -10, -10, 99.625, 99.150002, 98.59523, 98, 97.3125, 96.678574, 96.0625, 95.383926, 94.619049, 93.034523, 92.14286, 91.083336, 90.294647, 89.369041, 88.452377, 87.839287, 87.120529, 86.183029, 85.625, 85.0625, 84.229164, 83.440475, 82.857147, 82.1875, 81.928574, 81.39286, 80.842262, 80.032738, 79.526787, 78.830353, 78.190475, 76.571426, 75.726196, 74.982147, 74.473213, 73.928574, 72.812492, 72.214287, 71.553574, 70.535713, 69.928574, 69.375, 68.821426, 67.895828, 67.392853, 66.538696, 65.595238, 64.711311, 64.1875, 63.526787, 62.660713, 62.178574, 61.544643, 60.517857, 59.666668, 59, 58.3125, 57.601189, 56.744049, 55.946426, 55.229168, 54.163689, 53.5, 53.0625, 52.553574, 51.872025, 51.133926, 50.401783, 49.714287, 48.788689, 48.0625, 47.205357, 46.202381, 45.464287, 44.639881, 44.0625, 43.517857, 43, 41.883926, 40.958336, 40.205357, 39.333336, 38.547619, 37.928574, 37.196426, 36.553574, 36, 35.3125, 34.67857, 34.125, 33.446426, 32.714287, 31.434523, 30.642857, 29.809523, 29.25, 28.633928, 27.99107, 26.708334, 25.806549, 25.008928, 24.392857, 23.785713, 23.1875, 22.446428, 21.595238, 21.133928, 20.544643, 19.559525, 18.690475, 17.845238, 17.196428, 16.491072, 15.778274, 15.227678, 14.449405, 13.625, 12.946428, 12.133928, 11.625, 11.3125, 11.125, 11, 11, 11.0625, 11.0625, 11.125, 11.125, 11.0625, 11.125, 11.125, 11.25, 11.25, 11.1875, 11.125, 11.0625, 10.9375, 11.026786, 11.169643, 11.107143, 11.1875, 11.125, 11.1875, 11.3125, 11.3125, 11.3125, 11.3125, 11.3125, 11.5, 11.625, 11.75, 11.9375, 12.0625, 12.053572, 11.8125, 11.8125, 11.785714, 11.875, 12.0625, 12.392857, 13.211309, 13.651787, 13.9375, 14.125, 14.375, 14.625, 14.875, 15, 15, 15, 15.0625, 15.125, 15.125, 15.125, 15.0625, 15, 15, 15, 15, 14.678572, 13.392858, 12.571428, 12.107143, 12, 12, 12, 12, 12, 12, 12, 11.875, 11.8125, 11.8125, 11.8125, 11.9375, 12, 11.9375, 11.9375, 11.9375, 11.9375, 12.125, 12.1875, 12.25, 12.25, 12.125, 12.0625, 12.125, 12.098214, 12.026786, 12.0625, 11.9375, 12, 12, 12, 12, 12, 12, 12, 12, 12, 12, 12, 12, 12, 12, 12, 12, 12, 12, 12, 12.1875, 12.285714, 12.196428, 12.041667, 11.892857, 11.875, 11.9375, 12, 12, 12.125, 12.25, 12.25, 12.321428, 12.4375, 12.508928, 12.798214, 12.642857, 12.6875, 12.625, 12.75, 12.6875, 12.6875, 12.625, 12.5, 12.5, 12.5, 12.5625, 12.6875, 12.875, 12.9375, 12.9375, 12.9375, 12.9375, 12.9375, 12.8125, 12.8125, 12.8125, 12.875, 13, 13, 13.0625, 13.125, 13.125, 13.125, 13.0625, 12.9375, 12.9375, 12.9375, 12.9375, 13, 13, 13, 13, 13, 13, 13, 13, 13, 13, 13, 13, 13, 13.0625, 13.125, 13.125, 13.125, 13.0625, 13.0625, 13.035714, 12.964286, 13.0625, 13.125, 13.25, 13.169643, 12.964286, 12.916667, -10, -10, -10, -10, -10, -10, -10, -10, -10, -10, -10, -10, -10, -10, -10, -10, -10, -10, -10, -10, -10, -10, -10, -10, -10, -10, -10, -10, -10, -10, -10, -10, -10, -10, -10, -10, -10, -10, -10, -10, -10, -10, -10, -10, -10, -10, -10, -10, -10, -10, -10, -10, -10, -10, -10, -10, -10, -10, -10, -10, -10, -10, -10, -10, -10, -10, -10, -10, -10, -10, 99.5, 99, 98.571426, 98, 97.375, 96.785713, 96.133926, 95.279762, 94.690475, 93.105949, 91.934525, 91.142853, 90.366074, 89.369041, 88.642853, 88.017853, 87.339279, 86.392853, 85.600006, 84.8125, 83.988098, 83.235115, 82.794647, 82.375, 82.0625, 81.33036, 80.627975, 79.845238, 79.383926, 78.497025, 77.815475, 76.3125, 75.476196, 74.583336, 74.151787, 73.616074, 72.687492, 72.178574, 71.375, 70.559525, 69.892853, 69.3125, 68.767853, 68.041664, 67.571426, 66.497025, 65.523811, 64.79464, 64.25, 63.535713, 62.660713, 62.178574, 61.607143, 60.696426, 59.690479, 59, 58.375, 57.73214, 56.869049, 56.053574, 55.291668, 54.172619, 53.5, 53, 52.5, 51.955357, 51.258926, 50.526783, 49.785713, 48.684521, 47.991074, 47.205357, 46.017857, 45.214287, 44.598213, 44.0625, 43.517857, 43, 41.645832, 40.928574, 40.205357, 39.333336, 38.547619, 37.9375, 37.083332, 36.410713, 35.875, 35.25, 34.660713, 34.125, 33.446426, 32.714287, 31.446428, 30.458334, 29.630951, 29.125, 28.6875, 28.098213, 26.541668, 25.672619, 25, 24.428572, 23.619047, 22.991072, 22.196428, 21.55357, 21.0625, 20.428572, 19.619047, 18.761906, 17.761904, 17.133928, 16.264881, 15.528274, 15.03125, 14.553572, 13.8125, 13.142857, 12.029761, 11.508928, 11.1875, 11.0625, 11, 11, 11, 11, 11.0625, 11.0625, 11.0625, 11.0625, 11, 11.125, 11.125, 11.125, 11.125, 11, 10.875, 10.964286, 11.107143, 11.044643, 11.151786, 11.098214, 11.0625, 11.1875, 11.125, 11.125, 11.125, 11.1875, 11.3125, 11.5, 11.625, 11.75, 11.875, 11.875, 11.8125, 11.75, 11.75, 11.8125, 11.9375, 12.267857, 13.041666, 13.571428, 13.875, 14.0625, 14.3125, 14.5625, 14.8125, 15, 15, 15, 15.0625, 15.125, 15.125, 15.125, 15.0625, 15, 15, 15, 15, 14.678572, 13.476191, 12.642858, 12.169643, 12.0625, 12, 12, 12, 12, 12, 12, 11.875, 11.8125, 11.8125, 11.8125, 11.9375, 12, 11.9375, 11.9375, 11.9375, 11.9375, 12.1875, 12.3125, 12.357143, 12.25, 12.125, 12, 12.0625, 12.125, 12.125, 12.125, 12.0625, 12, 12, 12, 12, 12, 12, 12, 12, 12, 12, 12, 12, 12, 12, 12, 12, 12, 12, 12, 12.1875, 12.285714, 12.196428, 12.041667, 11.892857, 11.875, 11.9375, 12, 12, 12.125, 12.25, 12.25, 12.3125, 12.25, 12.321428, 12.610714, 12.517857, 12.625, 12.5625, 12.6875, 12.6875, 12.75, 12.75, 12.6875, 12.6875, 12.5625, 12.625, 12.6875, 12.8125, 12.875, 12.8125, 12.75, 12.75, 12.8125, 12.75, 12.75, 12.75, 12.8125, 12.9375, 13, 13.0625, 13.0625, 13.0625, 13.0625, 13.0625, 13.0625, 13.0625, 13.0625, 13, 13, 13, 13, 13, 13, 13, 13
-10, -10, -10, -10, -10, -10, -10, -10, -10, -10, -10, -10, -10, -10, -10, -10, -10, -10, -10, -10, -10, -10, -10, -10, -10, -10, -10, -10, -10, -10, 99.625, 99.150002, 98.511902, 97.928574, 97.3125, 96.767853, 96.196426, 95.342262, 94.752975, 93.297615, 91.976189, 91.178574, 90.366074, 89.297615, 88.535706, 88.017853, 87.446426, 86.404762, 85.582138, 84.520836, 83.89286, 83.101189, 82.741074, 82.375, 81.883926, 81.294647, 80.333336, 79.666664, 79.169647, 78.163689, 77.494049, 76.229164, 75.440475, 74.270836, 73.866074, 73.303574, 72.583328, 72, 71.20536, 70.479164, 69.830353, 69.375, 68.875, 68.267853, 67.821426, 66.517853, 65.559525, 64.79464, 64.1875, 63.410713, 62.357143, 61.821426, 61.285713, 60.633926, 59.654766, 59, 58.4375, 57.875, 56.809525, 55.982143, 55.291668, 54.351189, 53.66964, 53.008926, 52.383926, 51.785713, 51.25, 50.642857, 49.964287, 48.642857, 47.928574, 47.196426, 46.017857, 45.214287, 44.598213, 44.0625, 43.517857, 43, 41.416664, 40.785713, 40.196426, 39.449402, 38.717262, 38.008926, 37.092262, 36.339287, 35.767857, 35.125, 34.535713, 34.0625, 33.4375, 32.714287, 31.446428, 30.458334, 29.630951, 29.125, 28.6875, 28.071428, 26.25, 25.571428, 24.892857, 24.053572, 23.226191, 22.616072, 22, 21.473213, 20.9375, 20.3125, 19.607143, 18.726191, 17.761904, 17.196428, 16.407738, 15.392858, 14.866072, 14.375, 13.9375, 13.285713, 12.154761, 11.571428, 11.1875, 11.0625, 11, 11, 11, 11, 11.0625, 11.0625, 11.0625, 11.125, 11.0625, 11.1875, 11.1875, 11.125, 11.125, 11, 10.9375, 11.089286, 11.294643, 11.294643, 11.401786, 11.348214, 11.25, 11.25, 11.125, 11.0625, 11.0625, 11.125, 11.25, 11.4375, 11.625, 11.8125, 11.9375, 11.9375, 11.875, 11.875, 11.875, 11.9375, 12, 12.196428, 12.779761, 13.476191, 13.803572, 14, 14.25, 14.5, 14.75, 15, 15, 15, 15, 15.0625, 15.0625, 15.0625, 15.0625, 15, 15, 15, 15, 14.571428, 13.083333, 12.5, 12.0625, 12.0625, 12, 12, 12, 12, 12, 12, 11.9375, 11.875, 11.875, 11.875, 11.9375, 12, 11.9375, 11.9375, 11.9375, 11.9375, 12.25, 12.4375, 12.544643, 12.4375, 12.25, 12.0625, 12.0625, 12.1875, 12.1875, 12.1875, 12.125, 12, 12, 12, 12, 12, 12, 12, 12, 12, 12, 12, 12, 12, 12, 12.0625, 12.125, 12.1875, 12.1875, 12.125, 12.1875, 12.25, 12.232143, 12.041667, 11.955357, 11.875, 11.9375, 12, 12, 12.0625, 12.125, 12.1875, 12.3125, 12.25, 12.321428, 12.5125, 12.330357, 12.4375, 12.4375, 12.5625, 12.6875, 12.875, 12.9375, 12.9375, 12.9375, 12.6875, 12.6875, 12.625, 12.6875, 12.8125, 12.75, 12.6875, 12.625, 12.75, 12.6875, 12.6875, 12.75, 12.75, 12.875, 13, 13.0625, 13.0625, 13.0625, 13.0625, 13.0625, 13.035714, 12.964286, 13, 12.9375, 13, 13, 13, 13, 13, 13, 13, 13, 13, 13, 13, 13, 13, 13.0625, 13.1875, 13.1875, 13.1875, 13.125, 13.0625, 13.035714, 12.964286, 13, 13, 13.125, 13.107143, 13, 13, -10, -10, -10, -10, -10, -10, -10, -10, -10, -10, -10, -10, -10, -10, -10, -10, -10, -10, -10, -10, -10, -10, -10, -10, -10, -10, -10, -10, -10, -10, -10, -10, -10, -10, -10, -10, -10, -10, -10, -10, -10, -10, -10, -10, -10, -10, -10, -10, -10, -10, -10, -10, -10, -10, -10, -10, -10, -10, -10, -10, -10, -10, -10, -10, -10, -10, -10, -10, -10, -10, 99.666664, 99.150002, 98.269043, 97.785721, 97.1875, 96.75, 96.196426, 95.279762, 94.610123, 93.464287, 91.886902, 91.107147, 90.303574, 89.288689, 88.464279, 87.910713, 87.383926, 86.324402, 85.475006, 84.458336, 83.738098, 82.958336, 82.616074, 82.25, 81.696426, 81.169647, 80.190483, 79.541664, 78.991074, 77.854164, 77.214287, 76.291664, 75.476189, 74.166672, 73.669647, 73.053574, 72.488091, 71.89286, 71.14286, 70.398811, 69.651787, 69.142853, 68.6875, 68.267853, 67.857147, 66.642853, 65.630951, 64.91964, 64.241074, 63.363094, 62.607143, 61.809525, 61.321426, 60.741074, 59.64286, 59, 58.5625, 58.125, 56.875, 56.017857, 55.291668, 54.422619, 53.776787, 53.133926, 52.571426, 51.809525, 51.25, 50.642857, 49.964287, 48.642857, 47.928574, 47.196426, 46.017857, 45.214287, 44.598213, 44.0625, 43.455357, 42.892857, 41.5, 40.702385, 40.196426, 39.678574, 38.958332, 38.142857, 37.101189, 36.267857, 35.660713, 35.0625, 34.517857, 34, 33.3125, 32.464287, 31.392857, 30.494047, 29.738094, 29.1875, 28.8125, 28.178572, 26.458334, 25.75, 25.017857, 24.0625, 23.226191, 22.616072, 22, 21.401785, 20.830357, 20.1875, 19.419643, 18.785713, 17.833332, 17.321428, 16.559525, 15.25, 14.660715, 14.125, 13.75, 13.214285, 12, 11.5, 11.125, 11.0625, 11, 11, 11, 11, 11, 11, 11, 11.0625, 11.0625, 11.125, 11.125, 11.0625, 11.0625, 11, 11, 11.1875, 11.25, 11.25, 11.339286, 11.285714, 11.25, 11.25, 11.125, 11.125, 11.1875, 11.3125, 11.5, 11.5625, 11.6875, 11.8125, 11.875, 12, 12, 12, 12, 12, 12, 12.125, 12.508928, 13.235119, 13.660715, 14, 14.3125, 14.5625, 14.8125, 15, 15, 15, 15, 15.0625, 15.0625, 15.0625, 15.0625, 15, 15, 15, 15, 14.580357, 13.375, 12.821428, 12.3125, 12.205357, 12.0625, 12, 12, 12, 12, 12, 12, 12, 12, 12, 12, 12, 12, 12, 12, 12, 12.1875, 12.375, 12.419643, 12.3125, 12.1875, 12, 12, 12.125, 12.125, 12.125, 12.125, 12, 12, 12, 12, 12, 12, 12, 12, 12, 12, 12, 12, 12, 12, 12.0625, 12.1875, 12.3125, 12.375, 12.375, 12.3125, 12.25, 12.1875, 12.125, 12.0625, 12, 12, 12.0625, 12.125, 12.1875, 12.1875, 12.25, 12.375, 12.375, 12.5, 12.5625, 12.4375, 12.4375, 12.5, 12.5625, 12.75, 12.875, 12.875, 12.8125, 12.8125, 12.6875, 12.75, 12.75, 12.75, 12.8125, 12.75, 12.6875, 12.625, 12.75, 12.75, 12.75, 12.8125, 12.8125, 12.875, 13, 13, 13, 13, 13, 13.0625, 13.035714, 12.964286, 13, 12.9375, 13, 13, 13, 13, 13, 13, 13
-10, -10, -10, -10, -10, -10, -10, -10, -10, -10, -10, -10, -10, -10, -10, -10, -10, -10, -10, -10, -10, -10, -10, -10, -10, -10, -10, -10, -10, -10, -10, 99.150002, 98.026192, 97.642868, 97, 96.625, 96.133926, 95.125, 94.526787, 93.660713, 91.85833, 90.940483, 90.178574, 89.217262, 88.464279, 87.848213, 87.303574, 86.395828, 85.439285, 84.351196, 83.559525, 82.9375, 82.508926, 82.151787, 81.571426, 80.991074, 80.148811, 79.550591, 78.928574, 77.625, 76.928574, 76.375, 75.752975, 74.434525, 73.607147, 72.910713, 72.392853, 71.613098, 70.89286, 70.125, 69.473213, 69.017853, 68.669647, 68.267853, 67.785721, 66.333336, 65.64286, 65.017853, 64.419647, 63.383926, 62.57143, 61.702381, 61.258926, 60.669647, 59.64286, 59, 58.5, 57.821426, 56.517857, 55.892857, 55.041668, 54.535713, 53.892857, 53.258926, 52.517853, 51.702381, 51.1875, 50.5625, 49.857143, 48.809525, 48.0625, 47.267853, 46.172615, 45.285713, 44.660713, 44.0625, 43.383926, 42.785713, 41.729164, 40.916668, 40.133926, 39.607143, 39.053574, 38.130951, 37.101189, 36.267857, 35.660713, 35.0625, 34.517857, 34, 33.25, 32.357143, 31.476191, 30.410713, 29.821428, 29.3125, 28.9375, 28.25, 26.583334, 25.821428, 25.142857, 24.25, 23.25, 22.616072, 22.0625, 21.508928, 20.663691, 20.053572, 19.339287, 18.723213, 17.979166, 17.321428, 16.523809, 15.333333, 14.535715, 13.964286, 13.53125, 13.035714, 11.916667, 11.464285, 11.125, 11.0625, 11, 11, 11, 11, 11, 11, 11, 11.0625, 11.0625, 11, 11, 10.9375, 10.9375, 11, 11, 11.125, 11.1875, 11.1875, 11.276786, 11.285714, 11.25, 11.25, 11.1875, 11.25, 11.375, 11.5625, 11.6875, 11.6875, 11.75, 11.8125, 11.875, 12, 12, 12, 12, 12, 12, 12.0625, 12.321428, 12.949405, 13.556548, 13.928572, 14.3125, 14.5625, 14.8125, 15, 15, 15, 15, 15.0625, 15.125, 15.1875, 15.25, 15.1875, 15.125, 15.0625, 15, 14.691964, 13.864583, 13.316964, 12.71875, 12.348213, 12.125, 12, 12, 12, 12, 12, 11.9375, 11.9375, 11.9375, 11.9375, 11.9375, 11.9375, 11.9375, 11.9375, 12.0625, 12.125, 12.25, 12.375, 12.294643, 12.125, 12.0625, 11.9375, 12, 12.125, 12.125, 12.125, 12.0625, 11.9375, 11.9375, 11.9375, 12, 12, 12, 12, 12, 12, 12, 12, 12, 12, 12, 12.0625, 12.1875, 12.3125, 12.4375, 12.5, 12.4375, 12.3125, 12.1875, 12.125, 12.0625, 12.0625, 12.0625, 12.0625, 12.125, 12.125, 12.125, 12.25, 12.4375, 12.5625, 12.75, 12.8125, 12.6875, 12.6875, 12.6875, 12.6875, 12.8125, 12.875, 12.8125, 12.75, 12.75, 12.6875, 12.8125, 12.8125, 12.8125, 12.875, 12.8125, 12.75, 12.6875, 12.75, 12.8125, 12.8125, 12.875, 12.875, 12.875, 13, 13, 12.9375, 12.875, 12.875, 12.9375, 12.973214, 12.964286, 13, 12.9375, 13, 13, 13, 13, 13, 13, 13, 13, 13, 13, 13, 13, 13, 13, 13.0625, 13.0625, 13.0625, 13.0625, 13, 13, 13, 13, 13, 13, 13, 13, 13, -10, -10, -10, -10, -10, -10, -10, -10, -10, -10, -10, -10, -10, -10, -10, -10, -10, -10, -10, -10, -10, -10, -10, -10, -10, -10, -10, -10, -10, -10, -10, -10, -10, -10, -10, -10, -10, -10, -10, -10, -10, -10, -10, -10, -10, -10, -10, -10, -10, -10, -10, -10, -10, -10, -10, -10, -10, -10, -10, -10, -10, -10, -10, -10, -10, -10, -10, -10, -10, -10, -10, 98.733337, 97.583336, 97.392868, 96.75, 96.5, 96.0625, 95.083328, 94.383926, 93.279762, 91.650002, 90.422623, 89.75, 89.071426, 88.544647, 87.991074, 87.032738, 86.074402, 85.276787, 84.476196, 83.800591, 83.178574, 82.404762, 81.964287, 81.357147, 80.8125, 79.988091, 79.217262, 78.616074, 77.458336, 76.821426, 76.375, 75.919647, 74.90477, 73.952385, 73.29464, 72.598213, 71.505951, 70.928574, 70.205353, 69.651779, 68.976196, 68.544647, 68.017853, 67.5, 66.312508, 65.651787, 65.080353, 64.5, 63.5625, 62.595238, 61.773811, 61.3125, 60.519646, 59.476192, 58.821426, 58.303574, 57.523811, 56.505951, 55.901787, 55.166668, 54.714287, 53.916668, 53.258926, 52.309525, 51.523811, 51.0625, 50.491074, 49.702381, 48.851189, 48.125, 47.410713, 46.535713, 45.494045, 44.82143, 44.125, 43.342262, 42.494045, 41.717262, 40.916668, 40.050598, 39.55357, 38.991074, 38.122025, 37.214287, 36.410713, 35.785713, 35.125, 34.535713, 34, 33.104168, 32.285713, 31.455357, 30.595238, 30, 29.4375, 28.955357, 28.3125, 26.928572, 25.976191, 25.1875, 24.387754, 23.416666, 22.8125, 22.3125, 21.467262, 20.592262, 19.991072, 19.258928, 18.616072, 18.09375, 17.477678, 16.888393, 15.690476, 14.619047, 13.901786, 13.46875, 12.964286, 12.083334, 11.642857, 11.25, 11.125, 11, 11, 11, 11, 11, 11, 11, 11.0625, 11.0625, 11, 11, 10.9375, 10.9375, 11, 11, 11.125, 11.1875, 11.25, 11.3125, 11.25, 11.25, 11.1875, 11.25, 11.375, 11.5, 11.625, 11.6875, 11.625, 11.6875, 11.8125, 11.875, 12, 12, 12, 12, 12, 12, 12, 12.133928, 12.663691, 13.45238, 13.857143, 14.25, 14.5, 14.75, 14.9375, 15, 15, 15, 15.125, 15.25, 15.375, 15.4375, 15.3125, 15.1875, 15.0625, 15, 14.736607, 14.102678, 13.346726, 12.727678, 12.285713, 12.125, 12, 12, 12, 12, 12, 11.9375, 11.9375, 11.9375, 11.9375, 11.9375, 11.9375, 11.9375, 11.9375, 12.0625, 12.125, 12.1875, 12.25, 12.1875, 12.125, 12.0625, 12, 12, 12.0625, 12, 11.9375, 11.8125, 11.75, 11.8125, 11.875, 12, 12, 11.9375, 11.9375, 11.9375, 11.9375, 12, 12, 12, 12, 12, 12.0625, 12.1875, 12.3125, 12.4375, 12.5, 12.4375, 12.3125, 12.1875, 12.125, 12.0625, 12.0625, 12.0625, 12.0625, 12.125, 12.125, 12.1875, 12.375, 12.5625, 12.75, 12.9375, 12.9375, 12.875, 12.875, 12.875, 12.875, 12.9375, 12.9375, 12.8125, 12.75, 12.75, 12.75, 12.875, 12.875, 12.875, 12.9375, 12.9375, 12.9375, 12.875, 12.875, 12.875, 12.875, 12.9375, 12.9375, 12.9375, 13, 13, 13, 12.875, 12.875, 12.9375, 12.910714, 12.964286, 13, 12.9375, 13, 13, 13, 13, 13, 13, 13
-10, -10, -10, -10, -10, -10, -10, -10, -10, -10, -10, -10, -10, -10, -10, -10, -10, -10, -10, -10, -10, -10, -10, -10, -10, -10, -10, -10, -10, -10, -10, 98.458336, 97.583336, 97.464294, 96.8125, 96.517853, 96, 94.958328, 94.142853, 93.059525, 91.608337, 90.095245, 89.544647, 89.035713, 88.651779, 88.011902, 86.8125, 85.991074, 85.276787, 84.767853, 83.979164, 83.419647, 82.351189, 81.89286, 81.357147, 80.758926, 80.095238, 79.0625, 78.4375, 77.354172, 76.714287, 76.3125, 75.955353, 75.333328, 74.261902, 73.60714, 72.85714, 71.64286, 71.035713, 70.205353, 69.535713, 68.681549, 68.1875, 67.6875, 67.14286, 66.229172, 65.607147, 65.080353, 64.5625, 63.67857, 62.690479, 61.880951, 61.375, 60.528572, 59.476192, 58.821426, 58.241074, 57.380951, 56.565475, 55.973213, 55.229168, 54.776787, 54.032738, 53.270832, 52.345238, 51.523811, 51, 50.366074, 49.523808, 48.892857, 48.1875, 47.491074, 46.714287, 45.589283, 44.92857, 44.1875, 43.360115, 42.494045, 41.717262, 40.845238, 39.880951, 39.42857, 38.866074, 38.113094, 37.214287, 36.482143, 35.892857, 35.1875, 34.553574, 34, 33.104168, 32.285713, 31.455357, 30.523809, 29.892857, 29.3125, 28.830357, 28.339285, 27.315477, 26.202381, 25.401787, 24.607143, 23.809523, 23.1875, 22.508928, 21.476191, 20.547619, 19.928572, 19.25, 18.616072, 18.09375, 17.477678, 16.888393, 15.773809, 14.690475, 13.964286, 13.450893, 12.933036, 12.052084, 11.611607, 11.25, 11.125, 11, 11, 11, 11, 11, 11, 11, 11, 11, 10.9375, 10.9375, 10.9375, 10.9375, 11, 11, 11.0625, 11.0625, 11.0625, 11.0625, 11, 11, 11, 11.1875, 11.4375, 11.625, 11.8125, 11.8125, 11.75, 11.75, 11.75, 11.830357, 12, 12, 12.0625, 12, 12, 12, 12, 12.0625, 12.401785, 13.357142, 13.785715, 14.1875, 14.375, 14.625, 14.8125, 14.9375, 15, 15, 15.125, 15.25, 15.4375, 15.473214, 15.276786, 15.1875, 15, 15, 14.772322, 14.186012, 13.418155, 12.790178, 12.285713, 12.125, 12, 12, 12, 12, 12, 11.9375, 11.9375, 11.9375, 11.9375, 11.9375, 11.9375, 11.9375, 11.9375, 12.0625, 12.125, 12.125, 12.125, 12.0625, 12, 12, 12, 12, 12, 11.9375, 11.875, 11.75, 11.75, 11.8125, 11.875, 12, 12.0625, 12.0625, 12.0625, 12.0625, 12, 12, 12, 12, 12, 12, 12, 12.0625, 12.125, 12.25, 12.4375, 12.5, 12.4375, 12.3125, 12.1875, 12.0625, 12.0625, 12.0625, 12.0625, 12.1875, 12.1875, 12.25, 12.4375, 12.5625, 12.8125, 13, 13, 13, 13, 13, 13, 13, 12.9375, 12.8125, 12.8125, 12.785714, 12.705357, 12.758928, 12.75, 12.8125, 12.875, 12.9375, 13, 13, 13, 13, 13, 13, 13, 13, 13, 13, 13, 12.875, 12.875, 12.875, 12.875, 13, 13, 13, 13, 13, 13, 13, 13, 13, 13, 13, 13.0625, 13.0625, 13.0625, 13.0625, 13.0625, 13.0625, 13.0625, 13.0625, 13, 13, 13, 13, 13, 13, 13, 13, 13, 13, 13, -10, -10, -10, -10, -10, -10, -10, -10, -10, -10, -10, -10, -10, -10, -10, -10, -10, -10, -10, -10, -10, -10, -10, -10, -10, -10, -10, -10, -10, -10, -10, -10, -10, -10, -10, -10, -10, -10, -10, -10, -10, -10, -10, -10, -10, -10, -10, -10, -10, -10, -10, -10, -10, -10, -10, -10, -10, -10, -10, -10, -10, -10, -10, -10, -10, -10, -10, -10, -10, -10, -10, 98.458336, 97.826195, 97.607147, 96.9375, 96.535713, 96, 94.958328, 94.142853, 93.047615, 91.816673, 90.041672, 89.473213, 89.035713, 88.767853, 88.154762, 86.6875, 85.85714, 85.196426, 84.767853, 84.1875, 83.669647, 82.309525, 81.821434, 81.294647, 80.696426, 80.059525, 78.895828, 78.223213, 77.333336, 76.678574, 76.3125, 75.991074, 75.416672, 74.404762, 73.79464, 73.10714, 71.708336, 71.035713, 70.214279, 69.422615, 68.610115, 68.0625, 67.5, 66.85714, 66.145836, 65.491074, 64.910713, 64.446426, 63.761906, 62.833336, 61.964283, 61.339287, 60.412498, 59.452381, 58.821426, 58.116074, 57.130951, 56.5, 55.9375, 55.229168, 54.776787, 54.032738, 53.270832, 52.345238, 51.523811, 51, 50.366074, 49.523808, 48.892857, 48.1875, 47.491074, 46.714287, 45.660713, 45.035713, 44.25, 43.440475, 42.565475, 41.467262, 40.714283, 39.684525, 39.24107, 38.616074, 37.934525, 37.142857, 36.535713, 36, 35.25, 34.5, 33.892857, 33.041668, 32.339287, 31.633928, 30.464285, 29.821428, 29.1875, 28.642857, 28.196428, 27.377977, 26.238096, 25.410715, 24.678572, 23.916666, 23.104166, 22.446428, 21.467262, 20.547619, 19.928572, 19.25, 18.616072, 18.09375, 17.477678, 16.924107, 16.086309, 14.976191, 14.276786, 13.409226, 12.861608, 12.197917, 11.727678, 11.375, 11.1875, 11, 11, 11, 11, 11, 11, 11, 11, 11, 10.9375, 11, 11, 11, 11.0625, 11, 11, 11, 11, 11.0625, 11.0625, 11.0625, 11.0625, 11.1875, 11.375, 11.5625, 11.75, 11.75, 11.75, 11.6875, 11.625, 11.642857, 11.75, 11.75, 11.875, 11.875, 11.9375, 12, 12, 12.0625, 12.401785, 13.357142, 13.723215, 14.0625, 14.1875, 14.4375, 14.6875, 14.875, 15, 15, 15.1875, 15.375, 15.625, 15.660714, 15.464286, 15.375, 15.125, 15.125, 14.834822, 14.132441, 13.126488, 12.549107, 12.142857, 12.0625, 12, 12, 12, 12, 12, 11.9375, 11.9375, 11.9375, 11.9375, 11.9375, 11.9375, 11.9375, 11.9375, 12.0625, 12.125, 12.125, 12.125, 12.125, 12, 12, 12, 11.9375, 12, 11.9375, 11.875, 11.75, 11.75, 11.8125, 11.875, 12, 12.0625, 12.125, 12.125, 12.125, 12.0625, 12, 12, 12, 12, 11.9375, 11.875, 11.875, 11.875, 12, 12.1875, 12.3125, 12.3125, 12.3125, 12.25, 12.125, 12.125, 12.0625, 12.0625, 12.1875, 12.25, 12.3125, 12.5, 12.625, 12.8125, 13, 13, 13, 13, 13, 13, 13, 13, 12.9375, 13.0625, 13.008928, 12.794642, 12.821428, 12.625, 12.75, 12.8125, 12.875, 13, 13, 13, 13, 13, 13, 12.9375, 12.875, 12.875, 12.875, 12.9375, 12.875, 12.875, 12.875, 12.875, 13, 13, 13, 13, 13, 13, 13, 13, 13, 13
-10, -10, -10, -10, -10, -10, -10, -10, -10, -10, -10, -10, -10, -10, -10, -10, -10, -10, -10, -10, -10, -10, -10, -10, -10, -10, -10, -10, -10, -10, 99.5, 98.541672, 98.176193, 97.8125, 97.071426, 96.553574, 96, 95.166664, 94.392853, 93.076187, 91.833336, 90.136909, 89.535713, 89.129463, 88.84375, 88.190475, 86.5625, 85.785713, 85.25, 84.875, 84.3125, 83.821426, 82.238098, 81.64286, 81.044647, 80.446426, 79.830353, 78.529762, 77.973213, 77.375, 76.75, 76.508926, 76.035721, 75.190475, 74.440475, 73.866074, 73.119049, 71.845245, 71.107147, 70.446426, 69.601189, 68.735115, 68.008926, 67.258926, 66.571426, 66.0625, 65.375, 64.66964, 64.23214, 63.803574, 62.976192, 62.214283, 61.526787, 60.400597, 59.535713, 58.883926, 58.125, 57.202381, 56.607143, 56, 55.383926, 54.776787, 54.059525, 53.315475, 52.345238, 51.559525, 51, 50.366074, 49.452377, 48.785713, 48.125, 47.336311, 46.642857, 45.642857, 45.035713, 44.25, 43.511906, 42.672619, 41.476189, 40.446426, 39.613098, 39.133926, 38.5625, 38.017857, 37.205357, 36.553574, 36, 35.25, 34.428574, 33.785713, 32.979168, 32.321426, 31.633928, 30.464285, 29.821428, 29.125, 28.535713, 28.125, 27.482143, 26.309525, 25.357143, 24.571428, 24, 23.020832, 22.321428, 21.279762, 20.607141, 20, 19.104166, 18.428572, 17.90625, 17.46875, 16.96875, 16.148809, 15.244047, 14.526786, 13.315476, 12.754465, 12.21875, 11.78125, 11.4375, 11.25, 11.0625, 11.0625, 11.0625, 11, 11, 11, 11, 11, 11, 11, 11.125, 11.1875, 11.25, 11.3125, 11.25, 11.1875, 11.1875, 11.1875, 11.25, 11.25, 11.1875, 11.1875, 11.1875, 11.3125, 11.4375, 11.5625, 11.625, 11.6875, 11.625, 11.5, 11.455357, 11.5, 11.5625, 11.75, 11.75, 11.8125, 11.875, 11.9375, 12.241072, 12.6875, 13.461309, 13.794643, 14, 14.0625, 14.321428, 14.6875, 14.875, 15.0625, 15, 15.125, 15.25, 15.5, 15.535714, 15.383928, 15.25, 15.0625, 15.0625, 14.866072, 14.119047, 12.845238, 12.3125, 12, 12, 12, 12, 12, 12, 12, 12, 12, 12, 12, 12, 12, 12, 12, 12, 12, 12, 12, 12.0625, 12, 12, 12, 11.9375, 12, 11.9375, 11.875, 11.8125, 11.8125, 11.875, 11.9375, 12, 12.0625, 12.125, 12.125, 12.125, 12.0625, 12, 12, 12.0625, 12.125, 12.0625, 12, 11.9375, 11.875, 11.9375, 12.0625, 12.25, 12.3125, 12.4375, 12.4375, 12.3125, 12.3125, 12.25, 12.25, 12.375, 12.4375, 12.4375, 12.625, 12.6875, 12.8125, 13, 13, 13, 13, 13, 13, 13, 13, 13, 13.125, 13.008928, 12.794642, 12.758928, 12.5625, 12.75, 12.8125, 12.875, 13, 13, 13, 13, 13, 13, 12.9375, 12.875, 12.875, 12.875, 12.9375, 12.9375, 12.9375, 12.9375, 12.9375, 13, 13, 13, 13, 13, 13, 12.9375, 12.9375, 12.9375, 12.9375, 13, 13.0625, 13.0625, 13.0625, 13.0625, 13.0625, 13.0625, 13.0625, 13.0625, 13, 13, 13, 13, 13, 13, 13, 13, 13, 13, 13, -10, -10, -10, -10, -10, -10, -10, -10, -10, -10, -10, -10, -10, -10, -10, -10, -10, -10, -10, -10, -10, -10, -10, -10, -10, -10, -10, -10, -10, -10, -10, -10, -10, -10, -10, -10, -10, -10, -10, -10, -10, -10, -10, -10, -10, -10, -10, -10, -10, -10, -10, -10, -10, -10, -10, -10, -10, -10, -10, -10, -10, -10, -10, -10, -10, -10, -10, -10, -10, -10, 99.5, 99.041672, 98.726196, 98.125, 97.267853, 96.571426, 96, 95.321426, 94.351189, 93.242851, 92.071426, 90.470245, 89.857147, 89.370537, 88.822914, 88.154762, 86.833336, 86, 85.383926, 84.821426, 84.142853, 83.64286, 82.279762, 81.64286, 80.854164, 80.375, 79.767853, 78.559525, 78, 77.482147, 76.821426, 76.696426, 76.071426, 74.928566, 74.309525, 73.651787, 72.89286, 71.916672, 71.178574, 70.425591, 69.529762, 68.839287, 68.151787, 67.446426, 66.803574, 66.25, 65.354164, 64.60714, 64.005951, 63.553574, 62.934525, 62.205357, 61.526787, 60.38393, 59.714287, 59.0625, 58.258926, 57.42857, 56.848213, 56.241074, 55.342262, 54.633926, 54.107143, 53.386906, 52.386902, 51.595238, 50.9375, 50.25, 49.35714, 48.67857, 48.0625, 47.184525, 46.392857, 45.577381, 45, 44.3125, 43.67857, 42.880955, 41.654762, 40.580357, 39.76786, 39.133926, 38.446426, 37.848213, 37.133926, 36.535713, 36, 35.25, 34.357143, 33.67857, 33.0625, 32.238094, 31.571428, 30.446428, 29.821428, 29.125, 28.464285, 27.955357, 27.303572, 26.288691, 25.321428, 24.571428, 24, 22.812498, 22.071428, 21.258928, 20.571428, 20, 18.958332, 18.357143, 17.8125, 17.375, 16.830357, 16.041668, 15.348213, 14.669642, 13.440476, 12.671131, 12.09375, 11.65625, 11.375, 11.1875, 11.0625, 11.0625, 11.0625, 11, 11, 11, 11, 11, 11, 11, 11.1875, 11.25, 11.3125, 11.375, 11.25, 11.1875, 11.1875, 11.1875, 11.25, 11.25, 11.1875, 11.1875, 11.125, 11.1875, 11.3125, 11.5, 11.6875, 11.8125, 11.6875, 11.4375, 11.330357, 11.3125, 11.4375, 11.6875, 11.6875, 11.8125, 11.875, 12, 12.428572, 12.973215, 13.565475, 13.866072, 14.0625, 14.125, 14.446428, 14.8125, 14.9375, 15.125, 15, 15.0625, 15.0625, 15.25, 15.223214, 15.133928, 15.125, 15, 15.0625, 14.928572, 14.226191, 12.970238, 12.419643, 12.0625, 12, 12, 12, 12, 12, 12, 12, 12, 12, 12, 12, 12, 12, 12, 12, 12, 12, 12, 12.0625, 12, 12.0625, 12.0625, 12, 12.0625, 12, 12, 12, 12, 12, 12, 12, 12.0625, 12.1875, 12.1875, 12.1875, 12.125, 12, 12, 12.0625, 12.1875, 12.125, 12.0625, 12, 11.8125, 11.8125, 11.955357, 12.270833, 12.357143, 12.5625, 12.5625, 12.5, 12.5625, 12.5, 12.4375, 12.5625, 12.625, 12.5625, 12.75, 12.75, 12.8125, 13, 13, 13, 13, 13, 13, 13, 13, 13, 13.125, 13.008928, 12.794642, 12.758928, 12.5625, 12.75, 12.8125, 12.875, 13, 13, 13, 13, 13, 13, 12.9375, 12.875, 12.875, 12.875, 12.9375, 13, 13, 13, 13, 13, 13, 13, 13, 13, 12.9375, 12.8125, 12.75, 12.75, 12.8125
-10, -10, -10, -10, -10, -10, -10, -10, -10, -10, -10, -10, -10, -10, -10, -10, -10, -10, -10, -10, -10, -10, -10, -10, -10, -10, -10, -10, -10, -10, 99.5, 99.166672, 98.785713, 98.125, 97.267853, 96.571426, 96.125, 95.473213, 94.321426, 93.242851, 92.10714, 90.553574, 89.785713, 89.272324, 88.697914, 88.071426, 86.75, 85.928574, 85.258926, 84.633926, 84.10714, 83.571426, 82.279762, 81.571426, 80.747025, 80.375, 79.767853, 78.601189, 78.10714, 77.5625, 76.828568, 76.8125, 76, 74.624992, 74.071426, 73.401787, 72.696426, 71.958336, 71.241074, 70.505951, 69.708336, 69.008926, 68.29464, 67.633926, 67.035713, 66.464287, 65.291664, 64.5, 63.818455, 63.375, 62.892857, 62.205357, 61.380951, 60.3125, 59.69643, 59.125, 58.375, 57.523808, 57.026787, 56.419643, 55.300591, 54.428574, 53.89286, 53.410713, 52.351189, 51.630951, 50.9375, 50.25, 49.35714, 48.67857, 48.0625, 47.113094, 46.214287, 45.553574, 45, 44.3125, 43.607143, 42.773811, 41.821426, 40.785713, 39.946426, 39.142857, 38.330357, 37.678574, 37.0625, 36.517857, 36, 35.25, 34.285713, 33.57143, 33.0625, 32.345238, 31.6, 30.375, 29.75, 29.0625, 28.401785, 27.785713, 27.125, 26.267857, 25.357143, 24.67857, 24.0625, 22.821428, 22.142857, 21.4375, 20.75, 19.875, 18.824404, 18.276785, 17.75, 17.3125, 16.651787, 16.017857, 15.348213, 14.669642, 13.476191, 12.702381, 12.0625, 11.580357, 11.3125, 11.125, 11.0625, 11.0625, 11.0625, 11, 11, 11, 11, 11, 11, 11, 11.1875, 11.25, 11.3125, 11.375, 11.25, 11.1875, 11.1875, 11.25, 11.375, 11.375, 11.3125, 11.25, 11.0625, 11.0625, 11.125, 11.25, 11.4375, 11.5625, 11.5, 11.3125, 11.1875, 11.0625, 11.25, 11.5, 11.625, 11.8125, 11.875, 12.071428, 12.761905, 13.330357, 13.732143, 13.9375, 14.0625, 14.125, 14.383928, 14.758928, 14.95, 14.946428, 14.892857, 15, 15.0625, 15.116072, 15.15625, 15.075893, 15.09375, 15.0625, 15.0625, 15, 14.642857, 13.434524, 12.607143, 12.169643, 12, 12, 12, 12, 12, 12, 12, 12, 12, 12, 12, 12, 12, 12, 12, 12, 12, 12, 12, 11.9375, 12, 12, 12, 12.0625, 12, 12, 12, 12, 12, 12, 12, 12, 12.0625, 12.0625, 12.0625, 12.0625, 12, 12, 12, 12.125, 12.0625, 12, 12, 11.8125, 11.8125, 11.892857, 12.145833, 12.232143, 12.5, 12.5625, 12.5625, 12.625, 12.5625, 12.5625, 12.6875, 12.8125, 12.75, 12.875, 12.875, 12.875, 13, 12.9375, 12.9375, 12.9375, 12.9375, 13, 13, 13, 13, 13.0625, 12.973214, 12.901786, 12.9375, 12.8125, 12.9375, 12.9375, 12.9375, 13, 13, 13, 13, 13, 13, 12.9375, 12.875, 12.875, 12.875, 12.9375, 13.0625, 13.0625, 13.0625, 13.0625, 13, 13, 13, 13, 13, 12.9375, 12.75, 12.6875, 12.6875, 12.75, 13, 13.0625, 13.0625, 13.125, 13.125, 13.125, 13.125, 13.0625, 13, 13, 13, 13, 13, 13, 13, 13, 13, 13, 13, 13, -10, -10, -10, -10, -10, -10, -10, -10, -10, -10, -10, -10, -10, -10, -10, -10, -10, -10, -10, -10, -10, -10, -10, -10, -10, -10, -10, -10, -10, -10, -10, -10, -10, -10, -10, -10, -10, -10, -10, -10, -10, -10, -10, -10, -10, -10, -10, -10, -10, -10, -10, -10, -10, -10, -10, -10, -10, -10, -10, -10, -10, -10, -10, -10, -10, -10, -10, -10, -10, -10, 99.4375, 99.125008, 98.799103, 98.125, 97.267853, 96.571426, 96.1875, 95.589287, 94.333336, 93.278572, 92.095238, 90.821426, 90.107147, 89.522324, 88.84375, 87.910713, 86.732147, 85.892853, 85.196426, 84.508926, 83.98214, 83.238098, 82.196426, 81.51786, 80.684525, 80.3125, 79.696426, 78.559525, 78.178574, 77.642853, 76.769043, 76.75, 75.928574, 74.624992, 74.071426, 73.392853, 72.541664, 72, 71.291077, 70.726189, 69.928574, 69.294647, 68.535713, 67.738091, 67.214279, 66.651787, 65.541664, 64.690475, 63.714287, 63.125, 62.625, 62.205357, 61.261906, 60.32143, 59.732143, 59.041668, 58.383926, 57.702381, 57.276787, 56.419643, 55.273811, 54.410713, 53.89286, 53.348213, 52.244049, 51.714287, 51, 50.258926, 49.35714, 48.67857, 48.0625, 47.113094, 46.214287, 45.553574, 45, 44.321426, 43.422619, 42.630951, 42.008926, 41.0625, 40.142857, 39.285713, 38.517857, 37.848213, 37.205357, 36.642857, 36.0625, 35.258926, 34.285713, 33.5, 32.955357, 32.220238, 31.266666, 30.291666, 29.696428, 29.0625, 28.339285, 27.607143, 26.955357, 26.196428, 25.348215, 24.67857, 24.0625, 23.02976, 22.392857, 21.6875, 20.940475, 19.75, 18.690475, 18.196428, 17.6875, 17.25, 16.473215, 15.848214, 15.205357, 14.482142, 13.535714, 12.773809, 12.0625, 11.535714, 11.25, 11.0625, 11.0625, 11.0625, 11.0625, 10.9375, 10.9375, 10.9375, 10.9375, 11, 11, 11, 11.125, 11.1875, 11.25, 11.3125, 11.25, 11.1875, 11.1875, 11.3125, 11.4375, 11.4375, 11.375, 11.25, 11.0625, 11.0625, 11.0625, 11.1875, 11.375, 11.5, 11.589286, 11.5, 11.258928, 11.133928, 11.3125, 11.5625, 11.6875, 11.875, 11.9375, 12.258928, 13.056547, 13.580357, 13.875, 14, 14, 14.0625, 14.258928, 14.571428, 14.7625, 14.696428, 14.705357, 14.75, 14.8125, 14.803572, 14.84375, 14.825893, 14.84375, 14.9375, 14.9375, 15, 14.821428, 13.976191, 13.178572, 12.419643, 12.107143, 12, 12, 12, 12, 12, 12, 12, 12, 12, 12, 12, 12, 12, 12, 12, 12, 12, 12, 12, 12.0625, 12.0625, 12.0625, 12.0625, 12, 12, 12, 12, 12, 12, 12, 12, 12, 12, 12, 12, 12, 12, 12, 12.125, 12.125, 12.125, 12.125, 11.9375, 11.875, 11.955357, 12.208333, 12.294643, 12.5, 12.5, 12.5, 12.5625, 12.5625, 12.5, 12.5625, 12.6875, 12.6875, 12.875, 12.9375, 12.9375, 13, 12.875, 12.8125, 12.8125, 12.8125, 12.9375, 13, 13, 13, 13, 12.9375, 12.9375, 12.9375, 12.9375, 12.9375, 12.9375, 12.9375, 12.9375, 13, 13, 13, 13, 13, 13, 13, 13, 13, 13, 13.0625, 13, 13.026786, 13.169643, 13.178572, 13.25, 13.1875, 13.125, 13.0625, 12.9375, 12.75, 12.6875, 12.6875, 12.75
-10, -10, -10, -10, -10, -10, -10, -10, -10, -10, -10, -10, -10, -10, -10, -10, -10, -10, -10, -10, -10, -10, -10, -10, -10, -10, -10, -10, -10, -10, 99.375, 99.083336, 98.767853, 98.125, 97.267853, 96.571426, 96.1875, 95.589287, 94.333336, 93.261909, 92.357147, 91.142853, 90.419647, 89.821426, 89.089287, 87.791664, 86.6875, 85.785706, 85.071426, 84.383926, 83.85714, 82.940475, 82.267853, 81.660713, 80.726189, 80.3125, 79.550591, 78.559525, 78.116074, 77.455353, 76.661903, 76.535721, 75.64286, 74.636902, 74.098213, 73.473213, 72.833328, 72.321426, 71.457741, 70.851189, 69.845238, 69.303574, 68.651787, 67.979164, 67.392853, 66.723213, 65.622025, 64.869049, 63.666668, 63, 62.5, 62.0625, 61.074406, 60.297619, 59.732143, 58.895836, 58.383926, 57.738098, 57.193455, 56.357143, 55.264881, 54.410713, 53.82143, 53.24107, 52.089287, 51.60714, 51, 50.375, 49.452381, 48.785713, 48.125, 47.267853, 46.285713, 45.57143, 45, 44.330353, 43.238094, 42.452381, 41.875, 41.25, 40.285713, 39.35714, 38.535713, 37.848213, 37.205357, 36.642857, 36.0625, 35.258926, 34.285713, 33.428574, 32.848213, 32.095238, 30.933332, 30.196428, 29.633928, 29.0625, 28.267857, 27.428572, 26.785713, 26.125, 25.339287, 24.67857, 24.0625, 23.175594, 22.535713, 21.875, 21.119047, 19.708334, 18.773809, 18.290178, 17.78125, 17.21875, 16.379465, 15.678572, 15.0625, 14.392857, 13.785714, 12.988095, 12.083333, 11.482142, 11.1875, 11, 11, 11, 11, 10.9375, 10.9375, 10.9375, 10.9375, 11, 11, 11, 11.0625, 11.0625, 11.0625, 11.0625, 11, 11, 11.0625, 11.25, 11.4375, 11.4375, 11.4375, 11.25, 11.125, 11.125, 11.0625, 11.25, 11.375, 11.5, 11.714286, 11.6875, 11.446428, 11.348214, 11.4375, 11.625, 11.75, 11.9375, 12.0625, 12.613095, 13.306547, 13.723214, 13.9375, 14, 14, 14.0625, 14.1875, 14.321428, 14.5125, 14.446428, 14.517857, 14.625, 14.75, 14.678572, 14.71875, 14.71875, 14.84375, 14.9375, 15, 15, 14.928572, 14.476191, 13.714285, 12.669643, 12.142858, 11.9375, 11.9375, 11.9375, 12, 12, 12, 12, 12, 12, 12, 12, 12, 12, 12, 12, 12, 12, 12, 12, 12.0625, 12.0625, 12.0625, 12.0625, 12, 12, 12, 12, 12, 12, 12, 12.0625, 12.0625, 12.0625, 12.0625, 12.0625, 12.0625, 12.0625, 11.9375, 11.9375, 11.9375, 11.9375, 12.0625, 11.9375, 11.875, 11.955357, 12.145833, 12.232143, 12.375, 12.3125, 12.3125, 12.3125, 12.375, 12.4375, 12.5625, 12.75, 12.8125, 12.9375, 13, 13, 13, 12.8125, 12.6875, 12.6875, 12.6875, 12.875, 13, 12.9375, 12.9375, 12.9375, 12.9375, 13, 13, 13, 12.9375, 12.9375, 12.9375, 12.9375, 13, 12.9375, 12.9375, 12.9375, 12.9375, 13, 13, 13, 13, 13, 13.0625, 13, 13.089286, 13.294643, 13.366072, 13.4375, 13.3125, 13.1875, 13.0625, 12.9375, 12.8125, 12.8125, 12.8125, 12.875, 13.125, 13.1875, 13.1875, 13.3125, 13.3125, 13.25, 13.25, 13.125, 13, 13, 13, 13, 13, 13, 13, 13, 13, 13, 13, 13, -10, -10, -10, -10, -10, -10, -10, -10, -10, -10, -10, -10, -10, -10, -10, -10, -10, -10, -10, -10, -10, -10, -10, -10, -10, -10, -10, -10, -10, -10, -10, -10, -10, -10, -10, -10, -10, -10, -10, -10, -10, -10, -10, -10, -10, -10, -10, -10, -10, -10, -10, -10, -10, -10, -10, -10, -10, -10, -10, -10, -10, -10, -10, -10, -10, -10, -10, -10, -10, -10, 99.25, 98.916664, 98.642853, 98.0625, 97.267853, 96.386902, 96.008926, 95.45536, 94.4375, 93.333336, 92.357147, 91.267853, 90.377548, 89.571426, 88.985123, 87.720238, 86.458328, 85.642853, 85, 84.375, 83.785713, 82.833328, 82.142853, 81.473213, 80.702377, 80.3125, 79.550591, 78.702377, 78.258926, 77.419647, 76.697624, 76.473221, 75.678574, 74.670242, 73.9375, 73.366074, 72.791664, 72.3125, 71.350594, 70.755951, 69.738091, 69.241074, 68.571426, 67.800591, 67.160713, 66.473213, 65.580353, 64.869049, 63.666668, 63, 62.4375, 61.892857, 60.895836, 60.339283, 59.803574, 59.020836, 58.535713, 57.595238, 56.988094, 56.116074, 55.244045, 54.375, 53.75, 53.169643, 52.193455, 51.64286, 51.1875, 50.5625, 49.589287, 48.92857, 48.1875, 47.276787, 46.285713, 45.57143, 45, 44.276787, 42.946426, 42.285713, 41.75, 41.1875, 40.276787, 39.35714, 38.535713, 37.848213, 37.267857, 36.69643, 35.979168, 35.196426, 34.276787, 33.357143, 32.74107, 32.178574, 31.058332, 30.321428, 29.696428, 29.071428, 28.267857, 27.357143, 26.67857, 26.125, 25.446428, 24.702379, 24.0625, 23.321428, 22.67857, 22.0625, 21.288691, 19.779762, 19, 18.46875, 17.760416, 17.15625, 16.361607, 15.678572, 14.916667, 14.321428, 13.714285, 12.988095, 12.083333, 11.482142, 11.1875, 11, 11, 11.0625, 11.0625, 11, 11, 10.9375, 11, 11.0625, 11.0625, 11.0625, 11, 11, 11.0625, 11.035714, 10.964286, 11, 11.0625, 11.375, 11.625, 11.625, 11.625, 11.4375, 11.25, 11.25, 11.125, 11.25, 11.375, 11.5, 11.714286, 11.6875, 11.464286, 11.535714, 11.5, 11.651786, 11.6875, 11.866072, 12.354167, 12.943453, 13.619047, 13.866072, 14, 14, 14, 14, 14.0625, 14.196428, 14.3875, 14.383928, 14.517857, 14.625, 14.8125, 14.741072, 14.90625, 14.90625, 14.96875, 15.0625, 15, 15, 15, 14.892857, 14.285713, 13.214286, 12.309524, 11.973214, 11.875, 11.9375, 12, 12, 12, 12, 12, 12, 12, 12, 12, 12, 12, 12, 12, 12, 12, 12, 12, 12, 12, 12, 12, 12, 12, 12, 12, 11.9375, 11.9375, 12, 12, 12.0625, 12.125, 12.1875, 12.169643, 11.979167, 11.758928, 11.625, 11.6875, 11.75, 12, 12.0625, 12.0625, 12.125, 12.0625, 12.125, 12.1875, 12.125, 12.125, 12.125, 12.25, 12.4375, 12.625, 12.8125, 12.875, 12.9375, 13, 13, 13, 12.75, 12.625, 12.625, 12.625, 12.875, 13, 12.9375, 12.9375, 12.9375, 12.9375, 13, 13, 13, 12.9375, 12.9375, 12.9375, 12.9375, 13, 12.9375, 12.9375, 12.9375, 12.9375, 13, 13, 13, 13, 13, 13.0625, 13.0625, 13.214286, 13.419643, 13.491072, 13.5, 13.3125, 13.1875, 13.0625, 13, 12.9375, 13, 13, 13
-10, -10, -10, -10, -10, -10, -10, -10, -10, -10, -10, -10, -10, -10, -10, -10, -10, -10, -10, -10, -10, -10, -10, -10, -10, -10, -10, -10, -10, -10, 99.1875, 98.875, 98.65625, 98.0625, 97.276779, 96.202377, 95.705353, 95.178574, 94.458336, 93.404762, 92.571426, 91.576187, 90.4375, 89.633926, 88.985123, 87.720238, 86.416672, 85.571426, 84.892853, 84.375, 83.75, 82.642853, 82.071426, 81.282738, 80.630951, 80.125, 79.363091, 78.708328, 78.258926, 77.348213, 76.797623, 76.401787, 75.571426, 74.652382, 73.901787, 73.366074, 72.729164, 72.205353, 71.288094, 70.675591, 69.559525, 69.14286, 68.553574, 67.800591, 66.994041, 66.258926, 65.642853, 64.976189, 63.791668, 63.125, 62.5625, 61.955357, 61.122025, 60.589283, 59.991074, 59.029762, 58.5, 57.678574, 56.979168, 56.008926, 55.232143, 54.339287, 53.67857, 53.0625, 52.184525, 51.60714, 51.1875, 50.5625, 49.589287, 48.92857, 48.125, 47.383926, 46.285713, 45.535713, 44.892857, 44.276787, 43.05357, 42.309525, 41.75, 41.1875, 40.276787, 39.35714, 38.535713, 37.848213, 37.330357, 36.75893, 36.041668, 35.205357, 34.276787, 33.285713, 32.57143, 32, 31.083332, 30.571428, 29.791666, 29.133928, 28.267857, 27.285715, 26.571428, 26.0625, 25.366072, 24.523809, 23.892857, 23.25, 22.660713, 22.0625, 21.279762, 19.976191, 19.214285, 18.65625, 17.739582, 17.165178, 16.477678, 15.857141, 14.875, 14.330357, 13.75, 12.904762, 12.020833, 11.464285, 11.1875, 11, 11, 11.125, 11.1875, 11.125, 11.125, 11, 11, 11.0625, 11.0625, 11.0625, 11, 11, 11.0625, 11.035714, 10.964286, 11, 11.0625, 11.375, 11.625, 11.625, 11.625, 11.4375, 11.25, 11.25, 11.125, 11.3125, 11.5, 11.6875, 11.901786, 11.8125, 11.589286, 11.660714, 11.625, 11.776786, 11.75, 11.9375, 12.6875, 13.300595, 13.785715, 14, 14.125, 14.1875, 14.25, 14.1875, 14.25, 14.3125, 14.375, 14.5625, 14.625, 14.6875, 14.875, 14.9375, 15.125, 15.1875, 15.125, 15.0625, 14.875, 14.875, 14.9375, 15.035714, 14.848213, 13.919643, 12.916667, 12.139881, 11.910714, 11.875, 12, 12, 12, 12, 12, 12, 12, 12, 12, 12, 12, 12, 12.0625, 12.0625, 12.0625, 12.0625, 12, 12, 12, 12, 12, 12, 12, 12, 12, 11.9375, 11.9375, 12, 12, 12.0625, 12.125, 12.1875, 12.169643, 11.979167, 11.758928, 11.625, 11.75, 11.8125, 11.964286, 12.0625, 12.0625, 12.1875, 12.125, 12.1875, 12.125, 12.0625, 12.0625, 12.0625, 12.25, 12.4375, 12.5625, 12.75, 12.8125, 12.875, 13, 13, 13, 12.8125, 12.6875, 12.6875, 12.6875, 12.875, 13, 12.9375, 12.9375, 12.9375, 12.9375, 13, 13, 13, 12.9375, 12.9375, 12.9375, 12.9375, 13, 12.9375, 12.9375, 12.9375, 12.9375, 13, 13, 13, 13, 13, 13.0625, 13.125, 13.276786, 13.482143, 13.553572, 13.5, 13.3125, 13.1875, 13.0625, 13, 13, 13.0625, 13.0625, 13.0625, 13.125, 13.125, 13.125, 13.1875, 13.1875, 13.125, 13.125, 13.0625, 13, 13, 13, 12.9375, 12.875, 12.75, 12.75, 12.8125, 12.875, 13, 13, 13, -10, -10, -10, -10, -10, -10, -10, -10, -10, -10, -10, -10, -10, -10, -10, -10, -10, -10, -10, -10, -10, -10, -10, -10, -10, -10, -10, -10, -10, -10, -10, -10, -10, -10, -10, -10, -10, -10, -10, -10, -10, -10, -10, -10, -10, -10, -10, -10, -10, -10, -10, -10, -10, -10, -10, -10, -10, -10, -10, -10, -10, -10, -10, -10, -10, -10, -10, -10, -10, -10, 99.041664, 98.641663, 98.53125, 97.919647, 97.047615, 95.988098, 95.455353, 94.9375, 94.4375, 93.440483, 92.75, 91.51667, 90.3125, 89.27977, 88.723213, 87.773811, 86.476196, 85.678574, 84.809525, 84.25, 83.5625, 82.619049, 82.133926, 81.336311, 80.547615, 80.008926, 79.220238, 78.666664, 78.151787, 77.330353, 77.026787, 76.544647, 75.464287, 74.521431, 73.705353, 73.1875, 72.625, 72.098213, 71.238091, 70.300591, 69.452377, 69.035713, 68.553574, 67.733925, 66.755951, 66.071426, 65.4375, 64.726189, 63.761906, 63.1875, 62.6875, 62.098213, 61.205357, 60.55357, 59.9375, 59.113094, 58.491074, 57.571426, 56.836311, 56.071426, 55.267857, 54.35714, 53.67857, 53.0625, 52.113094, 51.5, 51.125, 50.553574, 49.660717, 49.035713, 48.041668, 47.321426, 46.276787, 45.535713, 44.892857, 44.330353, 43.345238, 42.404762, 41.8125, 41.1875, 40.276787, 39.285713, 38.42857, 37.785713, 37.25, 36.651787, 35.979168, 35.196426, 34.276787, 33.35714, 32.678574, 32.125, 31.416666, 30.738094, 29.916666, 29.008928, 28.169641, 27.245535, 26.58482, 26.0625, 25.366072, 24.452381, 23.785713, 23.125, 22.473213, 21.892857, 21.258928, 20.279762, 19.452381, 18.84375, 17.71875, 17.102678, 16.477678, 15.672619, 14.696428, 14.205357, 13.669643, 12.797619, 11.958333, 11.446428, 11.1875, 11, 11, 11.125, 11.25, 11.25, 11.25, 11.125, 11.125, 11.125, 11.125, 11.125, 11, 11, 11.0625, 11.035714, 10.964286, 11, 11.0625, 11.375, 11.625, 11.625, 11.625, 11.5, 11.3125, 11.3125, 11.1875, 11.3125, 11.5, 11.6875, 11.8125, 11.625, 11.580357, 11.714286, 11.75, 11.901786, 11.875, 12.125, 12.982143, 13.550595, 13.928572, 14.0625, 14.1875, 14.3125, 14.5, 14.5, 14.5625, 14.625, 14.6875, 14.875, 14.875, 14.9375, 15, 15.125, 15.3125, 15.3125, 15.3125, 15.1875, 15, 15.03125, 15.09375, 15.129464, 15.111607, 14.836736, 13.761905, 12.389881, 11.982142, 11.8125, 12, 12, 12, 12, 12, 12, 12, 12, 12, 12, 12, 12, 12.0625, 12.0625, 12.0625, 12.0625, 12, 12, 12, 12, 12, 12, 12, 12, 12, 12, 12, 12.0625, 12.0625, 12.125, 12.1875, 12.25, 12.232143, 11.979167, 11.758928, 11.6875, 11.8125, 11.875, 12.026786, 12.0625, 12.125, 12.25, 12.1875, 12.25, 12.125, 12.0625, 12.0625, 12.0625, 12.25, 12.5, 12.6875, 12.875, 12.9375, 12.9375, 13, 12.9375, 12.875, 12.75, 12.6875, 12.75, 12.8125, 12.9375, 13, 12.9375, 12.9375, 12.9375, 12.9375, 13, 13, 12.9375, 12.875, 12.875, 12.875, 12.9375, 13, 12.9375, 12.9375, 12.9375, 12.9375, 12.9375, 12.9375, 12.9375, 12.9375, 13.0625, 13.1875, 13.294643, 13.3125, 13.375, 13.375, 13.3125, 13.1875, 13.125, 13, 13, 13, 13.0625, 13.0625, 13.0625
-10, -10, -10, -10, -10, -10, -10, -10, -10, -10, -10, -10, -10, -10, -10, -10, -10, -10, -10, -10, -10, -10, -10, -10, -10, -10, -10, -10, -10, -10, 99.104164, 98.599998, 98.383926, 97.678574, 96.869049, 95.907738, 95.392853, 94.875, 94.270836, 93.232147, 92.428574, 91.159531, 90, 88.720245, 88.258926, 87.714294, 86.416672, 85.535713, 84.630951, 84.053574, 83.229164, 82.523811, 82.0625, 81.336311, 80.630951, 80.1875, 79.446426, 78.845238, 78.276787, 77.410713, 77.0625, 76.5625, 75.642853, 74.442856, 73.476189, 72.9375, 72.25, 71.556549, 70.821426, 69.925591, 69.348213, 68.901787, 68.491074, 67.671425, 66.601189, 66, 65.419647, 64.726189, 63.761906, 63.1875, 62.75, 62.205357, 61.214287, 60.589287, 59.9375, 59.258926, 58.491074, 57.535713, 56.919643, 56.133926, 55.348213, 54.535713, 53.848213, 53.133926, 52.339283, 51.678574, 51.1875, 50.446426, 49.636906, 49.035713, 47.895836, 47.25, 46.330357, 45.642857, 45.017857, 44.508926, 43.699406, 42.654762, 42.017857, 41.339287, 40.122025, 39.17857, 38.348213, 37.723213, 37.25, 36.651787, 35.979168, 35.050594, 34.205357, 33.410713, 32.785713, 32.1875, 31.571428, 30.809523, 29.979166, 29.008928, 28.169641, 27.245535, 26.58482, 26.0625, 25.366072, 24.380953, 23.67857, 23.0625, 22.392857, 21.785713, 21.1875, 20.446428, 19.702381, 18.916666, 17.75, 17.196428, 16.633928, 15.613094, 14.625, 14.080357, 13.482143, 12.619047, 12, 11.5, 11.25, 11, 11, 11.125, 11.25, 11.25, 11.25, 11.125, 11.125, 11.125, 11.125, 11.125, 11, 11, 11.0625, 11.035714, 10.964286, 11, 11, 11.25, 11.5, 11.5, 11.5, 11.5, 11.25, 11.25, 11.1875, 11.1875, 11.4375, 11.625, 11.6875, 11.5625, 11.580357, 11.75, 11.8125, 12.026786, 12.0625, 12.40625, 13.325893, 13.665178, 13.96875, 14.125, 14.3125, 14.5, 14.75, 14.75, 14.875, 14.9375, 15.0625, 15.25, 15.25, 15.3125, 15.25, 15.3125, 15.375, 15.3125, 15.375, 15.3125, 15.25, 15.53125, 15.65625, 15.505102, 15.71875, 15.428572, 14.666667, 12.945579, 12.607142, 12.196428, 12.142857, 12.0625, 12, 12, 12, 12, 12, 12, 12, 12, 12, 12, 12.0625, 12.0625, 12.0625, 12.0625, 12, 12, 12, 12, 12, 12, 12.0625, 12.125, 12.1875, 12.25, 12.1875, 12.125, 12.0625, 12.125, 12.25, 12.375, 12.357143, 12.041667, 11.821428, 11.8125, 11.9375, 12, 12.089286, 12.0625, 12.125, 12.25, 12.1875, 12.1875, 12.0625, 12.0625, 12.125, 12.25, 12.4375, 12.625, 12.75, 12.875, 12.9375, 12.9375, 13, 12.9375, 12.875, 12.8125, 12.8125, 12.875, 12.9375, 13, 13, 13, 13, 13, 13, 13, 13, 12.875, 12.8125, 12.8125, 12.8125, 12.9375, 13, 12.9375, 12.9375, 12.9375, 12.9375, 12.9375, 12.9375, 12.9375, 12.9375, 13.125, 13.3125, 13.419643, 13.375, 13.3125, 13.1875, 13.125, 13.0625, 13.0625, 13, 13, 13, 13, 13, 13, 13, 13, 13, 13.0625, 13.0625, 13.0625, 13.0625, 13, 13, 13, 13, 12.9375, 12.875, 12.75, 12.75, 12.8125, 12.875, 13, 13, 13, -10, -10, -10, -10, -10, -10, -10, -10, -10, -10, -10, -10, -10, -10, -10, -10, -10, -10, -10, -10, -10, -10, -10, -10, -10, -10, -10, -10, -10, -10, -10, -10, -10, -10, -10, -10, -10, -10, -10, -10, -10, -10, -10, -10, -10, -10, -10, -10, -10, -10, -10, -10, -10, -10, -10, -10, -10, -10, -10, -10, -10, -10, -10, -10, -10, -10, -10, -10, -10, -10, 98.979164, 98.51667, 98.258926, 97.491074, 96.690475, 96.011909, 95.571426, 95.116074, 94.375, 93.369049, 92.357147, 91.111908, 90.1875, 88.875008, 88.238091, 87.714294, 86.416672, 85.357147, 84.452377, 83.991074, 83.336311, 82.547615, 82.0625, 81.345238, 80.446426, 80.008926, 79.383926, 78.818451, 78.232147, 77.410713, 76.955353, 76.375, 75.383926, 74.326187, 73.39286, 72.875, 72.125, 71.458328, 70.857147, 69.997025, 69.526787, 69.089287, 68.741074, 67.921425, 66.851189, 66.25, 65.461304, 64.726189, 63.761906, 63.1875, 62.875, 62.419643, 61.285713, 60.64286, 59.9375, 59.205357, 58.235115, 57.607143, 57, 56.321426, 55.535713, 54.776787, 54.026787, 53.205353, 52.419643, 51.785713, 51.125, 50.267853, 49.57143, 49, 47.895836, 47.25, 46.401787, 45.75, 45.080357, 44.580357, 43.991074, 42.967262, 42.214287, 41.410713, 40.130951, 39.17857, 38.348213, 37.723213, 37.1875, 36.598213, 36.0625, 35.113094, 34.214287, 33.482143, 32.892857, 32.3125, 31.696428, 30.726189, 29.916666, 28.854166, 28.098215, 27.299107, 26.691963, 26.0625, 25.258928, 24.357143, 23.67857, 23.0625, 22.321428, 21.607141, 21.017857, 20.4375, 19.738094, 18.833332, 17.833332, 17.321428, 16.758928, 15.446428, 14.636905, 14.008928, 13.366072, 12.595238, 12.0625, 11.5625, 11.3125, 11.0625, 11, 11.0625, 11.1875, 11.1875, 11.1875, 11.125, 11.0625, 11.125, 11.1875, 11.1875, 11.125, 11.0625, 11, 11, 11, 11, 11, 11.125, 11.3125, 11.3125, 11.375, 11.4375, 11.25, 11.25, 11.25, 11.1875, 11.375, 11.5, 11.5625, 11.5625, 11.625, 11.75, 11.9375, 12.25, 12.544643, 12.977678, 13.596725, 13.834822, 14.03125, 14.1875, 14.4375, 14.75, 15.0625, 15.0625, 15.1875, 15.125, 15.25, 15.4375, 15.357143, 15.3625, 15.357143, 15.3125, 15.375, 15.25, 15.25, 15.125, 15.125, 15.708333, 15.916667, 16.169641, 15.96875, 15.785715, 15.25, 14.527779, 13.724489, 12.529761, 12.285713, 12.0625, 12, 12, 12, 12, 12, 12, 12, 12, 12, 12, 12.0625, 12.0625, 12.0625, 12.0625, 12, 12, 12, 12, 12, 12, 12.0625, 12.1875, 12.3125, 12.5, 12.4375, 12.3125, 12.1875, 12.1875, 12.3125, 12.375, 12.375, 12.1875, 12, 12.0625, 12.125, 12.125, 12.089286, 12, 12.0625, 12.1875, 12.1875, 12.1875, 12.0625, 12.125, 12.25, 12.375, 12.5625, 12.6875, 12.75, 12.875, 12.9375, 12.9375, 13.0625, 12.973214, 12.839286, 12.875, 12.8125, 12.9375, 13, 13, 13, 13, 13, 13, 13, 13, 13, 12.875, 12.8125, 12.8125, 12.8125, 12.9375, 13, 12.9375, 12.9375, 12.9375, 12.9375, 12.9375, 12.9375, 12.9375, 12.9375, 13.125, 13.3125, 13.357143, 13.25, 13.1875, 13.0625, 13.0625, 13.0625, 13.0625, 13, 13, 13, 13, 13, 13
-10, -10, -10, -10, -10, -10, -10, -10, -10, -10, -10, -10, -10, -10, -10, -10, -10, -10, -10, -10, -10, -10, -10, -10, -10, -10, -10, -10, -10, -10, 98.979164, 98.508331, 98.040176, 97.3125, 96.547623, 95.970238, 95.571426, 95.116074, 94.4375, 93.476196, 92.190475, 91.136902, 90.145836, 88.875008, 88.029762, 87.464294, 86.395836, 85.321426, 84.452377, 83.991074, 83.336311, 82.547615, 82.133926, 81.571434, 80.375, 79.928574, 79.321426, 78.791664, 78.25, 77.589279, 76.872025, 76.267853, 75.375, 74.3619, 73.5, 72.9375, 72.205353, 71.627975, 71.035713, 70.101189, 69.776787, 69.303574, 68.699409, 67.849998, 66.892853, 66.3125, 65.541672, 64.833336, 63.678574, 63.0625, 62.75, 62.419643, 61.330353, 60.678574, 59.666668, 58.99107, 58.029762, 57.482143, 56.9375, 56.3125, 55.535713, 54.848213, 54.133926, 53.267853, 52.5, 51.892857, 51.1875, 50.276787, 49.57143, 49, 47.812504, 47.071426, 46.455357, 45.892857, 45.25, 44.589287, 43.883926, 42.943451, 42.214287, 41.419643, 40.017857, 39.17857, 38.455357, 37.747025, 37.125, 36.535713, 36, 35.104168, 34.285713, 33.660713, 33.0625, 32.455357, 31.821428, 30.642857, 30, 28.916666, 28.107141, 27.370535, 26.799107, 25.979166, 25.267857, 24.473213, 23.848213, 23.133928, 22.339287, 21.607141, 20.872025, 20.366072, 19.657738, 18.797619, 18.023809, 17.321428, 16.678572, 15.196428, 14.5, 13.794643, 13.15625, 12.522322, 12.03125, 11.5625, 11.3125, 11.0625, 11, 11, 11.0625, 11.0625, 11.0625, 11.0625, 11.0625, 11.125, 11.1875, 11.1875, 11.125, 11.0625, 11, 11, 11, 11, 11, 11.125, 11.3125, 11.375, 11.4375, 11.5, 11.3125, 11.3125, 11.375, 11.25, 11.375, 11.4375, 11.5, 11.625, 11.75, 11.875, 12.071428, 12.583333, 12.973214, 13.40625, 13.763393, 13.96875, 14.15625, 14.3125, 14.5625, 14.875, 15.098214, 15.089286, 15.25, 15.125, 15.3125, 15.4375, 15.357143, 15.3625, 15.294643, 15.1875, 15.1875, 15.0625, 15.0625, 15.125, 15.35, 15.273809, 15.785714, 16.084822, 16.15625, 15.973215, 15.642857, 15.214286, 14.642858, 12.925594, 12.428572, 12.125, 12.125, 12.125, 12.125, 12.0625, 12, 12, 12, 12, 12.0625, 12.0625, 12.0625, 12.0625, 12, 12, 12, 12, 12, 12, 12, 12, 12.0625, 12.25, 12.4375, 12.625, 12.5625, 12.375, 12.1875, 12.1875, 12.3125, 12.375, 12.4375, 12.3125, 12.25, 12.375, 12.3125, 12.25, 12.1875, 12, 12.0625, 12.1875, 12.1875, 12.1875, 12.125, 12.125, 12.3125, 12.5, 12.6875, 12.8125, 12.875, 12.9375, 12.9375, 12.875, 12.875, 12.723214, 12.651786, 12.75, 12.75, 12.9375, 13, 13, 13, 13, 13, 13, 12.9375, 12.875, 12.8125, 12.6875, 12.6875, 12.8125, 12.875, 13.0625, 13.1875, 13.0625, 13.0625, 13, 12.9375, 12.9375, 12.9375, 12.9375, 12.9375, 13.125, 13.25, 13.232143, 13.125, 13.0625, 13, 13.0625, 13.0625, 13.0625, 13, 13, 13, 13, 13, 13, 13, 13, 13, 13.0625, 13.0625, 13.0625, 13, 12.9375, 13, 13.107143, 13.1875, 13.1875, 13.125, 13.0625, 13, 13, 13, 13, 13, 13, -10, -10, -10, -10, -10, -10, -10, -10, -10, -10, -10, -10, -10, -10, -10, -10, -10, -10, -10, -10, -10, -10, -10, -10, -10, -10, -10, -10, -10, -10, -10, -10, -10, -10, -10, -10, -10, -10, -10, -10, -10, -10, -10, -10, -10, -10, -10, -10, -10, -10, -10, -10, -10, -10, -10, -10, -10, -10, -10, -10, -10, -10, -10, -10, -10, -10, -10, -10, -10, -10, 99.3125, 98.933334, 98.175591, 97.455353, 96.785706, 96, 95.580353, 95.116074, 94.5, 93.583336, 92.023819, 91.178574, 89.895836, 88.845245, 87.958328, 87.348221, 86.300598, 85.214279, 84.598213, 84.169647, 83.35714, 82.583328, 82.133926, 81.571434, 80.458336, 80.035721, 79.285713, 78.875, 78.3125, 77.535706, 76.702377, 76.125, 75.4375, 74.469048, 73.6875, 73.116074, 72.309525, 71.735123, 71.098213, 70.327377, 70.017853, 69.491074, 68.842262, 67.958336, 67.130951, 66.491074, 65.601189, 65, 63.82143, 62.958332, 62.571426, 62.214287, 61.455353, 60.89286, 59.854168, 59.0625, 58.038689, 57.410713, 56.901787, 56.375, 55.714283, 54.830357, 54.0625, 53.205353, 52.55357, 52, 51.25, 50.285713, 49.57143, 49, 47.958336, 47.214287, 46.642857, 46.0625, 45.321426, 44.535713, 43.705357, 42.91964, 42.214287, 41.42857, 39.904762, 39.17857, 38.491074, 37.663692, 37.0625, 36.517857, 36, 35.104168, 34.357143, 33.767857, 33.125, 32.401787, 31.642857, 30.583332, 30, 29.166666, 28.392857, 27.526785, 26.892857, 25.895832, 25.276787, 24.589285, 24.026785, 23.092262, 22.348215, 21.642857, 20.726191, 20.1875, 19.553572, 18.690475, 18.107143, 17.383928, 16.75, 15.488095, 14.595239, 13.928572, 13.272322, 12.462797, 11.959822, 11.5, 11.25, 11.0625, 11, 11, 11, 11, 11, 11, 11, 11.0625, 11.125, 11.125, 11.125, 11.0625, 11, 11, 11, 11, 11, 11.0625, 11.1875, 11.25, 11.3125, 11.375, 11.25, 11.25, 11.375, 11.3125, 11.4375, 11.5625, 11.625, 11.8125, 11.9375, 12, 12.196428, 12.770833, 13.267857, 13.65625, 13.90625, 14.09375, 14.28125, 14.5, 14.75, 15.0625, 15.223214, 15.151786, 15.3125, 15.125, 15.25, 15.4375, 15.357143, 15.3625, 15.357143, 15.125, 15.125, 15, 14.9375, 15.071428, 15.425, 15.258504, 16.0625, 16.241072, 16.34375, 16.160715, 16.017857, 15.75, 15.245536, 13.773809, 12.720238, 12.160714, 12.089286, 12.160714, 12.125, 12.125, 12, 12, 12, 12, 12.0625, 12.0625, 12.0625, 12.0625, 12, 12, 12, 11.9375, 11.9375, 11.9375, 11.9375, 12, 12.0625, 12.25, 12.4375, 12.5625, 12.5, 12.3125, 12.125, 12.125, 12.25, 12.3125, 12.4375, 12.4375, 12.375, 12.4375, 12.3125, 12.1875, 12.125, 12, 12, 12.0625, 12.0625, 12.0625, 12.0625, 12.125, 12.375, 12.625, 12.875, 13, 12.9375, 12.875, 12.75, 12.625, 12.625, 12.598214, 12.651786, 12.8125, 12.875, 13, 13, 13, 13, 13, 13, 13, 12.875, 12.75, 12.6875, 12.625, 12.75, 12.9375, 13, 13.0625, 13.125, 13, 13, 13, 12.9375, 13, 13, 13, 13, 13.0625, 13.125, 13.125, 13.125, 13.0625, 13, 13, 13, 13, 13, 13, 13, 13, 13, 13
-10, -10, -10, -10, -10, -10, -10, -10, -10, -10, -10, -10, -10, -10, -10, -10, -10, -10, -10, -10, -10, -10, -10, -10, -10, -10, -10, -10, -10, -10, 99.3125, 99.01667, 98.416664, 97.8125, 97.059517, 96.1875, 95.767853, 95.303574, 94.5, 93.815475, 92.238098, 91.35714, 89.979172, 88.970245, 87.958328, 87.157738, 86.288689, 85.401779, 84.901787, 84.491074, 83.761902, 82.720238, 82.205353, 81.571434, 80.375, 79.857147, 79.267853, 78.875, 78.375, 77.642853, 76.619049, 76.071426, 75.375, 74.681549, 73.997025, 73.428574, 72.39286, 72.026787, 71.455353, 70.595238, 70.276787, 69.741074, 69.038689, 67.916672, 67.214287, 66.553574, 65.619049, 65, 63.976189, 62.916664, 62.455353, 62.044643, 61.446426, 60.857143, 59.854168, 59.0625, 58.038689, 57.410713, 56.901787, 56.375, 55.642853, 54.651787, 53.892857, 53.133926, 52.473213, 51.892857, 51.1875, 50.276787, 49.5, 48.821426, 47.934525, 47.214287, 46.580357, 45.955357, 45.196426, 44.348213, 43.464287, 42.74107, 42.071426, 41.276787, 40.059525, 39.285713, 38.57143, 37.726192, 37.125, 36.625, 35.916668, 35.1875, 34.419643, 33.785713, 33.125, 32.401787, 31.642857, 30.583332, 30.0625, 29.291666, 28.633928, 27.776785, 27.071428, 25.96726, 25.285715, 24.589285, 24.026785, 23.092262, 22.348215, 21.571428, 20.619047, 20.0625, 19.428572, 18.773809, 18.023809, 17.258928, 16.625, 15.654762, 14.729167, 14.071428, 13.459822, 12.403274, 11.888393, 11.4375, 11.1875, 11.0625, 11, 11, 11, 11, 11, 11, 11, 11.0625, 11.125, 11.125, 11.1875, 11.125, 11.125, 11.125, 11.125, 11.1875, 11.125, 11.1875, 11.1875, 11.1875, 11.25, 11.25, 11.1875, 11.1875, 11.375, 11.375, 11.4375, 11.5625, 11.5625, 11.75, 11.9375, 12.0625, 12.383928, 13.065475, 13.580357, 13.9375, 14.0625, 14.25, 14.348214, 14.401786, 14.696428, 15.083333, 15.160714, 15.116072, 15.125, 14.9375, 15.0625, 15.25, 15.232143, 15.175, 15.232143, 15, 15.0625, 15, 14.875, 15.008928, 15.3, 15.163691, 15.75, 15.803572, 15.96875, 15.901786, 15.9375, 15.875, 15.620536, 14.452381, 13.195579, 12.561225, 12.380953, 12.267857, 12.125, 12.125, 12.071428, 12.2, 12.071428, 12.071428, 12.0625, 12.0625, 12.0625, 12.0625, 12, 12, 11.9375, 11.875, 11.875, 11.875, 12, 12.0625, 12.0625, 12.1875, 12.25, 12.3125, 12.3125, 12.1875, 12.0625, 12.0625, 12.125, 12.125, 12.25, 12.3125, 12.3125, 12.375, 12.25, 12.125, 12.0625, 12, 12, 12.125, 12.1875, 12.1875, 12.1875, 12.125, 12.3125, 12.5, 12.6875, 12.8125, 12.6875, 12.625, 12.5625, 12.4375, 12.4375, 12.473214, 12.589286, 12.848214, 12.9375, 13.0625, 13, 13, 13, 13, 13, 13, 12.875, 12.75, 12.6875, 12.6875, 12.8125, 13, 13.0625, 13, 13.0625, 13, 13, 13.0625, 13, 13, 13, 13, 13, 13, 13, 13, 13, 13, 13, 13, 13, 13, 13, 13, 13, 13, 13, 13, 13, 13, 13, 13, 13, 13, 12.9375, 13, 13.125, 13.294643, 13.375, 13.3125, 13.1875, 13.0625, 13, 13, 13, 13.125, 13.25, 13.333334, -10, -10, -10, -10, -10, -10, -10, -10, -10, -10, -10, -10, -10, -10, -10, -10, -10, -10, -10, -10, -10, -10, -10, -10, -10, -10, -10, -10, -10, -10, -10, -10, -10, -10, -10, -10, -10, -10, -10, -10, -10, -10, -10, -10, -10, -10, -10, -10, -10, -10, -10, -10, -10, -10, -10, -10, -10, -10, -10, -10, -10, -10, -10, -10, -10, -10, -10, -10, -10, -10, 99.6875, 99.350006, 98.791664, 98.214287, 97.083328, 96.208336, 95.875, 95.416664, 94.5, 93.75, 92.309525, 91.392853, 89.988098, 88.958336, 88, 86.9375, 86.276779, 85.589279, 85.151787, 84.449409, 83.583336, 82.616074, 82.098213, 81.5, 80.604164, 80.14286, 79.410713, 78.9375, 78.375, 77.714287, 76.726189, 76.133926, 75.455353, 74.848213, 74.276779, 73.449409, 72.464287, 72, 71.410721, 70.523804, 70.098213, 69.616074, 68.904762, 67.678574, 67, 66.303574, 65.514877, 64.892853, 64.059525, 62.979164, 62.410713, 61.9375, 61.5, 60.92857, 59.770836, 59.0625, 58.258926, 57.505955, 57.035713, 56.392857, 55.392853, 54.375, 53.63393, 52.955357, 52.392857, 51.830357, 51.1875, 50.276787, 49.428574, 48.642853, 47.764881, 47.142857, 46.5, 45.848213, 45.133926, 44.267857, 43.285713, 42.5, 41.892857, 41.205357, 40.050591, 39.357143, 38.75, 37.895836, 37.196426, 36.571426, 35.738094, 35.017857, 34.410713, 33.830357, 33.1875, 32.348213, 31.464285, 30.488094, 29.955357, 29.375, 28.758928, 27.901785, 27.133928, 25.976191, 25.285715, 24.517857, 23.919641, 23.029762, 22.339285, 21.642857, 20.726189, 20.0625, 19.392857, 18.857143, 18.086309, 17.205357, 16.517857, 15.821428, 14.863095, 14.142857, 13.46875, 12.331844, 11.71875, 11.3125, 11.0625, 11, 11, 11, 11, 11, 11, 11, 11, 11, 11.0625, 11.125, 11.25, 11.25, 11.3125, 11.25, 11.1875, 11.3125, 11.1875, 11.25, 11.25, 11.1875, 11.25, 11.1875, 11.125, 11.125, 11.3125, 11.4375, 11.5, 11.6875, 11.6875, 11.8125, 12, 12.133928, 12.654762, 13.306547, 13.723215, 13.875, 13.9375, 14.1875, 14.285714, 14.232142, 14.392857, 14.690476, 14.885715, 14.8125, 14.875, 14.625, 14.8125, 15, 15.160714, 15.1875, 15.1875, 14.9375, 14.964286, 15.107143, 15.044643, 15.348214, 15.710714, 15.601191, 16.1875, 15.991072, 16.03125, 15.830357, 15.830357, 15.9375, 15.763393, 15.445579, 14.789683, 14.279762, 13.095239, 12.517857, 12.267857, 12.21875, 12.290178, 12.45, 12.214285, 12.142857, 12.0625, 12.0625, 12.0625, 12.0625, 12, 12, 11.9375, 11.875, 11.875, 11.875, 12.0625, 12.125, 12.125, 12.1875, 12.125, 12.125, 12.125, 12.0625, 12, 12, 12, 12, 12.125, 12.25, 12.3125, 12.375, 12.25, 12.125, 12.0625, 12, 12.0625, 12.25, 12.375, 12.4375, 12.375, 12.1875, 12.25, 12.3125, 12.5, 12.625, 12.5, 12.4375, 12.375, 12.25, 12.1875, 12.3125, 12.5, 12.785714, 13, 13.0625, 13, 13, 13, 13, 13, 13, 12.875, 12.75, 12.6875, 12.6875, 12.8125, 13, 13.0625, 13.0625, 13.125, 13, 12.964286, 13, 12.9375, 13, 13, 13, 13, 13, 13, 13, 12.9375, 12.9375, 12.9375, 12.9375, 13, 13, 13, 13, 13, 13, 13, 13
-10, -10, -10, -10, -10, -10, -10, -10, -10, -10, -10, -10, -10, -10, -10, -10, -10, -10, -10, -10, -10, -10, -10, -10, -10, -10, -10, -10, -10, -10, 99.875, 99.550003, 99.020828, 98.464287, 97.297615, 96.291672, 95.839287, 95.354164, 94.375, 93.571426, 92.184525, 91.267853, 90.101189, 88.833336, 87.940475, 86.830353, 86.214279, 85.434525, 85.008926, 84.261909, 83.404762, 82.366074, 81.776787, 81.232147, 80.729164, 80.348213, 79.660713, 79.071426, 78.321426, 77.60714, 76.809525, 76.258926, 75.642853, 75.017853, 74.419647, 73.636909, 72.488098, 72.008926, 71.410721, 70.440475, 69.955353, 69.4375, 68.883926, 67.571434, 66.964287, 66.348213, 65.443451, 64.821426, 64.142853, 63.041664, 62.35714, 61.767857, 61.375, 60.82143, 59.895836, 59.205357, 58.383926, 57.523808, 57.098213, 56.473213, 55.321426, 54.339287, 53.5625, 52.809525, 52.321426, 51.767857, 51.1875, 50.276787, 49.35714, 48.464287, 47.74107, 47.142857, 46.5, 45.848213, 45.133926, 44.267857, 43.285713, 42.5, 41.892857, 41.196426, 40.163689, 39.428574, 38.82143, 38.041668, 37.267857, 36.589287, 35.738094, 35.017857, 34.410713, 33.830357, 33.041668, 32.205357, 31.276785, 30.392857, 29.848213, 29.3125, 28.75, 27.830357, 27.026785, 26.059523, 25.214285, 24.508928, 23.678572, 22.886906, 22.258928, 21.580357, 20.872023, 20.133928, 19.473213, 18.892857, 18.041666, 17.205357, 16.553572, 16, 15.104167, 14.357143, 13.642858, 12.488094, 11.666667, 11.258928, 11, 11, 11, 11, 11, 11, 11, 11, 11, 11, 11.125, 11.25, 11.4375, 11.4375, 11.4375, 11.3125, 11.1875, 11.375, 11.3125, 11.3125, 11.3125, 11.1875, 11.25, 11.25, 11.1875, 11.125, 11.1875, 11.375, 11.4375, 11.6875, 11.75, 11.8125, 12, 12.205357, 12.916666, 13.401787, 13.794643, 13.8125, 13.901786, 14.160714, 14.160714, 14.107142, 14.214285, 14.711309, 14.957143, 14.973214, 14.9375, 14.6875, 14.875, 15.125, 15.348214, 15.4375, 15.375, 15.0625, 15.026786, 15.107143, 15.169643, 15.535714, 15.967856, 16, 16.1875, 16.0625, 15.96875, 15.767857, 15.794642, 15.973214, 15.90625, 15.910714, 15.289116, 14.460317, 13.412698, 12.424107, 12.236607, 12.3125, 12.571428, 12.735714, 12.357142, 12.214285, 12, 12, 12, 12, 12, 12, 12, 11.9375, 11.9375, 11.9375, 12.0625, 12.125, 12.125, 12.125, 12, 12, 12, 12, 12, 12, 12, 12, 12.0625, 12.125, 12.125, 12.125, 12.0625, 12, 12, 12, 12.0625, 12.25, 12.4375, 12.5, 12.4375, 12.25, 12.1875, 12.1875, 12.25, 12.3125, 12.1875, 12.125, 12.1875, 12.125, 12.125, 12.375, 12.5625, 12.848214, 13.0625, 13.0625, 13, 13, 13, 13, 13, 13, 12.9375, 12.875, 12.875, 12.875, 12.9375, 13, 13, 12.9375, 12.9375, 12.875, 12.839286, 12.9375, 12.9375, 13, 13, 13, 13, 13, 13, 13, 12.9375, 12.9375, 12.875, 12.8125, 12.875, 12.875, 12.9375, 13, 13, 13, 13, 13, 13, 13, 13, 13, 13, 13, 13, 13.0625, 13.125, 13.1875, 13.1875, 13.125, 13.0625, 13, 13, 13, 12.9375, 13, 13.0625, 13.083334, -10, -10, -10, -10, -10, -10, -10, -10, -10, -10, -10, -10, -10, -10, -10, -10, -10, -10, -10, -10, -10, -10, -10, -10, -10, -10, -10, -10, -10, -10, -10, -10, -10, -10, -10, -10, -10, -10, -10, -10, -10, -10, -10, -10, -10, -10, -10, -10, -10, -10, -10, -10, -10, -10, -10, -10, -10, -10, -10, -10, -10, -10, -10, -10, -10, -10, -10, -10, -10, -10, 99.75, 99.400002, 98.997025, 98.526787, 97.404762, 96.5, 96.01786, 95.479164, 94.39286, 93.571426, 92.184525, 91.267853, 90.101189, 88.761909, 87.761902, 86.660713, 86.142853, 85.354164, 84.839279, 84.208336, 83.535713, 82.229164, 81.60714, 81.053574, 80.729164, 80.348213, 79.684525, 79.142853, 78.4375, 77.702377, 76.916664, 76.321426, 75.651787, 75.017853, 74.419647, 73.636909, 72.488098, 72.151779, 71.598221, 70.422623, 69.785713, 69.142853, 68.5625, 67.425598, 66.85714, 66.294647, 65.526779, 64.863091, 64.214287, 63.041664, 62.321426, 61.705357, 61.375, 60.857143, 59.904762, 59.3125, 58.5625, 57.535713, 57.0625, 56.348213, 55.133926, 54.35714, 53.63393, 52.872025, 52.339287, 51.767857, 51.041668, 50.205357, 49.276787, 48.35714, 47.67857, 47.0625, 46.321426, 45.607143, 44.955357, 44.196426, 43.276787, 42.5, 41.892857, 41.1875, 40.276787, 39.5, 38.892857, 38.1875, 37.339287, 36.607143, 35.738094, 35.080357, 34.517857, 33.901787, 32.9375, 32.133926, 31.267857, 30.357143, 29.741072, 29.1875, 28.5625, 27.785713, 27.026785, 25.976191, 25.071428, 24.383928, 23.544643, 22.991072, 22.330357, 21.651785, 21.017857, 20.205357, 19.553572, 19, 18.104166, 17.214287, 16.482143, 15.892857, 15.1875, 14.348213, 13.535714, 12.47619, 11.630953, 11.258928, 11, 11, 11, 11, 11, 11, 11, 11, 11, 11, 11.125, 11.3125, 11.5625, 11.5625, 11.5625, 11.375, 11.25, 11.5, 11.4375, 11.4375, 11.375, 11.25, 11.375, 11.375, 11.3125, 11.25, 11.1875, 11.375, 11.4375, 11.625, 11.75, 11.8125, 12.0625, 12.392857, 13.211309, 13.651787, 13.9375, 13.9375, 14.026786, 14.223214, 14.160714, 13.982142, 14.026785, 14.586309, 14.930357, 14.973214, 14.9375, 14.6875, 14.90625, 15.15625, 15.379464, 15.46875, 15.375, 15.125, 15.151786, 15.294643, 15.419643, 15.776786, 16.142857, 16.214287, 16.020832, 15.854167, 15.732143, 15.571428, 15.607142, 15.848214, 15.875, 16.0625, 15.589286, 14.159863, 13.068027, 12.450893, 12.361607, 12.4375, 12.758928, 12.923214, 12.544642, 12.401785, 12.1875, 12.125, 12.0625, 12, 12, 12, 12, 12.0625, 12.0625, 12.0625, 12.1875, 12.125, 12.125, 12.125, 12, 12, 12, 12, 12, 12, 12, 12, 12.0625, 12.125, 12.1875, 12.1875, 12.125, 12.0625, 12, 12, 12.0625, 12.25, 12.5, 12.5625, 12.5625, 12.4375, 12.3125, 12.25, 12.125, 11.955357, 11.875, 11.875, 12.0625, 12.1875, 12.25, 12.5, 12.6875, 12.910714, 13.0625, 13.0625, 13, 13, 12.9375, 12.9375, 12.9375, 12.9375, 13, 13, 13, 13, 13, 13, 13, 13, 13, 12.875, 12.839286, 12.875, 12.875, 13, 12.9375, 12.875, 12.875, 12.875, 12.9375, 13, 12.9375, 12.9375, 12.875, 12.8125, 12.9375, 13, 13.0625, 13.125, 13.0625, 13, 13, 13
-10, -10, -10, -10, -10, -10, -10, -10, -10, -10, -10, -10, -10, -10, -10, -10, -10, -10, -10, -10, -10, -10, -10, -10, -10, -10, -10, -10, -10, -10, 99.708336, 99.166664, 98.827377, 98.383926, 97.309525, 96.428574, 95.95536, 95.407738, 94.476189, 93.714287, 92.196434, 91.303574, 90.089279, 88.886909, 87.720238, 86.744049, 85.904762, 85.095238, 84.526779, 83.958336, 83.39286, 82.270828, 81.714287, 81.017853, 80.883926, 80.491074, 79.64286, 79.071426, 78.3125, 77.59523, 77, 76.3125, 75.607147, 74.955353, 74.401787, 73.636909, 72.504761, 71.901779, 71.3125, 70.217262, 69.651779, 69.0625, 68.383926, 67.467262, 66.773804, 66.232147, 65.446426, 64.755951, 64.142853, 63.145832, 62.392857, 61.767857, 61.375, 60.797619, 59.69643, 59.25, 58.678574, 57.821426, 57.145832, 56.392857, 55.133926, 54.42857, 53.741074, 52.934525, 52.348213, 51.696426, 50.934525, 50.142857, 49.267857, 48.42857, 47.785713, 47.125, 46.401783, 45.714287, 45.026787, 44.092258, 43.205357, 42.419643, 41.785713, 41.125, 40.267857, 39.57143, 39, 38.25, 37.285713, 36.5, 35.821426, 35.205357, 34.705357, 33.842262, 32.866074, 32.071426, 31.321428, 30.464287, 29.595238, 29.071428, 28.4375, 27.776785, 27.026785, 25.976191, 25.142857, 24.5625, 23.723215, 22.949406, 22.339285, 21.767857, 21.1875, 20.348213, 19.678572, 18.916666, 18.1875, 17.276787, 16.428572, 15.785713, 15.125, 14.330357, 13.535714, 12.714285, 11.660714, 11.267857, 11, 11, 11, 11, 11, 11, 11, 11, 11, 11, 11.125, 11.3125, 11.5625, 11.625, 11.544643, 11.3, 11.303572, 11.395833, 11.3125, 11.3125, 11.25, 11.3125, 11.5, 11.5625, 11.5, 11.4375, 11.25, 11.4375, 11.5625, 11.625, 11.8125, 11.8125, 12.0625, 12.517857, 13.380953, 13.732143, 14, 14, 14.089286, 14.223214, 14.25, 14.080357, 14.080357, 14.627976, 15.028571, 15.071428, 15.125, 14.8125, 14.96875, 15.15625, 15.316964, 15.40625, 15.3125, 15.1875, 15.339286, 15.651787, 15.857143, 16.214287, 16.455357, 16.401787, 16.145832, 15.979167, 15.919643, 15.821428, 15.794642, 15.973214, 15.9375, 16.0625, 15.508928, 13.642856, 12.897958, 12.40625, 12.424107, 12.5625, 12.875, 12.848214, 12.598214, 12.392857, 12.1875, 12.125, 12.0625, 12, 12, 12, 12.0625, 12.125, 12.125, 12.125, 12.125, 12.0625, 12.0625, 12.0625, 12, 12, 12, 12, 12, 12, 12, 12.0625, 12.1875, 12.25, 12.3125, 12.25, 12.125, 12.0625, 12, 12.0625, 12.1875, 12.375, 12.5625, 12.5625, 12.5625, 12.5, 12.4375, 12.375, 12.25, 12.017857, 11.9375, 11.9375, 12.0625, 12.25, 12.375, 12.625, 12.75, 12.875, 12.9375, 12.875, 12.875, 12.875, 12.8125, 12.8125, 12.75, 12.6875, 12.75, 12.821428, 13, 13, 13.0625, 13, 13, 13.0625, 13.0625, 13, 12.9375, 12.767857, 12.767857, 12.875, 12.875, 12.875, 12.875, 12.875, 13, 13.0625, 13, 13, 12.875, 12.8125, 12.9375, 12.9375, 12.9375, 13, 12.9375, 12.9375, 13, 13, 13, 13, 13, 13, 13, 13, 13, 13, 13, 13, 13, 13, 13, 13, 13, 12.9375, 12.8125, 12.75, 12.6875, 12.666667, -10, -10, -10, -10, -10, -10, -10, -10, -10, -10, -10, -10, -10, -10, -10, -10, -10, -10, -10, -10, -10, -10, -10, -10, -10, -10, -10, -10, -10, -10, -10, -10, -10, -10, -10, -10, -10, -10, -10, -10, -10, -10, -10, -10, -10, -10, -10, -10, -10, -10, -10, -10, -10, -10, -10, -10, -10, -10, -10, -10, -10, -10, -10, -10, -10, -10, -10, -10, -10, -10, 99.583336, 99, 98.666656, 98.276787, 97.464287, 96.523811, 95.848213, 95.032738, 94.309517, 93.633926, 92.208336, 91.190475, 89.976189, 88.565483, 87.422623, 86.723213, 85.940483, 85.050598, 84.526779, 84.1875, 83.70536, 82.541664, 81.696426, 81.017853, 80.883926, 80.571426, 79.928574, 79.171432, 78.25, 77.452377, 76.875, 76.25, 75.589279, 75.017853, 74.517853, 74, 72.558327, 71.821426, 71.142853, 70.208336, 69.696426, 69.0625, 68.348213, 67.633926, 66.761902, 66.232147, 65.446426, 64.755951, 64.142853, 63.145832, 62.321426, 61.660713, 61.25, 60.464283, 59.601192, 59.178574, 58.678574, 57.738098, 57.002975, 56.25, 55.196426, 54.607143, 54.035713, 53.113094, 52.392853, 51.580353, 50.764881, 50.071426, 49.258926, 48.42857, 47.785713, 47.125, 46.401783, 45.642857, 44.848213, 43.922619, 43.196426, 42.526787, 41.809525, 41.125, 40.267857, 39.57143, 39, 38.25, 37.357143, 36.67857, 36.0625, 35.383926, 34.785713, 33.904762, 32.720238, 32, 31.3125, 30.535715, 29.702379, 29.133928, 28.455357, 27.776785, 26.880953, 25.904762, 25.133928, 24.5625, 23.651785, 22.842262, 22.339285, 21.8125, 21.25, 20.357143, 19.607143, 18.809523, 18.125, 17.330357, 16.535713, 15.619047, 14.991072, 14.258928, 13.589286, 12.892857, 11.684524, 11.276785, 11, 11, 11, 11, 11, 11, 11, 11, 11, 11, 11.0625, 11.125, 11.25, 11.330357, 11.440475, 11.353572, 11.491072, 11.458333, 11.375, 11.3125, 11.25, 11.4375, 11.5625, 11.625, 11.5, 11.375, 11.25, 11.4375, 11.625, 11.6875, 11.8125, 11.839286, 12.241072, 12.767857, 13.485119, 13.803572, 14, 14.0625, 14.214286, 14.285714, 14.375, 14.3125, 14.383928, 15.020833, 15.214286, 15.3125, 15.25, 15, 15.09375, 15.21875, 15.21875, 15.28125, 15.1875, 15.25, 15.4375, 15.607143, 15.8125, 16.03125, 16.263393, 16.308037, 15.989583, 15.916667, 15.919643, 15.928572, 15.901786, 15.973214, 15.9375, 16, 15.508928, 13.785714, 12.803572, 12.40625, 12.53125, 12.754464, 12.799107, 12.669643, 12.455357, 12.321428, 12.25, 12.1875, 12.125, 12.0625, 12.0625, 12.0625, 12.125, 12.1875, 12.125, 12.125, 12.0625, 12, 12, 12, 12.0625, 12.125, 12.125, 12.125, 12.0625, 12, 12, 12.0625, 12.25, 12.3125, 12.375, 12.3125, 12.125, 12.0625, 12, 12.125, 12.25, 12.4375, 12.5625, 12.4375, 12.5, 12.5, 12.5, 12.5, 12.3125, 12.080357, 12.0625, 12.125, 12.25, 12.4375, 12.5625, 12.75, 12.875, 12.9375, 12.875, 12.75, 12.75, 12.75, 12.75, 12.8125, 12.6875, 12.5625, 12.625, 12.696428, 12.9375, 13, 13.0625, 13, 13, 13, 13, 13, 12.910714, 12.705357, 12.705357, 12.75, 12.8125, 12.875, 12.8125, 12.75, 12.8125, 12.875, 13, 13.098214, 13, 12.9375, 12.9375, 12.9375, 12.9375, 13, 12.9375, 12.9375, 13, 13
-10, -10, -10, -10, -10, -10, -10, -10, -10, -10, -10, -10, -10, -10, -10, -10, -10, -10, -10, -10, -10, -10, -10, -10, -10, -10, -10, -10, -10, -10, 99.458336, 98.933334, 98.75, 98.276787, 97.279762, 96.595238, 96, 95.220238, 94.39286, 93.520836, 92.321434, 91.369049, 89.988098, 88.815483, 87.440475, 86.6875, 85.833336, 85.133926, 84.651779, 84.3125, 83.622025, 82.625, 81.767853, 80.851196, 80.651787, 80.321426, 79.741074, 79.162498, 78.357147, 77.392853, 76.732147, 76.017853, 75.401779, 74.955353, 74.553574, 73.833336, 72.641663, 71.821426, 70.922615, 70.232147, 69.705353, 69.125, 68.5, 67.883926, 66.755951, 66.160713, 65.4375, 64.72023, 64.142853, 63.145832, 62.321426, 61.732143, 61.294643, 60.35714, 59.613094, 59.178574, 58.678574, 57.666664, 56.833332, 56.107143, 55.258926, 54.571426, 54, 53.196426, 52.383926, 51.464287, 50.595238, 50.0625, 49.366074, 48.440475, 47.82143, 47.125, 46.339283, 45.464287, 44.678574, 43.851189, 43.25, 42.63393, 41.726192, 41.133926, 40.375, 39.595238, 39, 38.25, 37.428574, 36.785713, 35.979168, 35.321426, 34.767857, 33.904762, 32.875, 31.958334, 31.25, 30.526785, 29.702379, 29.133928, 28.517857, 27.955357, 26.90476, 25.904762, 25.196428, 24.455357, 23.723215, 22.913691, 22.339285, 21.767857, 21.25, 20.464285, 19.630953, 18.809523, 18.125, 17.330357, 16.464285, 15.511904, 14.928572, 14.25, 13.589286, 12.892857, 11.684524, 11.276785, 11, 11, 11, 11, 11, 11, 11, 11, 11, 11, 11, 11, 11.125, 11.267857, 11.502975, 11.541072, 11.741072, 11.583333, 11.375, 11.25, 11.0625, 11.25, 11.375, 11.5, 11.5, 11.4375, 11.4375, 11.5625, 11.75, 11.8125, 11.8125, 11.866072, 12.419643, 13.017857, 13.589287, 13.875, 14, 14.125, 14.25, 14.25, 14.375, 14.25, 14.375, 14.8125, 15.044642, 15.1875, 15.1875, 15.03125, 15.125, 15.25, 15.1875, 15.15625, 15.125, 15.25, 15.5625, 15.794643, 15.875, 15.96875, 16.0625, 16.232143, 16.083332, 16.010418, 16.044643, 15.928572, 15.8125, 15.8125, 15.8125, 15.875, 15.651787, 14.309524, 12.994047, 12.517857, 12.4375, 12.598214, 12.517857, 12.383928, 12.3125, 12.25, 12.25, 12.1875, 12.125, 12.0625, 12.0625, 12.0625, 12.0625, 12.125, 12.0625, 12.0625, 12.0625, 12, 12, 12, 12.0625, 12.125, 12.125, 12.125, 12.0625, 12, 12, 12.0625, 12.25, 12.3125, 12.375, 12.3125, 12.125, 12.0625, 12, 12.125, 12.25, 12.375, 12.5, 12.375, 12.4375, 12.5, 12.5, 12.5, 12.375, 12.142857, 12.1875, 12.3125, 12.4375, 12.6875, 12.8125, 12.9375, 12.9375, 12.875, 12.75, 12.625, 12.6875, 12.75, 12.75, 12.8125, 12.6875, 12.5625, 12.625, 12.696428, 12.9375, 13, 13.0625, 12.9375, 12.875, 12.892857, 13, 13, 12.973214, 12.642857, 12.669643, 12.785714, 12.8125, 12.875, 12.6875, 12.5625, 12.625, 12.75, 13, 13.160714, 13.125, 13.125, 13.0625, 13.0625, 13, 13, 12.9375, 12.9375, 13, 13, 13, 13, 13, 12.875, 12.8125, 12.8125, 12.875, 13.107143, 13.125, 13.125, 13.0625, 13, 13, 13, 13, 12.9375, 12.875, 12.875, 12.875, 12.916667, -10, -10, -10, -10, -10, -10, -10, -10, -10, -10, -10, -10, -10, -10, -10, -10, -10, -10, -10, -10, -10, -10, -10, -10, -10, -10, -10, -10, -10, -10, -10, -10, -10, -10, -10, -10, -10, -10, -10, -10, -10, -10, -10, -10, -10, -10, -10, -10, -10, -10, -10, -10, -10, -10, -10, -10, -10, -10, -10, -10, -10, -10, -10, -10, -10, -10, -10, -10, -10, -10, 99.458336, 98.933334, 98.707138, 98.297623, 97.101189, 96.607147, 96.125, 95.407738, 94.458336, 93.479172, 92.071434, 91.136902, 90.050598, 89.029762, 87.577385, 86.794647, 85.75, 85.071426, 84.633926, 84.151787, 83.241074, 82.511909, 81.6875, 80.851196, 80.526787, 80.205353, 79.761909, 79.153572, 78.25, 77.297623, 76.696426, 76.0625, 75.473213, 75.133926, 74.669647, 73.821426, 72.796425, 71.857147, 70.755951, 70.285713, 69.8125, 69.148804, 68.571426, 68, 66.708328, 66.035713, 65.25, 64.571426, 64, 63.25, 62.357143, 61.82143, 61.276787, 60.142857, 59.398811, 58.892857, 58.428574, 57.708336, 56.904762, 56.169643, 55.267853, 54.499996, 53.892857, 53.133926, 52.303574, 51.285713, 50.57143, 50.0625, 49.366074, 48.369045, 47.714287, 47.0625, 46.330357, 45.535713, 44.785713, 43.913689, 43.330357, 42.741074, 41.642857, 41.142857, 40.482143, 39.535713, 38.857143, 38.080357, 37.419643, 36.82143, 35.895836, 35.196426, 34.580357, 33.726189, 32.916664, 32.020836, 31.330357, 30.705357, 29.726189, 29.133928, 28.517857, 27.883928, 26.797619, 26.071428, 25.330357, 24.535715, 23.785715, 22.913691, 22.339285, 21.767857, 21.25, 20.464285, 19.559525, 18.702379, 18.0625, 17.321428, 16.464285, 15.511904, 14.928572, 14.25, 13.660714, 13.071428, 11.708333, 11.285714, 11, 11, 11, 11, 11, 11, 11, 11, 11, 11, 11.0625, 11, 11.0625, 11.205357, 11.377975, 11.478572, 11.678572, 11.458333, 11.25, 11.1875, 11.0625, 11.25, 11.3125, 11.4375, 11.5, 11.5, 11.625, 11.6875, 11.8125, 11.875, 11.8125, 11.866072, 12.428572, 13.163691, 13.660715, 13.9375, 14, 14.0625, 14.1875, 14.1875, 14.3125, 14.3125, 14.4375, 14.8125, 15.008928, 15.125, 15.09375, 14.96875, 14.96875, 15.049107, 15.165178, 15.241072, 15.3125, 15.4375, 15.6875, 15.857143, 15.875, 15.90625, 15.9375, 16.125, 16.25, 16.28125, 16.223213, 15.892857, 15.696428, 15.696428, 15.875, 15.9375, 15.794643, 14.965987, 13.142857, 12.5625, 12.3125, 12.410714, 12.330357, 12.196428, 12.125, 12.0625, 12.0625, 12.125, 12.1875, 12.1875, 12.1875, 12.125, 12.0625, 12.0625, 12, 12, 11.9375, 11.9375, 11.9375, 11.9375, 12.0625, 12.125, 12.125, 12.125, 12.0625, 12, 12, 12.0625, 12.1875, 12.1875, 12.1875, 12.125, 12.0625, 12.125, 12.1875, 12.3125, 12.375, 12.5, 12.5625, 12.4375, 12.4375, 12.375, 12.3125, 12.3125, 12.375, 12.375, 12.5, 12.625, 12.625, 12.6875, 12.75, 12.875, 12.8125, 12.8125, 12.6875, 12.5625, 12.6875, 12.75, 12.8125, 12.875, 12.6875, 12.5, 12.5, 12.571428, 12.875, 13, 13.0625, 13, 12.910714, 12.857142, 13, 13, 13.035714, 12.705357, 12.732143, 12.785714, 12.875, 13, 12.8125, 12.6875, 12.6875, 12.75, 13, 13.160714, 13.125, 13.125, 13, 12.9375, 12.875, 12.875, 12.875, 12.9375, 13, 13
-10, -10, -10, -10, -10, -10, -10, -10, -10, -10, -10, -10, -10, -10, -10, -10, -10, -10, -10, -10, -10, -10, -10, -10, -10, -10, -10, -10, -10, -10, 99.5, 99.083336, 98.778572, 98.369049, 97.113098, 96.511909, 95.991074, 95.122025, 94.363098, 93.372025, 91.988098, 91.136902, 90.122025, 88.896423, 87.410713, 86.616074, 85.854164, 85.330353, 84.892853, 84.110123, 83.098213, 82.324409, 81.401779, 80.708336, 80.267853, 79.955353, 79.741074, 79.162498, 78.375, 77.404762, 76.821426, 76.25, 75.413689, 75.0625, 74.544647, 73.696426, 73.008926, 72.285721, 71.01786, 70.526787, 69.9375, 69.220238, 68.511902, 67.928574, 66.791664, 66.160713, 65.4375, 64.595238, 64, 63.25, 62.357143, 61.88393, 61.39286, 60.142857, 59.535713, 58.892857, 58.303574, 57.422619, 56.82143, 56.125, 55.267853, 54.428566, 53.785713, 53.071426, 52.294643, 51.285713, 50.57143, 50.0625, 49.375, 48.184521, 47.535713, 46.9375, 46.25, 45.35714, 44.607143, 43.955357, 43.392857, 42.75, 41.642857, 41.205357, 40.598213, 39.476189, 38.785713, 38.017857, 37.410713, 36.75, 35.788692, 35.071426, 34.392857, 33.785713, 32.988094, 32.083336, 31.348213, 30.705357, 29.726189, 29.0625, 28.392857, 27.714285, 26.726191, 26.0625, 25.330357, 24.535715, 23.630953, 22.955357, 22.330357, 21.723213, 21.1875, 20.383928, 19.380953, 18.67857, 18.026787, 17.008928, 16.25, 15.369047, 14.857143, 14.041667, 13.482142, 12.928572, 11.666667, 11.285714, 11, 11, 11, 11, 11, 11, 11, 11, 11, 11, 11.125, 11.0625, 11.0625, 11.142857, 11.270833, 11.428572, 11.5, 11.375, 11.25, 11.25, 11.25, 11.3125, 11.3125, 11.3125, 11.375, 11.375, 11.625, 11.75, 11.8125, 12, 11.875, 11.928572, 12.5, 13.309524, 13.732143, 14, 14, 14.0625, 14.1875, 14.1875, 14.3125, 14.375, 14.5, 14.8125, 14.910714, 15.026786, 15.138393, 15.052083, 14.885417, 14.965774, 15.248511, 15.419643, 15.5625, 15.625, 15.75, 15.75, 15.75, 15.71875, 15.8125, 16.0625, 16.09375, 16.125, 16.004463, 15.611607, 15.446428, 15.446428, 15.625, 15.6875, 15.6875, 15.071428, 13.25, 12.607143, 12.25, 12.285714, 12.142857, 12.071428, 12, 12, 12.0625, 12.1875, 12.3125, 12.375, 12.375, 12.25, 12.125, 12.0625, 12, 12, 11.875, 11.8125, 11.8125, 11.8125, 12, 12.1875, 12.25, 12.3125, 12.25, 12.125, 12.0625, 12, 12.0625, 12.0625, 12.0625, 12.0625, 12.0625, 12.1875, 12.3125, 12.375, 12.375, 12.375, 12.375, 12.3125, 12.3125, 12.25, 12.125, 12.125, 12.1875, 12.25, 12.5, 12.625, 12.625, 12.625, 12.625, 12.75, 12.75, 12.8125, 12.75, 12.6875, 12.8125, 12.875, 12.9375, 12.9375, 12.75, 12.625, 12.625, 12.6875, 12.875, 13, 13, 13.0625, 12.973214, 12.919642, 13.0625, 12.9375, 13, 12.875, 12.964286, 13.098214, 13.116072, 13, 12.8125, 12.625, 12.625, 12.6875, 12.9375, 13.098214, 13.125, 13.125, 13, 13, 13, 13, 13, 13, 13, 13, 13, 13, 13.0625, 12.9375, 12.8125, 12.8125, 13.044643, 13.276786, 13.3125, 13.25, 13.0625, 12.875, 12.875, 12.875, 12.875, 13, 13, 13, 13, 13, -10, -10, -10, -10, -10, -10, -10, -10, -10, -10, -10, -10, -10, -10, -10, -10, -10, -10, -10, -10, -10, -10, -10, -10, -10, -10, -10, -10, -10, -10, -10, -10, -10, -10, -10, -10, -10, -10, -10, -10, -10, -10, -10, -10, -10, -10, -10, -10, -10, -10, -10, -10, -10, -10, -10, -10, -10, -10, -10, -10, -10, -10, -10, -10, -10, -10, -10, -10, -10, -10, 99.625, 99.233337, 98.814285, 98.440475, 97.125008, 96.333336, 95.8125, 95.142853, 94.488098, 93.559525, 92.226189, 91.303574, 90.288696, 89.021423, 87.48214, 86.5, 85.639877, 85.3125, 84.821426, 83.880959, 82.821426, 82.053574, 81.348213, 80.601189, 80.080353, 79.434525, 79.205353, 78.875, 78.4375, 77.654762, 76.863098, 76.25, 75.351189, 74.89286, 74.357147, 73.4375, 73.026787, 72.428574, 71.187508, 70.607147, 70.0625, 69.336311, 68.452385, 67.857147, 66.875, 66.285713, 65.625, 64.619049, 64, 63.25, 62.42857, 61.991074, 61.45536, 60.297619, 59.607147, 58.892857, 58.25, 57.589283, 56.964287, 56.083332, 55.276787, 54.392853, 53.511906, 52.928574, 52.25, 51.401787, 50.74107, 50.133926, 49.45536, 48.363094, 47.559525, 46.9375, 46.25, 45.35714, 44.67857, 44.125, 43.517857, 42.883926, 41.797619, 41.348213, 40.785713, 39.416664, 38.714287, 37.955357, 37.184525, 36.5, 35.601192, 35.0625, 34.428574, 33.702381, 33.071426, 32.145836, 31.357141, 30.705357, 29.726189, 29.0625, 28.321428, 27.607141, 26.809523, 26.1875, 25.517857, 24.785715, 23.767857, 23.0625, 22.330357, 21.67857, 21.125, 20.375, 19.416666, 18.754463, 18.120537, 17.0625, 16, 15.392857, 14.991072, 14.291667, 13.482142, 12.821428, 11.642858, 11.276785, 11, 11, 11, 11, 11, 11, 11, 11, 11, 11, 11.125, 11.125, 11.1875, 11.25, 11.1875, 11.25, 11.3125, 11.25, 11.1875, 11.25, 11.1875, 11.25, 11.25, 11.25, 11.375, 11.375, 11.5625, 11.625, 11.6875, 11.8125, 11.8125, 11.901786, 12.321428, 13.321428, 13.723215, 14, 14, 14.125, 14.1875, 14.1875, 14.3125, 14.375, 14.5625, 14.8125, 14.875, 15.026786, 15.138393, 15.114583, 15.010417, 15.090774, 15.498511, 15.669643, 15.75, 15.75, 15.8125, 15.9375, 16.0625, 16.0625, 16.03125, 16.058037, 15.9375, 15.875, 15.754464, 15.361607, 15.196428, 15.196428, 15.375, 15.4375, 15.392857, 14.535715, 12.982143, 12.357143, 12, 12, 12, 12, 12, 12, 12, 12.125, 12.3125, 12.4375, 12.4375, 12.3125, 12.125, 12, 12, 12, 11.875, 11.8125, 11.8125, 11.8125, 11.9375, 12.0625, 12.1875, 12.3125, 12.375, 12.3125, 12.1875, 12.0625, 12, 12, 12, 12, 12.0625, 12.25, 12.4375, 12.4375, 12.375, 12.3125, 12.3125, 12.375, 12.375, 12.25, 12.0625, 12, 12.0625, 12.1875, 12.4375, 12.5, 12.5, 12.4375, 12.4375, 12.625, 12.6875, 12.8125, 12.8125, 12.8125, 12.9375, 13, 12.9375, 12.8125, 12.6875, 12.625, 12.6875, 12.8125, 12.9375, 13, 13, 13.0625, 12.973214, 12.919642, 13.0625, 12.9375, 13.0625, 13, 13.089286, 13.223214, 13.116072, 12.9375, 12.8125, 12.6875, 12.8125, 12.875, 12.9375, 13, 13, 13, 13, 12.9375, 12.9375, 12.9375, 12.9375, 13, 13, 13
