-10, -10, -10, -10, -10, -10, -10, -10, -10, -10, -10, -10, -10, -10, -10, -10, -10, -10, -10, 79.375, 79.383331, 79.0625, 78.675591, 78.011909, 76.6875, 75.857147, 75.098213, 74.154762, 73.571426, 73.0625, 72.5625, 72.3125, 72, 71.607147, 70.788689, 70.276779, 69.705353, 69.4375, 69.0625, 68.6875, 68.241074, 67.306549, 66.848206, 66.366074, 65.791664, 65.401787, 64.9375, 64.5625, 64.3125, 63.8125, 63.4375, 62.892857, 62.25, 61.723213, 61.25, 60.541668, 59.955353, 59.339287, 58.964287, 58.553574, 57.997025, 57.553574, 56.916668, 56.4375, 56.026787, 55.205353, 54.625, 54.125, 53.625, 53.25, 52.767857, 52.366074, 51.747025, 51.446426, 51.125, 50.678574, 49.934525, 49.419643, 48.839287, 48.154762, 47.541668, 47.125, 46.9375, 46.616074, 46.166668, 45.75, 44.979168, 44.482143, 44.0625, 43.6875, 43.303574, 42.666668, 42.0625, 41.517857, 41, 40.5, 40, 39.375, 38.848213, 38.4375, 38.125, 37.69643, 37.041668, 36.482143, 35.9375, 35.5, 35.0625, 34.5, 34.017857, 33.5, 32.892857, 32.321426, 31.767857, 31.3125, 30.8125, 30.375, 29.830357, 29.4375, 28.9375, 28.5, 28, 27.083332, 26.705357, 26.1875, 25.8125, 25.321428, 24.767857, 24.3125, 23.767857, 23.25, 22.705357, 22.375, 21.875, 21.5, 21.125, 20.553572, 19.872023, 19.401785, 18.875, 18.5, 18, 17.5, 17.125, 16.616072, 15.979167, 15.464285, 15, 14.5625, 14.0625, 13.517857, 13.0625, 12.625, 12.169643, 11.464286, 10.928572, 10.3125, 10.1875, 10.1875, 10.4375, 10.6875, 10.875, 10.875, 11, 11, 11, 11.0625, 11, 11, 11, 11, 11, 11, 11, 11, 11, 11, 11, 11, 11, 11, 10.9375, 10.9375, 11, 11, 11, 10.875, 10.625, 10.589286, 10.803572, 11.142857, 11.669643, 12.169643, 12.651786, 12.9375, 13.1875, 13.4375, 13.6875, 13.875, 14, 14, 14, 14, 14, 14, 14.0625, 14.0625, 14.0625, 14.0625, 13.928572, 13.261904, 11.928572, 11.383928, 11, 11, 11, 11, 11, 11, 11, 11, 11, 11, 11, 11, 11, 11, 11, 11, 11, 11, 11, 11, 11, 11, 11, 11.0625, 11.125, 11.3125, 11.375, 11.3125, 11.3125, 11.25, 11.375, 11.625, 11.8125, 11.9375, 11.9375, 11.9375, 11.9375, 12.125, 12.333333, -10, -10, -10, -10, -10, -10, -10, -10, -10, -10, -10, -10, -10, -10, -10, -10, -10, -10, -10, -10, -10, -10, -10, -10, -10, -10, -10, -10, -10, -10, -10, -10, -10, -10, -10, -10, -10, -10, -10, -10, -10, -10, -10, -10, -10, -10, -10, -10, -10, -10, -10, 116, 116, 116, 116, -10, -10, -10, -10, -10, -10, -10, -10, -10, -10, -10, -10, -10, -10, -10, -10, -10, -10, -10, -10, -10, -10, -10, -10, -10, -10, -10, -10, -10, -10, -10, -10, -10, -10, -10, -10, -10, -10, -10, -10, -10, -10, -10, -10, -10, -10, -10, -10, -10, -10, -10, -10, -10, -10, -10, -10, -10, -10, -10, -10, -10, -10, -10, -10, -10, -10, -10, -10, -10, -10, -10, -10, -10, -10, -10, -10, -10, -10, -10, -10, -10, -10, -10, -10, -10, -10, -10, -10, -10, 79.5, 79.550003, 79.3125, 78.907738, 77.845245, 76.458336, 75.380951, 74.66964, 74.071426, 73.571426, 72.979164, 72.508926, 72.25, 71.9375, 71.553574, 70.934525, 70.348213, 69.601189, 69.383926, 69.035713, 68.8125, 68.419647, 67.514877, 67.026779, 66.491074, 65.809525, 65.401787, 64.9375, 64.5625, 64.214287, 63.458332, 63.0625, 62.580357, 62.0625, 61.535713, 61.0625, 60.354168, 59.883926, 59.392857, 59, 58.491074, 57.934525, 57.357143, 56.583336, 56.258926, 55.785713, 55.258926, 54.696426, 54.25, 53.75, 53.375, 52.955357, 52.482143, 51.726192, 51.392857, 51.0625, 50.678574, 49.934525, 49.419643, 48.839287, 48.092262, 47.434525, 47, 46.75, 46.491074, 46.041668, 45.678574, 44.833336, 44.339283, 43.875, 43.5, 43.0625, 42.625, 42.0625, 41.517857, 41, 40.5, 40, 39.4375, 38.955357, 38.5, 38.125, 37.63393, 37.041668, 36.526787, 36, 35.446426, 34.955357, 34.4375, 34, 33.5, 32.892857, 32.321426, 31.767857, 31.3125, 30.8125, 30.375, 29.830357, 29.4375, 29, 28.5625, 28.0625, 27.309523, 26.946428, 26.4375, 26, 25.330357, 24.723213, 24.25, 23.705357, 23.25, 22.705357, 22.375, 21.875, 21.5, 21.0625, 20.491072, 19.809523, 19.383928, 18.875, 18.5, 18, 17.5, 17.125, 16.616072, 15.979167, 15.401785, 14.830357, 14.4375, 13.9375, 13.5, 13.125, 12.75, 12.348214, 11.422619, 10.857143, 10.25, 10.1875, 10.25, 10.5, 10.75, 10.875, 10.875, 10.9375, 10.9375, 10.9375, 11, 11, 11, 11, 11, 11, 11, 11, 11, 11, 11, 11, 11, 11, 11, 11, 10.9375, 10.9375, 10.9375, 10.9375, 10.875, 10.75, 10.6875, 10.625, 10.8125, 11.25, 11.875, 12.433036, 12.78125, 13.03125, 13.3125, 13.5625, 13.8125, 14, 14, 14, 14, 14, 14, 14.0625, 14.0625, 14.0625, 14, 13.821428, 13.136904, 11.821428, 11.321428, 11, 11, 11, 11, 11, 11, 11, 11, 11, 10.9375, 10.9375, 10.9375, 11, 11.0625, 11.0625, 11.0625, 11, 11, 11.0625, 11.0625, 11.0625, 11.0625, 11, 11.0625, 11.1875, 11.375, 11.4375, 11.375, 11.3125, 11.3125, 11.4375, 11.625, 11.8125, 11.875, 11.875, 11.9375, 11.9375, 12.1875, 12.333333, -10, -10, -10, -10, -10, -10, -10, -10, -10, -10, -10, -10, -10, -10, -10, -10, -10, -10, -10, -10, -10, -10, -10, -10, -10, -10, -10, -10, -10, -10, -10, -10, -10, -10, -10, -10, -10, -10, -10, -10, -10, -10, -10, -10, -10, -10, -10, -10, -10, -10, -10, 116, 116, 115.9375, 115.91666, -10, -10, -10, -10, -10, -10, -10, -10, -10, -10, -10, -10, -10, -10, -10, -10, -10, -10, -10, -10, -10, -10, -10, -10, -10, -10, -10, -10, -10, -10, -10, -10, -10, -10, -10, -10, -10, -10, -10, -10, -10, -10, -10, -10, -10, -10
-10, -10, -10, -10, -10, -10, -10, -10, -10, -10, -10, -10, -10, -10, -10, -10, -10, -10, -10, 79.5, 79.666664, 79.491074, 78.752975, 77.630959, 76.354172, 75.380951, 74.785713, 74.166664, 73.678574, 72.895828, 72.455353, 72.125, 71.8125, 71.4375, 70.955353, 70.401779, 69.663689, 69.258926, 68.973213, 68.75, 68.419647, 67.369041, 66.955353, 66.357147, 65.622025, 65.276787, 64.8125, 64.553574, 64.005951, 63.208332, 62.875, 62.4375, 61.892857, 61.464287, 61, 60.5625, 60.0625, 59.517857, 59, 58.4375, 58.080357, 57.607143, 56.886909, 56.300594, 55.75, 55.3125, 54.767857, 54.3125, 53.8125, 53.4375, 53.125, 52.607143, 51.788692, 51.276787, 50.9375, 50.636906, 49.800598, 49.348213, 48.745537, 48.002975, 47.205357, 46.8125, 46.5, 46.366074, 45.854168, 45.491074, 44.663692, 44.196426, 43.6875, 43.375, 42.875, 42.5, 42.0625, 41.5625, 41.0625, 40.446426, 39.892857, 39.4375, 39, 38.5625, 38.125, 37.57143, 36.979168, 36.508926, 36, 35.446426, 34.955357, 34.375, 33.892857, 33.4375, 32.830357, 32.321426, 31.767857, 31.3125, 30.8125, 30.4375, 29.9375, 29.5, 29.125, 28.625, 28.125, 27.535713, 27.1875, 26.6875, 26.1875, 25.410713, 24.785713, 24.25, 23.705357, 23.1875, 22.598213, 22.3125, 21.8125, 21.4375, 20.892857, 20.375, 19.830357, 19.4375, 18.9375, 18.5, 18, 17.5, 17.0625, 16.5625, 16.0625, 15.455357, 14.892857, 14.375, 13.830357, 13.4375, 13.0625, 12.75, 12.348214, 11.422619, 10.857143, 10.3125, 10.3125, 10.4375, 10.6875, 10.875, 10.9375, 10.875, 10.9375, 10.9375, 10.9375, 11, 11, 10.9375, 10.9375, 10.875, 10.875, 10.9375, 10.9375, 11, 11, 11, 11, 11, 11, 11, 11, 10.9375, 10.875, 10.8125, 10.75, 10.625, 10.5625, 10.5625, 10.625, 10.8125, 11.1875, 11.705357, 12.245536, 12.65625, 12.90625, 13.25, 13.5, 13.75, 14, 14, 14, 14, 14, 14, 14.0625, 14.0625, 14, 13.875, 13.602678, 12.900297, 11.852678, 11.370536, 11.0625, 11, 11, 11, 11, 11, 11, 11, 11, 10.875, 10.875, 10.875, 10.9375, 11.0625, 11.0625, 11.0625, 11, 11, 11.0625, 11.0625, 11.0625, 11.0625, 11, 11, 11.125, 11.375, 11.4375, 11.5, 11.5, 11.5, 11.5625, 11.6875, 11.8125, 11.8125, 11.8125, 11.8125, 11.8125, 12.0625, 12.3, -10, -10, -10, -10, -10, -10, -10, -10, -10, -10, -10, -10, -10, -10, -10, -10, -10, -10, -10, -10, -10, -10, -10, -10, -10, -10, -10, -10, -10, -10, -10, -10, -10, -10, -10, -10, -10, -10, -10, -10, -10, -10, -10, -10, -10, -10, -10, -10, -10, -10, -10, 116, 116, 115.875, 115.83333, -10, -10, -10, -10, -10, -10, -10, -10, -10, -10, -10, -10, -10, -10, -10, -10, -10, -10, -10, -10, -10, -10, -10, -10, -10, -10, -10, -10, -10, -10, -10, -10, -10, -10, -10, -10, -10, -10, -10, -10, -10, -10, -10, -10, -10, -10, -10, -10, -10, -10, -10, -10, -10, -10, -10, -10, -10, -10, -10, -10, -10, -10, -10, -10, -10, -10, -10, -10, -10, -10, -10, -10, -10, -10, -10, -10, -10, -10, -10, -10, -10, -10, -10, -10, -10, -10, -10, -10, -10, 79.375, 79.499992, 79.276787, 78.336311, 77.238098, 76.270836, 75.523811, 75.071426, 74.333328, 73.875, 73.083328, 72.642853, 72.205353, 71.90625, 71.59375, 71.205353, 70.589279, 69.913689, 69.383926, 68.869049, 68.633926, 68.285713, 67.226189, 66.830353, 66.169647, 65.267853, 64.955353, 64.5, 64.303574, 63.818455, 63.020832, 62.458332, 62.044643, 61.642857, 61.383926, 60.9375, 60.517857, 60.0625, 59.5625, 59.0625, 58.517857, 58.25, 57.794643, 57.136909, 56.550594, 55.991074, 55.416668, 54.875, 54.4375, 54, 53.5625, 53.25, 52.6875, 51.895836, 51.339287, 51, 50.627975, 49.654762, 49.205353, 48.59375, 47.99107, 47.169643, 46.75, 46.3125, 46.1875, 45.8125, 45.419643, 44.601192, 44.071426, 43.5625, 43.3125, 42.8125, 42.5, 42.0625, 41.5625, 41.0625, 40.446426, 39.892857, 39.4375, 39, 38.5625, 38.0625, 37.517857, 37.0625, 36.5625, 36.0625, 35.446426, 34.892857, 34.3125, 33.767857, 33.25, 32.660713, 32.3125, 31.8125, 31.4375, 30.9375, 30.5, 30, 29.5, 29.1875, 28.6875, 28.1875, 27.55357, 27.25, 26.741072, 26.104166, 25.357143, 24.723213, 24.25, 23.705357, 23.125, 22.535713, 22.25, 21.75, 21.375, 20.785713, 20.375, 19.875, 19.5, 19, 18.5, 18, 17.5, 17, 16.4375, 15.892857, 15.375, 14.830357, 14.3125, 13.723213, 13.3125, 12.875, 12.625, 12.223214, 11.404761, 10.857143, 10.4375, 10.4375, 10.5625, 10.8125, 11, 11, 11, 11, 11, 11, 11, 11, 10.9375, 10.9375, 10.8125, 10.75, 10.8125, 10.8125, 10.9375, 11, 11, 11, 11, 11, 11, 11, 10.9375, 10.8125, 10.6875, 10.625, 10.4375, 10.4375, 10.5, 10.5625, 10.8125, 11.125, 11.580357, 12.075893, 12.575893, 12.84375, 13.25, 13.5, 13.75, 14, 14, 14, 14, 14, 14, 14.0625, 14.0625, 13.9375, 13.75, 13.352678, 12.507441, 11.790178, 11.325893, 11.125, 11, 11, 11, 11, 11, 11, 11, 11, 10.8125, 10.8125, 10.875, 10.973214, 11.125, 11.125, 11.0625, 11, 11, 11.0625, 11.0625, 11.0625, 11.0625, 11, 11, 11.125, 11.375, 11.4375, 11.5625, 11.625, 11.5625, 11.625, 11.6875, 11.75, 11.75, 11.75, 11.6875, 11.6875, 11.9375, 12.133333, -10, -10, -10, -10, -10, -10, -10, -10, -10, -10, -10, -10, -10, -10, -10, -10, -10, -10, -10, -10, -10, -10, -10, -10, -10, -10, -10, -10, -10, -10, -10, -10, -10, -10, -10, -10, -10, -10, -10, -10, -10, -10, -10, -10, -10, -10, -10, -10, -10, -10, -10, 116, 116, 115.875, 115.83333, -10, -10, -10, -10, -10, -10, -10, -10, -10, -10, -10, -10, -10, -10, -10, -10, -10, -10, -10, -10, -10, -10, -10, -10, -10, -10, -10, -10, -10, -10, -10, -10, -10, -10, -10, -10, -10, -10, -10, -10, -10, -10, -10, -10, -10, -10
-10, -10, -10, -10, -10, -10, -10, -10, -10, -10, -10, -10, -10, -10, -10, -10, -10, -10, -10, 79.25, 79.333328, 79.080353, 77.632652, 76.833336, 76.208336, 75.666664, 75.491074, 74.833328, 74.125, 73.235115, 72.705353, 72.267853, 71.96875, 71.65625, 71.101189, 70.660713, 70.056549, 69.392853, 68.860123, 68.508926, 68.116074, 67.270828, 66.830353, 65.949409, 65.279762, 64.919647, 64.383926, 64.107147, 63.630955, 62.869045, 62.288689, 61.901787, 61.442856, 61.4375, 61.116074, 60.82143, 60.145832, 59.616074, 59.0625, 58.517857, 58.1875, 57.616074, 57.220238, 56.657742, 56.032738, 55.488094, 54.9375, 54.5, 54.0625, 53.5625, 53.1875, 52.633926, 51.979168, 51.392853, 51.0625, 50.627975, 49.654762, 49.142853, 48.53125, 47.91964, 47.252975, 46.8125, 46.375, 46.125, 45.6875, 45.303574, 44.622025, 44.125, 43.625, 43.3125, 42.8125, 42.4375, 41.955357, 41.5, 41, 40.383926, 39.785713, 39.375, 38.875, 38.5, 38, 37.5, 37.0625, 36.5625, 36.0625, 35.383926, 34.785713, 34.25, 33.705357, 33.3125, 32.767857, 32.4375, 31.9375, 31.5, 31, 30.5, 30, 29.5, 29.1875, 28.6875, 28.1875, 27.55357, 27.25, 26.732143, 25.958332, 25.357143, 24.767857, 24.3125, 23.723213, 23.1875, 22.598213, 22.3125, 21.8125, 21.3125, 20.607143, 20.142857, 19.6875, 19.375, 18.9375, 18.4375, 17.892857, 17.4375, 16.9375, 16.4375, 15.892857, 15.3125, 14.723214, 14.1875, 13.598213, 13.25, 12.8125, 12.5625, 12.116072, 11.395833, 10.821428, 10.5, 10.5, 10.625, 10.875, 11, 11, 11, 11, 11, 11, 11, 11, 10.9375, 10.9375, 10.75, 10.625, 10.625, 10.625, 10.8125, 10.9375, 11, 11, 11, 11, 11, 11, 10.9375, 10.8125, 10.6875, 10.625, 10.5, 10.5625, 10.625, 10.6875, 10.875, 11.0625, 11.392857, 11.790178, 12.471726, 12.772322, 13.25, 13.5, 13.75, 14, 14, 14, 14, 14, 14, 14, 13.9375, 13.75, 13.5, 13.03125, 12.03125, 11.611607, 11.21875, 11.125, 11, 11, 11, 11, 11, 11, 11, 11, 10.8125, 10.8125, 10.875, 10.973214, 11.125, 11.125, 11.0625, 11, 11, 11.0625, 11.0625, 11.0625, 11.0625, 11, 11, 11.0625, 11.25, 11.3125, 11.5, 11.625, 11.5625, 11.5625, 11.5, 11.5, 11.5, 11.5, 11.4375, 11.5, 11.75, 11.966667, -10, -10, -10, -10, -10, -10, -10, -10, -10, -10, -10, -10, -10, -10, -10, -10, -10, -10, -10, -10, -10, -10, -10, -10, -10, -10, -10, -10, -10, -10, -10, -10, -10, -10, -10, -10, -10, -10, -10, -10, -10, -10, -10, -10, -10, -10, -10, -10, -10, -10, -10, -10, 116, 115.875, 115.83333, -10, -10, -10, -10, -10, -10, -10, -10, -10, -10, -10, -10, -10, -10, -10, -10, -10, -10, -10, -10, -10, -10, -10, -10, -10, -10, -10, -10, -10, -10, -10, -10, -10, -10, -10, -10, -10, -10, -10, -10, -10, -10, -10, -10, -10, -10, -10, -10, -10, -10, -10, -10, -10, -10, -10, -10, -10, -10, -10, -10, -10, -10, -10, -10, -10, -10, -10, -10, -10, -10, -10, -10, -10, -10, -10, -10, -10, -10, -10, -10, -10, -10, -10, -10, -10, -10, -10, -10, -10, 79.125, 79.083328, 78.705353, 77.39286, 76.8125, 76.4375, 76.285713, 75.961311, 74.999992, 74.125, 73.380951, 72.946426, 72.517853, 72.21875, 71.852676, 70.997025, 70.589287, 70.160713, 69.446426, 68.824402, 68.383926, 67.973221, 67.318451, 67.008926, 65.958336, 65.315475, 64.919647, 64.446426, 64.160713, 63.583336, 63.10714, 62.476189, 62.089287, 61.505356, 61.375, 61.00893, 60.69643, 59.989582, 59.459824, 58.90625, 58.424107, 58.0625, 57.5625, 57.366074, 56.836311, 56.238094, 55.446426, 54.866074, 54.4375, 54.0625, 53.5625, 53.1875, 52.705357, 52.241074, 51.488098, 51.0625, 50.511906, 49.630951, 49.071426, 48.46875, 47.85714, 47.297619, 46.919643, 46.392857, 46.133926, 45.6875, 45.375, 44.88393, 44.291668, 43.75, 43.3125, 42.696426, 42.205357, 41.830357, 41.4375, 41.0625, 40.508926, 39.848213, 39.392857, 38.875, 38.5625, 38.107143, 37.517857, 37, 36.5, 36.0625, 35.5, 34.955357, 34.392857, 33.830357, 33.375, 32.830357, 32.4375, 32, 31.553572, 30.916666, 30.446428, 29.9375, 29.5, 29.125, 28.625, 28.1875, 27.589285, 27.104166, 26.544643, 25.770832, 25.348213, 24.875, 24.4375, 23.848213, 23.196428, 22.598213, 22.25, 21.75, 21.1875, 20.482143, 20.080357, 19.625, 19.3125, 18.830357, 18.3125, 17.767857, 17.375, 16.9375, 16.5, 15.955357, 15.321428, 14.723214, 14.125, 13.535713, 13.1875, 12.6875, 12.4375, 11.9375, 11.375, 10.785714, 10.5625, 10.5625, 10.6875, 10.9375, 11, 11, 11, 11, 11, 11, 11, 11, 10.9375, 10.9375, 10.75, 10.625, 10.625, 10.625, 10.8125, 10.9375, 11, 11, 11, 11, 11, 11, 11, 10.9375, 10.8125, 10.6875, 10.5625, 10.625, 10.75, 10.9375, 11.0625, 11.125, 11.25, 11.508928, 12.127976, 12.491072, 13.116072, 13.482143, 13.75, 14, 14, 14, 14, 14, 14, 13.9375, 13.8125, 13.5625, 13.3125, 12.959822, 12.260417, 11.852678, 11.361607, 11.1875, 11, 11, 11, 11, 11, 11, 11, 11, 10.875, 10.875, 10.9375, 10.973214, 11.0625, 11.0625, 11, 11, 11, 11, 11, 11, 11, 11, 11, 11, 11.125, 11.1875, 11.4375, 11.625, 11.5625, 11.5, 11.375, 11.3125, 11.3125, 11.3125, 11.25, 11.375, 11.6875, 11.966667, -10, -10, -10, -10, -10, -10, -10, -10, -10, -10, -10, -10, -10, -10, -10, -10, -10, -10, -10, -10, -10, -10, -10, -10, -10, -10, -10, -10, -10, -10, -10, -10, -10, -10, -10, -10, -10, -10, -10, -10, -10, -10, -10, -10, -10, -10, -10, -10, -10, -10, -10, -10, 116, 115.9375, 115.91666, 116, -10, -10, -10, -10, -10, -10, -10, -10, -10, -10, -10, -10, -10, -10, -10, -10, -10, -10, -10, -10, -10, -10, -10, -10, -10, -10, -10, -10, -10, -10, -10, -10, -10, -10, -10, -10, -10, -10, -10, -10, -10, -10, -10, -10, -10
-10, -10, -10, -10, -10, -10, -10, -10, -10, -10, -10, -10, -10, -10, -10, -10, -10, -10, -10, 78.625, 78.5, 78.133926, 77.101196, 76.660713, 76.375, 76.285713, 75.961311, 74.999992, 74.125, 73.589287, 73.15625, 72.736603, 72.4375, 72.004463, 70.976189, 70.464287, 70.035713, 69.508926, 68.824402, 68.508926, 68.098221, 67.651787, 67.287498, 66.321426, 65.494049, 65.026787, 64.508926, 64.160713, 63.583336, 63.178566, 62.538689, 62.232143, 61.799999, 61.625, 61.029762, 60.57143, 59.864582, 59.334824, 58.78125, 58.361607, 58, 57.5, 57.3125, 56.982143, 56.380951, 55.321426, 54.723217, 54.3125, 54, 53.5625, 53.125, 52.705357, 52.285717, 51.488098, 50.991074, 50.366074, 49.639881, 49.125, 48.5625, 47.946426, 47.589287, 47.160713, 46.497025, 46.071426, 45.625, 45.3125, 44.866074, 44.354168, 43.875, 43.428574, 42.675594, 42.151787, 41.705357, 41.375, 41, 40.5625, 39.955357, 39.455357, 39, 38.6875, 38.285713, 37.559525, 37, 36.5, 36.0625, 35.5, 35.017857, 34.517857, 34, 33.383926, 32.785713, 32.375, 31.9375, 31.491072, 30.738094, 30.214285, 29.75, 29.375, 29, 28.5625, 28.125, 27.508928, 26.934523, 26.419643, 25.645832, 25.330357, 24.9375, 24.5, 23.910713, 23.205357, 22.598213, 22.25, 21.8125, 21.3125, 20.651787, 20.160713, 19.75, 19.366072, 18.747023, 18.258928, 17.705357, 17.375, 16.9375, 16.5, 15.955357, 15.321428, 14.723214, 14.125, 13.535713, 13.125, 12.625, 12.375, 11.875, 11.3125, 10.678572, 10.5, 10.5, 10.6875, 10.875, 10.875, 10.875, 10.875, 10.9375, 11, 11, 10.9375, 10.9375, 10.9375, 10.9375, 10.875, 10.75, 10.6875, 10.6875, 10.8125, 10.9375, 11, 11, 11, 11, 11, 11, 11, 11, 10.9375, 10.8125, 10.75, 10.75, 10.8125, 10.9375, 11, 11, 11.125, 11.446428, 12.110119, 12.491072, 13.116072, 13.482143, 13.75, 14, 14, 14, 14, 14, 14, 13.90625, 13.71875, 13.46875, 13.21875, 12.857143, 12.020834, 11.642857, 11.205357, 11.125, 11, 11, 11, 11, 11, 11, 11.0625, 11.125, 11.125, 11.1875, 11.1875, 11.160714, 11.125, 11.0625, 11, 11, 11, 11, 11, 11, 11, 11, 11, 11, 11.0625, 11.125, 11.3125, 11.4375, 11.375, 11.3125, 11.1875, 11.1875, 11.1875, 11.1875, 11.25, 11.375, 11.75, 12, -10, -10, -10, -10, -10, -10, -10, -10, -10, -10, -10, -10, -10, -10, -10, -10, -10, -10, -10, -10, -10, -10, -10, -10, -10, -10, -10, -10, -10, -10, -10, -10, -10, -10, -10, -10, -10, -10, -10, -10, -10, -10, -10, -10, -10, -10, -10, -10, -10, -10, -10, -10, 116, 116, 115.9375, 115.88889, -10, -10, -10, -10, -10, -10, -10, -10, -10, -10, -10, -10, -10, -10, -10, -10, -10, -10, -10, -10, -10, -10, -10, -10, -10, -10, -10, -10, -10, -10, -10, -10, -10, -10, -10, -10, -10, -10, -10, -10, -10, -10, -10, -10, -10, -10, -10, -10, -10, -10, -10, -10, -10, -10, -10, -10, -10, -10, -10, -10, -10, -10, -10, -10, -10, -10, -10, -10, -10, -10, -10, -10, -10, -10, -10, -10, -10, -10, -10, -10, -10, -10, -10, -10, -10, -10, -10, -10, 78.291664, 78.125, 77.741074, 77.038696, 76.678574, 76.4375, 76.348213, 75.961311, 74.999992, 74.053574, 73.526787, 73.09375, 72.71875, 72.46875, 71.973213, 70.895836, 70.285713, 69.741074, 69.321426, 68.803574, 68.5625, 68.169647, 67.568451, 67.242859, 66.35714, 65.678574, 65.205353, 64.696426, 64.285713, 63.520836, 63, 62.473213, 62.1875, 61.737499, 61.5, 60.904762, 60.428574, 59.623512, 58.938988, 58.46875, 58.15625, 57.875, 57.4375, 57.25, 56.857143, 56.264881, 55.226189, 54.61607, 54.25, 53.875, 53.5, 53.125, 52.75, 52.348217, 51.505951, 50.928574, 50.3125, 49.723213, 49.1875, 48.642857, 48.1875, 47.875, 47.535713, 46.863098, 46.238098, 45.75, 45.4375, 44.991074, 44.479168, 44, 43.553574, 42.845242, 42.16964, 41.705357, 41.375, 41, 40.5625, 40.017857, 39.517857, 39.0625, 38.705357, 38.285713, 37.559525, 37, 36.5, 36.0625, 35.5, 35.080357, 34.57143, 33.833332, 33.25, 32.705357, 32.3125, 31.9375, 31.491072, 30.738094, 30.151785, 29.642857, 29.3125, 28.9375, 28.5625, 28.125, 27.508928, 26.872023, 26.366072, 25.729166, 25.383928, 25, 24.5, 23.910713, 23.267857, 22.660713, 22.3125, 21.875, 21.34375, 20.727678, 20.129463, 19.65625, 19.133928, 18.559523, 18.071428, 17.580357, 17.3125, 16.875, 16.5625, 16.0625, 15.383928, 14.785714, 14.1875, 13.642857, 13.25, 12.75, 12.4375, 11.9375, 11.3125, 10.678572, 10.5, 10.5, 10.6875, 10.875, 10.8125, 10.8125, 10.8125, 10.875, 11, 11, 10.875, 10.875, 10.875, 10.875, 10.9375, 10.875, 10.8125, 10.8125, 10.875, 10.9375, 11, 11, 11, 10.9375, 10.9375, 10.9375, 10.9375, 11, 10.9375, 10.8125, 10.8125, 10.8125, 10.875, 10.9375, 10.9375, 11, 11.241072, 11.616072, 12.190475, 12.553572, 13.116072, 13.544643, 13.848214, 14.0625, 14.0625, 14, 14, 14, 13.9375, 13.78125, 13.59375, 13.40625, 13.28125, 13.044643, 12.342262, 11.663691, 11.214285, 11.0625, 11, 11, 11, 11, 11, 11, 11.0625, 11.125, 11.1875, 11.25, 11.1875, 11.125, 11.0625, 11, 11, 11, 11, 11, 11, 11, 11, 11, 11, 11, 11, 11, 11.125, 11.1875, 11.1875, 11.1875, 11.0625, 11.125, 11.1875, 11.25, 11.375, 11.5, 11.875, 12.133333, -10, -10, -10, -10, -10, -10, -10, -10, -10, -10, -10, -10, -10, -10, -10, -10, -10, -10, -10, -10, -10, -10, -10, -10, -10, -10, -10, -10, -10, -10, -10, -10, -10, -10, -10, -10, -10, -10, -10, -10, -10, -10, -10, -10, -10, -10, -10, -10, -10, -10, -10, -10, 116, 116, 115.9375, 115.91666, -10, -10, -10, -10, -10, -10, -10, -10, -10, -10, -10, -10, -10, -10, -10, -10, -10, -10, -10, -10, -10, -10, -10, -10, -10, -10, -10, -10, -10, -10, -10, -10, -10, -10, -10, -10, -10, -10, -10, -10, -10, -10, -10, -10, -10
-10, -10, -10, -10, -10, -10, -10, -10, -10, -10, -10, -10, -10, -10, -10, -10, -10, -10, 77.75, 77.875, 77.6875, 77.25, 76.892853, 76.625, 76.375, 76.241074, 75.648811, 74.562492, 73.821426, 73.375, 73.03125, 72.65625, 72.34375, 71.848213, 70.9375, 70.267853, 69.705353, 69.3125, 68.767853, 68.5625, 68.169647, 67.505951, 67.171425, 66.523804, 65.75, 65.232147, 64.767853, 64.357147, 63.583336, 63.035713, 62.288689, 62.044643, 61.6875, 61.321426, 60.654762, 59.916668, 59.361607, 58.688988, 58.135418, 57.852676, 57.625, 57.375, 57.125, 56.8125, 56.285713, 55.279762, 54.67857, 54.25, 53.875, 53.5, 53.1875, 52.8125, 52.410717, 51.523811, 50.928574, 50.375, 49.830357, 49.3125, 48.830357, 48.366074, 47.916668, 47.535713, 46.863098, 46.300598, 45.875, 45.553574, 44.970238, 44.425594, 44, 43.678574, 43.023808, 42.190475, 41.741074, 41.3125, 40.9375, 40.5625, 40.0625, 39.580357, 39.125, 38.705357, 38.285713, 37.559525, 37, 36.5, 36.0625, 35.5625, 35.1875, 34.57143, 33.788689, 33.125, 32.580357, 32.25, 31.9375, 31.616072, 30.916666, 30.193451, 29.642857, 29.3125, 29, 28.616072, 28.041666, 27.455357, 26.747023, 26.25, 25.705357, 25.375, 25, 24.5625, 24.017857, 23.267857, 22.61607, 22.25, 21.8125, 21.34375, 20.799107, 20.236607, 19.71875, 19.133928, 18.497023, 18.008928, 17.5625, 17.3125, 16.875, 16.5625, 16.0625, 15.446428, 14.892857, 14.3125, 13.767857, 13.3125, 12.8125, 12.4375, 11.9375, 11.375, 10.785713, 10.5, 10.4375, 10.5625, 10.6875, 10.625, 10.625, 10.5625, 10.625, 10.8125, 10.875, 10.8125, 10.875, 10.875, 10.875, 11, 11, 11, 11, 11, 11, 11, 11, 11, 10.9375, 10.9375, 10.9375, 10.9375, 11, 10.875, 10.75, 10.75, 10.75, 10.875, 10.9375, 10.9375, 11.071428, 11.574405, 11.973214, 12.357143, 12.625, 13.116072, 13.544643, 13.848214, 14.0625, 14.0625, 14, 14, 14, 13.9375, 13.71875, 13.59375, 13.46875, 13.40625, 13.303572, 12.747024, 11.800594, 11.357143, 11.1875, 11.125, 11.125, 11.0625, 11, 11, 11, 11.0625, 11.125, 11.1875, 11.25, 11.1875, 11.125, 11.0625, 11, 11, 11, 11, 11, 11, 11, 11.0625, 11.0625, 11.0625, 11.0625, 11, 11, 11.0625, 11.0625, 11.0625, 11.0625, 11.0625, 11.25, 11.375, 11.5, 11.625, 11.6875, 12.0625, 12.299999, -10, -10, -10, -10, -10, -10, -10, -10, -10, -10, -10, -10, -10, -10, -10, -10, -10, -10, -10, -10, -10, -10, -10, -10, -10, -10, -10, -10, -10, -10, -10, -10, -10, -10, -10, -10, -10, -10, -10, -10, -10, -10, -10, -10, -10, -10, -10, -10, -10, -10, -10, -10, 116, 116, 115.9375, 115.91666, -10, -10, -10, -10, -10, -10, -10, -10, -10, -10, -10, -10, -10, -10, -10, -10, -10, -10, -10, -10, -10, -10, -10, -10, -10, -10, -10, -10, -10, -10, -10, -10, -10, -10, -10, -10, -10, -10, -10, -10, -10, -10, -10, -10, -10, -10, -10, -10, -10, -10, -10, -10, -10, -10, -10, -10, -10, -10, -10, -10, -10, -10, -10, -10, -10, -10, -10, -10, -10, -10, -10, -10, -10, -10, -10, -10, -10, -10, -10, -10, -10, -10, -10, -10, -10, -10, -10, 77.75, 77.5, 77.354172, 77, 76.75, 76.5, 76.1875, 75.955353, 75.273811, 74.467255, 73.830353, 73.4375, 72.96875, 72.53125, 72.15625, 71.651787, 70.979164, 70.321426, 69.767853, 69.25, 68.660713, 68.4375, 68, 67.416664, 66.992859, 66.514877, 65.714287, 65.232147, 64.767853, 64.357147, 63.583336, 62.964287, 62.163689, 61.8125, 61.5, 61.196426, 60.636906, 59.979168, 59.410713, 58.55357, 57.970238, 57.633926, 57.4375, 57.125, 56.875, 56.5, 56.017857, 55.258926, 54.6875, 54.3125, 53.875, 53.5, 53.1875, 52.741074, 52.148811, 51.35714, 50.803574, 50.3125, 49.6875, 49.25, 48.767857, 48.428574, 47.916668, 47.491074, 46.863098, 46.291668, 45.875, 45.482143, 44.708336, 44.330357, 43.9375, 43.741074, 43.202381, 42.360119, 41.75893, 41.25, 40.8125, 40.4375, 40, 39.580357, 39.1875, 38.705357, 38.241074, 37.559525, 37, 36.5, 36, 35.5, 35.1875, 34.607143, 33.705357, 33.071426, 32.517857, 32.25, 31.875, 31.5625, 31, 30.247023, 29.705357, 29.3125, 29, 28.616072, 27.979166, 27.401787, 26.892857, 26.4375, 25.892857, 25.383928, 24.892857, 24.4375, 23.892857, 23.321428, 22.723213, 22.375, 21.9375, 21.40625, 20.816963, 20.174107, 19.65625, 19.071428, 18.541666, 18.116072, 17.580357, 17.25, 16.75, 16.4375, 15.9375, 15.5, 15, 14.4375, 13.892857, 13.375, 12.875, 12.375, 11.830357, 11.3125, 10.767857, 10.4375, 10.3125, 10.375, 10.4375, 10.375, 10.375, 10.375, 10.4375, 10.625, 10.75, 10.6875, 10.8125, 10.875, 10.875, 11, 11, 11, 11, 11, 11, 11, 11, 11, 10.9375, 10.9375, 10.875, 10.875, 10.9375, 10.875, 10.875, 10.875, 10.875, 10.9375, 10.9375, 10.9375, 11.142857, 11.907738, 12.401786, 12.794643, 12.9375, 13.1875, 13.5, 13.785714, 14, 14.0625, 14, 13.928572, 13.75, 13.75, 13.638393, 13.65625, 13.65625, 13.65625, 13.553572, 12.952381, 11.821428, 11.464286, 11.25, 11.3125, 11.25, 11.125, 11.0625, 11, 11, 11.0625, 11.125, 11.1875, 11.25, 11.1875, 11.125, 11.0625, 11, 11, 11, 11, 11, 11, 11, 11.125, 11.125, 11.125, 11.125, 11, 11, 11, 11, 11, 11, 11.0625, 11.3125, 11.5, 11.6875, 11.8125, 11.75, 12, 12.133333, -10, -10, -10, -10, -10, -10, -10, -10, -10, -10, -10, -10, -10, -10, -10, -10, -10, -10, -10, -10, -10, -10, -10, -10, -10, -10, -10, -10, -10, -10, -10, -10, -10, -10, -10, -10, -10, -10, -10, -10, -10, -10, -10, -10, -10, -10, -10, -10, -10, -10, -10, -10, 116, 116, 115.9375, 115.91666, -10, -10, -10, -10, -10, -10, -10, -10, -10, -10, -10, -10, -10, -10, -10, -10, -10, -10, -10, -10, -10, -10, -10, -10, -10, -10, -10, -10, -10, -10, -10, -10, -10, -10, -10, -10, -10, -10, -10, -10, -10, -10, -10, -10, -10
-10, -10, -10, -10, -10, -10, -10, -10, -10, -10, -10, -10, -10, -10, -10, -10, -10, -10, -10, 77.5, 77.354172, 77.0625, 76.8125, 76.5625, 76.1875, 75.767853, 74.916664, 74.193451, 73.642853, 73.3125, 72.875, 72.5, 72.0625, 71.5625, 71.0625, 70.446426, 69.892853, 69.25, 68.616074, 68.3125, 67.8125, 67.291664, 66.955353, 66.401787, 65.702377, 65.196426, 64.767853, 64.357147, 63.583336, 62.892857, 61.976189, 61.455357, 61.0625, 60.75, 60.491074, 59.979168, 59.473213, 58.625, 57.80357, 57.392853, 57.125, 56.8125, 56.5625, 56.116074, 55.541668, 55.080353, 54.580357, 54.25, 53.8125, 53.4375, 53.116074, 52.470242, 51.863098, 51.223213, 50.8125, 50.357143, 49.642857, 49.125, 48.705357, 48.410717, 47.747025, 47.383926, 46.88393, 46.416668, 46, 45.398811, 44.654762, 44.267857, 43.875, 43.6875, 43.285713, 42.205357, 41.64286, 41.0625, 40.6875, 40.375, 40, 39.642857, 39.1875, 38.598213, 38.0625, 37.455357, 36.892857, 36.4375, 35.9375, 35.5, 35.125, 34.544643, 33.705357, 33.25, 32.803574, 32.354168, 31.9375, 31.625, 31.178572, 30.479166, 29.892857, 29.4375, 29.0625, 28.616072, 27.979166, 27.464287, 27, 26.5, 25.955357, 25.321428, 24.723213, 24.3125, 23.767857, 23.375, 22.830357, 22.375, 21.830357, 21.21875, 20.629463, 20.03125, 19.53125, 19.017857, 18.6875, 18.294643, 17.705357, 17.196428, 16.642857, 16.375, 15.875, 15.5, 15, 14.5, 14, 13.5, 13, 12.375, 11.785713, 11.25, 10.75, 10.375, 10.25, 10.25, 10.3125, 10.3125, 10.25, 10.25, 10.3125, 10.4375, 10.625, 10.6875, 10.8125, 10.9375, 10.9375, 10.9375, 10.875, 10.875, 10.875, 10.9375, 11, 11, 11, 11, 10.9375, 10.9375, 10.875, 10.875, 11, 10.9375, 11, 11, 10.9375, 11, 10.9375, 11, 11.330357, 12.202381, 12.651786, 12.9375, 13, 13.125, 13.375, 13.598214, 13.8125, 13.9375, 13.857143, 13.595239, 13.321428, 13.3125, 13.294643, 13.5, 13.75, 13.910714, 13.9375, 13.598214, 12.46875, 12.120536, 11.78125, 11.71875, 11.5, 11.3125, 11.1875, 11.0625, 11.0625, 11, 11, 11, 11, 11, 11.0625, 11.0625, 11.0625, 11.0625, 11, 11, 11, 11, 11.0625, 11.1875, 11.1875, 11.1875, 11.125, 11, 11, 11, 11, 11, 11, 11.0625, 11.3125, 11.5625, 11.8125, 11.875, 11.75, 11.875, 11.883333, -10, -10, -10, -10, -10, -10, -10, -10, -10, -10, -10, -10, -10, -10, -10, -10, -10, -10, -10, -10, -10, -10, -10, -10, -10, -10, -10, -10, -10, -10, -10, -10, -10, -10, -10, -10, -10, -10, -10, -10, -10, -10, -10, -10, -10, -10, -10, -10, -10, -10, -10, -10, 116, 116, 116, 116, -10, -10, -10, -10, -10, -10, -10, -10, -10, -10, -10, -10, -10, -10, -10, -10, -10, -10, -10, -10, -10, -10, -10, -10, -10, -10, -10, -10, -10, -10, -10, -10, -10, -10, -10, -10, -10, -10, -10, -10, -10, -10, -10, -10, -10, -10, -10, -10, -10, -10, -10, -10, -10, -10, -10, -10, -10, -10, -10, -10, -10, -10, -10, -10, -10, -10, -10, -10, -10, -10, -10, -10, -10, -10, -10, -10, -10, -10, -10, -10, -10, -10, -10, -10, -10, -10, -10, -10, 77.458336, 77.395836, 77.169647, 76.767853, 76.604164, 76.275002, 75.5625, 74.630951, 73.919647, 73.455353, 73.1875, 72.803574, 72.375, 71.9375, 71.4375, 71, 70.375, 69.9375, 69.1875, 68.571426, 68.151787, 67.462502, 67.303574, 66.875, 66.473213, 65.702377, 65.267853, 64.821426, 64.273811, 63.592262, 63, 62, 61.464283, 61, 60.6875, 60.366074, 59.791668, 59.294643, 58.583336, 57.74107, 57.330353, 56.9375, 56.580357, 56.25, 55.741074, 55.122025, 54.821426, 54.4375, 54.125, 53.75, 53.3125, 52.928574, 52.282742, 51.675598, 51.142857, 50.8125, 50.410717, 49.559525, 49.133926, 48.8125, 48.598217, 47.889881, 47.133926, 46.5625, 46.25, 45.928574, 45.273811, 44.592262, 44.142857, 43.767857, 43.5625, 43.107143, 41.979168, 41.535713, 40.973213, 40.580357, 40.321426, 39.875, 39.580357, 39.125, 38.580357, 38.0625, 37.392857, 36.785713, 36.375, 35.9375, 35.5625, 35.125, 34.508926, 33.872025, 33.383926, 32.883926, 32.416668, 31.9375, 31.625, 31.178572, 30.541666, 30, 29.5, 29.0625, 28.553572, 27.916666, 27.446428, 27, 26.5, 25.955357, 25.321428, 24.723213, 24.375, 23.875, 23.375, 22.785713, 22.3125, 21.767857, 21.1875, 20.553572, 20, 19.625, 19.25, 18.875, 18.398809, 17.767857, 17.133928, 16.598213, 16.3125, 15.8125, 15.4375, 14.892857, 14.4375, 13.9375, 13.5, 13.0625, 12.4375, 11.848213, 11.196428, 10.642857, 10.3125, 10.125, 10.125, 10.125, 10.125, 10.125, 10.125, 10.25, 10.3125, 10.5, 10.625, 10.75, 10.9375, 10.9375, 10.9375, 10.875, 10.875, 10.875, 10.9375, 11, 11, 11, 11, 11, 11, 10.9375, 10.9375, 11, 10.9375, 11, 11, 10.9375, 11, 11, 11.125, 11.517857, 12.380953, 12.732143, 13, 12.9375, 13, 13.125, 13.25, 13.5, 13.6875, 13.642857, 13.238095, 12.964285, 13, 13.107143, 13.4375, 13.8125, 14.008928, 14.0625, 13.839285, 13.178572, 12.892858, 12.197917, 11.96875, 11.6875, 11.5, 11.3125, 11.1875, 11.125, 11, 11, 11, 11, 11, 11.0625, 11.0625, 11.0625, 11.0625, 11, 11, 11, 11, 11.0625, 11.1875, 11.1875, 11.1875, 11.125, 11, 11, 11, 11, 11, 11, 11.0625, 11.3125, 11.5625, 11.8125, 11.875, 11.75, 11.8125, 11.75, -10, -10, -10, -10, -10, -10, -10, -10, -10, -10, -10, -10, -10, -10, -10, -10, -10, -10, -10, -10, -10, -10, -10, -10, -10, -10, -10, -10, -10, -10, -10, -10, -10, -10, -10, -10, -10, -10, -10, -10, -10, -10, -10, -10, -10, -10, -10, -10, -10, -10, -10, -10, 116, 116, 116, 116, -10, -10, -10, -10, -10, -10, -10, -10, -10, -10, -10, -10, -10, -10, -10, -10, -10, -10, -10, -10, -10, -10, -10, -10, -10, -10, -10, -10, -10, -10, -10, -10, -10, -10, -10, -10, -10, -10, -10, -10, -10, -10, -10, -10, -10
-10, -10, -10, -10, -10, -10, -10, -10, -10, -10, -10, -10, -10, -10, -10, -10, -10, -10, -10, 77.75, 77.583336, 77.303574, 76.79464, 76.666664, 76.525002, 75.883926, 74.672615, 74, 73.5, 73.25, 72.866074, 72.375, 71.9375, 71.4375, 71, 70.375, 70, 69.303574, 68.595238, 68.089287, 67.275002, 67.116074, 66.625, 66.241074, 65.514877, 65.142853, 64.803574, 64.273811, 63.529762, 62.991074, 62.220238, 61.523808, 61.071426, 60.6875, 60.366074, 59.708332, 59.151787, 58.404762, 57.761906, 57.383926, 56.9375, 56.535713, 56.1875, 55.616074, 54.997025, 54.589287, 54.25, 54, 53.6875, 53.25, 52.758926, 52.157742, 51.613098, 51.1875, 50.875, 50.357143, 49.452381, 49.071426, 48.6875, 48.544643, 47.973213, 47.196426, 46.580357, 46.1875, 45.866074, 45.220242, 44.738098, 44.321426, 43.684525, 43.383926, 42.928574, 42.074406, 41.523811, 40.973213, 40.580357, 40.321426, 39.875, 39.580357, 39.1875, 38.642857, 38.125, 37.339287, 36.678574, 36.3125, 35.9375, 35.616074, 35.041668, 34.51786, 33.916668, 33.446426, 32.901787, 32.416668, 31.9375, 31.553572, 30.916666, 30.446428, 30, 29.5625, 29.0625, 28.517857, 28, 27.4375, 26.955357, 26.5, 26, 25.383928, 24.785713, 24.375, 23.9375, 23.491072, 22.809525, 22.321428, 21.767857, 21.25, 20.660713, 20.125, 19.75, 19.3125, 18.821428, 18.291666, 17.705357, 17.071428, 16.598213, 16.3125, 15.8125, 15.4375, 14.892857, 14.4375, 13.9375, 13.5, 13.125, 12.5, 11.919641, 11.029762, 10.464286, 10.1875, 10.125, 10.1875, 10.1875, 10.25, 10.25, 10.25, 10.375, 10.375, 10.5, 10.625, 10.75, 10.9375, 10.9375, 10.9375, 10.875, 10.875, 10.875, 10.9375, 11, 11, 11, 11, 11, 11, 10.9375, 10.9375, 11, 11, 11.0625, 11.0625, 11, 11, 11, 11.196428, 11.779761, 12.476191, 12.803572, 13, 12.9375, 12.9375, 13, 13.125, 13.375, 13.625, 13.642857, 13.238095, 12.901785, 12.875, 12.982143, 13.3125, 13.75, 14.008928, 14.125, 14.017857, 13.552083, 13.263393, 12.40625, 12.022322, 11.6875, 11.5625, 11.4375, 11.3125, 11.1875, 11, 11, 11, 11, 11, 11.0625, 11.0625, 11.0625, 11.0625, 11, 11, 11, 11, 11.0625, 11.125, 11.125, 11.125, 11.0625, 11, 11, 11, 11, 11, 11, 11, 11.25, 11.5, 11.75, 11.8125, 11.6875, 11.6875, 11.583333, -10, -10, -10, -10, -10, -10, -10, -10, -10, -10, -10, -10, -10, -10, -10, -10, -10, -10, -10, -10, -10, -10, -10, -10, -10, -10, -10, -10, -10, -10, -10, -10, -10, -10, -10, -10, -10, -10, -10, -10, -10, -10, -10, -10, -10, -10, -10, -10, -10, -10, -10, -10, 116, 116, 116, 116, -10, -10, -10, -10, -10, -10, -10, -10, -10, -10, -10, -10, -10, -10, -10, -10, -10, -10, -10, -10, -10, -10, -10, -10, -10, -10, -10, -10, -10, -10, -10, -10, -10, -10, -10, -10, -10, -10, -10, -10, -10, -10, -10, -10, -10, -10, -10, -10, -10, -10, -10, -10, -10, -10, -10, -10, -10, -10, -10, -10, -10, -10, -10, -10, -10, -10, -10, -10, -10, -10, -10, -10, -10, -10, -10, -10, -10, -10, -10, -10, -10, -10, -10, -10, -10, -10, -10, -10, 78.125, 77.900002, 77.407738, 76.79464, 76.604164, 76.462502, 75.883926, 74.934525, 74.09523, 73.5625, 73.25, 72.928574, 72.5625, 72.1875, 71.604164, 71.166664, 70.392853, 70.071426, 69.553574, 68.952377, 68.151787, 67.301788, 66.991074, 66.4375, 66.071426, 65.434525, 65.017853, 64.678574, 64.095238, 63.425594, 62.88393, 62.220238, 61.559521, 60.925594, 60.5, 60.116074, 59.458332, 59.00893, 58.571426, 58.011906, 57.488098, 57.008926, 56.598213, 56.25, 55.741074, 55.050594, 54.526787, 54.25, 53.9375, 53.6875, 53.1875, 52.589287, 52.041668, 51.633926, 51.3125, 51, 50.419643, 49.595238, 49.133926, 48.75, 48.482143, 47.910713, 47.133926, 46.5625, 46.1875, 45.866074, 45.229168, 44.946426, 44.5, 43.809525, 43.401787, 42.928574, 42.074406, 41.523811, 40.973213, 40.517857, 40.258926, 39.8125, 39.5625, 39.125, 38.580357, 38.125, 37.383926, 36.741074, 36.330357, 35.9375, 35.616074, 35.041668, 34.526787, 34.125, 33.625, 33.026787, 32.434525, 32, 31.616072, 30.979166, 30.464285, 30.0625, 29.616072, 28.979166, 28.392857, 27.875, 27.3125, 26.767857, 26.3125, 25.8125, 25.375, 24.830357, 24.4375, 24, 23.491072, 22.809525, 22.321428, 21.767857, 21.3125, 20.767857, 20.25, 19.9375, 19.491072, 18.800594, 18.184525, 17.6875, 17.133928, 16.660713, 16.375, 15.875, 15.4375, 14.892857, 14.4375, 13.9375, 13.5, 13.1875, 12.625, 12.089285, 11.101191, 10.482143, 10.1875, 10.1875, 10.3125, 10.3125, 10.375, 10.3125, 10.1875, 10.3125, 10.3125, 10.4375, 10.625, 10.75, 10.9375, 10.9375, 10.9375, 10.875, 10.8125, 10.75, 10.8125, 10.875, 10.9375, 11, 11, 11, 11, 11, 11, 11.0625, 11.0625, 11.0625, 11.0625, 11, 11, 11.0625, 11.383928, 12.065475, 12.580357, 12.875, 13, 12.9375, 12.9375, 12.9375, 13.0625, 13.3125, 13.5625, 13.642857, 13.372024, 13.1875, 12.955357, 12.946428, 13.1875, 13.625, 13.946428, 14.125, 14.125, 13.96875, 13.763393, 12.924107, 12.084822, 11.669643, 11.5625, 11.4375, 11.375, 11.25, 11, 11, 11, 11, 11, 11.0625, 11.0625, 11.0625, 11.0625, 11, 11, 11.0625, 11.125, 11.25, 11.3125, 11.3125, 11.3125, 11.1875, 11.125, 11.0625, 11, 11, 11, 11, 11, 11.1875, 11.375, 11.5625, 11.5625, 11.5, 11.5625, 11.5, -10, -10, -10, -10, -10, -10, -10, -10, -10, -10, -10, -10, -10, -10, -10, -10, -10, -10, -10, -10, -10, -10, -10, -10, -10, -10, -10, -10, -10, -10, -10, -10, -10, -10, -10, -10, -10, -10, -10, -10, -10, -10, -10, -10, -10, -10, -10, -10, -10, -10, -10, -10, 116, 116, 116, 116, -10, -10, -10, -10, -10, -10, -10, -10, -10, -10, -10, -10, -10, -10, -10, -10, -10, -10, -10, -10, -10, -10, -10, -10, -10, -10, -10, -10, -10, -10, -10, -10, -10, -10, -10, -10, -10, -10, -10, -10, -10, -10, -10, -10, -10
-10, -10, -10, -10, -10, -10, -10, -10, -10, -10, -10, -10, -10, -10, -10, -10, -10, -10, -10, 78.375, 78.066666, 77.416664, 76.75, 76.541664, 76.400002, 76.008926, 75.220245, 74.34523, 73.75, 73.3125, 72.883926, 72.5, 72.125, 71.666664, 71.273804, 70.410713, 70.142853, 69.633926, 68.89286, 68.01786, 67.176788, 66.866074, 66.25, 65.955353, 65.446426, 64.863091, 64.5, 63.854168, 63.321426, 62.776787, 62.220238, 61.595238, 60.842262, 60.375, 59.928574, 59.208332, 58.57143, 58.1875, 57.866074, 57.479168, 57.071426, 56.660713, 56.3125, 55.9375, 55.383926, 54.747025, 54.5, 54.107143, 53.729168, 53.125, 52.535713, 52.1875, 51.75, 51.5, 51.0625, 50.375, 49.595238, 49.133926, 48.6875, 48.375, 47.892857, 47.0625, 46.375, 46.0625, 45.803574, 45.491074, 45.041668, 44.571426, 43.872025, 43.45536, 42.845242, 42.157738, 41.577381, 41.098213, 40.580357, 40.258926, 39.705357, 39.4375, 39, 38.5625, 38.125, 37.446426, 36.848213, 36.392857, 36, 35.616074, 35.104168, 34.589287, 34.1875, 33.625, 32.910713, 32.410713, 32, 31.616072, 31.041666, 30.526785, 30.1875, 29.741072, 28.895832, 28.267857, 27.75, 27.25, 26.705357, 26.3125, 25.8125, 25.375, 24.830357, 24.4375, 24, 23.491072, 22.872025, 22.446428, 21.9375, 21.455357, 20.892857, 20.375, 20.0625, 19.553572, 18.800594, 18.077381, 17.625, 17.1875, 16.767857, 16.4375, 15.9375, 15.229167, 14.714285, 14.25, 13.8125, 13.4375, 13.125, 12.6875, 12.196428, 11.163691, 10.5, 10.1875, 10.1875, 10.375, 10.4375, 10.5, 10.5, 10.3125, 10.3125, 10.3125, 10.375, 10.5625, 10.75, 10.9375, 10.9375, 11, 11, 10.875, 10.75, 10.75, 10.75, 10.875, 11, 11, 11, 11, 11, 11, 11, 11, 11, 11, 11, 11, 11.125, 11.508928, 12.235119, 12.660714, 12.9375, 13, 12.9375, 12.9375, 12.9375, 13.125, 13.375, 13.625, 13.723214, 13.669642, 13.651786, 13.392857, 13.321428, 13.375, 13.625, 13.848214, 14.125, 14.125, 14.0625, 13.919643, 13.035713, 11.928572, 11.526787, 11.4375, 11.375, 11.375, 11.25, 11, 11, 11, 11, 11, 11, 11, 11, 11, 11, 11, 11.125, 11.1875, 11.25, 11.375, 11.4375, 11.5, 11.330357, 11.196428, 11.125, 11.0625, 11.0625, 11.0625, 11, 11, 11.125, 11.25, 11.375, 11.4375, 11.5, 11.625, 11.666667, -10, -10, -10, -10, -10, -10, -10, -10, -10, -10, -10, -10, -10, -10, -10, -10, -10, -10, -10, -10, -10, -10, -10, -10, -10, -10, -10, -10, -10, -10, -10, -10, -10, -10, -10, -10, -10, -10, -10, -10, -10, -10, -10, -10, -10, -10, -10, -10, -10, -10, -10, -10, 116, 116, 116, 116, -10, -10, -10, -10, -10, -10, -10, -10, -10, -10, -10, -10, -10, -10, -10, -10, -10, -10, -10, -10, -10, -10, -10, -10, -10, -10, -10, -10, -10, -10, -10, -10, -10, -10, -10, -10, -10, -10, -10, -10, -10, -10, -10, -10, -10, -10, -10, -10, -10, -10, -10, -10, -10, -10, -10, -10, -10, -10, -10, -10, -10, -10, -10, -10, -10, -10, -10, -10, -10, -10, -10, -10, -10, -10, -10, -10, -10, -10, -10, -10, -10, -10, -10, -10, -10, -10, -10, -10, 78.5, 78.066666, 77.497017, 76.928574, 76.416664, 76.166664, 75.79464, 75.077377, 74.327377, 73.8125, 73.3125, 72.747025, 72.428574, 72, 71.604164, 71.148804, 70.473213, 70.205353, 69.883926, 69.178574, 68.220238, 67.598213, 67.080353, 66.1875, 65.806549, 65.553574, 64.934525, 64.363091, 63.794643, 63.25, 62.848213, 62.491074, 61.836311, 60.988098, 60.208332, 59.678574, 58.958332, 58.32143, 58, 57.616074, 57.229168, 56.883926, 56.455357, 56.1875, 55.875, 55.366074, 54.809525, 54.625, 54.276787, 53.770836, 53.196426, 52.598213, 52.3125, 51.9375, 51.616074, 50.979168, 50.267857, 49.61607, 49.125, 48.580357, 48.1875, 47.6875, 47.133926, 46.367859, 46.145832, 45.767857, 45.669647, 44.997025, 44.571426, 43.854168, 43.39286, 42.791668, 42.303574, 41.622025, 41.125, 40.651787, 40.3125, 39.767857, 39.455357, 39, 38.5625, 38.125, 37.508926, 36.955357, 36.455357, 36, 35.428574, 34.979168, 34.508926, 34.1875, 33.6875, 33.017857, 32.473213, 32.0625, 31.616072, 31.041666, 30.526785, 30.1875, 29.678572, 28.788689, 28.142857, 27.625, 27.125, 26.580357, 26.25, 25.75, 25.3125, 24.723213, 24.375, 23.9375, 23.553572, 22.979166, 22.508928, 22, 21.517857, 21, 20.4375, 20.017857, 19.491072, 18.800594, 18.223213, 17.75, 17.258928, 16.696428, 16.267857, 15.8125, 15.104167, 14.696428, 14.1875, 13.75, 13.375, 13, 12.625, 12.133928, 11.154761, 10.5, 10.1875, 10.25, 10.5, 10.5625, 10.6875, 10.625, 10.5, 10.473214, 10.401786, 10.5, 10.625, 10.8125, 10.9375, 10.9375, 10.9375, 11, 10.875, 10.75, 10.75, 10.75, 10.875, 11, 11, 11, 10.9375, 10.9375, 10.9375, 10.9375, 11, 11, 11, 11, 11, 11.125, 11.553572, 12.464287, 12.803572, 13.125, 13.125, 13.1875, 13.3125, 13.375, 13.5625, 13.75, 13.8125, 13.875, 13.933036, 13.852678, 13.611607, 13.491072, 13.5625, 13.6875, 13.875, 14.125, 14.125, 14.125, 14.053572, 13.369047, 12.321428, 11.589287, 11.357143, 11.3125, 11.3125, 11.25, 11.0625, 11, 11, 11, 11, 11, 11, 11.0625, 11.125, 11.125, 11.125, 11.1875, 11.1875, 11.25, 11.375, 11.4375, 11.4375, 11.267857, 11.133928, 11.0625, 11.0625, 11.125, 11.125, 11.0625, 11.0625, 11.0625, 11.125, 11.1875, 11.25, 11.3125, 11.5, 11.583333, -10, -10, -10, -10, -10, -10, -10, -10, -10, -10, -10, -10, -10, -10, -10, -10, -10, -10, -10, -10, -10, -10, -10, -10, -10, -10, -10, -10, -10, -10, -10, -10, -10, -10, -10, -10, -10, -10, -10, -10, -10, -10, -10, -10, -10, -10, -10, -10, -10, -10, -10, -10, 116, 116, 116, 116, -10, -10, -10, -10, -10, -10, -10, -10, -10, -10, -10, -10, -10, -10, -10, -10, -10, -10, -10, -10, -10, -10, -10, -10, -10, -10, -10, -10, -10, -10, -10, -10, -10, -10, -10, -10, -10, -10, -10, -10, -10, -10, -10, -10, -10
-10, -10, -10, -10, -10, -10, -10, -10, -10, -10, -10, -10, -10, -10, -10, -10, -10, -10, -10, 78.375, 78.066666, 77.675591, 77.107147, 76.3125, 75.916664, 75.4375, 74.869049, 74.113098, 73.75, 73.25, 72.747025, 72.375, 71.892853, 71.541664, 71.077377, 70.348213, 70.142853, 69.8125, 69.178574, 68.291664, 67.785713, 67.267853, 66.4375, 65.976196, 65.633926, 65.059525, 64.488091, 63.9375, 63.208332, 62.785713, 62.4375, 62.044647, 61.130955, 59.958332, 59.357143, 58.875, 58.32143, 57.833332, 57.357143, 56.916668, 56.633926, 56.25, 56, 55.6875, 55.178574, 54.729168, 54.53125, 54.183037, 53.677086, 53.165176, 52.642857, 52.3125, 51.830357, 51.491074, 50.854168, 50.258926, 49.61607, 49.0625, 48.517857, 48.125, 47.625, 47.196426, 46.474998, 46.270832, 45.830357, 45.669647, 44.997025, 44.464287, 43.6875, 43.178574, 42.541668, 42.125, 41.705357, 41.303574, 40.776787, 40.5, 39.9375, 39.497025, 39.008926, 38.5625, 38.125, 37.580357, 37.0625, 36.517857, 36.0625, 35.428574, 34.979168, 34.508926, 34.178574, 33.541668, 32.946426, 32.410713, 32, 31.5, 31.017857, 30.517857, 30.125, 29.553572, 28.619047, 28.0625, 27.5625, 27.125, 26.580357, 26.1875, 25.6875, 25.25, 24.660713, 24.3125, 23.767857, 23.4375, 23, 22.5625, 22.0625, 21.455357, 20.892857, 20.3125, 19.892857, 19.491072, 18.979166, 18.517857, 18.008928, 17.217262, 16.580357, 16.080357, 15.6875, 14.979167, 14.571428, 14.0625, 13.625, 13.25, 12.8125, 12.5, 12, 11.321428, 10.678572, 10.3125, 10.3125, 10.5, 10.5625, 10.6875, 10.625, 10.5, 10.535714, 10.464286, 10.5625, 10.6875, 10.8125, 10.9375, 10.9375, 10.9375, 11, 10.875, 10.75, 10.75, 10.75, 10.875, 11, 11, 11, 10.9375, 10.9375, 10.9375, 10.9375, 11, 11, 11, 11.0625, 11.1875, 11.482143, 11.919643, 12.630953, 12.875, 13.1875, 13.25, 13.4375, 13.6875, 13.75, 13.9375, 14.0625, 14.0625, 14.1875, 14.308036, 14.236607, 13.736607, 13.607142, 13.625, 13.75, 14, 14.25, 14.3125, 14.3125, 14.25, 13.848213, 12.892857, 12.107143, 11.482143, 11.294643, 11.1875, 11.1875, 11.0625, 11, 11, 11, 11, 11.0625, 11.0625, 11.125, 11.1875, 11.125, 11.125, 11.1875, 11.1875, 11.25, 11.375, 11.4375, 11.4375, 11.205357, 11.008928, 10.9375, 10.9375, 11.0625, 11.125, 11.0625, 11.0625, 11, 11, 11, 11.125, 11.1875, 11.4375, 11.583333, -10, -10, -10, -10, -10, -10, -10, -10, -10, -10, -10, -10, -10, -10, -10, -10, -10, -10, -10, -10, -10, -10, -10, -10, -10, -10, -10, -10, -10, -10, -10, -10, -10, -10, -10, -10, -10, -10, -10, -10, -10, -10, -10, -10, -10, -10, -10, -10, -10, -10, -10, -10, 116, 116, 116, 116, -10, -10, -10, -10, -10, -10, -10, -10, -10, -10, -10, -10, -10, -10, -10, -10, -10, -10, -10, -10, -10, -10, -10, -10, -10, -10, -10, -10, -10, -10, -10, -10, -10, -10, -10, -10, -10, -10, -10, -10, -10, -10, -10, -10, -10, -10, -10, -10, -10, -10, -10, -10, -10, -10, -10, -10, -10, -10, -10, -10, -10, -10, -10, -10, -10, -10, -10, -10, -10, -10, -10, -10, -10, -10, -10, -10, -10, -10, -10, -10, -10, -10, -10, -10, -10, -10, -10, 78, 78.25, 77.916664, 77.651787, 77.169647, 76.375, 75.916664, 75.258926, 74.583336, 73.946426, 73.625, 73.125, 72.559525, 72.0625, 71.517853, 71.3125, 70.910721, 70.392853, 70.133926, 69.571426, 68.821426, 68.166664, 67.696426, 67.330353, 66.5625, 66.145836, 65.714287, 65.184525, 64.613091, 64.116074, 63.395832, 63.07143, 62.517857, 62.116074, 61.276787, 60.101189, 59.544643, 59, 58.38393, 57.666664, 56.886906, 56.571426, 56.25, 55.9375, 55.6875, 55.3125, 54.875, 54.510418, 54.25, 53.964287, 53.520836, 53.138393, 52.642857, 52.321426, 51.830357, 51.428574, 50.747025, 50.258926, 49.660713, 49.1875, 48.642857, 48.1875, 47.571426, 47.160713, 46.474998, 46.270832, 45.830357, 45.607147, 44.934525, 44.392853, 43.541668, 43.035713, 42.416668, 42.0625, 41.6875, 41.303574, 40.776787, 40.4375, 39.875, 39.434525, 39.008926, 38.625, 38.125, 37.535713, 37, 36.5, 36.125, 35.482143, 34.916668, 34.464287, 33.761906, 33.148811, 32.633926, 32.267857, 31.875, 31.4375, 30.955357, 30.5, 30.0625, 29.4375, 28.595238, 28.125, 27.625, 27.1875, 26.598213, 26.1875, 25.6875, 25.25, 24.660713, 24.25, 23.660713, 23.3125, 22.875, 22.4375, 21.9375, 21.330357, 20.767857, 20.1875, 19.705357, 19.375, 19, 18.642857, 18.133928, 17.217262, 16.607143, 16.0625, 15.580357, 14.854167, 14.446428, 13.9375, 13.5, 13.1875, 12.6875, 12.4375, 11.9375, 11.3125, 10.678572, 10.3125, 10.25, 10.4375, 10.5625, 10.75, 10.8125, 10.6875, 10.723214, 10.651786, 10.6875, 10.8125, 10.875, 10.9375, 10.9375, 10.9375, 11, 10.9375, 10.875, 10.875, 10.875, 10.9375, 11, 11, 11, 10.9375, 10.9375, 10.9375, 10.875, 10.875, 10.875, 10.928572, 11.354167, 11.616072, 11.919643, 12.232143, 12.773809, 12.9375, 13.25, 13.375, 13.625, 14, 14.125, 14.3125, 14.4375, 14.375, 14.4375, 14.433036, 14.263392, 13.665178, 13.535714, 13.669643, 13.803572, 14.0625, 14.3125, 14.4375, 14.5, 14.4375, 14.080357, 13.663264, 12.938775, 12.0625, 11.482143, 11.232143, 11.125, 11.0625, 11, 11, 11, 11, 11.0625, 11.0625, 11.125, 11.1875, 11.125, 11.125, 11.125, 11.0625, 11.0625, 11.125, 11.1875, 11.1875, 11.080357, 11.008928, 11.0625, 11.125, 11.1875, 11.1875, 11.0625, 11.0625, 11, 11, 11, 11.125, 11.1875, 11.375, 11.571428, -10, -10, -10, -10, -10, -10, -10, -10, -10, -10, -10, -10, -10, -10, -10, -10, -10, -10, -10, -10, -10, -10, -10, -10, -10, -10, -10, -10, -10, -10, -10, -10, -10, -10, -10, -10, -10, -10, -10, -10, -10, -10, -10, -10, -10, -10, -10, -10, -10, -10, -10, -10, -10, 116.25, 116.25, 116.1875, 116.33333, -10, -10, -10, -10, -10, -10, -10, -10, -10, -10, -10, -10, -10, -10, -10, -10, -10, -10, -10, -10, -10, -10, -10, -10, -10, -10, -10, -10, -10, -10, -10, -10, -10, -10, -10, -10, -10, -10, -10, -10, -10, -10, -10, -10
-10, -10, -10, -10, -10, -10, -10, -10, -10, -10, -10, -10, -10, -10, -10, -10, -10, -10, -10, 78.125, 77.833328, 77.705353, 77.276787, 76.4375, 76.041664, 75.25, 74.39286, 73.803574, 73.5, 73.0625, 72.541664, 72, 71.455353, 71.125, 70.678574, 70.25, 70, 69.553574, 69.050598, 68.488098, 67.800591, 67.401787, 66.625, 66.208336, 65.785713, 65.392853, 64.854164, 64.366074, 63.708332, 63.428574, 62.830357, 62.401787, 61.443451, 60.279762, 59.732143, 59.25, 58.69643, 57.800591, 56.895836, 56.401783, 56.0625, 55.6875, 55.4375, 54.9375, 54.5, 54.28125, 54, 53.794643, 53.541668, 53.245537, 52.660713, 52.330353, 51.830357, 51.366074, 50.639881, 50.258926, 49.705357, 49.25, 48.660713, 48.25, 47.633926, 47.223213, 46.617855, 46.333332, 45.830357, 45.553574, 45.017857, 44.446426, 43.541668, 42.919643, 42.464287, 42.1875, 41.8125, 41.38393, 40.839287, 40.4375, 39.875, 39.434525, 39.008926, 38.5625, 38.017857, 37.473213, 36.9375, 36.5, 36.125, 35.419643, 34.818455, 34.348213, 33.428574, 32.827385, 32.383926, 32.1875, 31.8125, 31.4375, 30.892857, 30.4375, 29.9375, 29.3125, 28.678572, 28.25, 27.75, 27.1875, 26.55357, 26.0625, 25.5625, 25.1875, 24.642857, 24.1875, 23.598213, 23.1875, 22.6875, 22.3125, 21.8125, 21.3125, 20.767857, 20.125, 19.535713, 19.1875, 18.8125, 18.5625, 18.071428, 17.217262, 16.607143, 16, 15.473213, 15, 14.5625, 14.125, 13.589286, 12.958333, 12.5, 12.25, 11.875, 11.3125, 10.678572, 10.3125, 10.1875, 10.375, 10.4375, 10.6875, 10.8125, 10.75, 10.910714, 10.839286, 10.875, 10.9375, 10.9375, 10.9375, 10.9375, 10.9375, 11, 11, 10.9375, 10.9375, 10.9375, 10.9375, 11, 11, 11, 10.9375, 10.9375, 10.9375, 10.8125, 10.75, 10.75, 10.857143, 11.645834, 12.044643, 12.551021, 12.544643, 12.916667, 13, 13.321428, 13.575, 13.767857, 14.25, 14.375, 14.5625, 14.5625, 14.330357, 14.392857, 14.552083, 14.334822, 13.852678, 13.660714, 13.857143, 14.053572, 14.232143, 14.166667, 14.333333, 14.604167, 14.553572, 14.330357, 14.017857, 13.591836, 12.816327, 11.669643, 11.276787, 11.0625, 11.0625, 11.0625, 11.125, 11.125, 11.125, 11.125, 11.0625, 11.125, 11.1875, 11.125, 11.125, 11.0625, 11, 11.0625, 11.125, 11.1875, 11.1875, 11.125, 11.125, 11.1875, 11.25, 11.3125, 11.25, 11.125, 11.0625, 11, 11, 11, 11.0625, 11.0625, 11.1875, 11.392857, 12, -10, -10, -10, -10, -10, -10, -10, -10, -10, -10, -10, -10, -10, -10, -10, -10, -10, -10, -10, -10, -10, -10, -10, -10, -10, -10, -10, -10, -10, -10, -10, -10, -10, -10, -10, -10, -10, -10, -10, -10, -10, -10, -10, -10, -10, -10, -10, -10, -10, -10, -10, -10, 116.5, 116.5, 116.375, 116.44444, -10, -10, -10, -10, -10, -10, -10, -10, -10, -10, -10, -10, -10, -10, -10, -10, -10, -10, -10, -10, -10, -10, -10, -10, -10, -10, -10, -10, -10, -10, -10, -10, -10, -10, -10, -10, -10, -10, -10, -10, -10, -10, -10, -10, -10, -10, -10, -10, -10, -10, -10, -10, -10, -10, -10, -10, -10, -10, -10, -10, -10, -10, -10, -10, -10, -10, -10, -10, -10, -10, -10, -10, -10, -10, -10, -10, -10, -10, -10, -10, -10, -10, -10, -10, -10, -10, -10, 78.375, 78.066666, 77.684525, 77.205353, 76.520836, 76.125, 75.482147, 74.64286, 73.991074, 73.517853, 73.0625, 72.5625, 71.964287, 71.455353, 71.0625, 70.678574, 70.1875, 69.875, 69.303574, 68.747025, 68.383926, 67.729164, 67.446426, 66.9375, 66.392853, 65.785713, 65.25, 65.0625, 64.633926, 64.020828, 63.571426, 62.892857, 62.401787, 61.502975, 60.571426, 60.107143, 59.6875, 59.116074, 58.059525, 57.101189, 56.526783, 56.125, 55.75, 55.4375, 55, 54.625, 54.34375, 54, 53.6875, 53.5, 53.174107, 52.598213, 52.205353, 51.642857, 51.1875, 50.598213, 50.1875, 49.642857, 49.25, 48.705357, 48.25, 47.553574, 47.120537, 46.611607, 46.21875, 45.8125, 45.375, 45, 44.508926, 43.666668, 43.107143, 42.651787, 42.267857, 41.875, 41.44643, 40.875, 40.4375, 39.9375, 39.470238, 38.925594, 38.4375, 37.892857, 37.473213, 36.973213, 36.446426, 36.053574, 35.419643, 34.755955, 34.285713, 33.303574, 32.702385, 32.258926, 32.0625, 31.6875, 31.375, 30.830357, 30.4375, 29.9375, 29.375, 28.785713, 28.375, 27.875, 27.25, 26.571428, 26, 25.5, 25.125, 24.625, 24.125, 23.535713, 23.0625, 22.5625, 22.25, 21.8125, 21.375, 20.830357, 20.205357, 19.642857, 19.1875, 18.705357, 18.4375, 17.946428, 17.270834, 16.785713, 16.232143, 15.660713, 15.1875, 14.6875, 14.25, 13.776786, 13.074405, 12.479167, 12.196428, 11.803572, 11.166667, 10.607142, 10.25, 10.125, 10.3125, 10.4375, 10.6875, 10.875, 10.75, 10.875, 10.875, 10.875, 11, 11, 10.9375, 10.875, 10.875, 10.875, 10.9375, 10.875, 10.8125, 10.75, 10.75, 10.875, 10.9375, 11, 11, 11, 11, 10.875, 10.75, 10.8125, 11.013393, 11.927084, 12.450893, 12.825893, 12.9375, 13.0625, 13.0625, 13.321428, 13.6375, 13.767857, 14.1875, 14.25, 14.4375, 14.4375, 14.330357, 14.455357, 14.645833, 14.491072, 14.008928, 13.803572, 13.794643, 14.017858, 14.127975, 13.854167, 14.020833, 14.291667, 14.366072, 14.267857, 14.125, 13.892857, 13.285713, 12.25, 11.464287, 11.107143, 11, 11.0625, 11.125, 11.125, 11.125, 11.125, 11.0625, 11.0625, 11.0625, 11, 11, 11, 11, 11.0625, 11.125, 11.25, 11.375, 11.3125, 11.3125, 11.3125, 11.25, 11.3125, 11.25, 11.125, 11.0625, 11.0625, 11.125, 11.1875, 11.25, 11.1875, 11.25, 11.497024, 12.066667, -10, -10, -10, -10, -10, -10, -10, -10, -10, -10, -10, -10, -10, -10, -10, -10, -10, -10, -10, -10, -10, -10, -10, -10, -10, -10, -10, -10, -10, -10, -10, -10, -10, -10, -10, -10, -10, -10, -10, -10, -10, -10, -10, -10, -10, -10, -10, -10, -10, -10, -10, -10, 116.75, 116.75, 116.5625, 116.49999, -10, -10, -10, -10, -10, -10, -10, -10, -10, -10, -10, -10, -10, -10, -10, -10, -10, -10, -10, -10, -10, -10, -10, -10, -10, -10, -10, -10, -10, -10, -10, -10, -10, -10, -10, -10, -10, -10, -10, -10, -10, -10, -10, -10
-10, -10, -10, -10, -10, -10, -10, -10, -10, -10, -10, -10, -10, -10, -10, -10, -10, -10, -10, 78.285713, 77.816666, 77.434525, 77, 76.5, 76.017853, 75.4375, 74.738098, 74.0625, 73.642853, 73.125, 72.6875, 72.10714, 71.395836, 71, 70.625, 70.25, 69.767853, 69.196426, 68.580353, 68.3125, 67.729164, 67.571426, 67.116074, 66.497025, 65.892853, 65.3125, 65.0625, 64.616074, 64.1875, 63.696426, 63.017857, 62.401787, 61.538689, 60.738098, 60.321426, 59.875, 59.223213, 58.017853, 57.029762, 56.57143, 56.424999, 55.919643, 55.598213, 55.125, 54.75, 54.197918, 53.924107, 53.59375, 53.46875, 53.205357, 52.660713, 52.321426, 51.666668, 51.196426, 50.598213, 50.25, 49.75, 49.375, 48.892857, 48.366074, 47.532738, 47.066963, 46.549107, 46.21875, 45.8125, 45.3125, 44.830357, 44.428574, 43.854168, 43.3125, 42.794643, 42.330357, 41.8125, 41.392857, 40.875, 40.3125, 39.830357, 39.366074, 38.747025, 38.25, 37.705357, 37.330357, 36.848213, 36.383926, 35.928574, 35.303574, 34.732143, 34.214287, 33.041668, 32.60714, 32.1875, 32.0625, 31.6875, 31.375, 30.830357, 30.4375, 29.9375, 29.4375, 28.892857, 28.4375, 27.9375, 27.25, 26.571428, 26, 25.5, 25.125, 24.625, 24.125, 23.535713, 23, 22.5, 22.1875, 21.75, 21.375, 20.830357, 20.205357, 19.642857, 19.1875, 18.642857, 18.375, 17.875, 17.4375, 16.964287, 16.357143, 15.678572, 15.25, 14.75, 14.375, 13.901786, 13.136905, 12.497024, 12.133928, 11.678572, 10.934524, 10.419642, 10.125, 10, 10.25, 10.4375, 10.6875, 10.875, 10.8125, 10.875, 10.8125, 10.875, 10.9375, 10.9375, 10.9375, 10.875, 10.875, 10.875, 10.9375, 10.875, 10.8125, 10.6875, 10.6875, 10.8125, 10.875, 10.9375, 10.875, 10.875, 10.875, 10.8125, 10.75, 10.875, 11.200893, 12.221726, 12.700893, 12.96875, 13.0625, 13.1875, 13.25, 13.446428, 13.7, 13.767857, 14.098214, 14.1875, 14.3125, 14.25, 14.174107, 14.236607, 14.427083, 14.388393, 14.196428, 14, 13.919643, 14.044642, 14.172619, 13.907739, 13.95238, 14.261905, 14.491072, 14.392857, 14.25, 14.0625, 13.785713, 12.821428, 11.880953, 11.357143, 11.125, 11.125, 11.125, 11.125, 11.125, 11.0625, 11, 11, 11, 11, 11, 11, 11, 11.0625, 11.125, 11.25, 11.4375, 11.4375, 11.5, 11.5, 11.375, 11.4375, 11.3125, 11.1875, 11.125, 11.125, 11.25, 11.375, 11.4375, 11.3125, 11.3125, 11.580357, 12.1, -10, -10, -10, -10, -10, -10, -10, -10, -10, -10, -10, -10, -10, -10, -10, -10, -10, -10, -10, -10, -10, -10, -10, -10, -10, -10, -10, -10, -10, -10, -10, -10, -10, -10, -10, -10, -10, -10, -10, -10, -10, -10, -10, -10, -10, -10, -10, -10, -10, -10, -10, -10, 117, 117, 116.8125, 116.74999, -10, -10, -10, -10, -10, -10, -10, -10, -10, -10, -10, -10, -10, -10, -10, -10, -10, -10, -10, -10, -10, -10, -10, -10, -10, -10, -10, -10, -10, -10, -10, -10, -10, -10, -10, -10, -10, -10, -10, -10, -10, -10, -10, -10, -10, -10, -10, -10, -10, -10, -10, -10, -10, -10, -10, -10, -10, -10, -10, -10, -10, -10, -10, -10, -10, -10, -10, -10, -10, -10, -10, -10, -10, -10, -10, -10, -10, -10, -10, -10, -10, -10, -10, -10, -10, -10, -10, 77.85714, 77.745239, 77.208328, 76.758926, 76.3125, 75.892853, 75.491074, 74.845238, 74.125, 73.73214, 73.25, 72.8125, 72.190475, 71.3125, 70.875, 70.4375, 70.09375, 69.611603, 69.160713, 68.375, 68.133926, 67.604164, 67.446426, 67.053574, 66.497025, 65.9375, 65.375, 65.0625, 64.5625, 64.1875, 63.642857, 63.125, 62.401787, 61.663689, 60.845238, 60.401787, 59.830357, 58.850338, 57.434525, 56.758926, 56.67857, 56.773212, 56.357143, 56.035713, 55.4375, 55.0625, 54.416668, 53.976189, 53.642857, 53.4375, 53.294643, 52.892857, 52.464287, 51.604168, 51.133926, 50.580357, 50.3125, 49.8125, 49.375, 48.955357, 48.491074, 47.773811, 47.245537, 46.674107, 46.28125, 45.8125, 45.25, 44.660713, 44.25, 43.8125, 43.3125, 42.794643, 42.330357, 41.8125, 41.455357, 41, 40.5, 40.017857, 39.44643, 38.747025, 38.125, 37.535713, 37.25, 36.785713, 36.383926, 35.866074, 35.1875, 34.625, 34.133926, 33.333336, 32.928574, 32.354168, 32.133926, 31.75, 31.4375, 30.892857, 30.383928, 29.830357, 29.4375, 28.9375, 28.4375, 27.892857, 27.1875, 26.55357, 26, 25.5, 25.125, 24.625, 24.1875, 23.642857, 23.0625, 22.517857, 22.1875, 21.75, 21.375, 20.830357, 20.205357, 19.642857, 19.125, 18.580357, 18.3125, 17.8125, 17.5, 17, 16.375, 15.785713, 15.375, 14.875, 14.4375, 13.919642, 13.136905, 12.497024, 12.133928, 11.678572, 10.788691, 10.348213, 10.0625, 10.0625, 10.3125, 10.4375, 10.6875, 10.8125, 10.8125, 10.9375, 10.8125, 10.8125, 10.8125, 10.8125, 10.875, 10.875, 10.875, 10.875, 10.9375, 10.875, 10.8125, 10.6875, 10.6875, 10.8125, 10.875, 10.9375, 10.875, 10.875, 10.875, 10.875, 10.875, 11.0625, 11.459822, 12.287203, 12.709822, 12.96875, 13.125, 13.25, 13.375, 13.633928, 14.116667, 14.1875, 14.473214, 14.419643, 14.267857, 14.071428, 13.986607, 14.111607, 14.427083, 14.575893, 14.5625, 14.375, 14.1875, 14.241072, 14.360119, 14.095239, 14.380952, 14.619048, 14.553572, 14.517857, 14.375, 14.1875, 13.955357, 13.321428, 12.452381, 11.690476, 11.303572, 11.1875, 11.125, 11.125, 11.125, 11.0625, 11, 11, 11, 11, 11, 11, 11, 11.0625, 11.1875, 11.3125, 11.5, 11.4375, 11.4375, 11.375, 11.3125, 11.5, 11.4375, 11.375, 11.3125, 11.3125, 11.4375, 11.5625, 11.59375, 11.46875, 11.46875, 11.758928, 12.141666, -10, -10, -10, -10, -10, -10, -10, -10, -10, -10, -10, -10, -10, -10, -10, -10, -10, -10, -10, -10, -10, -10, -10, -10, -10, -10, -10, -10, -10, -10, -10, -10, -10, -10, -10, -10, -10, -10, -10, -10, -10, -10, -10, -10, -10, -10, -10, -10, -10, -10, -10, -10, 117, 117, 116.875, 116.83333, -10, -10, -10, -10, -10, -10, -10, -10, -10, -10, -10, -10, -10, -10, -10, -10, -10, -10, -10, -10, -10, -10, -10, -10, -10, -10, -10, -10, -10, -10, -10, -10, -10, -10, -10, -10, -10, -10, -10, -10, -10, -10, -10, -10
-10, -10, -10, -10, -10, -10, -10, -10, -10, -10, -10, -10, -10, -10, -10, -10, -10, -10, 78, 78, 77.757149, 76.999992, 76.580353, 76.1875, 75.767853, 75.4375, 74.928574, 74.1875, 73.75, 73.3125, 72.875, 72.261902, 71.229164, 70.8125, 70.3125, 69.950897, 69.392853, 68.879463, 68.09375, 67.821426, 67.5625, 67.375, 66.928574, 66.264877, 65.75, 65.25, 64.9375, 64.5, 64.0625, 63.517857, 63, 62.3125, 61.830357, 60.979168, 60.482143, 59.892857, 58.345238, 57.365082, 56.833336, 57.035713, 57.085712, 56.794643, 56.375, 55.520832, 55.1875, 54.479168, 54.101189, 53.767857, 53.5, 53.4375, 53.1875, 52.67857, 51.541668, 51, 50.5, 50.25, 49.75, 49.375, 49.0625, 48.616074, 47.898811, 47.325893, 46.78125, 46.34375, 45.875, 45.25, 44.660713, 44.1875, 43.776787, 43.357143, 42.723213, 42.205357, 41.6875, 41.375, 40.9375, 40.5625, 40.125, 39.50893, 38.809525, 38.125, 37.535713, 37.25, 36.785713, 36.383926, 35.866074, 35.25, 34.660713, 34.1875, 33.604168, 33.178574, 32.458336, 32.142857, 31.8125, 31.5, 30.955357, 30.330357, 29.723213, 29.3125, 28.8125, 28.375, 27.821428, 27.041666, 26.482141, 25.928572, 25.375, 25.125, 24.625, 24.25, 23.660713, 23.0625, 22.517857, 22.125, 21.6875, 21.3125, 20.767857, 20.267857, 19.75, 19.1875, 18.598213, 18.3125, 17.8125, 17.5, 17, 16.4375, 15.892857, 15.4375, 14.9375, 14.4375, 13.955357, 13.428572, 12.747024, 12.321428, 11.741072, 10.788691, 10.348213, 10.0625, 10.125, 10.375, 10.5625, 10.8125, 10.875, 10.875, 10.9375, 10.8125, 10.8125, 10.8125, 10.8125, 10.875, 10.875, 10.875, 10.875, 11, 11, 10.9375, 10.8125, 10.75, 10.8125, 10.875, 10.9375, 10.875, 10.875, 10.875, 10.9375, 11, 11.258928, 11.864583, 12.424108, 12.78125, 12.96875, 13.1875, 13.428572, 13.916667, 14.169643, 14.604167, 14.732143, 14.910714, 14.857143, 14.517857, 14.214285, 14.21875, 14.34375, 14.450893, 14.46875, 14.375, 14.1875, 14.125, 14.178572, 14.440476, 14.632653, 14.632653, 14.485715, 14.553572, 14.482143, 14.4375, 14.25, 14.0625, 13.758928, 12.970239, 12.190476, 11.616072, 11.267857, 11.0625, 11, 11, 11, 11, 11, 11, 11, 11, 11, 11, 11, 11.0625, 11.125, 11.25, 11.3125, 11.375, 11.375, 11.375, 11.5625, 11.5625, 11.5, 11.5, 11.5, 11.625, 11.75, 11.78125, 11.59375, 11.59375, 11.90625, 12.099999, -10, -10, -10, -10, -10, -10, -10, -10, -10, -10, -10, -10, -10, -10, -10, -10, -10, -10, -10, -10, -10, -10, -10, -10, -10, -10, -10, -10, -10, -10, -10, -10, -10, -10, -10, -10, -10, -10, -10, -10, -10, -10, -10, -10, -10, -10, -10, -10, -10, -10, -10, -10, 117, 116.875, 116.85416, 116.85416, -10, -10, -10, -10, -10, -10, -10, -10, -10, -10, -10, -10, -10, -10, -10, -10, -10, -10, -10, -10, -10, -10, -10, -10, -10, -10, -10, -10, -10, -10, -10, -10, -10, -10, -10, -10, -10, -10, -10, -10, -10, -10, -10, -10, -10, -10, -10, -10, -10, -10, -10, -10, -10, -10, -10, -10, -10, -10, -10, -10, -10, -10, -10, -10, -10, -10, -10, -10, -10, -10, -10, -10, -10, -10, -10, -10, -10, -10, -10, -10, -10, -10, -10, -10, -10, -10, 78, 77.75, 77.607147, 77.083328, 76.758926, 76.229164, 75.767853, 75.4375, 74.928574, 74.25, 73.857147, 73.4375, 73.125, 72.476189, 71.166664, 70.791664, 70.1875, 70.075897, 69.517853, 68.837799, 68.075897, 67.696426, 67.4375, 67.1875, 66.741074, 66.122025, 65.416664, 65.071426, 64.75, 64.5, 64.107147, 63.541668, 63, 62.375, 61.9375, 61.104168, 60.607143, 60.017857, 59.278908, 58.468258, 57.569725, 57.473213, 57.532143, 57.044643, 56.607143, 55.645832, 55.25, 54.505951, 54.101189, 53.830357, 53.6875, 53.616074, 53.229168, 52.75, 51.604168, 51.0625, 50.517857, 50.25, 49.8125, 49.419643, 49.089287, 48.741074, 48.041668, 47.42857, 46.830357, 46.4375, 45.9375, 45.375, 44.785713, 44.25, 43.839287, 43.348217, 42.577381, 42.0625, 41.5625, 41.3125, 40.875, 40.5625, 40.1875, 39.544643, 38.767857, 38.160713, 37.535713, 37.25, 36.75, 36.4375, 36, 35.4375, 34.910713, 34.4375, 33.791668, 33.32143, 32.645836, 32.330357, 32.0625, 31.6875, 31.080357, 30.348213, 29.723213, 29.25, 28.705357, 28.25, 27.696428, 26.979166, 26.401785, 25.821428, 25.3125, 25.125, 24.6875, 24.3125, 23.67857, 23.125, 22.642857, 22.25, 21.8125, 21.375, 20.767857, 20.267857, 19.75, 19.25, 18.705357, 18.375, 17.875, 17.5, 17.0625, 16.5, 15.955357, 15.455357, 14.9375, 14.4375, 13.892857, 13.375, 12.830357, 12.375, 11.8125, 10.934524, 10.419643, 10.125, 10.1875, 10.4375, 10.625, 10.875, 10.875, 10.875, 10.9375, 10.8125, 10.8125, 10.8125, 10.8125, 10.9375, 11, 11, 11, 11.0625, 11.0625, 11.0625, 11, 10.9375, 10.9375, 10.9375, 10.9375, 10.875, 10.875, 10.875, 10.9375, 11.0625, 11.383928, 12.136905, 12.678572, 12.9375, 13.0625, 13.258928, 13.699405, 14.282739, 14.544643, 15.154762, 15.169643, 15.348214, 15.357143, 15.017857, 14.714285, 14.65625, 14.65625, 14.59375, 14.53125, 14.375, 14.1875, 14.125, 14.151786, 14.482143, 14.785714, 14.803572, 14.7375, 14.866072, 14.669643, 14.5625, 14.3125, 14.0625, 13.803572, 13.282739, 12.476191, 11.866072, 11.392857, 11.125, 11, 11, 11, 11, 11, 11.0625, 11.125, 11.1875, 11.1875, 11.125, 11.0625, 11.0625, 11.0625, 11.125, 11.25, 11.375, 11.5, 11.625, 11.75, 11.75, 11.625, 11.625, 11.625, 11.625, 11.6875, 11.71875, 11.59375, 11.65625, 11.96875, 12.05, -10, -10, -10, -10, -10, -10, -10, -10, -10, -10, -10, -10, -10, -10, -10, -10, -10, -10, -10, -10, -10, -10, -10, -10, -10, -10, -10, -10, -10, -10, -10, -10, -10, -10, -10, -10, -10, -10, -10, -10, -10, -10, -10, -10, -10, -10, -10, -10, -10, -10, -10, -10, -10, 116.625, 116.66666, 116.75, 116.5, -10, -10, -10, -10, -10, -10, -10, -10, -10, -10, -10, -10, -10, -10, -10, -10, -10, -10, -10, -10, -10, -10, -10, -10, -10, -10, -10, -10, -10, -10, -10, -10, -10, -10, -10, -10, -10, -10, -10, -10, -10, -10, -10
-10, -10, -10, -10, -10, -10, -10, -10, -10, -10, -10, -10, -10, -10, -10, -10, -10, -10, 78, 78, 77.857147, 77.190475, 76.605446, 75.952377, 75.5625, 75.375, 74.9375, 74.375, 73.919647, 73.491074, 72.875, 72.226189, 71.177078, 70.760414, 70.1875, 70.013397, 69.4375, 68.730652, 68.138397, 67.633926, 67.375, 67, 66.5625, 66.098213, 65.083328, 64.660713, 64.428574, 64.474998, 64.035713, 63.595238, 63, 62.375, 62, 61.375, 60.857143, 60.038689, 59.319729, 58.806122, 58.30442, 58.316326, 57.910713, 57.270832, 56.75, 55.770832, 55.4375, 54.964287, 54.458332, 54.160713, 53.875, 53.616074, 53.122025, 52.633926, 51.625, 51.116074, 50.580357, 50.1875, 49.705357, 49.294643, 48.901787, 48.5625, 48, 47.419643, 46.830357, 46.375, 45.830357, 45.375, 44.830357, 44.25, 43.866074, 43.392857, 42.577381, 42.071426, 41.5625, 41.3125, 40.9375, 40.616074, 40.1875, 39.669643, 38.875, 38.303574, 37.660713, 37.375, 36.875, 36.5, 36.125, 35.5625, 35.080357, 34.580357, 34.125, 33.625, 32.958336, 32.517857, 32.1875, 31.767857, 31.1875, 30.410713, 29.785713, 29.25, 28.705357, 28.1875, 27.589285, 26.979166, 26.446428, 25.946428, 25.5, 25.205357, 24.583334, 24.178572, 23.598213, 23.1875, 22.705357, 22.3125, 21.875, 21.375, 20.767857, 20.267857, 19.75, 19.25, 18.705357, 18.375, 17.875, 17.5, 17.125, 16.625, 16.125, 15.535714, 15, 14.4375, 13.892857, 13.4375, 12.9375, 12.5, 12, 11.104167, 10.5, 10.1875, 10.25, 10.5, 10.6875, 10.9375, 10.9375, 10.9375, 11, 10.9375, 10.8125, 10.8125, 10.75, 10.75, 10.875, 10.875, 10.875, 11, 11, 11, 11.0625, 11, 11, 11, 11, 11, 11, 11, 11, 11.125, 11.508928, 12.306547, 12.758928, 13, 13.0625, 13.258928, 13.699405, 14.282739, 14.678572, 15.375, 15.598215, 15.75, 15.669643, 15.205357, 14.928572, 14.982143, 14.991072, 14.875, 14.625, 14.330357, 14.125, 14.1875, 14.25, 14.4375, 14.732143, 14.616072, 14.55, 14.741072, 14.544643, 14.5, 14.3125, 14.0625, 13.803572, 13.199405, 12.476191, 11.866072, 11.392857, 11.1875, 11, 11, 11, 11, 11, 11.0625, 11.1875, 11.25, 11.25, 11.1875, 11.0625, 11.0625, 11.0625, 11.0625, 11.25, 11.4375, 11.625, 11.8125, 11.8125, 11.8125, 11.625, 11.625, 11.6875, 11.625, 11.6875, 11.71875, 11.65625, 11.71875, 12.03125, 12.083333, -10, -10, -10, -10, -10, -10, -10, -10, -10, -10, -10, -10, -10, -10, -10, -10, -10, -10, -10, -10, -10, -10, -10, -10, -10, -10, -10, -10, -10, -10, -10, -10, -10, -10, -10, -10, -10, -10, -10, -10, -10, -10, -10, -10, -10, -10, -10, -10, -10, -10, -10, -10, -10, 116.625, 116.58333, 116.6875, 116.55555, -10, -10, -10, -10, -10, -10, -10, -10, -10, -10, -10, -10, -10, -10, -10, -10, -10, -10, -10, -10, -10, -10, -10, -10, -10, -10, -10, -10, -10, -10, -10, -10, -10, -10, -10, -10, -10, -10, -10, -10, -10, -10, -10, -10, -10, -10, -10, -10, -10, -10, -10, -10, -10, -10, -10, -10, -10, -10, -10, -10, -10, -10, -10, -10, -10, -10, -10, -10, -10, -10, -10, -10, -10, -10, -10, -10, -10, -10, -10, -10, -10, -10, -10, -10, -10, 78, 78, 77.991074, 77.648811, 76.626984, 76.035713, 75.517853, 75.25, 74.875, 74.4375, 73.955353, 73.282738, 72.696426, 72.080353, 71.322914, 70.894341, 70.083336, 69.839287, 69.21875, 68.569939, 68.263397, 67.75, 67.5, 67.125, 66.6875, 66.223213, 65.130951, 64.632652, 64.220238, 64.314285, 63.910713, 63.595238, 63.0625, 62.517857, 62.125, 61.553574, 60.880951, 60.145832, 59.696426, 59.267857, 58.797619, 58.6875, 58.303574, 57.291664, 56.75, 55.895832, 55.5625, 55.214287, 54.8125, 54.410713, 54.0625, 53.616074, 52.997025, 52.48214, 51.642857, 51.178574, 50.642857, 50.125, 49.598213, 49.169643, 48.776787, 48.482143, 47.830357, 47.348213, 46.767857, 46.3125, 45.723213, 45.3125, 44.8125, 44.25, 43.928574, 43.5, 42.595238, 42.142857, 41.625, 41.375, 40.9375, 40.345238, 39.946426, 39.526787, 38.8125, 38.303574, 37.660713, 37.3125, 36.8125, 36.4375, 36.125, 35.678574, 35.104168, 34.517857, 34, 33.508926, 33.041668, 32.633926, 32.25, 31.723213, 31.125, 30.464285, 29.892857, 29.3125, 28.767857, 28.25, 27.696428, 27.104166, 26.571428, 26.071428, 25.6875, 25.321428, 24.5625, 24.053572, 23.473213, 23.1875, 22.75, 22.4375, 22, 21.446428, 20.684523, 20.205357, 19.6875, 19.3125, 18.830357, 18.5, 18, 17.517857, 17.125, 16.625, 16.125, 15.535714, 15, 14.5, 14, 13.4375, 12.892857, 12.4375, 11.9375, 11.3125, 10.678572, 10.375, 10.375, 10.5625, 10.8125, 11, 11, 11, 11, 11, 10.9375, 10.9375, 10.875, 10.8125, 10.875, 10.8125, 10.75, 10.875, 10.875, 10.9375, 11.0625, 11, 11, 11, 11, 11, 11, 11, 11, 11.1875, 11.633928, 12.47619, 12.839286, 13.0625, 13.125, 13.321428, 13.886905, 14.532739, 14.866072, 15.395833, 15.616072, 15.6875, 15.6875, 15.375, 15.107143, 15.169643, 15.178572, 15, 14.6875, 14.455357, 14.25, 14.3125, 14.3125, 14.375, 14.544643, 14.366072, 14.3, 14.553572, 14.419643, 14.5, 14.375, 14.125, 13.866072, 13.163691, 12.476191, 11.9375, 11.517857, 11.375, 11.125, 11.0625, 11, 11, 11, 11.0625, 11.1875, 11.25, 11.25, 11.1875, 11.0625, 11, 10.9375, 10.964286, 11.294643, 11.553572, 11.75, 11.8125, 11.6875, 11.625, 11.4375, 11.4375, 11.5625, 11.5625, 11.6875, 11.8125, 11.75, 11.8125, 12.09375, 12.124999, -10, -10, -10, -10, -10, -10, -10, -10, -10, -10, -10, -10, -10, -10, -10, -10, -10, -10, -10, -10, -10, -10, -10, -10, -10, -10, -10, -10, -10, -10, -10, -10, -10, -10, -10, -10, -10, -10, -10, -10, -10, -10, -10, -10, -10, -10, -10, -10, -10, -10, -10, -10, -10, 116.625, 116.58333, 116.6875, 116.66666, -10, -10, -10, -10, -10, -10, -10, -10, -10, -10, -10, -10, -10, -10, -10, -10, -10, -10, -10, -10, -10, -10, -10, -10, -10, -10, -10, -10, -10, -10, -10, -10, -10, -10, -10, -10, -10, -10, -10, -10, -10, -10, -10
-10, -10, -10, -10, -10, -10, -10, -10, -10, -10, -10, -10, -10, -10, -10, -10, -10, -10, 78.125, 78.083336, 78.125, 78.044647, 77.503403, 76.035713, 75.4375, 75.125, 74.8125, 74.5, 74.0625, 73.136902, 72.580353, 72.071426, 71.566963, 71.028267, 70.190475, 69.875, 69.3125, 68.663689, 68.357147, 67.8125, 67.46875, 67.09375, 66.71875, 66.361603, 65.888885, 65.244896, 64.241074, 64.296432, 63.910713, 63.720238, 63.241074, 62.642857, 62.375, 61.8125, 60.904762, 60.119045, 59.571426, 59.1875, 58.964287, 58.8125, 58.428574, 57.291664, 56.785713, 56.1875, 55.875, 55.51786, 54.854168, 54.41964, 54, 53.428574, 52.702381, 52.258926, 51.767857, 51.4375, 50.901787, 50.083332, 49.54464, 49.044643, 48.714287, 48.401787, 47.660713, 47.276787, 46.705357, 46.25, 45.61607, 45.1875, 44.6875, 44.1875, 43.839287, 43.392857, 42.577381, 42.142857, 41.625, 41.375, 40.928574, 40.136906, 39.767857, 39.339287, 38.6875, 38.303574, 37.705357, 37.375, 36.875, 36.4375, 36.1875, 35.732143, 35.020836, 34.464287, 33.875, 33.392857, 33.017857, 32.625, 32.1875, 31.660713, 31.0625, 30.455357, 29.892857, 29.375, 28.830357, 28.25, 27.660713, 27.25, 26.6875, 26.267857, 25.9375, 25.446428, 24.6875, 24.116072, 23.580357, 23.3125, 22.875, 22.5, 22.017857, 21.383928, 20.622023, 20.080357, 19.5625, 19.3125, 18.875, 18.5625, 18.0625, 17.517857, 17.125, 16.625, 16.125, 15.473214, 14.892857, 14.4375, 13.9375, 13.375, 12.785713, 12.375, 11.875, 11.3125, 10.678572, 10.4375, 10.4375, 10.625, 10.875, 11, 11, 11, 11, 11, 10.9375, 10.9375, 10.875, 10.8125, 10.875, 10.8125, 10.75, 10.8125, 10.8125, 10.875, 11, 11, 11, 11, 11, 11, 11, 11, 11, 11.25, 11.75, 12.5, 12.848214, 13.0625, 13.1875, 13.383928, 13.958333, 14.366072, 14.696428, 15.208333, 15.491072, 15.535714, 15.464286, 15.3125, 15.151786, 15.294643, 15.366072, 15.267857, 15.0625, 14.830357, 14.625, 14.5, 14.375, 14.3125, 14.357143, 14.1875, 14.25, 14.4375, 14.4375, 14.5, 14.4375, 14.1875, 13.928572, 13.181547, 12.226191, 11.732143, 11.4375, 11.375, 11.1875, 11.125, 11, 11, 11, 11.0625, 11.1875, 11.25, 11.3125, 11.25, 11.125, 11.125, 11.0625, 11.089286, 11.419643, 11.553572, 11.625, 11.625, 11.5, 11.5, 11.4375, 11.4375, 11.5, 11.5, 11.625, 11.8125, 11.875, 11.9375, 12.125, 12.166666, -10, -10, -10, -10, -10, -10, -10, -10, -10, -10, -10, -10, -10, -10, -10, -10, -10, -10, -10, -10, -10, -10, -10, -10, -10, -10, -10, -10, -10, -10, -10, -10, -10, -10, -10, -10, -10, -10, -10, -10, -10, -10, -10, -10, -10, -10, -10, -10, -10, -10, -10, -10, -10, 116.75, 116.66666, 116.75, 116.75, -10, -10, -10, -10, -10, -10, -10, -10, -10, -10, -10, -10, -10, -10, -10, -10, -10, -10, -10, -10, -10, -10, -10, -10, -10, -10, -10, -10, -10, -10, -10, -10, -10, -10, -10, -10, -10, -10, -10, -10, -10, -10, -10, -10, -10, -10, -10, -10, -10, -10, -10, -10, -10, -10, -10, -10, -10, -10, -10, -10, -10, -10, -10, -10, -10, -10, -10, -10, -10, -10, -10, -10, -10, -10, -10, -10, -10, -10, -10, -10, -10, -10, -10, -10, -10, 78.125, 78.083336, 78.125, 78.044647, 77.273804, 75.952385, 75.366074, 75.0625, 74.75, 74.5, 74.0625, 73.074402, 72.410713, 72.026787, 71.754463, 71.174103, 70.333328, 69.75, 69.1875, 68.705353, 68.375, 67.875, 67.260414, 66.915176, 66.59375, 66.424103, 65.952377, 65.612244, 64.428574, 64.088097, 63.69643, 63.616074, 63.303574, 62.830357, 62.553574, 61.854164, 60.904762, 60.119045, 59.633926, 59.3125, 59.0625, 58.767857, 58.357143, 57.416664, 56.928574, 56.375, 56.125, 55.741074, 55.041668, 54.428574, 53.830357, 53.3125, 52.723213, 52.3125, 51.892857, 51.5625, 51.071426, 50.154758, 49.5, 48.9375, 48.6875, 48.32143, 47.55357, 47.276787, 46.75, 46.25, 45.57143, 45.0625, 44.5625, 44.125, 43.714287, 43.276787, 42.553574, 42.142857, 41.625, 41.3125, 40.928574, 40.119049, 39.535713, 39.125, 38.6875, 38.330357, 37.830357, 37.5625, 37.125, 36.520832, 36.232143, 35.732143, 34.958336, 34.285713, 33.633926, 33.142857, 32.767857, 32.4375, 32, 31.535713, 31, 30.375, 29.785713, 29.375, 28.875, 28.3125, 27.75, 27.375, 26.9375, 26.625, 26.041666, 25.517857, 24.6875, 24.178572, 23.6875, 23.375, 22.875, 22.4375, 21.892857, 21.196428, 20.452381, 20, 19.5, 19.3125, 18.875, 18.5625, 18.0625, 17.517857, 17.09375, 16.59375, 16.09375, 15.424107, 14.785713, 14.375, 13.875, 13.375, 12.785713, 12.375, 11.875, 11.375, 10.785713, 10.5625, 10.5625, 10.6875, 10.9375, 11, 10.9375, 10.9375, 10.9375, 10.9375, 10.9375, 10.9375, 10.875, 10.8125, 10.875, 10.8125, 10.75, 10.75, 10.6875, 10.75, 10.875, 10.9375, 11, 11, 11, 11, 11, 11, 11, 11.25, 11.75, 12.428572, 12.75, 13, 13.1875, 13.4375, 13.78125, 14.09375, 14.375, 14.967262, 15.223214, 15.223214, 15.089286, 14.9375, 14.839286, 15.107143, 15.241072, 15.25, 15.125, 14.955357, 14.8125, 14.8125, 14.6875, 14.5, 14.375, 14.125, 14.125, 14.375, 14.419643, 14.375, 14.375, 14.125, 13.991072, 13.261904, 12.083333, 11.589287, 11.3125, 11.3125, 11.1875, 11.125, 11, 11, 11, 11, 11.0625, 11.0625, 11.125, 11.125, 11.0625, 11.1875, 11.1875, 11.214286, 11.482143, 11.491072, 11.4375, 11.4375, 11.375, 11.4375, 11.5, 11.5, 11.5625, 11.625, 11.75, 11.9375, 12, 12, 12.125, 12.166666, -10, -10, -10, -10, -10, -10, -10, -10, -10, -10, -10, -10, -10, -10, -10, -10, -10, -10, -10, -10, -10, -10, -10, -10, -10, -10, -10, -10, -10, -10, -10, -10, -10, -10, -10, -10, -10, -10, -10, -10, -10, -10, -10, -10, -10, -10, -10, -10, -10, -10, -10, -10, -10, 117, 116.91666, 116.9375, 116.91666, -10, -10, -10, -10, -10, -10, -10, -10, -10, -10, -10, -10, -10, -10, -10, -10, -10, -10, -10, -10, -10, -10, -10, -10, -10, -10, -10, -10, -10, -10, -10, -10, -10, -10, -10, -10, -10, -10, -10, -10, -10, -10, -10
-10, -10, -10, -10, -10, -10, -10, -10, -10, -10, -10, -10, -10, -10, -10, -10, -10, -10, 78.166664, 78.083336, 78.041664, 78.0625, 77.607147, 76.291672, 75.678574, 75.1875, 74.8125, 74.5625, 74.107147, 72.967255, 72.464279, 72.0625, 71.785713, 71.205353, 70.333328, 69.75, 69.25, 68.8125, 68.4375, 67.9375, 67.052078, 66.674103, 66.34375, 66.21875, 66.160713, 65.741074, 64.6875, 64.050598, 63.660713, 63.5, 63.303574, 62.955357, 62.669643, 61.833336, 60.833336, 60.285713, 59.8125, 59.375, 58.955357, 58.580357, 58.116074, 57.458332, 57.0625, 56.5625, 56.258926, 55.657738, 54.979168, 54.348213, 53.830357, 53.3125, 52.723213, 52.25, 51.892857, 51.544643, 50.964287, 50.092258, 49.48214, 49, 48.75, 48.38393, 47.57143, 47.276787, 46.75, 46.3125, 45.67857, 45.0625, 44.517857, 44.125, 43.6875, 43.232143, 42.553574, 42.133926, 41.616074, 41.104168, 40.6875, 39.940479, 39.473213, 39, 38.580357, 38.25, 37.767857, 37.5, 37.017857, 36.395832, 36.044643, 35.544643, 34.770836, 34.205357, 33.633926, 33.19643, 32.705357, 32.428574, 31.830357, 31.464285, 30.9375, 30.375, 29.785713, 29.375, 28.875, 28.3125, 27.75, 27.375, 26.9375, 26.5625, 25.872025, 25.4375, 24.791666, 24.375, 23.875, 23.4375, 23, 22.5, 22.017857, 21.383928, 20.622023, 20.142857, 19.625, 19.375, 18.9375, 18.5625, 18.0625, 17.517857, 17.09375, 16.584822, 15.947917, 15.28125, 14.660713, 14.3125, 13.875, 13.4375, 12.848213, 12.392857, 11.875, 11.4375, 10.892857, 10.625, 10.625, 10.6875, 10.9375, 10.9375, 10.8125, 10.8125, 10.8125, 10.875, 11, 11, 11, 11, 11, 10.9375, 10.875, 10.8125, 10.75, 10.8125, 10.875, 10.9375, 11, 11, 11, 11, 11, 11, 11, 11.25, 11.75, 12.428572, 12.75, 13, 13.25, 13.5, 13.84375, 14.09375, 14.178572, 14.526786, 14.794643, 14.848214, 14.901786, 14.875, 14.875, 15, 15.0625, 15.0625, 15.0625, 15.0625, 15, 15, 14.8125, 14.5625, 14.3125, 14.0625, 14.125, 14.375, 14.464286, 14.3125, 14.3125, 14.0625, 13.991072, 13.261904, 12.011905, 11.589287, 11.3125, 11.3125, 11.25, 11.125, 11, 11, 11, 11, 11, 11, 11.0625, 11.125, 11.1875, 11.375, 11.375, 11.339286, 11.482143, 11.428572, 11.375, 11.4375, 11.5, 11.5625, 11.6875, 11.6875, 11.6875, 11.75, 11.8125, 11.875, 11.875, 11.8125, 11.875, 11.916666, -10, -10, -10, -10, -10, -10, -10, -10, -10, -10, -10, -10, -10, -10, -10, -10, -10, -10, -10, -10, -10, -10, -10, -10, -10, -10, -10, -10, -10, -10, -10, -10, -10, -10, -10, -10, -10, -10, -10, -10, -10, -10, -10, -10, -10, -10, -10, -10, -10, -10, -10, -10, -10, 117, 117, 117, 117, -10, -10, -10, -10, -10, -10, -10, -10, -10, -10, -10, -10, -10, -10, -10, -10, -10, -10, -10, -10, -10, -10, -10, -10, -10, -10, -10, -10, -10, -10, -10, -10, -10, -10, -10, -10, -10, -10, -10, -10, -10, -10, -10, -10, -10, -10, -10, -10, -10, -10, -10, -10, -10, -10, -10, -10, -10, -10, -10, -10, -10, -10, -10, -10, -10, -10, -10, -10, -10, -10, -10, -10, -10, -10, -10, -10, -10, -10, -10, -10, -10, -10, -10, -10, -10, -10, 78.083336, 77.895828, 77.8125, 77.321426, 76.333336, 75.785721, 75.3125, 74.875, 74.625, 74.214287, 73.122017, 72.571426, 72.125, 71.723213, 71.133926, 70.375, 69.830353, 69.3125, 68.830353, 68.4375, 67.928574, 66.84375, 66.504463, 66.21875, 66.138397, 65.889877, 65.526787, 64.833336, 64.148811, 63.678574, 63.4375, 63.241074, 63, 62.669643, 61.797623, 60.979168, 60.473213, 60, 59.455357, 58.955357, 58.455357, 57.9375, 57.5, 57.125, 56.625, 56.258926, 55.550598, 54.979168, 54.392853, 53.892857, 53.258926, 52.61607, 52.25, 52, 51.660713, 50.943451, 50.029758, 49.464287, 49, 48.6875, 48.276787, 47.55357, 47.267853, 46.75, 46.375, 45.785713, 45.1875, 44.705357, 44.3125, 43.8125, 43.196426, 42.553574, 42.125, 41.616074, 41.041668, 40.58036, 40.086311, 39.589287, 39.125, 38.642857, 38.3125, 37.9375, 37.678574, 37.059525, 36.404762, 35.982143, 35.428574, 34.747025, 34.267857, 33.758926, 33.3125, 32.705357, 32.491074, 31.875, 31.488094, 30.9375, 30.375, 29.785713, 29.375, 28.875, 28.3125, 27.75, 27.375, 26.9375, 26.5, 25.702381, 25.321428, 24.8125, 24.5, 24, 23.5, 23.0625, 22.5, 22.017857, 21.4375, 20.830357, 20.330357, 19.8125, 19.4375, 18.9375, 18.5, 18, 17.5, 17.09375, 16.584822, 15.947917, 15.21875, 14.553572, 14.1875, 13.75, 13.4375, 12.955357, 12.517857, 12, 11.383928, 10.785713, 10.5, 10.5, 10.625, 10.875, 10.875, 10.6875, 10.625, 10.625, 10.75, 10.9375, 11, 11, 11, 11, 11, 11, 10.9375, 10.875, 10.8125, 10.8125, 10.875, 10.9375, 11, 11, 11, 11, 11, 11, 11.1875, 11.633928, 12.404762, 12.741072, 13, 13.1875, 13.4375, 13.71875, 13.90625, 14.053572, 14.339286, 14.607143, 14.723214, 14.776786, 14.875, 15, 15.125, 15.1875, 15.1875, 15.1875, 15.1875, 15.125, 15.0625, 14.875, 14.625, 14.375, 14.1875, 14.1875, 14.375, 14.401786, 14.125, 14.125, 13.9375, 13.857143, 12.952381, 11.857143, 11.401787, 11.125, 11.125, 11.125, 11.0625, 11, 11, 11, 11, 11, 11, 11.0625, 11.1875, 11.3125, 11.5, 11.5625, 11.4375, 11.4375, 11.375, 11.375, 11.5625, 11.6875, 11.8125, 11.9375, 11.9375, 11.875, 11.875, 11.8125, 11.75, 11.6875, 11.5625, 11.625, 11.666666, -10, -10, -10, -10, -10, -10, -10, -10, -10, -10, -10, -10, -10, -10, -10, -10, -10, -10, -10, -10, -10, -10, -10, -10, -10, -10, -10, -10, -10, -10, -10, -10, -10, -10, -10, -10, -10, -10, -10, -10, -10, -10, -10, -10, -10, -10, -10, -10, -10, -10, -10, -10, -10, 117, 117, 117, 117, -10, -10, -10, -10, -10, -10, -10, -10, -10, -10, -10, -10, -10, -10, -10, -10, -10, -10, -10, -10, -10, -10, -10, -10, -10, -10, -10, -10, -10, -10, -10, -10, -10, -10, -10, -10, -10, -10, -10, -10, -10, -10, -10
-10, -10, -10, -10, -10, -10, -10, -10, -10, -10, -10, -10, -10, -10, -10, -10, -10, -10, -10, 78, 77.749992, 77.625, 77.178574, 76.520836, 76.035721, 75.455353, 74.9375, 74.625, 74.276787, 73.455353, 72.928574, 72.145836, 71.616074, 71.125, 70.517853, 70.080353, 69.166664, 68.678574, 68.25, 67.803574, 66.875, 66.598213, 66.375, 66.285713, 65.744041, 65.348213, 64.8125, 64.104172, 63.57143, 63.1875, 62.9375, 62.8125, 62.419643, 61.663692, 61.125, 60.580357, 60.125, 59.517857, 58.955357, 58.330357, 57.875, 57.4375, 57.1875, 56.678574, 56.113094, 55.443451, 55.0625, 54.508926, 54.080357, 53.446426, 52.785713, 52.330357, 52, 51.598213, 50.872025, 50.196426, 49.705357, 49.241074, 48.666668, 48.169643, 47.535713, 47.258926, 46.8125, 46.5, 45.955357, 45.330357, 44.892857, 44.5, 44, 43.267853, 42.57143, 42.1875, 41.678574, 41.104168, 40.714287, 40.357143, 39.830357, 39.330357, 38.767857, 38.3125, 37.892857, 37.553574, 36.934525, 36.342262, 35.857143, 35.375, 34.830357, 34.258926, 33.714287, 33.3125, 32.75, 32.491074, 31.830357, 31.363094, 30.8125, 30.375, 29.830357, 29.4375, 28.9375, 28.3125, 27.75, 27.375, 27, 26.553572, 25.619047, 25.267857, 24.75, 24.5, 24, 23.5, 23.0625, 22.5625, 22.125, 21.5625, 20.955357, 20.455357, 19.9375, 19.5, 19, 18.5, 18.0625, 17.5625, 17.15625, 16.602678, 15.947917, 15.21875, 14.553572, 14.125, 13.6875, 13.375, 12.9375, 12.517857, 12, 11.446428, 10.955357, 10.625, 10.625, 10.625, 10.75, 10.75, 10.5, 10.5, 10.5, 10.5625, 10.8125, 10.875, 10.9375, 11, 11, 11, 11, 10.9375, 10.875, 10.8125, 10.8125, 10.875, 10.9375, 11, 11, 11, 11, 11, 11, 11.125, 11.508928, 12.235119, 12.660715, 12.9375, 13.125, 13.375, 13.59375, 13.71875, 13.928572, 14.214286, 14.482143, 14.6875, 14.8125, 14.875, 15.0625, 15.125, 15.125, 15.125, 15.1875, 15.1875, 15.1875, 15.125, 14.9375, 14.6875, 14.4375, 14.25, 14.15625, 14.21875, 14.205358, 14, 14, 13.9375, 13.75, 12.559524, 11.714287, 11.294643, 11.0625, 11.0625, 11.0625, 11, 11, 11, 11, 11, 11, 11, 11, 11.1875, 11.3125, 11.4375, 11.5, 11.3125, 11.25, 11.3125, 11.4375, 11.6875, 11.875, 11.9375, 12, 12, 12, 12, 11.9375, 11.8125, 11.75, 11.625, 11.75, 11.833333, -10, -10, -10, -10, -10, -10, -10, -10, -10, -10, -10, -10, -10, -10, -10, -10, -10, -10, -10, -10, -10, -10, -10, -10, -10, -10, -10, -10, -10, -10, -10, -10, -10, -10, -10, -10, -10, -10, -10, -10, -10, -10, -10, -10, -10, -10, -10, -10, -10, -10, -10, -10, -10, 116.9375, 117, 117, 117, -10, -10, -10, -10, -10, -10, -10, -10, -10, -10, -10, -10, -10, -10, -10, -10, -10, -10, -10, -10, -10, -10, -10, -10, -10, -10, -10, -10, -10, -10, -10, -10, -10, -10, -10, -10, -10, -10, -10, -10, -10, -10, -10, -10, -10, -10, -10, -10, -10, -10, -10, -10, -10, -10, -10, -10, -10, -10, -10, -10, -10, -10, -10, -10, -10, -10, -10, -10, -10, -10, -10, -10, -10, -10, -10, -10, -10, -10, -10, -10, -10, -10, -10, -10, -10, -10, 78, 77.749992, 77.625, 77.178574, 76.6875, 76.285721, 75.535713, 75, 74.625, 74.276787, 73.517853, 73.035721, 72.145836, 71.571426, 71.125, 70.625, 70.223213, 69.125, 68.607147, 68.25, 67.910713, 67.101189, 66.776779, 66.5625, 66.33036, 65.601189, 65.276779, 64.741074, 64.104172, 63.57143, 63.25, 62.982143, 62.583332, 62.169643, 61.559525, 61.0625, 60.580357, 60.125, 59.517857, 58.964287, 58.229168, 57.8125, 57.375, 57.25, 56.803574, 56.229168, 55.422623, 55.071426, 54.625, 54.3125, 53.633926, 52.764881, 52.276783, 51.875, 51.535713, 50.872025, 50.303574, 49.729168, 49.3125, 48.729168, 48.25, 47.767857, 47.4375, 46.9375, 46.580357, 46.0625, 45.455357, 45.017857, 44.5, 43.955357, 43.267853, 42.61607, 42.25, 41.69643, 41.104168, 40.651787, 40.3125, 39.9375, 39.517857, 38.955357, 38.321426, 37.785713, 37.303574, 36.622025, 36.258926, 35.75, 35.25, 34.660713, 34.25, 33.830357, 33.544643, 32.9375, 32.553574, 31.785713, 31.238094, 30.6875, 30.375, 29.9375, 29.5625, 29.0625, 28.321428, 27.67857, 27.3125, 26.866072, 26.220238, 25.523809, 25.196428, 24.8125, 24.517857, 23.75, 23.232143, 22.8125, 22.4375, 22.0625, 21.625, 21.0625, 20.517857, 20, 19.5, 19, 18.5, 18.125, 17.616072, 17.041666, 16.517857, 15.854167, 15.1875, 14.553572, 14.125, 13.6875, 13.375, 12.9375, 12.517857, 12, 11.446428, 11.017857, 10.6875, 10.6875, 10.6875, 10.75, 10.75, 10.5625, 10.5625, 10.5625, 10.625, 10.8125, 10.8125, 10.875, 10.9375, 10.9375, 11, 11, 11, 11, 10.9375, 10.9375, 10.9375, 10.9375, 11, 11, 11, 11, 11, 11, 11.0625, 11.383928, 12.065476, 12.580357, 12.875, 13.0625, 13.3125, 13.5625, 13.75, 14.071428, 14.476191, 14.732143, 14.9375, 15, 15, 15.125, 15.125, 15.1875, 15.1875, 15.1875, 15.125, 15, 14.9375, 14.75, 14.5625, 14.375, 14.1875, 14.15625, 14.21875, 14.223215, 14.125, 14.0625, 14, 13.642857, 12.166666, 11.571428, 11.1875, 11.0625, 11.0625, 11.0625, 11, 11, 11, 11, 11, 11, 11, 11, 11.1875, 11.3125, 11.375, 11.375, 11.1875, 11.125, 11.25, 11.5, 11.6875, 11.875, 11.9375, 11.9375, 12, 12, 12, 11.9375, 11.8125, 11.75, 11.625, 11.821428, 12.083333, -10, -10, -10, -10, -10, -10, -10, -10, -10, -10, -10, -10, -10, -10, -10, -10, -10, -10, -10, -10, -10, -10, -10, -10, -10, -10, -10, -10, -10, -10, -10, -10, -10, -10, -10, -10, -10, -10, -10, -10, -10, -10, -10, -10, -10, -10, -10, -10, -10, -10, -10, 116.375, 116.58333, 116.84375, 116.96875, 117, 117, -10, -10, -10, -10, -10, -10, -10, -10, -10, -10, -10, -10, -10, -10, -10, -10, -10, -10, -10, -10, -10, -10, -10, -10, -10, -10, -10, -10, -10, -10, -10, -10, -10, -10, -10, -10, -10, -10, -10, -10, -10, -10, -10
-10, -10, -10, -10, -10, -10, -10, -10, -10, -10, -10, -10, -10, -10, -10, -10, -10, -10, 78, 78, 77.770828, 77.6875, 77.285713, 76.776787, 76.464287, 75.553574, 75, 74.487503, 74.211304, 73.446426, 73.107147, 72.333336, 71.875, 71.208336, 70.678574, 70.223213, 69.125, 68.607147, 68.25, 67.910713, 67.309525, 66.955353, 66.75, 66.5, 65.619041, 65.214279, 64.470238, 63.863094, 63.36607, 63.0625, 62.794643, 62.270832, 61.866074, 61.455357, 61, 60.580357, 60.1875, 59.642857, 59.196426, 58.416668, 57.9375, 57.321426, 57.080357, 56.616074, 56.032742, 55.443451, 55.071426, 54.6875, 54.3125, 53.696426, 52.934525, 52.464283, 52, 51.571426, 50.979168, 50.428574, 49.854168, 49.375, 48.854168, 48.375, 48, 47.625, 46.916668, 46.526787, 46, 45.517857, 45.125, 44.5, 43.910713, 43.267853, 42.723213, 42.375, 41.892857, 41.4375, 40.747025, 40.383926, 39.9375, 39.580357, 39.0625, 38.383926, 37.910713, 37.428574, 36.854168, 36.508926, 35.791668, 35.321426, 34.723213, 34.3125, 33.892857, 33.553574, 33, 32.517857, 31.892857, 31.229166, 30.642857, 30.3125, 29.9375, 29.625, 29.125, 28.330357, 27.67857, 27.3125, 26.866072, 26.220238, 25.523809, 25.196428, 24.8125, 24.464287, 23.541666, 23.035713, 22.464287, 22.1875, 21.75, 21.375, 20.875, 20.4375, 20, 19.5625, 19.0625, 18.517857, 18.125, 17.616072, 16.979166, 16.464285, 15.9375, 15.104167, 14.5, 14.0625, 13.625, 13.3125, 12.875, 12.5, 12, 11.446428, 11.017857, 10.6875, 10.6875, 10.6875, 10.75, 10.8125, 10.6875, 10.6875, 10.6875, 10.6875, 10.8125, 10.75, 10.8125, 10.875, 10.875, 11, 11, 11, 11, 10.875, 10.8125, 10.8125, 10.8125, 10.9375, 11, 11, 11, 11, 11, 11, 11.258928, 11.895833, 12.5, 12.8125, 13, 13.25, 13.5, 13.75, 14.196428, 14.583333, 14.732143, 14.875, 14.875, 14.9375, 15, 15, 15, 14.9375, 14.9375, 14.875, 14.75, 14.6875, 14.5625, 14.4375, 14.3125, 14.125, 13.96875, 13.96875, 13.991072, 14.0625, 14.0625, 13.991072, 13.297619, 12.011905, 11.455357, 11.0625, 11, 11, 11, 11, 11, 11, 11, 11, 11, 11, 11, 11.125, 11.1875, 11.25, 11.25, 11.125, 11.125, 11.1875, 11.4375, 11.5625, 11.75, 11.8125, 11.75, 11.8125, 11.8125, 11.875, 11.8125, 11.8125, 11.75, 11.5625, 11.800595, 12.1875, -10, -10, -10, -10, -10, -10, -10, -10, -10, -10, -10, -10, -10, -10, -10, -10, -10, -10, -10, -10, -10, -10, -10, -10, -10, -10, -10, -10, -10, -10, -10, -10, -10, -10, -10, -10, -10, -10, -10, -10, -10, -10, -10, -10, -10, -10, -10, -10, -10, -10, -10, 116.375, 116.58333, 116.96875, 117.05209, 117.0625, 117, -10, -10, -10, -10, -10, -10, -10, -10, -10, -10, -10, -10, -10, -10, -10, -10, -10, -10, -10, -10, -10, -10, -10, -10, -10, -10, -10, -10, -10, -10, -10, -10, -10, -10, -10, -10, -10, -10, -10, -10, -10, -10, -10, -10, -10, -10, -10, -10, -10, -10, -10, -10, -10, -10, -10, -10, -10, -10, -10, -10, -10, -10, -10, -10, -10, -10, -10, -10, -10, -10, -10, -10, -10, -10, -10, -10, -10, -10, -10, -10, -10, -10, -10, -10, -10, 78, 78, 77.791664, 77.6875, 77.348213, 76.901787, 76.714287, 75.821426, 75, 74.335716, 73.916664, 73.339287, 73.116074, 72.520836, 72.178574, 71.291672, 70.857147, 70.285713, 69.196426, 68.505951, 68.1875, 67.919647, 67.571426, 66.979164, 66.767853, 66.428574, 65.595238, 65.142853, 64.199402, 63.622025, 63.223213, 62.9375, 62.669643, 62.083332, 61.553574, 61.241074, 60.651787, 60.392857, 60.0625, 59.6875, 59.321426, 58.541668, 58, 57.267857, 56.839287, 56.321426, 55.782742, 55.229164, 54.758926, 54.5, 54.125, 53.75, 53.104168, 52.651783, 52.1875, 51.705357, 51.133926, 50.642857, 50.086311, 49.51786, 48.979168, 48.5, 48.1875, 47.741074, 46.979168, 46.58036, 45.892857, 45.392857, 44.9375, 44.3125, 43.723213, 43.258926, 42.830357, 42.491074, 41.872025, 41.446426, 40.791668, 40.446426, 40, 39.580357, 39.0625, 38.383926, 37.910713, 37.4375, 37.0625, 36.6875, 35.770836, 35.330357, 34.767857, 34.375, 33.892857, 33.5, 33, 32.392857, 31.785713, 31.125, 30.535713, 30.25, 29.875, 29.625, 29.125, 28.267857, 27.571428, 27.25, 26.803572, 26.220238, 25.523809, 25.196428, 24.8125, 24.464287, 23.541666, 23.035713, 22.464287, 22.125, 21.642857, 21.25, 20.625, 20.25, 19.8125, 19.5, 19, 18.517857, 18.125, 17.616072, 16.979166, 16.464285, 15.9375, 15.166667, 14.607143, 14.1875, 13.75, 13.375, 12.875, 12.4375, 11.9375, 11.5, 11.125, 10.8125, 10.8125, 10.75, 10.8125, 10.875, 10.8125, 10.875, 10.875, 10.8125, 10.8125, 10.625, 10.6875, 10.75, 10.8125, 11, 11, 11, 10.9375, 10.8125, 10.75, 10.75, 10.8125, 10.9375, 11, 11, 11, 11, 11, 11, 11.1875, 11.625, 12.258928, 12.669643, 12.9375, 13.1875, 13.375, 13.5625, 13.955357, 14.541666, 14.651786, 14.75, 14.6875, 14.625, 14.696428, 14.825, 14.633928, 14.571428, 14.5, 14.4375, 14.375, 14.375, 14.3125, 14.25, 14.1875, 14, 13.90625, 13.90625, 13.928572, 14.0625, 13.955357, 13.491072, 12.726191, 11.678572, 11.276787, 11, 11, 11.0625, 11.0625, 11.0625, 11.0625, 11, 11, 11, 11, 11, 11, 11.0625, 11.0625, 11.1875, 11.25, 11.25, 11.25, 11.25, 11.4375, 11.4375, 11.6875, 11.75, 11.625, 11.75, 11.6875, 11.75, 11.8125, 11.875, 11.9375, 11.741072, 11.788095, 12.354167, -10, -10, -10, -10, -10, -10, -10, -10, -10, -10, -10, -10, -10, -10, -10, -10, -10, -10, -10, -10, -10, -10, -10, -10, -10, -10, -10, -10, -10, -10, -10, -10, -10, -10, -10, -10, -10, -10, -10, -10, -10, -10, -10, -10, -10, -10, -10, -10, -10, -10, -10, -10, -10, 117.09375, 117.13542, 117.125, 117, 117, -10, -10, -10, -10, -10, -10, -10, -10, -10, -10, -10, -10, -10, -10, -10, -10, -10, -10, -10, -10, -10, -10, -10, -10, -10, -10, -10, -10, -10, -10, -10, -10, -10, -10, -10, -10, -10, -10, -10, -10, -10, -10
