-10, -10, -10, -10, -10, -10, -10, -10, -10, -10, -10, -10, -10, -10, -10, -10, -10, -10, -10, -10, -10, -10, -10, -10, -10, -10, -10, -10, -10, -10, -10, -10, -10, -10, -10, -10, -10, -10, -10, -10, -10, -10, -10, -10, -10, -10, -10, -10, -10, -10, -10, -10, -10, -10, -10, -10, -10, -10, -10, -10, -10, -10, -10, -10, -10, -10, -10, -10, -10, -10, -10, -10, -10, -10, -10, -10, -10, -10, -10, -10, -10, -10, -10, -10, -10, -10, -10, -10, -10, -10, -10, -10, -10, -10, -10, -10, -10, -10, -10, -10, -10, -10, -10, -10, -10, -10, -10, -10, -10, -10, -10, -10, -10, -10, -10, -10, -10, -10, -10, -10, -10, -10, -10, -10, -10, -10, -10, -10, -10, -10, -10, -10, -10, -10, -10, -10, -10, -10, -10, -10, -10, -10, -10, -10, -10, -10, -10, -10, -10, -10, -10, -10, -10, -10, -10, -10, -10, -10, -10, -10, -10, -10, -10, -10, -10, -10, -10, -10, -10, -10, -10, -10, -10, -10, -10, -10, -10, -10, -10, -10, -10, -10, -10, -10, -10, -10, -10, -10, -10, -10, -10, -10, -10, -10, -10, -10, -10, -10, -10, -10, -10, -10, -10, -10, -10, -10, -10, -10, -10, -10, -10, -10, -10, -10, -10, -10, -10, -10, -10, -10, -10, -10, -10, -10, -10, -10, -10, -10, -10, -10, -10, -10, -10, -10, -10, -10, -10, -10, -10, -10, -10, -10, -10, -10, -10, -10, -10, -10, -10, -10, -10, -10, -10, -10, -10, -10, -10, -10, -10, -10, -10, -10, -10, -10, -10, -10, -10, -10, -10, -10, -10, -10, -10, -10, -10, -10, -10, -10, -10, -10, -10, -10, -10, -10, -10, -10, -10, -10, -10, -10, -10, -10, -10, -10, -10, -10, -10, -10, -10, -10, -10, -10, -10, -10, -10, -10, -10, -10, -10, -10, -10, -10, -10, -10, -10, -10, -10, -10, -10, -10, -10, -10, -10, -10, -10, -10, -10, -10, -10, -10, -10, -10, -10, -10, -10, -10, -10, -10, -10, -10, -10, -10, -10, -10, -10, -10, -10, -10, -10, -10, -10, -10, -10, -10, -10, -10, -10, -10, -10, -10, -10, -10, -10, -10, -10, -10, -10, -10, -10, -10, -10, -10, -10, -10, -10, -10, -10, -10, -10, -10, -10, -10, -10, -10, -10, -10, -10, -10, -10, -10, -10, -10, -10, -10, -10, -10, -10, -10, -10, -10, -10, -10, -10, -10, -10, -10, -10, -10, -10, -10, -10, -10, -10, -10, -10, -10, -10, -10, -10, -10, -10, -10, -10, -10, -10, -10, -10, -10, -10, -10, -10, -10, -10, -10, -10, -10, -10, -10, -10, -10, -10, -10, -10, -10, -10, -10, -10, -10, -10, -10, -10, -10, -10, -10, -10, -10, -10, -10, -10, -10, -10, -10, -10, -10, -10, -10, -10, -10, -10, -10, -10, -10, -10, -10, -10, -10, -10, -10, -10, -10, -10, -10, -10, -10, -10, -10, -10, -10, -10, -10, -10, -10, -10, -10, -10, -10, -10, -10, -10, -10, -10, -10, -10, -10, -10, -10, -10, -10, -10, -10, -10, -10, -10, -10, -10, -10, -10, -10, -10, -10, -10, -10, -10, -10, -10, -10, -10, -10, -10, -10, -10, -10, -10, -10, -10, -10, -10, -10, -10, -10, -10, -10, -10, -10, -10, -10, -10, -10, -10, -10, -10, -10, -10, -10, -10, -10, -10, -10, -10, -10, -10, -10, -10, -10, -10, -10, -10, -10, -10, -10, -10, -10, -10, -10, -10, -10, -10, -10, -10, -10, -10, -10, -10, -10, -10, -10, -10, -10, -10, -10, -10, -10, -10, -10, -10, -10, -10, -10, -10, -10, -10, -10, -10, -10, -10, -10, -10, -10, -10, -10, -10, -10, -10, -10, -10, -10, -10, -10, -10, -10, -10, -10, -10, -10, -10, -10, -10, -10, -10, -10, -10, -10, -10, -10, -10, -10, -10, -10, -10, -10, -10, -10, -10, -10, -10, -10, -10, -10, -10, -10, -10, -10, -10, -10, -10, -10, -10, -10, -10, -10, -10, -10, -10, -10, -10, -10, -10, -10, -10, -10, -10, -10, -10, -10, -10, -10, -10, -10, -10, -10, -10, -10, -10, -10, -10, -10, -10, -10, -10, -10, -10, -10, -10, -10, -10, -10, -10, -10, -10, -10, -10, -10, -10, -10, -10, -10, -10, -10, -10, -10
-10, -10, -10, -10, -10, -10, -10, -10, -10, -10, -10, -10, -10, -10, -10, -10, -10, -10, -10, -10, -10, -10, -10, -10, -10, -10, -10, -10, -10, -10, -10, -10, -10, -10, -10, -10, -10, -10, -10, -10, -10, -10, -10, -10, -10, -10, -10, -10, -10, -10, -10, -10, -10, -10, -10, -10, -10, -10, -10, -10, -10, -10, -10, -10, -10, -10, -10, -10, -10, -10, -10, -10, -10, -10, -10, -10, -10, -10, -10, -10, -10, -10, -10, -10, -10, -10, -10, -10, -10, -10, -10, -10, -10, -10, -10, -10, -10, -10, -10, -10, -10, -10, -10, -10, -10, -10, -10, -10, -10, -10, -10, -10, -10, -10, -10, -10, -10, -10, -10, -10, -10, -10, -10, -10, -10, -10, -10, -10, -10, -10, -10, -10, -10, -10, -10, -10, -10, -10, -10, -10, -10, -10, -10, -10, -10, -10, -10, -10, -10, -10, -10, -10, -10, -10, -10, -10, -10, -10, -10, -10, -10, -10, -10, -10, -10, -10, -10, -10, -10, -10, -10, -10, -10, -10, -10, -10, -10, -10, -10, -10, -10, -10, -10, -10, -10, -10, -10, -10, -10, -10, -10, -10, -10, -10, -10, -10, -10, -10, -10, -10, -10, -10, -10, -10, -10, -10, -10, -10, -10, -10, -10, -10, -10, -10, -10, -10, -10, -10, -10, -10, -10, -10, -10, -10, -10, -10, -10, -10, -10, -10, -10, -10, -10, -10, -10, -10, -10, -10, -10, -10, -10, -10, -10, -10, -10, -10, -10, -10, -10, -10, -10, -10, -10, -10, -10, -10, -10, -10, -10, -10, -10, -10, -10, -10, -10, -10, -10, -10, -10, -10, -10, -10, -10, -10, -10, -10, -10, -10, -10, -10, -10, -10, -10, -10, -10, -10, -10, -10, -10, -10, -10, -10, -10, -10, -10, -10, -10, -10, -10, -10, -10, -10, -10, -10, -10, -10, -10, -10, -10, -10, -10, -10, -10, -10, -10, -10, -10, -10, -10, -10, -10, -10, -10, -10, -10, -10, -10, -10, -10, -10, -10, -10, -10, -10, -10, -10, -10, -10, -10, -10, -10, -10, -10, -10, -10, -10, -10, -10, -10, -10, -10, -10, -10, -10, -10, -10, -10, -10, -10, -10, -10, -10, -10, -10, -10, -10, -10, -10, -10, -10, -10, -10, -10, -10, -10, -10, -10, -10, -10, -10, -10, -10, -10, 22.75, 22.5, 22.375, 22.125, 22, 22, 22, 22, 22, 21.75, 21.5, 21.25, 21, 21, 21, 21, 20.75, 20.5, 20.25, 20, 20, 20, 20, 19.875, 19.625, 19.375, 19.125, 19, 19, 18.875, 18.625, 18.375, 18.125, 18, 18, 18, 18, 18, 17.660713, 16.916668, 16.5, 16.125, 16.125, 16, 16, 16, 16, 16, 16, 16, 16, 15.732143, 15.25, 15.125, 14.875, 14.75, 14.75, 14.5, 14.25, 14.25, 14, 14, 14, 13.75, 13.5, 13.25, 13, 13, 13, 13, 13, 12.75, 12.5, 12.25, 12, 12, 12, 12, 12.125, 12.125, 12.125, 12.125, 12, 12, 12, 12, 12, 12, 12, 12, 12, 12, 12, 12, 12, 12, 12, 12, 12, 12, 12, 12, 12, 12, 12, 12, 12, 12, 12, 12, 12, 12, 12, 12, 12, 12, 12, 12, 12, 12, 12, 12, 12, 12, 12, 12, 12, 12, 12, 12, 12, 12, 12, 12, 12, 12, 12, 12, 12, 12, 12, 12, 12, 12, 12, 12, 12, 12, 12, 12, 12, 12, 12, 12, 12, 12, 12, 12, 12, 12.125, 12.125, 12.125, 12.125, 12, 12, 12, 12, 12, 12, 12, 12, 12, 12, 12, 12, 12, 12, 12, -10, -10, -10, -10, -10, -10, -10, -10, -10, -10, -10, -10, -10, 27, 27, 27, 27, 27, 27, 27, 27, 27, 27, 27, 27, 27, 27, 27, 27, 27, 27, 27, 27.25, 27.375, 27.625, 27.875, 27.875, 28.0625, 28, 27.9375, 27.9375, 27.875, 28.214287, 28.75, 28.571428, 27.75, 27.571428, 27.375, 27.75, 28.375, 28.988094, 29.125, 29.25, 29, 29, 29, 29, 29.125, 29.375, 29.392857, 28.880953, 28.642857, 28.714287, 28.5, 28.75, 28.75, 28.75, 28.875, 28.875, 29, 29, 29.125, 29.375, 29.5, 29.75, 30, 30.25, 30.375, 30.785713, 31.614285, 31.5, 31.803572, 31.821428, 31.625, 31.75, 32.071426, 31.875, 31.571428, 31.410713, 31.25, 31.5, 31.892857, 32.375, 32.375, 32.375, 32.125, 32, 32, 32, 32.125, 32.125, 32.125, 32.25, 32.214287, 32.125, 32.125, 32.125, 32.375, 32.875, 33.321426, 33.375, 33.375, 33.375, 33.5, 33.75, 34, 33.732143, 33.25, 33.125, 33, 33.375, 33.625, 33.875, 34, 34, 34, 34, 34, -10, -10, -10, -10, -10, -10, -10, -10, -10, -10, -10, -10, -10, -10, -10, -10, -10, -10, -10, -10, -10
-10, -10, -10, -10, -10, -10, -10, 22.833334, 22.666666, 22.5, 22.25, 22.083334, 22, 22, 22, 22, 21.75, 21.5, 21.25, 21, 21, 21, 21, 20.833334, 20.583334, 20.333334, 20.083334, 20, 20, 20, 19.833334, 19.583334, 19.333334, 19.083334, 19, 19, 18.833334, 18.583334, 18.333334, 18.083334, 18, 18, 18, 18, 18, 17.773809, 17.194445, 16.833334, 16.416666, 16.25, 16.083334, 16, 16, 16, 16, 16, 16, 15.916667, 15.654762, 15.25, 15.083333, 14.916667, 14.75, 14.666667, 14.416667, 14.166667, 14.166667, 14, 14, 14, 13.833333, 13.666667, 13.416667, 13.166667, 13.083333, 13, 13, 13, 12.75, 12.5, 12.25, 12, 12, 12, 12, 12.083333, 12.083333, 12.083333, 12.083333, 12, 12, 12, 12, 12, 12, 12, 12, 12, 12, 12, 12, 12, 12, 12, 12, 12, 12, 12, 12, 11.916667, 11.916667, 11.916667, 11.916667, 11.916667, 11.916667, 11.916667, 11.916667, 12, 12, 12, 12, 12, 12, 12, 12, 12, 12, 12, 12, 12, 12, 12, 12, 12, 12, 12.083333, 12.083333, 12.083333, 12.083333, 11.916667, 11.833333, 11.75, 11.75, 11.833333, 11.916667, 12, 12, 12, 12, 12, 12, 12, 12, 12, 12, 12, 12, 12, 12, 12, 12, 12, 12, 12, 12, 12, 12.083333, 12.083333, 12.083333, 12.083333, 12, 12, 12, 12, 12, 12, 12, 12, 12, 12, 12, 12, 12, 12, 12, 12, -10, -10, -10, -10, -10, -10, -10, -10, -10, -10, -10, -10, 27, 27, 27, 27, 27, 27, 27, 27, 26.916666, 26.833334, 26.75, 26.75, 26.75, 26.833334, 26.833334, 26.75, 26.833334, 26.833334, 26.916666, 27.083334, 27.083334, 27.25, 27.416666, 27.583334, 27.875, 27.916666, 27.958334, 28.101191, 28.366669, 28.799999, 29.285715, 29.269842, 28.200001, 28.130951, 27.773809, 27.916666, 28.333334, 28.742065, 28.833334, 28.916666, 28.75, 28.833334, 28.916666, 29, 29.083334, 29.345238, 29.395239, 28.698412, 28.476191, 28.476191, 28.5, 28.75, 28.916666, 28.880951, 28.773809, 28.773809, 28.833334, 28.916666, 29.083334, 29.333334, 29.5, 29.833334, 30.083334, 30.333334, 30.416666, 30.648809, 31.284525, 31.285713, 31.84127, 31.797617, 31.702383, 31.833334, 32.047619, 31.773809, 31.476191, 31.273809, 31.166666, 31.333334, 31.595238, 31.916666, 32, 32.083332, 32, 32, 32, 32, 32, 31.916666, 31.916666, 32, 32.142857, 32.166668, 32.166668, 32.166668, 32.333332, 32.75, 33.130951, 33.25, 33.25, 33.25, 33.25, 33.375, 33.541668, 33.279762, 33.041668, 33, 32.916668, 33.25, 33.5, 33.75, 33.916668, 34, 34, 34, 34, -10, -10, -10, -10, -10, -10, -10, -10, -10, -10, -10, -10, -10, -10, -10, -10, -10, -10, -10, -10, -10, -10, -10, -10, -10, -10, -10, -10, -10, -10, -10, -10, -10, -10, -10, -10, -10, -10, -10, -10, -10, -10, -10, -10, -10, -10, -10, -10, -10, -10, -10, -10, -10, -10, -10, -10, -10, -10, -10, -10, -10, -10, -10, -10, -10, -10, -10, -10, -10, -10, 22.875, 22.75, 22.625, 22.4375, 22.25, 22.125, 22.0625, 22, 22, 21.75, 21.5, 21.25, 21, 21, 21, 21, 20.8125, 20.5625, 20.3125, 20.0625, 20, 20, 20, 19.8125, 19.5625, 19.3125, 19.0625, 19, 19, 18.8125, 18.5625, 18.375, 18.125, 18.0625, 18.0625, 18, 18, 17.9375, 17.705357, 17.208334, 16.875, 16.5625, 16.375, 16.1875, 16.0625, 16, 16, 16, 16, 16, 15.875, 15.616072, 15.25, 15.0625, 14.9375, 14.8125, 14.6875, 14.4375, 14.1875, 14.125, 14, 14, 14, 13.875, 13.75, 13.5625, 13.3125, 13.1875, 13.0625, 13, 13, 12.75, 12.5, 12.25, 12, 12, 12, 12, 12.0625, 12.0625, 12.0625, 12.0625, 12, 12, 12, 12, 12, 12, 12, 12, 12, 12, 12, 12, 12, 11.9375, 11.9375, 11.9375, 11.9375, 12, 12, 12, 11.875, 11.875, 11.875, 11.8125, 11.8125, 11.75, 11.75, 11.8125, 11.9375, 12, 12, 12, 12, 12, 12, 12, 12, 12, 12, 12, 12, 12, 12, 12, 12, 12, 12, 12, 12, 12, 11.875, 11.75, 11.625, 11.625, 11.75, 11.875, 12, 12, 12, 12, 12, 12, 12, 12, 12, 12, 12, 12, 12, 12, 12, 12, 12, 12, 12, 12, 12, 12.0625, 12.0625, 12, 12, 11.9375, 11.9375, 12, 12, 12, 12, 12, 12, 12, 12, 12, 12, 12, 12, 12, 12, 12, 12, -10, -10, -10, -10, -10, -10, -10, -10, -10, -10, 26.875, 26.833334, 26.875, 26.875, 26.9375, 27, 26.9375, 26.875, 26.75, 26.625, 26.5625, 26.5625, 26.5625, 26.6875, 26.6875, 26.625, 26.6875, 26.6875, 26.8125, 26.9375, 26.9375, 27.0625, 27.1875, 27.4375, 27.78125, 27.9375, 28.15625, 28.433037, 29.402779, 29.952383, 30.309525, 29.884354, 29.583336, 28.848213, 28.234694, 28.357143, 28.714285, 29.064627, 29.107143, 29.142857, 28.964285, 29.0625, 29.0625, 29.0625, 29.0625, 29.258928, 29.367857, 28.87381, 28.440477, 28.392857, 28.3125, 28.625, 28.875, 29.017857, 29.017857, 29.080357, 29.125, 29.1875, 29.25, 29.4375, 29.5625, 29.8125, 30.0625, 30.3125, 30.375, 30.549107, 31.088394, 31.089285, 31.568453, 31.598213, 31.589287, 31.8125, 32.071426, 31.892857, 31.732143, 31.580357, 31.5, 31.5625, 31.589285, 31.6875, 31.625, 31.625, 31.607143, 32, 32.071426, 32.125, 32.0625, 31.875, 31.875, 32, 32.214287, 32.25, 32.25, 32.1875, 32.25, 32.5625, 32.848213, 32.9375, 32.9375, 32.9375, 32.875, 32.90625, 33.049107, 33.043156, 32.959824, 33, 32.9375, 33.1875, 33.4375, 33.6875, 33.875, 34, 34, 34, 33.9375, -10, -10, -10, -10, -10, -10, -10, -10, -10, -10, -10, -10, -10, -10, -10, -10, -10, -10, -10, -10, -10
-10, -10, -10, -10, -10, -10, -10, 23, 22.916666, 22.8125, 22.6875, 22.4375, 22.25, 22.125, 22, 22, 21.75, 21.5, 21.1875, 20.875, 20.8125, 20.8125, 20.8125, 20.6875, 20.5, 20.25, 20.0625, 20, 20, 20, 19.75, 19.5, 19.25, 19, 19, 19, 18.75, 18.4375, 18.142857, 17.9375, 17.9375, 18, 18, 17.9375, 17.8125, 17.625, 17.375, 17.125, 16.8125, 16.5, 16.25, 16.0625, 16, 16, 16, 16, 16, 15.8125, 15.5625, 15.3125, 15.0625, 15, 14.803572, 14.5, 14.3125, 14.0625, 14.0625, 14, 14, 14, 13.875, 13.75, 13.5625, 13.3125, 13.1875, 13.0625, 13, 13, 12.75, 12.5, 12.25, 12, 12, 12, 12, 12, 12, 12, 12, 12, 12, 12, 12, 12, 12, 12, 12, 12, 12, 12, 12, 11.9375, 11.8125, 11.8125, 11.8125, 11.875, 12, 12, 11.9375, 11.75, 11.75, 11.75, 11.75, 11.741072, 11.5, 11.5, 11.5625, 11.75, 11.8125, 11.8125, 11.8125, 11.875, 11.9375, 11.9375, 11.9375, 11.9375, 11.9375, 12, 12, 12, 11.9375, 11.9375, 11.9375, 11.9375, 11.9375, 11.875, 11.875, 11.8125, 11.8125, 11.6875, 11.5, 11.375, 11.4375, 11.625, 11.75, 11.9375, 11.9375, 11.9375, 12, 12, 12, 12, 11.9375, 11.9375, 11.9375, 11.9375, 12, 12, 12, 12, 11.9375, 11.875, 11.875, 11.875, 11.9375, 12, 12, 12, 11.875, 11.8125, 11.8125, 11.8125, 11.9375, 12, 12, 12, 12, 12, 12, 12, 12, 12, 12, 12, 12, 12, 12, 12, -10, -10, -10, -10, -10, -10, -10, -10, -10, -10, 26.75, 26.75, 26.75, 26.75, 26.75, 26.75, 26.75, 26.6875, 26.5625, 26.4375, 26.3125, 26.3125, 26.3125, 26.4375, 26.4375, 26.375, 26.4375, 26.4375, 26.5625, 26.625, 26.5625, 26.6875, 26.8125, 27.125, 27.5625, 27.852678, 28.395834, 28.767859, 29.458334, 30.173471, 30.401787, 30.506802, 30.190477, 29.867346, 29.720238, 29.708334, 29.875, 30.097223, 29.964285, 30.045918, 30.107143, 29.464285, 29.438776, 29.392857, 29.357143, 29.510204, 29.742857, 29.266666, 28.646259, 28.556122, 28.571428, 28.821428, 29.1875, 29.267857, 29.205357, 29.205357, 29.1875, 29.3125, 29.375, 29.5625, 29.6875, 29.875, 30.0625, 30.25, 30.25, 30.299107, 30.638393, 30.758928, 31.255953, 31.410713, 31.535715, 32.020832, 32.17857, 32.017857, 31.964287, 31.8125, 31.732143, 31.479166, 31.357141, 31.375, 31.375, 31.392857, 31.607143, 32.0625, 32.133926, 32.1875, 31.9375, 31.625, 31.5625, 31.696428, 32.380955, 32.520832, 32.455357, 32.258926, 32.125, 32.3125, 32.473213, 32.5625, 32.5, 32.5, 32.375, 32.142857, 32.270409, 32.543156, 32.647324, 32.8125, 32.75, 33, 33.25, 33.544643, 33.8125, 34, 34, 34, 33.875, 33.666668, -10, -10, -10, -10, -10, -10, -10, -10, -10, -10, -10, -10, -10, -10, -10, -10, -10, -10, -10, -10, -10, -10, -10, -10, -10, -10, -10, -10, -10, -10, -10, -10, -10, -10, -10, -10, -10, -10, -10, -10, -10, -10, -10, -10, -10, -10, -10, -10, -10, -10, -10, -10, -10, -10, -10, -10, -10, -10, -10, -10, -10, -10, -10, -10, -10, -10, -10, -10, -10, 23, 23, 22.875, 22.75, 22.5, 22.25, 22.125, 22, 22, 21.75, 21.5, 21.1875, 20.8125, 20.6875, 20.6875, 20.6875, 20.625, 20.5, 20.25, 20.0625, 20, 20, 20, 19.75, 19.5, 19.25, 19, 19, 19, 18.75, 18.5, 18.205357, 18, 18, 18, 18, 17.875, 17.6875, 17.5, 17.25, 17.125, 16.9375, 16.625, 16.375, 16.125, 16, 16.0625, 16.125, 16.125, 16.125, 15.875, 15.5625, 15.3125, 15.0625, 15, 14.866072, 14.5, 14.3125, 14.0625, 14, 14, 14, 14, 13.9375, 13.8125, 13.625, 13.375, 13.125, 12.9375, 12.8125, 12.75, 12.5625, 12.375, 12.1875, 12, 12, 12, 12, 11.9375, 11.9375, 11.9375, 11.9375, 12, 12, 11.9375, 11.875, 11.875, 11.875, 11.9375, 12, 11.9375, 11.875, 11.8125, 11.75, 11.6875, 11.5625, 11.625, 11.6875, 11.8125, 12, 12, 11.875, 11.625, 11.625, 11.625, 11.6875, 11.678572, 11.375, 11.3125, 11.3125, 11.5, 11.5625, 11.5625, 11.5625, 11.6875, 11.8125, 11.875, 11.875, 11.875, 11.875, 11.9375, 12, 11.9375, 11.8125, 11.75, 11.75, 11.8125, 11.875, 11.875, 11.875, 11.75, 11.6875, 11.5, 11.25, 11.125, 11.1875, 11.4375, 11.5625, 11.8125, 11.875, 11.875, 12, 12, 12, 12, 11.9375, 11.9375, 11.9375, 11.9375, 12, 12, 11.9375, 11.875, 11.8125, 11.75, 11.8125, 11.875, 11.9375, 12, 12, 11.9375, 11.75, 11.625, 11.5625, 11.625, 11.8125, 11.9375, 12, 12, 12, 12, 12, 12, 12, 12, 12, 12, 12, 12, 12, 12, 12, -10, -10, -10, -10, -10, -10, -10, -10, -10, 26.666666, 26.625, 26.583334, 26.5625, 26.5625, 26.5, 26.5, 26.4375, 26.3125, 26.1875, 26.0625, 26.0625, 26.0625, 26.1875, 26.1875, 26.125, 26.1875, 26.1875, 26.3125, 26.3125, 26.25, 26.3125, 26.4375, 26.75, 27.125, 27.508928, 28.199406, 28.678572, 29.520834, 30.004463, 30.276787, 30.476191, 30.285715, 29.90625, 29.8125, 30.035715, 30.178572, 30.25, 30.25, 30.341837, 30.621429, 30.386904, 30.422617, 30.291666, 30.25, 30.224489, 30.171429, 30.233334, 30.126984, 29.797617, 29.763887, 29.84524, 29.928572, 30.071428, 29.830357, 29.892857, 29.848213, 29.9375, 29.9375, 30, 30.0625, 30.25, 30.4375, 30.544643, 30.354166, 30.227678, 30.28125, 30.464287, 30.916666, 31.0625, 31.348215, 31.770832, 31.955357, 31.955357, 32.071426, 32, 31.773808, 31.479166, 31.285713, 31.25, 31.3125, 31.4375, 31.535715, 31.862499, 32.0625, 32.116074, 31.875, 31.5625, 31.4375, 31.508928, 32.148811, 32.333332, 32.330357, 32.196426, 32.0625, 32.125, 32.1875, 32.25, 32.1875, 32.1875, 32, 31.90625, 31.986607, 32.114582, 32.397324, 32.5625, 32.625, 32.875, 33.232143, 33.544643, 33.8125, 34, 34, 34, 33.8125, 33.666668, -10, -10, -10, -10, -10, -10, -10, -10, -10, -10, -10, -10, -10, -10, -10, -10, -10, -10, -10, -10
-10, -10, -10, -10, -10, -10, -10, 23, 23, 22.875, 22.75, 22.5, 22.25, 22.125, 22, 22, 21.75, 21.5, 21.1875, 20.75, 20.5625, 20.5625, 20.5625, 20.5, 20.4375, 20.1875, 20, 20, 20, 19.9375, 19.6875, 19.4375, 19.1875, 19, 19, 19, 18.8125, 18.625, 18.330357, 18.1875, 18.125, 18.0625, 18, 17.75, 17.5, 17.25, 17.0625, 17, 16.9375, 16.6875, 16.4375, 16.25, 16.0625, 16.125, 16.1875, 16.125, 16.125, 15.9375, 15.625, 15.375, 15.125, 15, 14.928572, 14.5625, 14.375, 14.125, 14, 14, 14, 14, 13.9375, 13.75, 13.5625, 13.3125, 12.991072, 12.6875, 12.5625, 12.4375, 12.375, 12.25, 12.125, 12, 12, 12, 12, 11.9375, 11.9375, 11.9375, 11.9375, 11.9375, 11.875, 11.75, 11.625, 11.6875, 11.75, 11.875, 12, 11.9375, 11.8125, 11.6875, 11.625, 11.5625, 11.4375, 11.5, 11.5, 11.5625, 11.8125, 11.8125, 11.75, 11.5625, 11.5625, 11.625, 11.6875, 11.741072, 11.375, 11.25, 11.1875, 11.25, 11.3125, 11.3125, 11.375, 11.5625, 11.75, 11.8125, 11.75, 11.6875, 11.6875, 11.8125, 11.875, 11.8125, 11.625, 11.5, 11.5, 11.5625, 11.6875, 11.625, 11.625, 11.5, 11.375, 11.3125, 11.1875, 11.1875, 11.25, 11.4375, 11.4375, 11.5625, 11.6875, 11.75, 11.875, 11.875, 11.8125, 11.75, 11.6875, 11.6875, 11.6875, 11.6875, 11.821428, 11.95, 11.758928, 11.696428, 11.625, 11.625, 11.75, 11.875, 11.9375, 12, 12, 11.875, 11.625, 11.5, 11.375, 11.4375, 11.625, 11.6875, 11.75, 11.75, 11.8125, 11.875, 11.9375, 12, 11.9375, 11.875, 11.875, 11.875, 11.9375, 11.9375, 11.9375, 11.9375, 11.916667, 11.875, -10, -10, -10, -10, -10, -10, -10, -10, -10, 26.5, 26.395834, 26.354166, 26.34375, 26.25, 26.25, 26.1875, 26.125, 26.0625, 26, 26, 26, 26.0625, 26.0625, 26.0625, 26.0625, 26.0625, 26.125, 26.125, 26.125, 26.125, 26.1875, 26.375, 26.625, 27.071428, 28.03274, 28.5, 28.9375, 29.21875, 29.229593, 29.208334, 29.291666, 29.678572, 30.107143, 30.285713, 30.4375, 30.5, 30.508928, 30.851191, 31.095833, 30.613094, 30.482143, 30.25, 30.1875, 30.5, 30.446428, 30.6, 30.659864, 30.397959, 30.297619, 30.488096, 30.596939, 30.693878, 30.4375, 30.5, 30.535713, 30.5625, 30.5, 30.5625, 30.5625, 30.6875, 30.875, 30.857143, 30.604166, 30.446428, 30.375, 30.5, 30.6875, 30.875, 31.133928, 31.583332, 31.767857, 31.875, 32.0625, 32, 31.773808, 31.416666, 31.25, 31.357143, 31.428572, 31.5625, 31.535715, 31.799999, 32, 32.053574, 31.875, 31.625, 31.5, 31.571428, 32.086311, 32.145832, 32.080357, 31.883928, 31.75, 31.75, 31.8125, 31.875, 31.875, 31.9375, 31.8125, 31.75, 31.830357, 32.020832, 32.241074, 32.375, 32.4375, 32.696426, 33.252975, 33.598213, 33.875, 34, 34, 34, 33.75, 33.666668, -10, -10, -10, -10, -10, -10, -10, -10, -10, -10, -10, -10, -10, -10, -10, -10, -10, -10, -10, -10, -10, -10, -10, -10, -10, -10, -10, -10, -10, -10, -10, -10, -10, -10, -10, -10, -10, -10, -10, -10, -10, -10, -10, -10, -10, -10, -10, -10, -10, -10, -10, -10, -10, -10, -10, -10, -10, -10, -10, -10, -10, -10, -10, -10, -10, -10, -10, -10, -10, 23, 23, 22.8125, 22.625, 22.375, 22.125, 22.0625, 22, 22, 21.75, 21.5, 21.1875, 20.75, 20.5625, 20.5625, 20.5, 20.4375, 20.375, 20.0625, 19.9375, 19.9375, 19.9375, 19.9375, 19.6875, 19.4375, 19.1875, 19, 19, 19, 18.875, 18.6875, 18.330357, 18.1875, 18.0625, 18, 18, 17.75, 17.5, 17.25, 17.0625, 17, 16.9375, 16.75, 16.5, 16.3125, 16.125, 16.125, 16.1875, 16.125, 16.125, 16, 15.75, 15.5, 15.25, 15.0625, 14.928572, 14.625, 14.4375, 14.1875, 14.0625, 13.9375, 13.9375, 13.9375, 13.8125, 13.625, 13.375, 13.125, 12.866072, 12.625, 12.5625, 12.4375, 12.375, 12.25, 12.125, 12, 12, 12, 12, 11.9375, 11.875, 11.8125, 11.75, 11.6875, 11.6875, 11.5625, 11.4375, 11.5, 11.5, 11.6875, 11.8125, 11.75, 11.625, 11.4375, 11.375, 11.3125, 11.25, 11.3125, 11.3125, 11.375, 11.5625, 11.5625, 11.5, 11.375, 11.4375, 11.5, 11.625, 11.678572, 11.3125, 11.1875, 11.0625, 11.0625, 11.0625, 11.0625, 11.125, 11.3125, 11.5, 11.5625, 11.5, 11.4375, 11.4375, 11.625, 11.6875, 11.625, 11.4375, 11.25, 11.25, 11.375, 11.5, 11.5, 11.5, 11.3125, 11.1875, 11.125, 11.0625, 11.125, 11.1875, 11.3125, 11.25, 11.3125, 11.4375, 11.5, 11.625, 11.625, 11.5625, 11.5, 11.4375, 11.4375, 11.4375, 11.4375, 11.571428, 11.7, 11.508928, 11.446428, 11.4375, 11.5, 11.625, 11.8125, 11.875, 11.9375, 12, 11.8125, 11.625, 11.4375, 11.25, 11.3125, 11.375, 11.4375, 11.5, 11.5, 11.5625, 11.625, 11.6875, 11.75, 11.6875, 11.625, 11.625, 11.625, 11.6875, 11.6875, 11.6875, 11.6875, 11.6875, 11.583333, 11.333334, -10, -10, -10, -10, -10, -10, -10, -10, -10, 26.270834, 26.229166, 26.15625, 25.9375, 26, 25.9375, 25.875, 25.9375, 25.875, 25.9375, 25.9375, 25.875, 25.8125, 25.75, 25.8125, 25.875, 25.9375, 26, 25.9375, 25.9375, 26.0625, 26.232143, 26.5, 26.946428, 27.78274, 28.142857, 28.4375, 28.59375, 28.489796, 28.678572, 28.892857, 29.486607, 29.888393, 30.129463, 30.28125, 30.375, 30.446428, 30.913691, 31.220833, 30.800594, 30.669643, 30.4375, 30.4375, 30.5625, 30.625, 30.75, 30.785713, 30.580357, 30.604166, 30.770834, 30.866072, 30.928572, 30.6875, 30.625, 30.678572, 30.8125, 30.883928, 31.232143, 31.208332, 31.166666, 31.448978, 31.107143, 30.854166, 30.696428, 30.5, 30.625, 30.75, 30.875, 31.008928, 31.217262, 31.082142, 31.3125, 31.508928, 31.625, 31.461308, 31.247023, 31.392857, 31.544643, 31.696428, 31.8125, 31.678572, 31.549999, 31.741072, 31.741072, 31.625, 31.5625, 31.375, 31.383928, 31.791668, 31.770832, 31.705357, 31.571428, 31.5625, 31.5625, 31.6875, 31.75, 31.75, 31.875, 31.8125, 31.8125, 31.8125, 31.8125, 31.9375, 32.125, 32.375, 32.80357, 33.377975, 33.723213, 33.9375, 34, 34.0625, 34.125, 33.979168, 33.666668, -10, -10, -10, -10, -10, -10, -10, -10, -10, -10, -10, -10, -10, -10, -10, -10, -10, -10, -10, -10
-10, -10, -10, -10, -10, -10, -10, 23, 23, 22.75, 22.5, 22.25, 22, 22, 22, 21.9375, 21.6875, 21.4375, 21.125, 20.75, 20.625, 20.625, 20.5625, 20.4375, 20.276787, 19.9375, 19.75, 19.75, 19.6875, 19.75, 19.5625, 19.375, 19.1875, 19, 19, 19, 18.9375, 18.8125, 18.5625, 18.375, 18.1875, 18, 17.9375, 17.75, 17.5, 17.3125, 17.125, 17, 17, 16.875, 16.625, 16.4375, 16.1875, 16.125, 16.1875, 16.125, 16.125, 16.0625, 15.875, 15.625, 15.375, 15.125, 15, 14.875, 14.6875, 14.4375, 14.1875, 13.9375, 13.8125, 13.75, 13.625, 13.5, 13.3125, 13.125, 12.866072, 12.625, 12.5625, 12.375, 12.3125, 12.1875, 12.0625, 12, 12, 12, 12, 11.875, 11.75, 11.625, 11.5, 11.4375, 11.4375, 11.3125, 11.1875, 11.25, 11.25, 11.4375, 11.5625, 11.5, 11.375, 11.1875, 11.125, 11.125, 11.125, 11.1875, 11.1875, 11.1875, 11.3125, 11.3125, 11.3125, 11.25, 11.3125, 11.4375, 11.5, 11.5625, 11.375, 11.1875, 11.0625, 11, 11, 11, 11.0625, 11.1875, 11.3125, 11.375, 11.3125, 11.3125, 11.3125, 11.4375, 11.5, 11.375, 11.25, 11.0625, 11.0625, 11.1875, 11.3125, 11.375, 11.375, 11.25, 11.125, 11.0625, 11.0625, 11.125, 11.125, 11.1875, 11.125, 11.125, 11.25, 11.375, 11.5, 11.5, 11.4375, 11.3125, 11.25, 11.25, 11.25, 11.25, 11.321428, 11.45, 11.258928, 11.258928, 11.3125, 11.4375, 11.5625, 11.6875, 11.6875, 11.6875, 11.75, 11.5625, 11.5, 11.348214, 11.089286, 11.1875, 11.125, 11.1875, 11.25, 11.25, 11.3125, 11.375, 11.4375, 11.5, 11.4375, 11.375, 11.375, 11.375, 11.4375, 11.4375, 11.4375, 11.4375, 11.4375, 11.4375, 11.222222, 11, 11, -10, -10, -10, -10, -10, -10, -10, 26.194445, 26.138887, 26.125, 25.6875, 25.6875, 25.625, 25.5625, 25.625, 25.625, 25.6875, 25.6875, 25.625, 25.5625, 25.5, 25.5625, 25.625, 25.75, 25.875, 25.9375, 26, 26.125, 26.294643, 26.5625, 27, 27.636906, 27.964285, 28.0625, 28.09375, 28.0625, 28.1875, 28.5, 28.986607, 29.575893, 30.066963, 30.15625, 30.25, 30.196428, 30.592262, 30.720833, 30.363094, 30.276787, 30.125, 30.125, 30.21875, 30.28125, 30.40625, 30.504463, 30.392857, 30.416666, 30.645834, 30.803572, 30.866072, 30.6875, 30.75, 30.866072, 31, 31.071428, 31.357143, 31.333332, 31.354166, 31.580357, 31.419643, 31.166666, 31.008928, 30.75, 30.8125, 30.875, 30.866072, 30.604166, 30.455357, 30.2875, 30.625, 30.991072, 31.1875, 31.104166, 31.049107, 31.15625, 31.263393, 31.352678, 31.4375, 31.303572, 31.237499, 31.428572, 31.428572, 31.4375, 31.4375, 31.3125, 31.3125, 31.375, 31.3125, 31.3125, 31.25, 31.375, 31.375, 31.5, 31.5625, 31.5625, 31.6875, 31.6875, 31.6875, 31.625, 31.625, 31.6875, 31.875, 32.25, 32.949402, 33.556549, 33.866074, 34, 34, 34.125, 34.1875, 34.125, -10, -10, -10, -10, -10, -10, -10, -10, -10, -10, -10, -10, -10, -10, -10, -10, -10, -10, -10, -10, -10, -10, -10, -10, -10, -10, -10, -10, -10, -10, -10, -10, -10, -10, -10, -10, -10, -10, -10, -10, -10, -10, -10, -10, -10, -10, -10, -10, -10, -10, -10, -10, -10, -10, -10, -10, -10, -10, -10, -10, -10, -10, -10, -10, -10, -10, -10, -10, -10, -10, 23, 23, 22.75, 22.5, 22.25, 22, 22, 22, 21.9375, 21.6875, 21.4375, 21.125, 20.8125, 20.6875, 20.625, 20.5, 20.375, 20.276787, 19.982143, 19.666666, 19.571428, 19.4375, 19.5, 19.375, 19.25, 19.125, 19, 19, 19, 19, 18.8125, 18.5625, 18.375, 18.125, 17.9375, 17.8125, 17.6875, 17.4375, 17.3125, 17.1875, 17, 17, 16.9375, 16.6875, 16.5, 16.25, 16.0625, 16.0625, 16, 16, 16, 15.9375, 15.6875, 15.4375, 15.1875, 15, 14.9375, 14.75, 14.5, 14.25, 13.9375, 13.8125, 13.8125, 13.6875, 13.5625, 13.330357, 13.125, 12.928572, 12.75, 12.75, 12.625, 12.5, 12.3125, 12.125, 12, 12, 12, 11.9375, 11.8125, 11.625, 11.4375, 11.3125, 11.1875, 11.1875, 11.125, 11.0625, 11.125, 11.125, 11.25, 11.3125, 11.3125, 11.25, 11.125, 11.125, 11.125, 11.125, 11.125, 11.0625, 11, 11.0625, 11.0625, 11.125, 11.125, 11.1875, 11.3125, 11.3125, 11.375, 11.25, 11.125, 11.0625, 11, 11, 11, 11.0625, 11.125, 11.1875, 11.1875, 11.125, 11.125, 11.125, 11.25, 11.25, 11.1875, 11.125, 11, 11, 11.0625, 11.125, 11.125, 11.125, 11.0625, 11, 11, 11.0625, 11.125, 11.125, 11.125, 11.0625, 11, 11.0625, 11.1875, 11.25, 11.25, 11.1875, 11.0625, 11, 11, 11, 11, 11.071428, 11.2, 11.071428, 11.133928, 11.1875, 11.3125, 11.4375, 11.5, 11.5, 11.5, 11.5, 11.375, 11.375, 11.285714, 11.089286, 11.125, 11, 11, 11, 11, 11.0625, 11.125, 11.1875, 11.25, 11.1875, 11.125, 11.125, 11.125, 11.1875, 11.25, 11.25, 11.25, 11.25, 11.1875, 11.166667, 11, 11, 11.125, 11.166666, -10, -10, -10, -10, -10, -10, -10, -10, 25.583334, 25.5625, 25.458334, 25.375, 25.375, 25.375, 25.4375, 25.4375, 25.375, 25.3125, 25.25, 25.3125, 25.446428, 25.833334, 26.053572, 26.1875, 26.25, 26.3125, 26.482143, 26.75, 27.0625, 27.583334, 27.866072, 27.875, 27.9375, 27.9375, 28, 28.3125, 28.767857, 29.397322, 29.986607, 30.09375, 30.25, 30.133928, 30.395834, 30.413691, 30.375, 30.241072, 30.125, 29.9375, 29.859375, 29.859375, 29.921875, 30.171875, 30.285713, 30.3125, 30.375, 30.375, 30.4375, 30.4375, 30.4375, 30.580357, 30.75, 30.883928, 31.294643, 31.333332, 31.291666, 31.517857, 31.348213, 31.214287, 31.1875, 30.9375, 30.9375, 30.9375, 30.785715, 30.247023, 30.098213, 29.711226, 30.458334, 30.678572, 30.830357, 30.875, 30.799107, 30.90625, 30.888393, 30.977678, 31.0625, 31, 31.0625, 31.0625, 31, 31.0625, 31.125, 31.0625, 31.125, 31.125, 31.0625, 31.0625, 31.0625, 31.25, 31.3125, 31.428572, 31.3125, 31.3125, 31.375, 31.4375, 31.4375, 31.375, 31.40625, 31.5, 31.75, 32.125, 32.797619, 33.532738, 33.857143, 34, 34.0625, 34.208332, 34.25, 34.25, -10, -10, -10, -10, 11.75, 11.6, 11.4, -10, -10, -10, -10, -10, -10, -10, -10, -10, -10, -10, -10, -10, -10
-10, -10, -10, -10, -10, -10, -10, 22.875, 22.833334, 22.625, 22.375, 22.1875, 22, 22, 22, 21.9375, 21.6875, 21.4375, 21.125, 20.875, 20.8125, 20.6875, 20.5, 20.3125, 20.214287, 19.955357, 19.559525, 19.392857, 19.1875, 19.3125, 19.25, 19.1875, 19.125, 19, 19, 19, 18.9375, 18.6875, 18.4375, 18.1875, 18, 17.875, 17.8125, 17.8125, 17.5625, 17.4375, 17.25, 17, 17, 17, 16.75, 16.5, 16.25, 16, 16, 16, 15.9375, 15.9375, 15.9375, 15.6875, 15.5, 15.25, 15, 14.9375, 14.75, 14.5, 14.25, 13.9375, 13.8125, 13.8125, 13.6875, 13.5625, 13.330357, 13.125, 13, 13, 13, 12.9375, 12.6875, 12.5, 12.25, 12.0625, 12.0625, 12, 11.9375, 11.75, 11.5, 11.25, 11.0625, 11, 11.0625, 11.0625, 11.0625, 11.0625, 11, 11.0625, 11.0625, 11.0625, 11.0625, 11, 11, 11, 11, 11, 11, 11, 11, 11, 11, 11, 11.0625, 11.125, 11.125, 11.125, 11.0625, 10.9375, 10.9375, 10.9375, 10.9375, 11, 11, 11, 11, 11, 11, 11.0625, 11.0625, 11.125, 11.125, 11.0625, 11.0625, 11, 10.9375, 11, 11, 11, 11.0625, 11, 11, 11, 11, 11, 11, 11, 11, 11, 11, 11.0625, 11.125, 11.125, 11.125, 11.0625, 11, 11, 11, 11, 11, 11, 11.0625, 11.098214, 11.017857, 11.080357, 11.125, 11.1875, 11.25, 11.25, 11.25, 11.1875, 11.25, 11.160714, 11.026786, 11.0625, 10.9375, 11, 11, 11, 11, 11, 11, 11, 11, 11, 11, 11, 11, 11.0625, 11.0625, 11.0625, 11.0625, 11, 11, 11, 11, 11.083333, 11.111111, 11, -10, -10, -10, -10, -10, -10, -10, -10, 25.416666, 25.208334, 25.125, 25.125, 25.125, 25.1875, 25.1875, 25.125, 25.133928, 25.333334, 25.491072, 25.696428, 26.083334, 26.303572, 26.4375, 26.5625, 26.6875, 26.857143, 27.125, 27.3125, 27.5625, 27.8125, 27.8125, 27.9375, 27.9375, 27.9375, 28.1875, 28.589285, 29.293156, 29.879463, 30.03125, 30.1875, 30, 29.9375, 29.892857, 29.895834, 29.857143, 29.875, 29.723213, 29.609375, 29.484375, 29.448662, 29.779018, 29.892857, 30, 30.0625, 30, 30.0625, 30.0625, 30.0625, 30.205357, 30.5, 30.696428, 31.107143, 31.208332, 31.041666, 31.142857, 30.973213, 30.839287, 30.875, 30.6875, 30.6875, 30.6875, 30.607143, 30.247023, 29.973213, 29.841072, 30.502975, 30.657738, 30.663691, 30.625, 30.549107, 30.484694, 30.53125, 30.549107, 30.5, 30.5, 30.5625, 30.5625, 30.625, 30.75, 30.8125, 30.75, 30.8125, 30.8125, 30.875, 31, 31.0625, 31.1875, 31.1875, 31.178572, 30.9375, 30.875, 30.875, 31, 31.0625, 31.125, 31.28125, 31.40625, 31.65625, 32.053574, 32.869045, 33.520836, 33.866074, 34, 34.125, 34.291664, 10.5, 10.583334, -10, -10, 11, 11, 11.5, 11.400001, 11.349999, 11.166666, -10, -10, -10, -10, -10, -10, -10, -10, -10, -10, -10, -10, -10, -10, -10, -10, -10, -10, -10, -10, -10, -10, -10, -10, -10, -10, -10, -10, -10, -10, -10, -10, -10, -10, -10, -10, -10, -10, -10, -10, -10, -10, -10, -10, -10, -10, -10, -10, -10, -10, -10, -10, -10, -10, -10, -10, -10, -10, -10, -10, -10, -10, 22.75, 22.666668, 22.5, 22.25, 22.125, 22, 22, 22, 21.875, 21.625, 21.375, 21.0625, 20.875, 20.8125, 20.6875, 20.5, 20.3125, 20.214287, 20.017857, 19.550594, 19.205357, 19, 19, 19.0625, 19.125, 19.125, 19.0625, 19.0625, 19, 18.875, 18.625, 18.375, 18.125, 18, 17.875, 17.8125, 17.75, 17.5, 17.375, 17.1875, 17, 17, 16.9375, 16.6875, 16.4375, 16.1875, 16, 16, 16, 15.9375, 15.9375, 15.9375, 15.6875, 15.5, 15.25, 15, 14.875, 14.6875, 14.4375, 14.1875, 14, 13.875, 13.875, 13.75, 13.5625, 13.330357, 13.125, 13, 13, 13, 12.9375, 12.75, 12.625, 12.375, 12.1875, 12.125, 12, 11.9375, 11.6875, 11.4375, 11.1875, 11, 11, 11, 11, 11, 11, 11, 11, 11, 11, 11, 11, 11, 11, 11, 11, 11, 11, 11, 11, 11, 11, 11, 11.0625, 11.0625, 11.0625, 11.0625, 10.9375, 10.9375, 10.9375, 10.9375, 11, 11, 11, 11, 11, 11, 11.0625, 11.0625, 11.0625, 11.0625, 11, 11, 11, 10.9375, 10.9375, 10.9375, 10.9375, 11, 11, 11, 11, 11, 11, 11, 11, 11, 11, 11, 11.0625, 11.125, 11.125, 11.125, 11.0625, 11, 11, 11, 11, 11, 11, 11.0625, 11.098214, 10.955357, 10.955357, 11, 11, 11.0625, 11.0625, 11, 11, 11.0625, 11.035714, 10.964286, 11, 10.9375, 11, 11, 11, 11, 11, 11, 11, 11, 11, 11, 11, 11, 11.0625, 11.0625, 11.0625, 11.0625, 11, 11, 11, 11, 11.0625, 11.083333, 11, 11.125, 11.166666, -10, -10, -10, -10, -10, -10, -10, 25.111113, 25.083334, 25, 25, 25, 25.0625, 25.125, 25.321428, 25.708334, 25.866072, 26.224489, 26.395834, 26.553572, 26.75, 26.875, 26.9375, 27, 27.125, 27.1875, 27.4375, 27.6875, 27.6875, 27.8125, 27.75, 27.625, 27.8125, 28.008928, 28.636906, 29.285713, 29.544643, 29.75, 29.625, 29.5, 29.455357, 29.520834, 29.607143, 29.75, 29.598213, 29.546875, 29.341518, 29.091518, 29.445684, 29.642857, 29.75, 29.9375, 29.8125, 29.705357, 29.696428, 29.75, 29.9375, 30.1875, 30.375, 30.5625, 30.75, 30.75, 30.875, 30.723213, 30.526787, 30.5625, 30.375, 30.3125, 30.3125, 30.232143, 29.997023, 29.830357, 29.79932, 30.329931, 30.420069, 30.22279, 29.875, 29.78125, 29.84375, 29.950893, 30.09375, 30.1875, 30.25, 30.3125, 30.25, 30.375, 30.5, 30.5, 30.5, 30.5, 30.428572, 30.375, 30.5625, 30.669643, 30.875, 31, 30.928572, 30.6875, 30.5625, 30.4375, 30.5625, 30.6875, 30.875, 31.15625, 31.4375, 31.6875, 32.022324, 32.793156, 33.458336, 33.803574, 34, 34.125, 34.229164, 10.666667, 10.722222, 10.875, 11, 11, 11, 11.375, 11.3, 11.2625, 11.111111, -10, -10, -10, -10, -10, -10, -10, -10, -10, -10, -10, -10, -10
-10, -10, -10, -10, -10, -10, -10, 22.75, 22.666668, 22.5, 22.25, 22.125, 22, 22, 21.9375, 21.8125, 21.5625, 21.3125, 21.125, 21, 20.9375, 20.8125, 20.625, 20.4375, 20.375, 20.205357, 19.675594, 19.330357, 19.1875, 19.125, 19.25, 19.3125, 19.3125, 19.25, 19.1875, 19.0625, 18.8125, 18.5625, 18.3125, 18.0625, 18, 17.9375, 17.875, 17.75, 17.5, 17.3125, 17.125, 17, 17, 16.875, 16.625, 16.375, 16.125, 16, 16, 16, 15.9375, 15.9375, 15.9375, 15.6875, 15.5, 15.25, 15, 14.875, 14.625, 14.375, 14.125, 14, 14, 14.0625, 14, 13.75, 13.455357, 13.1875, 13, 13, 13, 13, 12.875, 12.75, 12.5, 12.25, 12.125, 12, 11.9375, 11.6875, 11.4375, 11.1875, 11, 11, 11, 11, 11, 11, 11, 11, 11, 11, 11, 11, 10.9375, 10.875, 10.8125, 10.75, 10.8125, 10.875, 10.9375, 11, 11, 11, 11, 11, 11, 11, 11, 10.9375, 10.9375, 10.9375, 10.9375, 11, 11, 11, 11, 11, 11, 11, 11, 11, 11, 11, 11, 11, 10.9375, 10.9375, 10.9375, 10.9375, 11, 11, 11, 11, 11, 11, 11, 11, 11, 11, 11, 11, 11, 11, 11, 11, 11, 11, 11, 11, 10.9375, 10.9375, 11, 10.973214, 10.892857, 10.892857, 10.9375, 11, 11.0625, 11.0625, 11, 11, 11, 11, 11, 11, 11, 11, 11, 11, 11, 11, 11, 11, 11, 11, 11, 11, 11, 11.0625, 11.0625, 11.0625, 11.0625, 11, 11, 11, 11, 11, 11, 11, 11.083333, 11.111111, 11, -10, -10, -10, -10, -10, -10, -10, -10, 25.0625, 25.041666, 25.03125, 25.125, 25.25, 25.571428, 26.083334, 26.303572, 26.571428, 26.833334, 26.928572, 27, 27, 27, 26.9375, 27, 27, 27.15625, 27.34375, 27.375, 27.46875, 27.4375, 27.4375, 27.59375, 27.821428, 28.386906, 28.785713, 29.044643, 29.25, 29.25, 29.1875, 29.205357, 29.270834, 29.357143, 29.5, 29.410713, 29.390625, 29.185268, 28.935268, 29.226934, 29.392857, 29.625, 29.875, 29.75, 29.642857, 29.508928, 29.4375, 29.625, 29.9375, 30.1875, 30.5, 30.75, 30.6875, 30.6875, 30.473213, 30.214287, 30.1875, 30, 29.875, 29.875, 29.928572, 30.080357, 30.044643, 29.476191, 29.376984, 29.152777, 28.900793, 28.964285, 29.125, 29.375, 29.714287, 29.9375, 30, 29.9375, 29.875, 29.6875, 29.8125, 30, 30.107143, 30.107143, 29.916666, 29.821428, 29.75, 29.9375, 30.044643, 30.125, 30.540817, 30.449406, 30.303572, 30.3125, 30.1875, 30.3125, 30.5, 30.8125, 31.263393, 31.625, 31.9375, 32.209824, 32.772324, 33.404762, 33.741074, 34, 34.125, 34.166664, 10.75, 10.791667, 10.916667, 11, 11, 11, 11, 11, 11.0625, 11.083333, -10, -10, -10, -10, -10, -10, -10, -10, -10, -10, -10, -10, -10, -10, -10, -10, -10, -10, -10, -10, -10, -10, -10, -10, -10, -10, -10, -10, -10, -10, -10, -10, -10, -10, -10, -10, -10, -10, -10, -10, -10, -10, -10, -10, -10, -10, -10, -10, -10, -10, -10, -10, -10, -10, -10, -10, -10, -10, -10, -10, -10, -10, 22.75, 22.666668, 22.5, 22.25, 22.125, 22, 22, 21.9375, 21.75, 21.5, 21.25, 21.0625, 21, 21, 20.9375, 20.8125, 20.5625, 20.375, 20.098213, 19.633928, 19.383928, 19.25, 19.1875, 19.375, 19.4375, 19.5, 19.5, 19.366072, 19.0625, 18.75, 18.4375, 18.25, 18, 18, 18, 18, 17.875, 17.625, 17.375, 17.125, 17, 17, 16.875, 16.625, 16.375, 16.125, 16, 16, 16, 15.9375, 15.9375, 15.9375, 15.6875, 15.5, 15.1875, 14.9375, 14.8125, 14.625, 14.4375, 14.1875, 14.0625, 14, 14, 13.9375, 13.75, 13.5625, 13.3125, 13.125, 13.0625, 13, 13, 12.9375, 12.8125, 12.5625, 12.3125, 12.125, 12, 12, 11.75, 11.5, 11.25, 11, 11, 11, 11, 11, 11, 11, 11, 11, 11, 11, 11, 10.9375, 10.875, 10.75, 10.625, 10.625, 10.6875, 10.8125, 10.9375, 11, 11, 10.9375, 10.9375, 10.9375, 10.9375, 11, 10.9375, 10.9375, 10.9375, 10.875, 10.875, 10.875, 10.875, 10.9375, 11, 11, 11, 11, 11, 11, 11, 11, 11, 10.9375, 10.9375, 10.9375, 10.9375, 11, 11, 11, 11, 11, 11, 11, 11, 11, 11, 11, 11, 11, 11, 11, 11, 11, 11, 11, 11, 10.875, 10.875, 10.9375, 10.910714, 10.892857, 10.892857, 10.875, 10.9375, 11, 10.9375, 10.875, 10.8125, 10.8125, 10.875, 10.9375, 11, 11, 11, 11, 11, 11, 11, 11, 11, 11, 11, 11, 11, 11, 11, 11, 11, 11, 11, 11, 11, 11, 11, 11, 11, 11.0625, 11.083333, 11, 11, 11, -10, -10, -10, -10, -10, -10, 25.1875, 25.125, 25.09375, 25.21875, 25.4375, 25.928572, 26.520834, 26.803572, 27, 27, 27, 26.928572, 26.799999, 26.857143, 26.6875, 26.75, 26.6875, 26.78125, 26.90625, 27, 27.09375, 27.125, 27.25, 27.40625, 27.633928, 28.083334, 28.366072, 28.408163, 28.75, 28.8125, 28.875, 28.9375, 28.875, 29, 29.0625, 29.098213, 29.125, 28.919643, 28.669643, 28.836309, 29.044643, 29.419643, 29.75, 29.6875, 29.517857, 29.321428, 29.1875, 29.375, 29.6875, 29.9375, 30.169643, 30.25, 30.1875, 30.0625, 29.9375, 29.8125, 29.8125, 29.6875, 29.5625, 29.5625, 29.607143, 29.830357, 29.794643, 29.300594, 28.811224, 28.559523, 28.261906, 28.214285, 28.53125, 28.910713, 29.464287, 29.625, 29.75, 29.625, 29.5625, 29.375, 29.40625, 29.4375, 29.419643, 29.658163, 29.135416, 29.071428, 28.821428, 29, 29.051022, 29.178572, 29.095238, 29.770834, 29.928572, 30, 30.03125, 30.15625, 30.40625, 30.78125, 31.294643, 31.6875, 32.0625, 32.397324, 32.986607, 33.446426, 33.75, 34, 34.0625, 34.145832, 10.833333, 10.916667, 10.9375, 11, 11, 11, 11, 11, 11.125, 11.270833, -10, -10, -10, -10, -10, -10, -10, -10, -10, -10, -10, -10, -10
-10, -10, -10, -10, -10, -10, -10, 22.625, 22.583334, 22.4375, 22.25, 22.125, 22, 22, 21.9375, 21.75, 21.5625, 21.3125, 21.125, 21.0625, 21, 21, 20.875, 20.625, 20.375, 20.0625, 19.741072, 19.5625, 19.5, 19.375, 19.5, 19.5, 19.5625, 19.5625, 19.428572, 19.125, 18.75, 18.4375, 18.25, 18, 18, 18, 18, 17.875, 17.625, 17.375, 17.125, 16.9375, 16.9375, 16.8125, 16.625, 16.4375, 16.1875, 16.0625, 16, 16, 16, 16, 16, 15.8125, 15.5625, 15.25, 15, 14.875, 14.6875, 14.5, 14.25, 14.0625, 14, 14, 13.9375, 13.75, 13.5625, 13.3125, 13.125, 13.0625, 13, 12.9375, 12.875, 12.6875, 12.4375, 12.25, 12.0625, 11.9375, 11.875, 11.625, 11.375, 11.1875, 11, 11, 11, 11, 11, 11, 11, 10.9375, 10.9375, 10.9375, 10.9375, 11, 10.9375, 10.875, 10.6875, 10.5, 10.4375, 10.5, 10.6875, 10.875, 11, 11, 10.9375, 10.9375, 10.9375, 10.9375, 11, 11, 11, 11, 10.875, 10.75, 10.6875, 10.6875, 10.8125, 10.9375, 11, 11, 11, 11, 11, 11, 11, 11, 10.9375, 10.9375, 10.9375, 10.9375, 11, 11, 11, 11, 11, 11, 11, 11, 11, 11, 11, 11, 11, 11, 11, 11, 11, 11, 11, 11, 10.8125, 10.8125, 10.8125, 10.8125, 11, 10.9375, 10.875, 10.8125, 10.8125, 10.75, 10.6875, 10.625, 10.5625, 10.625, 10.75, 10.875, 10.9375, 11, 11, 11, 11, 11, 11, 11, 11, 11, 11, 11, 11, 10.9375, 10.875, 10.875, 10.875, 10.9375, 11, 11, 11, 11, 11, 11, 11, 11, 11, 11, 11, 11, -10, -10, -10, -10, -10, 25.4375, 25.375, 25.34375, 25.46875, 25.75, 26.232143, 26.625, 26.875, 26.9375, 26.875, 26.875, 26.741072, 26.612499, 26.607143, 26.375, 26.4375, 26.375, 26.46875, 26.53125, 26.625, 26.71875, 26.8125, 27, 27.15625, 27.34375, 27.59375, 27.84375, 28.075893, 28.25, 28.375, 28.5, 28.6875, 28.8125, 29, 29, 28.9375, 28.875, 28.669643, 28.455357, 28.479166, 28.75, 29.107143, 29.5, 29.5625, 29.392857, 29.196428, 29.0625, 29.1875, 29.375, 29.5, 29.607143, 29.625, 29.625, 29.625, 29.625, 29.5625, 29.5625, 29.4375, 29.3125, 29.25, 29.160713, 29.142857, 29.169643, 28.586309, 28.174107, 27.915178, 27.6875, 27.75, 27.96875, 28.348213, 28.964287, 29.125, 29.383928, 29.520834, 29.553572, 29.375, 29.15625, 28.688776, 28.505102, 28.238096, 28.190475, 28.229589, 28.4375, 28.625, 28.669643, 28.875, 28.795918, 29.395834, 29.678572, 29.8125, 29.90625, 30.09375, 30.40625, 30.71875, 31.232143, 31.71875, 32.263393, 32.65625, 33.15625, 33.5, 33.75, 34, 34, 34.125, 34.333332, 11, 11, 11, 11, 11, 11, 11.0625, 11.1875, 11.354167, 12.2, -10, -10, -10, -10, -10, -10, -10, -10, -10, -10, -10, -10, -10, -10, -10, -10, -10, -10, -10, -10, -10, -10, -10, -10, -10, -10, -10, -10, -10, -10, -10, -10, -10, -10, -10, -10, -10, -10, -10, -10, -10, -10, -10, -10, -10, -10, -10, -10, -10, -10, -10, -10, -10, -10, -10, -10, -10, -10, -10, -10, -10, 22.5, 22.5, 22.375, 22.25, 22.125, 22, 22, 21.9375, 21.8125, 21.6875, 21.4375, 21.25, 21.125, 21, 21, 20.875, 20.625, 20.375, 20.0625, 19.8125, 19.8125, 19.75, 19.625, 19.625, 19.5625, 19.625, 19.625, 19.491072, 19.125, 18.6875, 18.375, 18.1875, 18, 18, 18, 18, 17.9375, 17.6875, 17.4375, 17.1875, 16.875, 16.8125, 16.6875, 16.5, 16.375, 16.1875, 16.0625, 16, 16, 16, 15.9375, 15.875, 15.6875, 15.4375, 15.125, 14.875, 14.8125, 14.6875, 14.5625, 14.375, 14.125, 14, 14, 14, 13.8125, 13.625, 13.375, 13.125, 13.0625, 13, 12.9375, 12.8125, 12.5625, 12.3125, 12.0625, 11.875, 11.75, 11.6875, 11.5, 11.3125, 11.1875, 11, 11, 11, 11, 11, 10.9375, 10.875, 10.75, 10.6875, 10.75, 10.75, 10.875, 10.875, 10.8125, 10.625, 10.4375, 10.375, 10.4375, 10.6875, 10.875, 11, 11, 10.9375, 10.9375, 10.9375, 10.9375, 11, 11, 11, 11, 10.875, 10.6875, 10.5625, 10.5, 10.5625, 10.75, 10.875, 10.9375, 11, 11, 11, 11, 11, 11, 10.875, 10.8125, 10.75, 10.75, 10.875, 10.9375, 11, 11, 11, 11, 11, 10.9375, 10.9375, 10.9375, 10.9375, 11, 11, 10.9375, 10.9375, 10.875, 10.875, 10.9375, 10.9375, 11, 10.75, 10.6875, 10.625, 10.625, 10.875, 10.8125, 10.75, 10.625, 10.625, 10.5625, 10.5625, 10.5, 10.375, 10.5, 10.625, 10.8125, 10.9375, 11, 11, 11, 11, 10.9375, 10.875, 10.8125, 10.8125, 10.8125, 10.8125, 10.875, 10.875, 10.84375, 10.78125, 10.78125, 10.78125, 10.875, 11, 11, 11, 11, 11, 11, -10, -10, 11, 11, 11, 11, -10, 25.833332, 25.875, 26, 26, 25.6875, 25.625, 25.59375, 25.65625, 25.875, 26.232143, 26.5, 26.6875, 26.6875, 26.625, 26.6875, 26.553572, 26.424999, 26.357143, 26.03125, 26.09375, 26.03125, 26.125, 26.09375, 26.1875, 26.28125, 26.5, 26.950001, 26.986607, 27.21875, 27.34375, 27.53125, 27.71875, 27.9375, 28.0625, 28.25, 28.46875, 28.65625, 28.78125, 28.71875, 28.625, 28.4375, 28.3125, 28.375, 28.4375, 28.625, 28.919643, 29.0625, 29.0625, 29.0625, 29, 28.9375, 28.991072, 28.854166, 28.892857, 28.919643, 28.785715, 28.928572, 29.1875, 29.3125, 29.25, 29.1875, 29.0625, 28.9375, 28.8125, 28.723213, 28.642857, 28.67857, 28.357141, 28.040178, 27.790178, 27.5625, 27.6875, 27.84375, 28.160713, 28.607143, 28.75, 28.946428, 29.083334, 29.178572, 29, 28.78125, 28.5, 27.994049, 27.754465, 27.559523, 27.819941, 28.116072, 28.3125, 28.3125, 28.4375, 28.446428, 28.913691, 29.410715, 29.678572, 29.9375, 30.1875, 30.5, 30.8125, 31.294643, 31.6875, 32.232143, 32.625, 33.0625, 33.4375, 33.6875, 33.9375, 34, 34.1875, 34.333332, 11, 11, 11, 11, 11, 11.0625, 11.125, 11.270833, 11.472222, -10, -10, -10, -10, -10, -10, -10, -10, -10, -10, -10, -10, -10
-10, -10, -10, -10, -10, -10, -10, 22.25, 22.25, 22.1875, 22.125, 22.0625, 22, 21.9375, 21.9375, 21.875, 21.8125, 21.625, 21.375, 21.1875, 21, 21, 20.8125, 20.5625, 20.3125, 20, 19.875, 19.875, 19.8125, 19.625, 19.5, 19.4375, 19.5, 19.5625, 19.491072, 19.0625, 18.625, 18.3125, 18.125, 18, 18, 18, 18, 18, 17.75, 17.5, 17.25, 16.875, 16.8125, 16.75, 16.625, 16.5, 16.3125, 16.125, 16, 16, 16, 15.875, 15.75, 15.625, 15.375, 15.0625, 14.767857, 14.625, 14.5, 14.4375, 14.3125, 14.125, 14, 14, 14, 13.8125, 13.625, 13.375, 13.125, 13.0625, 13, 12.9375, 12.8125, 12.5625, 12.3125, 12.0625, 11.875, 11.75, 11.6875, 11.5625, 11.375, 11.25, 11.0625, 11, 11, 11, 10.9375, 10.8125, 10.6875, 10.5, 10.5, 10.625, 10.6875, 10.8125, 10.875, 10.8125, 10.625, 10.5625, 10.375, 10.375, 10.625, 10.6875, 10.8125, 10.8125, 10.6875, 10.6875, 10.6875, 10.6875, 10.75, 10.75, 10.75, 10.75, 10.625, 10.4375, 10.3125, 10.25, 10.3125, 10.5, 10.625, 10.6875, 10.8125, 10.875, 10.875, 10.875, 10.875, 10.8125, 10.6875, 10.625, 10.5, 10.5625, 10.75, 10.875, 10.9375, 10.875, 10.8125, 10.8125, 10.8125, 10.75, 10.75, 10.75, 10.8125, 10.9375, 10.9375, 10.8125, 10.75, 10.625, 10.6875, 10.8125, 10.8125, 10.875, 10.625, 10.5, 10.4375, 10.4375, 10.625, 10.5625, 10.5, 10.375, 10.375, 10.375, 10.4375, 10.4375, 10.375, 10.4375, 10.5, 10.625, 10.75, 10.8125, 10.8125, 10.8125, 10.75, 10.6875, 10.625, 10.625, 10.625, 10.625, 10.625, 10.6875, 10.75, 10.75, 10.71875, 10.65625, 10.65625, 10.75, 11, 11, 11, 11, 11, -10, -10, -10, 11, 11, 11, 11, 25.625, 25.805555, 25.916666, 26, 26, 25.875, 25.770834, 25.75, 25.84375, 26, 26.160715, 26.34375, 26.40625, 26.40625, 26.375, 26.375, 26.178572, 26.049999, 25.857143, 25.385416, 25.489584, 25.49375, 25.611607, 25.758928, 26.020834, 26.1875, 26.4375, 26.700001, 26.705357, 26.84375, 26.84375, 26.995537, 27.21875, 27.525, 27.508928, 27.633928, 27.964285, 28.178572, 28.321428, 28.25, 28.142857, 27.75, 27.6875, 27.8125, 28.008928, 28.375, 28.607143, 28.75, 28.6875, 28.6875, 28.6875, 28.6875, 28.678572, 28.416666, 28.392857, 28.294643, 28.3125, 28.5625, 28.598213, 28.642857, 28.571428, 28.5, 28.4375, 28.4375, 28.3125, 28.160713, 28.017857, 28.017857, 27.973213, 27.861607, 27.727678, 27.5625, 27.6875, 27.709822, 27.723213, 28.0625, 28.241072, 28.616072, 28.895834, 29.116072, 29.0625, 28.84375, 28.392857, 27.386906, 27.004465, 26.892857, 27.248512, 27.741072, 28, 28.125, 28.375, 28.625, 28.892857, 29.419643, 29.616072, 30, 30.3125, 30.625, 30.875, 31.1875, 31.5, 32.044643, 32.544643, 33, 33.4375, 33.6875, 33.9375, 34, 34.1875, 34.333332, 11, 11, 11, 11, 11, 11.0625, 11.125, 11.361111, -10, -10, -10, -10, -10, -10, -10, -10, -10, -10, -10, -10, -10, -10, -10, -10, -10, -10, -10, -10, -10, -10, -10, -10, -10, -10, -10, -10, -10, -10, -10, -10, -10, -10, -10, -10, -10, -10, -10, -10, -10, -10, -10, -10, -10, -10, -10, -10, -10, -10, -10, -10, -10, -10, -10, -10, -10, -10, -10, -10, -10, -10, -10, 22.125, 22.083334, 22.0625, 22, 22, 22, 21.875, 21.8125, 21.8125, 21.75, 21.625, 21.4375, 21.1875, 21, 20.9375, 20.6875, 20.4375, 20.1875, 20, 20, 20, 20, 19.8125, 19.5625, 19.4375, 19.375, 19.25, 19.25, 18.9375, 18.5, 18.3125, 18.0625, 18, 18, 18, 18, 18, 17.75, 17.5, 17.25, 16.875, 16.8125, 16.75, 16.6875, 16.625, 16.4375, 16.25, 16.0625, 16, 16, 15.8125, 15.625, 15.5, 15.25, 15.0625, 14.830357, 14.625, 14.4375, 14.25, 14.151786, 14.098214, 14, 14.0625, 14, 13.75, 13.5, 13.25, 13, 13, 12.9375, 12.875, 12.75, 12.5, 12.3125, 12.0625, 11.875, 11.75, 11.625, 11.5, 11.3125, 11.1875, 11.0625, 11, 11, 10.9375, 10.8125, 10.625, 10.4375, 10.25, 10.3125, 10.5, 10.625, 10.75, 10.75, 10.625, 10.4375, 10.4375, 10.3125, 10.3125, 10.5, 10.5, 10.5625, 10.5625, 10.5, 10.5, 10.5, 10.5, 10.5, 10.5, 10.5, 10.5, 10.4375, 10.3125, 10.1875, 10.125, 10.125, 10.25, 10.375, 10.4375, 10.5625, 10.625, 10.625, 10.625, 10.625, 10.5625, 10.4375, 10.375, 10.25, 10.3125, 10.5, 10.625, 10.6875, 10.625, 10.5625, 10.5625, 10.5625, 10.5, 10.5, 10.5625, 10.6875, 10.8125, 10.8125, 10.625, 10.5, 10.375, 10.4375, 10.625, 10.625, 10.6875, 10.5, 10.3125, 10.25, 10.3125, 10.4375, 10.375, 10.3125, 10.125, 10.125, 10.1875, 10.3125, 10.375, 10.3125, 10.3125, 10.3125, 10.375, 10.5, 10.5625, 10.5625, 10.5625, 10.5, 10.5, 10.4375, 10.5, 10.5625, 10.5, 10.5, 10.5, 10.5, 10.666667, 10.625, 10.541667, 10.541667, 10.666667, -10, 11, 11, 11, 11, -10, -10, -10, 25.833332, 25.875, 25.75, 25.875, 25.75, 25.854166, 25.9375, 26, 26, 26, 25.875, 25.8125, 25.8125, 25.84375, 25.866072, 26.03125, 26.09375, 26.125, 26.125, 26.0625, 25.875, 25.875, 25.5625, 25.197916, 25.239584, 25.18125, 25.299107, 25.446428, 25.645834, 25.875, 26.125, 26.387501, 26.455357, 26.59375, 26.59375, 26.745537, 26.96875, 27.275, 27.196428, 27.196428, 26.8125, 26.8125, 26.854166, 26.854166, 26.791666, 27.035715, 27.25, 27.375, 27.633928, 27.875, 27.9375, 28.125, 28.125, 28.25, 28.375, 28.4375, 28.428572, 28.041666, 27.892857, 27.8125, 27.875, 28.125, 28.223213, 28.142857, 28.008928, 27.714285, 27.642857, 27.8125, 27.616072, 27.375, 27.375, 27.3125, 27.410713, 27.401787, 27.675594, 27.830357, 28.0625, 27.886906, 27.520834, 27.625, 27.919643, 28.348215, 28.770834, 29.053572, 29, 28.785713, 28.187075, 26.940475, 26.566965, 26.486607, 26.936012, 27.428572, 27.794643, 27.9375, 28.1875, 28.5, 28.75, 29.263393, 29.522322, 29.9375, 30.3125, 30.65625, 30.90625, 31.1875, 31.5, 32.044643, 32.544643, 33, 33.4375, 33.6875, 33.9375, 34, 34.125, 11, 11, 11, 11, 11, 11.0625, 11.145833, 11.166667, -10, -10, -10, -10, -10, -10, -10, -10, -10, -10, -10, -10, -10, -10, -10
-10, -10, -10, -10, -10, -10, -10, 22.375, 22.25, 22.1875, 22.0625, 22, 22, 21.875, 21.8125, 21.8125, 21.75, 21.625, 21.4375, 21.1875, 21, 20.9375, 20.6875, 20.4375, 20.1875, 20, 20, 20, 20, 19.875, 19.625, 19.5, 19.375, 19.125, 19.0625, 18.6875, 18.3125, 18.1875, 18.0625, 18.0625, 18.0625, 18.0625, 18, 17.9375, 17.6875, 17.4375, 17.1875, 16.9375, 16.875, 16.8125, 16.75, 16.625, 16.4375, 16.25, 16.0625, 16, 16, 15.8125, 15.5625, 15.375, 15.125, 14.9375, 14.705357, 14.5, 14.375, 14.3125, 14.297619, 14.139881, 14, 14, 13.9375, 13.75, 13.5, 13.25, 13.0625, 13, 12.875, 12.8125, 12.6875, 12.4375, 12.3125, 12.0625, 11.875, 11.8125, 11.6875, 11.5625, 11.375, 11.1875, 11.0625, 11, 11, 10.9375, 10.75, 10.5, 10.25, 10.0625, 10.1875, 10.375, 10.5, 10.5625, 10.5, 10.375, 10.25, 10.3125, 10.25, 10.25, 10.375, 10.3125, 10.3125, 10.3125, 10.25, 10.25, 10.25, 10.25, 10.25, 10.25, 10.25, 10.25, 10.25, 10.1875, 10.125, 10.0625, 10, 10.0625, 10.125, 10.1875, 10.3125, 10.375, 10.375, 10.375, 10.375, 10.3125, 10.25, 10.1875, 10.0625, 10.125, 10.25, 10.375, 10.4375, 10.375, 10.3125, 10.3125, 10.3125, 10.25, 10.25, 10.3125, 10.4375, 10.5625, 10.5625, 10.375, 10.25, 10.125, 10.1875, 10.375, 10.375, 10.4375, 10.3125, 10.125, 10.0625, 10.125, 10.1875, 10.1875, 10.1875, 10.0625, 10.0625, 10.125, 10.25, 10.3125, 10.3125, 10.3125, 10.25, 10.25, 10.3125, 10.3125, 10.3125, 10.3125, 10.25, 10.25, 10.1875, 10.25, 10.3125, 10.3125, 10.333333, 10.333333, 10.333333, -10, -10, -10, -10, -10, -10, 11, 11, 11, 11, -10, -10, 25.25, 25.638887, 25.75, 25.75, 25.916666, 25.8125, 25.782738, 25.737499, 25.857143, 25.75, 25.75, 25.5625, 25.5625, 25.598213, 25.59375, 25.553572, 25.59375, 25.59375, 25.75, 25.875, 25.8125, 25.6875, 25.5625, 25.276787, 25.010416, 24.873512, 24.815178, 24.861607, 25.071428, 25.270834, 25.5, 25.6875, 25.950001, 26.142857, 26.348213, 26.375, 26.526787, 26.6875, 27.025, 26.946428, 26.946428, 26.84375, 26.625, 26.625, 26.625, 26.607143, 26.90625, 27.09375, 27.196428, 27.383928, 27.5625, 27.5, 27.6875, 27.6875, 27.875, 28.03125, 28.09375, 28.022322, 27.572916, 27.424107, 27.34375, 27.34375, 27.53125, 27.535713, 27.12755, 27.165178, 26.90625, 27.071428, 26.919643, 26.857143, 26.75, 26.8125, 26.607143, 26.875, 27.008928, 27.354166, 27.841837, 28.107143, 27.761906, 27.297619, 27.4375, 27.669643, 27.919643, 28.214285, 28.357143, 28.25, 28.112244, 26.603172, 26.261906, 25.973215, 26.017857, 26.645834, 27.151785, 27.544643, 27.75, 28, 28.4375, 28.75, 29.325893, 29.584822, 30.0625, 30.4375, 30.71875, 30.96875, 31.1875, 31.4375, 31.875, 32.419643, 32.875, 33.419643, 33.6875, 33.9375, 34, 34.0625, 11, 11, 11, 11, 11.0625, 11.25, 11.445833, -10, -10, -10, -10, -10, -10, -10, -10, -10, -10, -10, -10, -10, -10, -10, -10, -10, -10, -10, -10, -10, -10, -10, -10, -10, -10, -10, -10, -10, -10, -10, -10, -10, -10, -10, -10, -10, -10, -10, -10, -10, -10, -10, -10, -10, -10, -10, -10, -10, -10, -10, -10, -10, -10, -10, -10, -10, -10, -10, -10, -10, -10, -10, -10, -10, 22.625, 22.5, 22.4375, 22.25, 22.1875, 22.125, 21.9375, 21.8125, 21.75, 21.6875, 21.5625, 21.4375, 21.1875, 21, 20.9375, 20.6875, 20.4375, 20.1875, 20, 20, 20, 20, 19.9375, 19.6875, 19.5, 19.3125, 19, 18.875, 18.5625, 18.25, 18.125, 18.125, 18.125, 18.125, 18.125, 18, 17.9375, 17.6875, 17.4375, 17.1875, 17, 17, 17, 17, 16.8125, 16.5625, 16.25, 16, 15.9375, 15.875, 15.75, 15.5, 15.3125, 15.125, 15, 14.830357, 14.5625, 14.4375, 14.375, 14.297619, 14.202381, 14.0625, 14, 13.875, 13.6875, 13.4375, 13.1875, 13.0625, 13, 12.8125, 12.6875, 12.5625, 12.3125, 12.25, 12.125, 12, 12, 11.875, 11.6875, 11.375, 11.089286, 11, 10.9375, 11, 10.875, 10.625, 10.375, 10.125, 10, 10.1875, 10.3125, 10.4375, 10.4375, 10.3125, 10.1875, 10.0625, 10.125, 10.0625, 10.0625, 10.125, 10.0625, 10.0625, 10.0625, 10, 10, 10, 10, 10, 10, 10, 10, 10, 10, 10, 10, 10, 10, 10, 10, 10.0625, 10.125, 10.125, 10.125, 10.125, 10.0625, 10.0625, 10.0625, 10, 10.0625, 10.125, 10.1875, 10.1875, 10.125, 10.0625, 10.0625, 10.0625, 10.0625, 10.0625, 10.125, 10.25, 10.3125, 10.3125, 10.1875, 10.0625, 10, 10.0625, 10.1875, 10.1875, 10.1875, 10.125, 10, 10, 10.0625, 10.0625, 10.0625, 10.0625, 10, 10, 10.0625, 10.125, 10.1875, 10.25, 10.1875, 10.125, 10.0625, 10.0625, 10.0625, 10.0625, 10.0625, 10, 10.0625, 10.0625, 10.1875, 10.25, 10.333333, 10.361111, -10, -10, -10, -10, -10, -10, -10, -10, 25.5, 25.5, 25.5, 25.375, 25.25, 25.125, 25.166666, 25.479166, 25.5625, 25.5625, 25.6875, 25.6875, 25.616072, 25.549999, 25.607143, 25.4375, 25.375, 25.1875, 25.1875, 25.285713, 25.34375, 25.303572, 25.34375, 25.34375, 25.5625, 25.75, 25.625, 25.4375, 25.142857, 24.839287, 24.604166, 24.467262, 24.408928, 24.392857, 24.633928, 24.895834, 25.1875, 25.375, 25.5, 25.75, 25.973213, 26.0625, 26.232143, 26.544643, 26.757143, 26.571428, 26.410715, 26.25, 26.1875, 26.25, 26.25, 26.28125, 26.5, 26.6875, 26.790178, 26.946428, 27.125, 27.125, 27.375, 27.4375, 27.5625, 27.65625, 27.65625, 27.59375, 27.40625, 27.21875, 27.03125, 26.736607, 26.5, 26.37755, 26.361607, 26.227678, 26.03125, 25.666666, 26.232143, 26.294643, 26.1875, 26.25, 26.125, 26.1875, 26.081633, 26.547619, 26.795918, 27, 27.074406, 26.547619, 26.928572, 26.919643, 27.169643, 26.666666, 26.583334, 26.375, 26.190475, 25.843536, 25.489796, 25.544643, 25.696428, 26.395834, 26.901785, 27.357143, 27.65625, 27.96875, 28.53125, 28.825893, 29.28125, 29.53125, 30.03125, 30.46875, 30.75, 31, 31.1875, 31.4375, 31.8125, 32.357143, 32.875, 33.464287, 33.75, 34, 34, 34.0625, 11, 11, 11, 11, 11.133928, 11.5, 11.511111, -10, -10, -10, -10, -10, -10, -10, -10, -10, -10, -10, -10, -10, -10, -10, -10
-10, -10, -10, -10, -10, -10, -10, 22.875, 22.75, 22.625, 22.375, 22.25, 22.125, 22, 21.875, 21.8125, 21.6875, 21.5, 21.375, 21.125, 20.9375, 20.875, 20.625, 20.375, 20.1875, 20, 20, 20, 20, 20, 19.75, 19.5, 19.25, 18.875, 18.75, 18.5625, 18.375, 18.3125, 18.3125, 18.25, 18.1875, 18.0625, 17.9375, 17.875, 17.625, 17.4375, 17.1875, 17, 17, 17, 17, 16.8125, 16.5625, 16.25, 16, 15.9375, 15.8125, 15.6875, 15.4375, 15.1875, 15.0625, 15, 14.9375, 14.75, 14.6875, 14.5625, 14.422619, 14.264881, 14, 13.875, 13.75, 13.5625, 13.375, 13.1875, 13.0625, 13, 12.8125, 12.625, 12.4375, 12.1875, 12.125, 12.0625, 12, 12, 11.875, 11.625, 11.25, 10.857143, 10.8125, 10.8125, 10.9375, 10.8125, 10.5625, 10.3125, 10.0625, 10, 10.125, 10.1875, 10.25, 10.25, 10.125, 10.0625, 10, 10, 10, 10, 10, 10, 10, 10, 10, 10, 10, 10, 10, 10, 10, 10, 10, 10, 10, 10, 10, 10, 10, 10, 10, 10, 10, 10, 10, 10, 10, 10, 10, 10, 10, 10, 10, 10, 10, 10, 10, 10, 10, 10.0625, 10.125, 10.125, 10.125, 10.0625, 10, 10, 10, 10.0625, 10.0625, 10.0625, 10.0625, 10, 10, 10.0625, 10.0625, 10.0625, 10.0625, 10, 10, 10, 10, 10, 10, 10, 10, 10, 10, 10, 10, 10, 10, 10.0625, 10.0625, 10.166667, 10.25, -10, -10, -10, -10, -10, -10, -10, -10, -10, 25, 25.333334, 25.333334, 25.333334, 25.25, 25.083334, 25, 25.0625, 25.166666, 25.3125, 25.375, 25.5, 25.5625, 25.491072, 25.362499, 25.419643, 25.1875, 25.0625, 24.875, 24.8125, 24.848213, 24.96875, 25.0625, 25.0625, 25.125, 25.34375, 25.5, 25.330357, 25.133928, 24.767857, 24.589287, 24.5, 24.258928, 24.133928, 24.125, 24.25, 24.4375, 24.625, 24.75, 24.9375, 25.1875, 25.535713, 25.75, 26.017857, 26.357143, 26.482143, 26.375, 26.276787, 26.1875, 26.125, 26.1875, 26.1875, 26.21875, 26.375, 26.5625, 26.540178, 26.5, 26.5, 26.5625, 26.919643, 27.125, 27.28125, 27.3125, 27.265625, 27.140625, 27.046875, 26.859375, 26.65625, 26.361607, 26, 25.892857, 25.75, 25.607143, 25.392857, 25.285715, 25.732143, 25.794643, 25.75, 25.75, 25.5625, 25.5625, 25.571428, 25.738094, 25.867346, 26.071428, 26.119049, 25.986395, 25.892859, 25.935375, 25.806122, 25.678572, 25.642857, 25.535715, 25.448978, 25.291666, 25.178572, 25.25, 25.633928, 26.431549, 26.839285, 27.357143, 27.59375, 27.96875, 28.40625, 28.700893, 29.09375, 29.34375, 29.790178, 30.427084, 30.741072, 31, 31.1875, 31.4375, 31.75, 32.1875, 32.696426, 33.422619, 33.741074, 34, 34, 34.125, 34.333332, 11, 11, 11, 11.178571, 11.666667, -10, -10, -10, -10, -10, -10, -10, -10, -10, -10, -10, -10, -10, -10, -10, -10, -10, -10, -10, -10, -10, -10, -10, -10, -10, -10, -10, -10, -10, -10, -10, -10, -10, -10, -10, -10, -10, -10, -10, -10, -10, -10, -10, -10, -10, -10, -10, -10, -10, -10, -10, -10, -10, -10, -10, -10, -10, -10, -10, -10, -10, -10, -10, -10, -10, -10, 23, 22.916666, 22.75, 22.5, 22.3125, 22.125, 22.0625, 22, 21.9375, 21.8125, 21.5625, 21.375, 21.0625, 20.8125, 20.75, 20.5, 20.3125, 20.1875, 20, 20, 20, 20, 20, 19.75, 19.5, 19.25, 18.9375, 18.8125, 18.6875, 18.5625, 18.5, 18.5, 18.375, 18.25, 18.0625, 17.9375, 17.875, 17.625, 17.4375, 17.1875, 17, 17, 17, 17, 16.75, 16.5, 16.1875, 15.9375, 15.9375, 15.8125, 15.6875, 15.4375, 15.1875, 15.0625, 15, 14.9375, 14.8125, 14.8125, 14.75, 14.583333, 14.291667, 14, 13.75, 13.625, 13.4375, 13.25, 13.125, 13.0625, 13, 12.875, 12.625, 12.375, 12.125, 12.0625, 12.0625, 12.0625, 12.0625, 11.875, 11.625, 11.25, 10.857143, 10.8125, 10.8125, 10.9375, 10.875, 10.625, 10.375, 10.125, 10, 10.0625, 10.0625, 10.0625, 10.0625, 10, 10, 10, 10, 10, 10, 10, 10, 10, 10, 10, 10, 10, 10, 10, 10, 10, 10, 10, 10, 10, 10, 10, 10, 10, 10, 10, 10, 10, 10, 10, 10, 10, 10, 10, 10, 10, 10, 10, 10, 10, 10, 10, 10, 10, 10, 10, 10, 10, 10, 10, 10, 10, 10, 10, 10, 10, 10, 10, 10, 10, 10, 9.9375, 9.875, 9.875, 9.875, 9.9375, 10, 10, 10, 10, 10, 10, 10, 10, 10, 10, 10, 10, -10, -10, -10, -10, -10, -10, -10, 24, 24.333334, 24.5, 24.75, 25, 25.25, 25.25, 25.25, 25.125, 24.96875, 24.90625, 24.84375, 24.96875, 25.125, 25.1875, 25.25, 25.375, 25.303572, 25.174999, 25.169643, 24.7875, 24.883928, 24.758928, 24.8125, 24.848213, 24.9375, 25, 24.9375, 24.9375, 25.125, 25.25, 25.080357, 24.883928, 24.455357, 24.276787, 24.1875, 23.946428, 23.946428, 23.9375, 24, 24.125, 24.1875, 24.25, 24.4375, 24.6875, 25.035713, 25.1875, 25.392857, 25.732143, 25.919643, 26.044643, 26.089287, 26.09375, 26.0625, 26.0625, 26, 26.0625, 26.1875, 26.375, 26.352678, 26.25, 26.1875, 26.1875, 26.482143, 26.625, 26.78125, 26.75, 26.671875, 26.546875, 26.453125, 26.328125, 26.09375, 25.861607, 25.629463, 25.5, 25.513393, 25.34375, 25.28125, 25.21875, 25.575893, 25.741072, 25.875, 25.78125, 25.46875, 25.205357, 25.0625, 25.0625, 25.0625, 24.892857, 24.857143, 25.346939, 25.479593, 24.812925, 24.734694, 24.9375, 24.9375, 24.9375, 25, 25, 25, 25.1875, 25.633928, 26.476191, 26.839285, 27.3125, 27.59375, 28.03125, 28.53125, 28.78125, 29.125, 29.3125, 29.758928, 30.440477, 30.741072, 31, 31.0625, 31.276787, 31.607143, 32.0625, 32.571426, 33.297619, 33.678574, 33.9375, 34, 34.1875, 34.333332, 11, 11, 11, -10, -10, -10, -10, -10, -10, -10, -10, -10, -10, -10, -10, -10, -10, -10, -10, -10, -10, -10
-10, -10, -10, -10, -10, -10, -10, 23, 23, 22.8125, 22.5625, 22.375, 22.125, 22.0625, 22, 21.9375, 21.75, 21.5, 21.3125, 21, 20.75, 20.625, 20.375, 20.1875, 20.125, 20, 20, 20, 20, 20, 19.75, 19.5, 19.25, 19, 18.9375, 18.8125, 18.75, 18.6875, 18.5625, 18.4375, 18.1875, 17.875, 17.8125, 17.8125, 17.6875, 17.625, 17.375, 17.125, 17.0625, 17, 17, 16.75, 16.5, 16.1875, 15.9375, 15.9375, 15.8125, 15.625, 15.375, 15.125, 15, 15, 15, 14.9375, 14.875, 14.6875, 14.4375, 14.25, 14, 13.75, 13.5625, 13.3125, 13.125, 13.0625, 13, 13, 12.9375, 12.75, 12.5625, 12.303572, 12.1125, 12.169643, 12.0625, 12.125, 11.9375, 11.6875, 11.3125, 10.919643, 10.8125, 10.8125, 10.9375, 10.875, 10.625, 10.375, 10.125, 10, 10, 10, 10, 10, 10, 10, 10, 10, 10, 9.9375, 9.875, 9.875, 9.875, 9.9375, 10, 10, 10, 10, 10, 10, 10, 10, 10, 10, 10, 10, 10, 10, 10, 10, 10, 10, 10, 10, 10, 10, 10, 10, 10, 10, 10, 10, 10, 10, 10, 10, 10, 9.9375, 9.9375, 9.9375, 9.9375, 10, 10, 10, 10, 10, 10, 10, 10, 10, 10, 10, 9.9375, 9.875, 9.875, 9.875, 9.8125, 9.75, 9.75, 9.75, 9.875, 10, 10, 10, 10, 10, 10, 10, 10, 10, 10, 10, -10, -10, -10, -10, -10, -10, -10, -10, 24.166666, 24.444445, 24.5, 24.666666, 24.8125, 24.75, 24.8125, 24.8125, 24.75, 24.65625, 24.59375, 24.59375, 24.65625, 24.6875, 24.6875, 24.6875, 24.75, 24.75, 24.75, 24.6875, 24.475, 24.633928, 24.633928, 24.625, 24.6875, 24.75, 24.75, 24.8125, 24.723213, 24.8125, 24.982143, 24.705357, 24.571428, 24.205357, 24, 23.875, 23.8125, 23.75, 23.8125, 23.75, 23.75, 23.75, 23.75, 23.875, 24, 24.3125, 24.5, 24.8125, 25.232143, 25.419643, 25.544643, 25.526787, 25.46875, 25.4375, 25.4375, 25.5, 25.75, 25.90625, 25.852678, 25.78125, 25.75, 25.723213, 25.8125, 26.107143, 26.1875, 26.34375, 26.34375, 26.203125, 26.078125, 25.984375, 25.859375, 25.625, 25.392857, 25.160713, 25.0625, 25.169643, 25.0625, 25.125, 24.96875, 25.339285, 25.428572, 25.5, 25.428572, 24.9375, 24.705357, 24.5625, 24.625, 24.5625, 24.4375, 24.12755, 23.773809, 23.738096, 24.086309, 24.133928, 24.3125, 24.5, 24.625, 24.8125, 24.9375, 25.107143, 25.3125, 25.696428, 26.360121, 26.678572, 27.1875, 27.53125, 27.96875, 28.4375, 28.6875, 28.96875, 29.21875, 29.696428, 30.422621, 30.741072, 31, 31.0625, 31.276787, 31.607143, 32, 32.455357, 33.273808, 33.669643, 33.9375, 34, 34.25, 34.333332, 11, 11, -10, -10, -10, -10, -10, -10, -10, -10, -10, -10, -10, -10, -10, -10, -10, -10, -10, -10, -10, -10, -10, -10, -10, -10, -10, -10, -10, -10, -10, -10, -10, -10, -10, -10, -10, -10, -10, -10, -10, -10, -10, -10, -10, -10, -10, -10, -10, -10, -10, -10, -10, -10, -10, -10, -10, -10, -10, -10, -10, -10, -10, -10, -10, -10, -10, -10, -10, -10, -10, 23, 23, 22.75, 22.5, 22.25, 22, 22, 22, 21.9375, 21.6875, 21.4375, 21.1875, 20.875, 20.625, 20.5, 20.3125, 20.1875, 20.1875, 20.0625, 20, 20, 20, 20, 19.75, 19.5, 19.25, 19, 19, 18.9375, 18.9375, 18.9375, 18.6875, 18.5, 18.1875, 17.75, 17.75, 17.75, 17.625, 17.625, 17.375, 17.125, 17.0625, 17, 16.9375, 16.6875, 16.4375, 16.1875, 16, 16, 15.875, 15.625, 15.375, 15.125, 15, 15, 15, 15, 14.875, 14.625, 14.375, 14.125, 13.9375, 13.75, 13.5625, 13.3125, 13.125, 13.0625, 13, 13, 13, 12.875, 12.75, 12.491072, 12.2375, 12.232143, 12.0625, 12.125, 11.9375, 11.6875, 11.375, 11.017857, 10.875, 10.875, 10.9375, 10.875, 10.625, 10.375, 10.125, 10, 10, 10, 9.9375, 9.9375, 9.9375, 9.9375, 10, 10, 10, 9.9375, 9.8125, 9.8125, 9.8125, 9.875, 10, 10, 10, 10, 10, 10, 10, 10, 10, 10, 10, 10, 10, 10, 10, 10, 9.9375, 9.875, 9.875, 9.875, 9.9375, 10, 10, 10, 10, 10, 10, 10, 10, 10, 10, 10, 10, 9.875, 9.875, 9.875, 9.875, 10, 10, 10, 10, 10, 10, 10, 10, 9.9375, 9.875, 9.8125, 9.6875, 9.625, 9.625, 9.6875, 9.625, 9.5625, 9.5625, 9.5625, 9.75, 9.9375, 10, 10, 10, 10, 10, 10, 10, 10, 10, 10, -10, -10, -10, -10, -10, -10, -10, -10, 24.25, 24.416668, 24.4375, 24.5625, 24.625, 24.625, 24.75, 24.75, 24.625, 24.46875, 24.28125, 24.28125, 24.34375, 24.375, 24.4375, 24.4375, 24.5, 24.5, 24.5, 24.375, 24.225, 24.446428, 24.446428, 24.5, 24.5, 24.5, 24.5, 24.5625, 24.410713, 24.375, 24.419643, 24.080357, 24.008928, 23.875, 23.75, 23.6875, 23.6875, 23.5625, 23.625, 23.5625, 23.4375, 23.375, 23.3125, 23.375, 23.4375, 23.714287, 24.044643, 24.419643, 24.75, 25, 25.232143, 25.3125, 25.209822, 25, 25, 25.107143, 25.40625, 25.5, 25.321428, 25.017857, 24.955357, 25.119047, 25.241072, 25.669643, 25.8125, 25.96875, 26.03125, 25.828125, 25.640625, 25.546875, 25.421875, 25.25, 25.125, 24.848213, 24.75, 24.857143, 24.75, 24.875, 24.71875, 24.589285, 24.535715, 24.416666, 24.517857, 24.4375, 24.236607, 24.0625, 24.0625, 24, 23.8125, 23.642857, 23.306124, 23.346939, 23.648809, 23.758928, 24, 24.1875, 24.375, 24.625, 24.8125, 25.107143, 25.4375, 25.875, 26.401787, 26.6875, 27.125, 27.4375, 27.8125, 28.28125, 28.59375, 28.84375, 29.15625, 29.571428, 30.297621, 30.678572, 31, 31.125, 31.339287, 31.732143, 32, 32.410713, 33.273808, 33.660713, 33.9375, 34, 34.25, 34.333332, -10, -10, -10, -10, -10, -10, -10, -10, -10, -10, -10, -10, -10, -10, -10, -10, -10, -10, -10, -10, -10, -10
-10, -10, -10, -10, -10, -10, -10, 23, 22.916666, 22.6875, 22.4375, 22.1875, 22, 22, 22, 21.9375, 21.6875, 21.4375, 21.1875, 20.8125, 20.5625, 20.375, 20.1875, 20.125, 20.125, 20.0625, 19.9375, 19.875, 19.875, 19.8125, 19.625, 19.4375, 19.1875, 19, 19, 18.9375, 18.9375, 18.9375, 18.6875, 18.5, 18.1875, 17.75, 17.75, 17.75, 17.625, 17.625, 17.375, 17.125, 17.0625, 16.9375, 16.8125, 16.5625, 16.3125, 16.125, 16, 16, 15.9375, 15.75, 15.5, 15.25, 15.0625, 15, 15, 15, 14.8125, 14.5625, 14.3125, 14.0625, 14, 13.875, 13.6875, 13.4375, 13.1875, 13.0625, 13, 13, 13, 12.9375, 12.8125, 12.553572, 12.3, 12.232143, 12.0625, 12.125, 11.9375, 11.6875, 11.4375, 11.1875, 11, 11, 11, 10.9375, 10.6875, 10.4375, 10.1875, 10, 10, 10, 9.875, 9.8125, 9.75, 9.6875, 9.75, 9.8125, 9.875, 9.875, 9.8125, 9.8125, 9.8125, 9.875, 10, 10, 10, 10, 10, 10, 9.9375, 9.9375, 9.9375, 9.9375, 10, 10, 10, 10, 10, 10, 9.9375, 9.875, 9.875, 9.875, 9.9375, 10, 10, 10, 10, 10, 10, 10, 10, 10, 10, 10, 10, 9.875, 9.875, 9.875, 9.875, 10, 9.9375, 9.9375, 9.9375, 9.9375, 10, 10, 10, 9.875, 9.75, 9.625, 9.4375, 9.375, 9.375, 9.5, 9.5, 9.4375, 9.4375, 9.4375, 9.625, 9.875, 9.9375, 9.875, 9.8125, 9.8125, 9.875, 9.9375, 10, 10, 10, 10, -10, -10, -10, -10, -10, -10, -10, -10, 24.166666, 24.383335, 24.3125, 24.5, 24.5, 24.5625, 24.75, 24.6875, 24.4375, 24.174107, 23.90625, 23.84375, 23.96875, 24.0625, 24.294643, 24.294643, 24.104166, 24.080357, 24.125, 24.098213, 24.0375, 24.321428, 24.321428, 24.4375, 24.4375, 24.375, 24.25, 24.3125, 24.160713, 24.0625, 24.169643, 23.90625, 23.84375, 23.71875, 23.53125, 23.5625, 23.6875, 23.625, 23.6875, 23.5, 23.25, 23.1875, 23.125, 23.1875, 23.125, 23.214287, 23.5, 24.002977, 24.4375, 24.6875, 24.982143, 25.0625, 24.897322, 24.6875, 24.6875, 24.794643, 25.15625, 25.25, 24.883928, 24.290815, 24.290815, 24.827381, 24.982143, 25.3125, 25.375, 25.5, 25.625, 25.46875, 25.34375, 25.21875, 25.0625, 24.84375, 24.65625, 24.379463, 24.25, 24.419643, 24.375, 24.5625, 24.46875, 24.232143, 24.178572, 24.071428, 23.946428, 23.732143, 23.674107, 23.5625, 23.5625, 23.625, 23.5, 23.267857, 23.151787, 23.1875, 23.419643, 23.6875, 23.9375, 24.0625, 24.1875, 24.446428, 24.8125, 25.169643, 25.5625, 25.9375, 26.419643, 26.6875, 27.0625, 27.375, 27.6875, 28.15625, 28.53125, 28.78125, 29.21875, 29.6875, 30.32143, 30.6875, 31.0625, 31.25, 31.526787, 31.919643, 32.125, 32.482143, 33.273808, 33.660713, 33.9375, 34, 34.25, 34.333332, -10, -10, -10, -10, -10, -10, -10, -10, -10, -10, -10, -10, -10, -10, -10, -10, -10, -10, -10, -10, -10, -10, -10, -10, -10, -10, -10, -10, -10, -10, -10, -10, -10, -10, -10, -10, -10, -10, -10, -10, -10, -10, -10, -10, -10, -10, -10, -10, -10, -10, -10, -10, -10, -10, -10, -10, -10, -10, -10, -10, -10, -10, -10, -10, -10, -10, -10, -10, -10, -10, -10, 23, 22.916666, 22.75, 22.5, 22.25, 22.0625, 22, 22, 21.9375, 21.6875, 21.4375, 21.1875, 20.875, 20.6875, 20.5, 20.3125, 20.1875, 20.125, 20.0625, 19.875, 19.75, 19.6875, 19.5625, 19.4375, 19.3125, 19.125, 19, 19, 18.9375, 18.9375, 18.875, 18.625, 18.4375, 18.125, 17.75, 17.6875, 17.6875, 17.5625, 17.5625, 17.375, 17.125, 17.0625, 16.9375, 16.75, 16.5, 16.25, 16.0625, 16, 16, 15.9375, 15.8125, 15.5625, 15.3125, 15.0625, 14.875, 14.875, 14.8125, 14.625, 14.4375, 14.1875, 14, 14, 13.9375, 13.8125, 13.625, 13.4375, 13.25, 13.125, 13.0625, 13, 13, 12.875, 12.616072, 12.3, 12.169643, 12, 12.0625, 11.9375, 11.6875, 11.4375, 11.1875, 11, 11, 10.9375, 10.8125, 10.5625, 10.3125, 10.125, 10, 10, 10, 9.8125, 9.6875, 9.5625, 9.4375, 9.5, 9.5625, 9.625, 9.6875, 9.6875, 9.75, 9.8125, 9.875, 9.9375, 9.875, 9.8125, 9.8125, 9.875, 9.9375, 9.875, 9.8125, 9.8125, 9.75, 9.875, 9.9375, 9.9375, 10, 10, 10, 9.9375, 9.875, 9.8125, 9.8125, 9.875, 9.9375, 10, 10, 10, 10, 10, 10, 9.9375, 9.9375, 9.9375, 9.9375, 10, 9.875, 9.875, 9.875, 9.8125, 9.875, 9.75, 9.6875, 9.75, 9.8125, 9.9375, 10, 10, 9.8125, 9.625, 9.4375, 9.1875, 9.125, 9.125, 9.3125, 9.4375, 9.5, 9.5, 9.5, 9.625, 9.75, 9.8125, 9.6875, 9.5625, 9.625, 9.6875, 9.8125, 9.9375, 9.9375, 10, 10, -10, -10, -10, -10, -10, -10, -10, -10, 24.25, 24.362499, 24.1875, 24.276787, 24.125, 24.125, 24.3125, 24.1875, 24, 23.767857, 23.5, 23.4375, 23.5625, 23.625, 23.9375, 24.044643, 23.684523, 23.767857, 23.75, 23.848213, 23.9375, 24, 24, 24, 24, 24, 23.875, 23.9375, 23.848213, 23.6875, 23.732143, 23.53125, 23.46875, 23.40625, 23.28125, 23.3125, 23.375, 23.25, 23.25, 23.0625, 22.875, 22.875, 22.8125, 22.8125, 22.6875, 22.651787, 22.9375, 23.502977, 23.9375, 24.125, 24.5, 24.464285, 24.244898, 24.083334, 24.241072, 24.482143, 24.8125, 24.8125, 24.321428, 23.92857, 24.119047, 24.630953, 24.919643, 25.1875, 25.1875, 25.25, 25.375, 25.25, 25.1875, 25.125, 24.897322, 24.53125, 24.34375, 24.03125, 23.9375, 23.9375, 23.9375, 24, 23.9375, 23.90625, 23.78125, 23.625, 23.5, 23.34375, 23.28125, 23.25, 23.375, 23.4375, 23.4375, 23.330357, 23.25, 23.3125, 23.4375, 23.6875, 23.875, 23.9375, 24.0625, 24.383928, 24.919643, 25.294643, 25.6875, 25.9375, 26.3125, 26.6875, 27.107143, 27.4375, 27.6875, 28.09375, 28.46875, 28.71875, 29.15625, 29.5625, 30.151787, 30.607143, 31.0625, 31.4375, 31.8125, 32.1875, 32.3125, 32.669643, 33.398808, 33.723213, 34, 34, 34.25, 34.333332, -10, -10, -10, -10, -10, -10, -10, -10, -10, -10, -10, -10, -10, -10, -10, -10, -10, -10, -10, -10, -10, -10
-10, -10, -10, -10, -10, -10, -10, 23, 22.916666, 22.8125, 22.5625, 22.3125, 22.125, 22, 22, 21.9375, 21.6875, 21.4375, 21.1875, 20.803572, 20.416666, 20.267857, 20.125, 20.125, 20.125, 20.0625, 19.8125, 19.625, 19.5, 19.3125, 19.25, 19.1875, 19.0625, 19, 19, 19, 18.9375, 18.8125, 18.5625, 18.3125, 18.125, 17.875, 17.8125, 17.75, 17.5, 17.4375, 17.25, 17.0625, 17, 16.8125, 16.5625, 16.3125, 16.125, 16, 16, 16, 15.9375, 15.875, 15.625, 15.375, 15.0625, 14.75, 14.6875, 14.5625, 14.4375, 14.3125, 14.125, 14, 14, 14, 13.9375, 13.8125, 13.6875, 13.4375, 13.25, 13.125, 13, 12.9375, 12.75, 12.5, 12.25, 12.0625, 12, 12, 11.9375, 11.6875, 11.4375, 11.1875, 11, 11, 10.9375, 10.75, 10.5, 10.25, 10.0625, 10, 10, 10, 9.8125, 9.6875, 9.5, 9.375, 9.4375, 9.4375, 9.5, 9.5625, 9.5625, 9.625, 9.75, 9.8125, 9.8125, 9.75, 9.625, 9.625, 9.75, 9.8125, 9.75, 9.625, 9.5625, 9.5, 9.625, 9.6875, 9.6875, 9.8125, 9.8125, 9.8125, 9.75, 9.625, 9.5625, 9.5625, 9.625, 9.6875, 9.8125, 9.8125, 9.8125, 9.8125, 9.8125, 9.8125, 9.75, 9.75, 9.75, 9.8125, 9.875, 9.8125, 9.8125, 9.75, 9.6875, 9.6875, 9.5, 9.4375, 9.5, 9.625, 9.8125, 9.9375, 9.9375, 9.6875, 9.4375, 9.1875, 9.0625, 9.0625, 9.0625, 9.25, 9.3125, 9.375, 9.375, 9.375, 9.5, 9.5625, 9.625, 9.5, 9.3125, 9.375, 9.4375, 9.625, 9.75, 9.8125, 9.9375, 9.916667, -10, -10, -10, -10, -10, -10, -10, 24, 24.208334, 24.231548, 23.955357, 23.973215, 23.875, 23.9375, 24.0625, 24, 23.75, 23.455357, 23.214287, 23.125, 23.25, 23.4375, 23.8125, 23.982143, 23.747023, 23.892857, 23.875, 23.973213, 24, 23.9375, 23.8125, 23.75, 23.625, 23.625, 23.5625, 23.5625, 23.5, 23.375, 23.25, 23.09375, 22.90625, 22.78125, 22.65625, 22.6875, 22.8125, 22.8125, 22.8125, 22.6875, 22.5625, 22.5625, 22.5625, 22.59375, 22.484375, 22.401787, 22.5625, 22.927084, 23.160715, 23.321428, 23.333334, 23.375, 23.339285, 23.802084, 24.022322, 24.200893, 24.375, 24.3125, 24, 23.67857, 23.869047, 24.34524, 24.607143, 24.8125, 24.8125, 24.8125, 24.9375, 24.9375, 24.9375, 24.9375, 24.709822, 24.34375, 24.15625, 23.84375, 23.6875, 23.5625, 23.5625, 23.6875, 23.75, 23.8125, 23.71875, 23.5, 23.3125, 23.125, 23.03125, 23, 23.0625, 23.125, 23.1875, 23.1875, 23.1875, 23.3125, 23.4375, 23.6875, 23.8125, 23.875, 24.0625, 24.613094, 25.089287, 25.3125, 25.625, 25.8125, 26.25, 26.75, 27.214287, 27.5, 27.75, 28.125, 28.5, 28.75, 29.125, 29.4375, 29.982143, 30.526787, 31, 31.4375, 31.8125, 32.25, 32.4375, 32.848213, 33.440475, 33.732143, 34, 34.0625, 34.3125, 34.416664, -10, -10, -10, -10, -10, -10, -10, -10, -10, -10, -10, -10, -10, -10, -10, -10, -10, -10, -10, -10, -10, -10, -10, -10, -10, -10, -10, -10, -10, -10, -10, -10, -10, -10, -10, -10, -10, -10, -10, -10, -10, -10, -10, -10, -10, -10, -10, -10, -10, -10, -10, -10, -10, -10, -10, -10, -10, -10, -10, -10, -10, -10, -10, -10, -10, -10, -10, -10, -10, -10, -10, 23, 22.916666, 22.8125, 22.5625, 22.3125, 22.125, 22, 22, 21.9375, 21.6875, 21.4375, 21.1875, 20.866072, 20.541666, 20.330357, 20.125, 20.0625, 20, 20, 19.8125, 19.625, 19.4375, 19.1875, 19.125, 19.0625, 19, 19, 19, 19, 18.875, 18.6875, 18.4375, 18.1875, 18.0625, 17.9375, 17.875, 17.8125, 17.625, 17.5, 17.3125, 17.125, 16.9375, 16.6875, 16.5, 16.3125, 16.1875, 16.125, 16.0625, 16, 16, 15.9375, 15.6875, 15.4375, 15.0625, 14.6875, 14.5625, 14.375, 14.25, 14.1875, 14.0625, 14, 14, 14, 14, 13.875, 13.75, 13.5, 13.25, 13.125, 13, 12.9375, 12.6875, 12.4375, 12.1875, 12, 12, 12, 11.9375, 11.6875, 11.4375, 11.1875, 11, 11, 10.9375, 10.8125, 10.5625, 10.3125, 10.125, 10, 10, 10, 9.875, 9.6875, 9.4375, 9.25, 9.1875, 9.1875, 9.25, 9.3125, 9.375, 9.4375, 9.5625, 9.625, 9.5625, 9.5, 9.375, 9.375, 9.5, 9.5625, 9.5, 9.375, 9.3125, 9.25, 9.375, 9.4375, 9.4375, 9.625, 9.6875, 9.6875, 9.6875, 9.5625, 9.4375, 9.4375, 9.4375, 9.4375, 9.5625, 9.5625, 9.5625, 9.5625, 9.5625, 9.5625, 9.5, 9.5, 9.5, 9.5625, 9.625, 9.625, 9.625, 9.5625, 9.5, 9.4375, 9.25, 9.1875, 9.25, 9.375, 9.5625, 9.6875, 9.6875, 9.5, 9.3125, 9.1875, 9.1875, 9.25, 9.25, 9.3125, 9.3125, 9.3125, 9.3125, 9.3125, 9.375, 9.375, 9.375, 9.25, 9.0625, 9.125, 9.1875, 9.375, 9.5, 9.5625, 9.6875, 9.666667, -10, -10, -10, -10, -10, -10, -10, 24, 24.166666, 24.210712, 23.892857, 23.803572, 23.625, 23.5625, 23.625, 23.625, 23.4375, 23.142857, 22.991072, 22.875, 23, 23.25, 23.5625, 23.794643, 23.622023, 23.830357, 23.875, 23.973213, 23.9375, 23.75, 23.5, 23.375, 23.25, 23.25, 23.1875, 23.0625, 23, 22.9375, 22.875, 22.84375, 22.65625, 22.46875, 22.34375, 22.25, 22.285715, 22.321428, 22.5, 22.375, 22.3125, 22.3125, 22.3125, 22.40625, 22.390625, 22.3125, 22.330357, 22.489584, 22.796875, 22.9375, 23.125, 23.25, 23.227678, 23.552084, 23.709822, 23.90625, 24.0625, 24.0625, 23.9375, 23.785713, 23.976191, 24.261906, 24.428572, 24.5, 24.4375, 24.4375, 24.5, 24.5625, 24.625, 24.625, 24.459822, 24.09375, 23.90625, 23.65625, 23.5, 23.375, 23.375, 23.375, 23.4375, 23.5, 23.4375, 23.3125, 23.1875, 23.0625, 23, 23, 23.0625, 23.125, 23.25, 23.25, 23.25, 23.3125, 23.3125, 23.5, 23.5625, 23.6875, 24, 24.729166, 25.25, 25.375, 25.625, 25.6875, 26.0625, 26.633928, 27.297619, 27.616072, 27.8125, 28.089287, 28.482143, 28.741072, 29.0625, 29.383928, 30.065477, 30.580357, 31, 31.375, 31.8125, 32.294643, 32.5625, 33.017857, 33.458332, 33.741074, 34, 34.0625, 34.3125, 34.395832, -10, -10, -10, -10, -10, -10, -10, -10, -10, -10, -10, -10, -10, -10, -10, -10, -10, -10, -10, -10, -10, -10
-10, -10, -10, -10, -10, -10, -10, 22.875, 22.833334, 22.75, 22.5, 22.3125, 22.125, 22, 22, 21.875, 21.625, 21.375, 21.125, 20.928572, 20.666666, 20.455357, 20.25, 20.0625, 19.875, 19.875, 19.75, 19.6875, 19.5625, 19.3125, 19.1875, 19.0625, 19, 19, 19, 19, 18.8125, 18.5625, 18.3125, 18.0625, 18, 18, 17.9375, 17.875, 17.75, 17.5625, 17.3125, 17.017857, 16.8125, 16.625, 16.5625, 16.5, 16.4375, 16.3125, 16.1875, 16.0625, 16, 15.875, 15.625, 15.375, 15, 14.6875, 14.5, 14.25, 14.125, 14.0625, 14, 14, 14, 14, 14, 13.9375, 13.8125, 13.5625, 13.3125, 13.125, 13, 12.9375, 12.6875, 12.4375, 12.1875, 12, 12, 12, 11.875, 11.625, 11.375, 11.125, 11, 11, 10.9375, 10.75, 10.5, 10.25, 10.0625, 10, 10, 10, 9.875, 9.6875, 9.4375, 9.25, 9.1875, 9.125, 9.125, 9.125, 9.125, 9.25, 9.375, 9.4375, 9.375, 9.25, 9.125, 9.125, 9.25, 9.3125, 9.3125, 9.1875, 9.125, 9.0625, 9.125, 9.1875, 9.1875, 9.375, 9.4375, 9.4375, 9.4375, 9.3125, 9.1875, 9.1875, 9.1875, 9.1875, 9.3125, 9.3125, 9.3125, 9.3125, 9.3125, 9.3125, 9.25, 9.25, 9.25, 9.3125, 9.375, 9.375, 9.375, 9.3125, 9.25, 9.1875, 9.0625, 9, 9.0625, 9.1875, 9.3125, 9.4375, 9.5, 9.375, 9.25, 9.1875, 9.1875, 9.25, 9.25, 9.25, 9.1875, 9.1875, 9.1875, 9.1875, 9.25, 9.1875, 9.1875, 9.125, 9, 9.0625, 9.0625, 9.1875, 9.25, 9.3125, 9.4375, 9.416667, -10, -10, -10, -10, -10, -10, -10, 24, 24.333334, 24.223213, 23.892857, 23.571428, 23.3125, 23.125, 23.125, 23.1875, 23.125, 22.9375, 22.866072, 22.75, 22.8125, 23, 23.142857, 23.4375, 23.455357, 23.75, 23.75, 23.75, 23.6875, 23.375, 23.125, 23, 22.8125, 22.8125, 22.75, 22.5, 22.25, 22.375, 22.3125, 22.375, 22.1875, 22.0625, 22, 22, 22.0625, 22.0625, 22.0625, 22, 22, 22.0625, 22.0625, 22.15625, 22.265625, 22.25, 22.25, 22.21875, 22.296875, 22.4375, 22.625, 22.75, 22.852678, 23.177084, 23.334822, 23.53125, 23.625, 23.625, 23.5625, 23.580357, 23.770834, 23.866072, 24.0625, 24.0625, 24.080357, 24.294643, 24.333334, 24.3125, 24.375, 24.3125, 24.178572, 23.8125, 23.625, 23.3125, 23.125, 22.9375, 22.875, 22.875, 23, 23.0625, 23.0625, 23.0625, 23, 22.9375, 22.875, 22.875, 22.9375, 23, 23.125, 23.125, 23.0625, 23.125, 23.125, 23.25, 23.3125, 23.5, 23.9375, 24.764881, 25.1875, 25.3125, 25.5, 25.625, 26.044643, 26.633928, 27.360119, 27.678572, 27.9375, 28.214287, 28.544643, 28.803572, 29, 29.267857, 30.041668, 30.571428, 30.9375, 31.3125, 31.75, 32.339287, 32.6875, 33.1875, 33.5, 33.75, 34, 34.0625, 34.3125, 34.395832, 34.333332, -10, -10, -10, -10, -10, -10, -10, -10, -10, -10, -10, -10, -10, -10, -10, -10, -10, -10, -10, -10, -10, -10, -10, -10, -10, -10, -10, -10, -10, -10, -10, -10, -10, -10, -10, -10, -10, -10, -10, -10, -10, -10, -10, -10, -10, -10, -10, -10, -10, -10, -10, -10, -10, -10, -10, -10, -10, -10, -10, -10, -10, -10, -10, -10, -10, -10, -10, -10, -10, -10, 22.625, 22.583334, 22.5, 22.3125, 22.1875, 22.0625, 22, 21.9375, 21.75, 21.5, 21.25, 21.0625, 20.928572, 20.666666, 20.517857, 20.3125, 20.125, 19.9375, 19.875, 19.8125, 19.8125, 19.75, 19.5625, 19.375, 19.1875, 19.0625, 19, 19, 19, 18.8125, 18.5625, 18.3125, 18.0625, 18, 18, 18, 17.9375, 17.8125, 17.625, 17.3125, 17.017857, 16.8125, 16.625, 16.5625, 16.5, 16.4375, 16.3125, 16.1875, 16.0625, 16, 15.8125, 15.5625, 15.3125, 15, 14.8125, 14.625, 14.375, 14.1875, 14.0625, 14, 13.9375, 13.9375, 13.9375, 13.9375, 13.9375, 13.75, 13.5, 13.25, 13.0625, 13, 12.9375, 12.6875, 12.4375, 12.1875, 12, 12, 12, 11.875, 11.625, 11.375, 11.125, 11, 11, 11, 10.8125, 10.5625, 10.3125, 10.0625, 10, 10, 10, 9.9375, 9.75, 9.5, 9.3125, 9.1875, 9.125, 9.125, 9, 8.9642859, 9.0982141, 9.125, 9.25, 9.1875, 9.125, 9.0625, 9.0625, 9.125, 9.125, 9.125, 9.0625, 9, 9, 9, 9, 9, 9.125, 9.1875, 9.1875, 9.1875, 9.0625, 9, 9, 9, 9, 9.0625, 9.0625, 9.0625, 9.0625, 9.0625, 9.0625, 9.0625, 9.0625, 9.0625, 9.125, 9.125, 9.125, 9.125, 9.0625, 9.0625, 9.0625, 9, 9, 9, 9.0625, 9.125, 9.1875, 9.25, 9.1875, 9.125, 9.125, 9.1875, 9.25, 9.25, 9.1875, 9.0625, 9, 9, 9, 9.0625, 9.0625, 9.0625, 9.0625, 9, 9, 9, 9.0625, 9.0625, 9.125, 9.1875, 9.166667, -10, -10, -10, -10, -10, -10, -10, 24, 24.333334, 24.223213, 23.892857, 23.5, 23.1875, 23, 22.9375, 23.0625, 23, 22.6875, 22.50893, 22.3125, 22.3125, 22.616072, 22.958334, 23.1875, 23.375, 23.5, 23.5625, 23.5, 23.4375, 23.0625, 22.6875, 22.455357, 22.3125, 22.3125, 22.3125, 22.0625, 21.9375, 21.9375, 22, 22.1875, 22.044643, 21.729166, 21.642857, 21.625, 21.75, 21.875, 21.9375, 21.9375, 21.9375, 21.9375, 21.9375, 22.03125, 22.203125, 22.25, 22.25, 22.15625, 22.171875, 22.3125, 22.5, 22.75, 22.84375, 22.84375, 22.90625, 23.138393, 23.303572, 23.4375, 23.375, 23.375, 23.3125, 23.25, 23.375, 23.375, 23.517857, 23.794643, 23.895834, 23.875, 23.9375, 23.9375, 23.875, 23.6875, 23.375, 22.791666, 22.580357, 22.4375, 22.4375, 22.5, 22.625, 22.625, 22.6875, 22.75, 22.6875, 22.6875, 22.625, 22.6875, 22.75, 22.875, 23, 23, 23, 23, 23, 23.0625, 23.0625, 23.3125, 23.8125, 24.684525, 25.017857, 25.1875, 25.375, 25.625, 26.151787, 26.633928, 27.315477, 27.553572, 27.830357, 28.25893, 28.669643, 28.991072, 29.1875, 29.517857, 30.229168, 30.651787, 30.9375, 31.25, 31.6875, 32.32143, 32.6875, 33.1875, 33.5, 33.75, 34, 34.0625, 34.25, 34.416668, -10, -10, -10, -10, -10, -10, -10, -10, -10, -10, -10, -10, -10, -10, -10, -10, -10, -10, -10, -10, -10, -10
-10, -10, -10, -10, -10, -10, -10, 22.375, 22.333334, 22.25, 22.125, 22.0625, 22, 22, 21.9375, 21.6875, 21.4375, 21.1875, 21, 21, 21, 20.8125, 20.5625, 20.25, 19.9375, 19.875, 19.875, 19.9375, 19.9375, 19.8125, 19.5625, 19.3125, 19.125, 19, 19, 19, 18.875, 18.625, 18.375, 18.125, 18, 18, 18, 18, 17.875, 17.625, 17.3125, 16.955357, 16.8125, 16.75, 16.6875, 16.5625, 16.401787, 16.25, 16.125, 16.0625, 15.9375, 15.6875, 15.4375, 15.1875, 15, 14.9375, 14.8125, 14.625, 14.4375, 14.241072, 14, 13.875, 13.8125, 13.875, 13.8125, 13.8125, 13.5625, 13.3125, 13.125, 13, 13, 13, 12.75, 12.5, 12.25, 12, 12, 12, 11.875, 11.625, 11.375, 11.0625, 10.9375, 10.9375, 10.9375, 10.8125, 10.5625, 10.3125, 10.0625, 10, 10, 10, 9.9375, 9.6875, 9.4375, 9.1875, 9, 9, 9, 8.9375, 8.9642859, 9.0982141, 9.0625, 9.125, 9.0625, 9, 9, 9, 9, 9, 9, 9, 9, 9, 9, 9, 9, 9.0625, 9.125, 9.125, 9.125, 9.0625, 9, 9, 9, 9, 9, 9, 9, 9, 9, 9, 9, 9, 9, 9, 9, 9, 9, 9, 9, 9, 9, 9, 9, 9, 9, 9, 9.0625, 9.0625, 9.0625, 9.125, 9.125, 9.1875, 9.1875, 9.125, 9.0625, 9, 9, 9, 9, 9, 9, 9, 9, 9, 9, 9, 9, 9, 9, 9, -10, -10, -10, -10, -10, -10, -10, 24, 24.333334, 24.1875, 23.708334, 23.285713, 22.875, 22.6875, 22.625, 22.6875, 22.6875, 22.375, 22.169643, 21.9375, 21.875, 22.178572, 22.583334, 22.919643, 23.125, 23.25, 23.3125, 23.25, 23.1875, 22.8125, 22.375, 22.035713, 21.875, 21.875, 21.9375, 21.6875, 21.6875, 21.6875, 21.75, 22, 21.857143, 21.604166, 21.580357, 21.5625, 21.6875, 21.723213, 21.651787, 21.6875, 21.625, 21.6875, 21.6875, 21.75, 21.90625, 21.96875, 22.03125, 22.09375, 22.125, 22.25, 22.375, 22.5625, 22.6875, 22.6875, 22.75, 22.919643, 23.053572, 23.1875, 23.125, 23.125, 23, 22.875, 22.9375, 22.875, 23.080357, 23.419643, 23.520834, 23.5, 23.5625, 23.5625, 23.5625, 23.375, 23, 22.380953, 22.205357, 22.0625, 22.125, 22.125, 22.25, 22.3125, 22.375, 22.5, 22.4375, 22.4375, 22.375, 22.4375, 22.5625, 22.6875, 22.8125, 22.8125, 22.75, 22.75, 22.8125, 22.875, 22.9375, 23.25, 23.75, 24.5, 24.848213, 25.0625, 25.3125, 25.6875, 26.25893, 26.633928, 27.208334, 27.366072, 27.642857, 28.13393, 28.723215, 29.160715, 29.40625, 29.799107, 30.447918, 30.763393, 31.0625, 31.3125, 31.75, 32.38393, 32.6875, 33.1875, 33.5, 33.75, 34, 34.0625, 34.208332, -10, -10, -10, -10, -10, -10, -10, -10, -10, -10, -10, -10, -10, -10, -10, -10, -10, -10, -10, -10, -10, -10, -10, -10, -10, -10, -10, -10, -10, -10, -10, -10, -10, -10, -10, -10, -10, -10, -10, -10, -10, -10, -10, -10, -10, -10, -10, -10, -10, -10, -10, -10, -10, -10, -10, -10, -10, -10, -10, -10, -10, -10, -10, -10, -10, -10, -10, -10, -10, -10, -10, -10, 22.375, 22.333334, 22.25, 22.125, 22.0625, 22, 22, 21.9375, 21.6875, 21.4375, 21.1875, 21, 21, 21, 20.8125, 20.5625, 20.1875, 19.875, 19.8125, 19.8125, 19.9375, 20, 19.9375, 19.75, 19.5, 19.25, 19.0625, 19, 19, 18.9375, 18.6875, 18.4375, 18.1875, 18, 18, 18, 18, 17.8125, 17.5625, 17.25, 16.892857, 16.875, 16.8125, 16.6875, 16.4375, 16.151787, 16.017857, 16.012501, 15.955357, 15.875, 15.5625, 15.375, 15.125, 15, 15, 14.9375, 14.8125, 14.6875, 14.428572, 14.1875, 14, 13.875, 13.875, 13.6875, 13.6875, 13.4375, 13.25, 13.125, 13, 13, 13, 12.75, 12.5, 12.25, 12, 12, 12, 11.875, 11.625, 11.375, 11, 10.8125, 10.8125, 10.75, 10.625, 10.4375, 10.25, 10.125, 10.125, 10.125, 10.0625, 9.875, 9.625, 9.375, 9.125, 9, 9, 9, 8.9375, 8.9642859, 9.0982141, 9.0625, 9.125, 9.0625, 9, 9, 9, 9, 9, 8.9375, 8.9375, 8.9375, 8.9375, 9, 9, 9, 9, 9, 9, 9, 9, 9, 9, 9, 9, 9, 9, 9, 9, 9, 9, 9, 9, 9, 9, 9, 9, 9, 9, 9, 9, 9, 9, 9, 9, 9, 9, 9.0625, 9.0625, 9.0625, 9.0625, 9, 9, 9, 9, 9, 9, 9, 9, 9, 9, 9, 9, 9, 9, 9, 9, 9, 9, 9, 9, -10, -10, -10, -10, -10, -10, -10, 24.125, 24.416668, 24.196428, 23.458334, 23, 22.5625, 22.4375, 22.375, 22.3125, 22.3125, 22.125, 21.99107, 21.75, 21.580357, 21.821428, 22.416668, 22.785715, 23, 23.0625, 23.0625, 23, 22.9375, 22.625, 22.25, 21.910713, 21.75, 21.75, 21.8125, 21.6875, 21.6875, 21.625, 21.625, 21.75, 21.607143, 21.291666, 21.294643, 21.348213, 21.5, 21.660713, 21.589287, 21.6875, 21.625, 21.75, 21.723213, 21.580357, 21.633928, 21.59375, 21.65625, 21.78125, 21.78125, 21.875, 21.9375, 22.125, 22.375, 22.544643, 22.6875, 22.794643, 22.803572, 22.8125, 22.625, 22.625, 22.5, 22.375, 22.4375, 22.375, 22.642857, 23.044643, 23.145834, 23.125, 23.205357, 23.262501, 23.133928, 23.008928, 22.625, 22.068453, 21.955357, 21.8125, 21.875, 21.9375, 22.0625, 22.125, 22.1875, 22.25, 22.25, 22.3125, 22.3125, 22.375, 22.526787, 22.6875, 22.633928, 22.633928, 22.5, 22.5625, 22.6875, 22.8125, 22.9375, 23.25, 23.75, 24.428572, 24.75, 25.0625, 25.3125, 25.8125, 26.44643, 26.75, 27.125, 27.1875, 27.517857, 28.098215, 28.766071, 29.053572, 29.227678, 29.584822, 30.364584, 30.727678, 31.125, 31.375, 31.75, 32.214287, 32.375, 32.803574, 33.375, 33.705357, 34, 34.0625, 34.145832, -10, -10, -10, -10, -10, -10, -10, -10, -10, -10, -10, -10, -10, -10, -10, -10, -10, -10, -10, -10, -10, -10, -10
-10, -10, -10, -10, -10, -10, -10, 22.5, 22.5, 22.375, 22.25, 22.125, 22, 22, 21.875, 21.6875, 21.4375, 21.1875, 21.0625, 21, 21, 20.875, 20.625, 20.3125, 20.0625, 19.9375, 19.9375, 20.0625, 20.0625, 20, 19.767857, 19.5, 19.25, 19.0625, 19, 19, 18.9375, 18.6875, 18.4375, 18.1875, 18, 18, 18, 17.9375, 17.6875, 17.4375, 17.1875, 17, 17, 16.9375, 16.6875, 16.25, 15.901786, 15.830357, 15.708928, 15.785713, 15.6875, 15.5, 15.4375, 15.1875, 15.125, 15.0625, 15, 14.9375, 14.875, 14.616072, 14.3125, 14, 13.8125, 13.8125, 13.5625, 13.5625, 13.3125, 13.125, 13.0625, 13, 13, 13, 12.741072, 12.291667, 12.080357, 11.875, 11.9375, 12, 11.9375, 11.6875, 11.4375, 11.0625, 10.75, 10.75, 10.6875, 10.5625, 10.4375, 10.25, 10.125, 10.125, 10.0625, 9.9375, 9.75, 9.5, 9.3125, 9.125, 9, 9, 9, 8.9375, 8.9642859, 9.0357141, 9, 9.0625, 9, 9, 9, 9, 9, 9, 8.9375, 8.9375, 8.9375, 8.9375, 9, 9, 9, 9, 9, 9, 9, 9, 9, 9, 9, 9, 9, 9, 9, 9, 9, 9, 9, 9, 9, 9, 9, 9, 9, 9, 9, 9, 9, 9, 9, 9, 9, 9, 9, 9, 9, 9, 9, 9, 9, 9, 9, 9, 9, 9, 9, 9, 9, 9, 9, 9, 9, 9, 9, 9, 9, 9, -10, -10, -10, -10, -10, -10, -10, 24.125, 24.416668, 24.133928, 23.166668, 22.714287, 22.25, 22.1875, 22.125, 22.0625, 22.03125, 21.84375, 21.70982, 21.46875, 21.267857, 21.446428, 22.041668, 22.410715, 22.6875, 22.75, 22.75, 22.6875, 22.625, 22.4375, 22.0625, 21.660713, 21.5, 21.4375, 21.5625, 21.5625, 21.5625, 21.5625, 21.5625, 21.625, 21.482143, 20.997023, 21, 21.244047, 21.428572, 21.589285, 21.439287, 21.758928, 21.696428, 21.9375, 21.910713, 21.6875, 21.488094, 21.352678, 21.34375, 21.46875, 21.53125, 21.5625, 21.5625, 21.75, 22.0625, 22.330357, 22.5, 22.607143, 22.553572, 22.5625, 22.4375, 22.4375, 22.3125, 22.1875, 22.125, 22.0625, 22.25, 22.4375, 22.5625, 22.625, 22.705357, 22.825001, 22.696428, 22.633928, 22.3125, 21.880953, 21.830357, 21.75, 21.875, 21.9375, 22, 22.0625, 22.0625, 22.0625, 22.125, 22.25, 22.3125, 22.375, 22.464287, 22.5, 22.383928, 22.446428, 22.4375, 22.669643, 22.8125, 22.9375, 23.0625, 23.3125, 23.8125, 24.446428, 24.75, 25.125, 25.375, 25.875, 26.464287, 26.75, 27.0625, 27.0625, 27.330357, 27.848215, 28.516071, 28.866072, 29.15625, 29.805059, 30.459822, 30.861607, 31.25, 31.5625, 31.875, 32.107143, 32.080357, 32.419643, 33.25, 33.660713, 34, 34.0625, 34.083332, -10, -10, -10, -10, -10, -10, -10, -10, -10, -10, -10, -10, -10, -10, -10, -10, -10, -10, -10, -10, -10, -10, -10, -10, -10, -10, -10, -10, -10, -10, -10, -10, -10, -10, -10, -10, -10, -10, -10, -10, -10, -10, -10, -10, -10, -10, -10, -10, -10, -10, -10, -10, -10, -10, -10, -10, -10, -10, -10, -10, -10, -10, -10, -10, -10, -10, -10, -10, -10, -10, -10, -10, 22.75, 22.75, 22.5625, 22.4375, 22.3125, 22.125, 22.0625, 21.830357, 21.625, 21.375, 21.1875, 21.0625, 21, 21, 20.875, 20.625, 20.3125, 20.0625, 19.9375, 19.9375, 20.0625, 20.0625, 19.9375, 19.705357, 19.4375, 19.1875, 19.0625, 19, 19, 18.9375, 18.6875, 18.4375, 18.125, 17.9375, 17.9375, 17.9375, 17.9375, 17.6875, 17.4375, 17.1875, 17, 17, 16.9375, 16.75, 16.3125, 16.026787, 16.017857, 15.833928, 15.848213, 15.580357, 15.375, 15.375, 15.1875, 15.1875, 15.125, 15, 15, 14.9375, 14.678572, 14.375, 14.0625, 13.875, 13.8125, 13.5, 13.375, 13.125, 13, 13, 13, 13, 12.928572, 12.470239, 12.083334, 12.017857, 11.8125, 11.901786, 11.9375, 11.9375, 11.75, 11.5, 11.125, 10.75, 10.6875, 10.625, 10.5, 10.375, 10.25, 10.125, 10.125, 10.0625, 9.9375, 9.6875, 9.4375, 9.25, 9.0625, 9, 9, 9, 9, 9, 9, 9, 9, 9, 9, 9, 9, 8.9375, 8.9642859, 8.9732141, 8.9375, 8.9375, 8.8125, 8.875, 8.875, 8.9375, 9, 8.9375, 8.875, 8.875, 8.875, 8.9375, 9, 9, 9, 9, 9, 9, 9, 9, 9, 9, 9, 9, 9, 9, 9, 9, 9, 9, 9, 9, 9, 9, 9, 9, 9, 9, 9, 9, 9, 9, 9, 9, 9, 9, 9, 9, 9, 9, 9, 9, 9, 9, 9, 9, 9, 9, 9, 9, 9, -10, -10, -10, -10, -10, -10, -10, 24.25, 24.5, 24.142857, 22.916668, 22.428572, 21.9375, 21.875, 21.875, 21.78125, 21.78125, 21.71875, 21.629463, 21.4375, 21.205357, 21.330357, 21.708334, 22.098215, 22.375, 22.5, 22.4375, 22.3125, 22.1875, 22.0625, 21.875, 21.642857, 21.5, 21.375, 21.375, 21.375, 21.375, 21.375, 21.375, 21.285713, 21.017857, 20.747023, 20.857143, 21.056547, 21.267857, 21.276785, 21.064285, 21.464285, 21.592262, 21.928572, 21.973213, 21.678572, 21.288095, 21.209822, 21.09375, 21.28125, 21.28125, 21.3125, 21.3125, 21.4375, 21.8125, 22.11607, 22.214287, 22.3125, 22.232143, 22.25, 22.25, 22.25, 22.1875, 22.0625, 21.9375, 21.875, 21.9375, 22.0625, 22.125, 22.1875, 22.267857, 22.325001, 22.258928, 22.196428, 22, 21.964287, 21.9375, 21.875, 21.9375, 21.9375, 21.9375, 22, 22, 22, 22.125, 22.1875, 22.25, 22.25, 22.339287, 22.375, 22.196428, 22.321428, 22.3125, 22.607143, 22.8125, 22.9375, 23.125, 23.375, 23.875, 24.464287, 24.8125, 25.25, 25.5, 25.9375, 26.357143, 26.5625, 26.8125, 26.875, 27.125, 27.5625, 28.349405, 28.669643, 29.03125, 29.680059, 30.513393, 31.03125, 31.4375, 31.75, 32, 32.125, 32.017857, 32.32143, 33.232143, 33.651787, 34, 34.0625, 34.083332, -10, -10, -10, -10, -10, -10, -10, -10, -10, -10, -10, -10, -10, -10, -10, -10, -10, -10, -10, -10, -10, -10, -10
