31.035713, 31.0625, 31.0625, 31, 31, 31, 30.8125, 30.6875, 30.625, 30.473213, 30.267857, 30.142857, 30, 30, 30.0625, 30.0625, 30.0625, 30, 29.8125, 29.75, 29.75, 29.6875, 29.6875, 29.5, 29.1875, 28.9375, 28.75, 28.6875, 28.625, 28.5625, 28.5625, 28.5, 28.375, 28.1875, 27.9375, 27.75, 27.625, 27.5625, 27.517857, 27.3125, 27.375, 27.375, 27.3125, 27.25, 27, 26.625, 26.5, 26.3125, 26.392857, 26.854168, 26.755955, 26.502975, 26.38393, 26.4375, 26.46875, 26.361607, 26.290178, 26.208334, 26.166666, 26.083334, -10, 25.527779, 25.25, 25.083334, 25, 25, -10, -10, -10, 34.875, 34.916664, 35.142857, 35.354164, 35.491074, 35.580357, 35.833332, 35.904762, 37, 37.791668, 38.035713, 38.125, 38.142857, 38.395832, 38.875, 39.3125, 39.732143, 40.0625, 40.3125, 40.375, 40.4375, 40.4375, 40.276787, 40.1875, 39.727676, 39.28125, 38.561012, 38.495537, 38.473213, 38.5625, 38.598213, 38.205357, 37.901787, 37.8125, 37.8125, 37.84375, 37.834824, 37.510418, 37.361607, 37.25, 37.1875, 37.0625, 36.830357, 36.5, 36, 35.330357, 34.75, 33.857143, 33.448978, 33.020832, 32.678574, 32.5625, -10, -10, -10, -10, -10, -10, -10, -10, 18.3125, 18.291668, 18.28125, 18.375, 18.4375, 18.3125, 18.214287, 17.8125, 17.5625, 17.4375, 17.1875, 17.1875, 17.0625, 17, 17, 17, 17, 16.75, 16.5, 16.25, 16, 16, 16, 16, 16, 16, 16, 16, 16, 16, 15.8125, 15.5625, 15.3125, 15.0625, 15, 15, 15, 15, 14.9375, 14.8125, 14.5625, 14.3125, 14.125, 14, 14, 14, 14, 13.9375, 13.669643, 13.1875, 13.0625, 12.875, 13, 13.0625, 13.1875, 13.25, 13.25, 13.125, 12.964286, 12.875, 12.6875, 12.5, 12.25, 12.0625, 12, 12, 11.96875, 11.90625, 11.90625, 11.84375, 11.875, 11.875, 11.625, 11.4375, 11.1875, 11, 11, 11, 10.75, 10.5, 10.25, 10, 10, 10, 10, 10, 10, 9.875, 9.6875, 9.4375, 9.1875, 9.0625, 9, 9, 9, 9, 9, 9, 8.9375, 8.75, 8.5, 8.25, 8.0625, 8, 8, 8, 7.875, 7.875, 7.875, 7.75, 7.875, 7.75, 7.6875, 8.0178566, 8.2440472, 8.0119047, 7.8166666, 8.0089283, 7.8125, 7.9196429, 7.9732141, 8, 8.2321434, 8.25, 8.375, 8.4375, 8.5625, 8.625, 8.6875, 8.75, 8.8125, 9.1875, 9.645833, 10.2, -10, -10, -10, -10, -10, -10, -10, -10, -10, -10, -10, 32, 32, 32.25, 32.5, 32.59375, 32.71875, 32.799107, 32.90625, 33, 33.125, 33.0625, 33.125, 33.125, 33.308037, 33.441963, 33.46875, 33.620537, 33.5625, 33.5, 33.580357, 33.770832, 33.9375, 34.25, 34.675594, 35.080357, 35.25, 35.607143, 36.523811, 37.25893, 37.839287, 38.0625, 38.1875, 38.3125, 38.357143, 38.3125, 38.4375, 38.375, 38.1875, 37.892857, 37.625, 37.53125, 37.59375, 37.84375, 38.138393, 38.3125, 38.366074, 38.125, 38.35714, 39.023808, 39.392857, 39.419643, 38.892857, 38.5625, 38.375, 38.517857, 39.229164, 39.607143, 39.9375, 40.0625, 40.125, 40.25, 40.419643, 40.665176, 41.114582, 41.366074, 41.625, 41.84375, 42.008335, -10, -10, -10, -10, -10, -10, -10, -10, -10, -10, -10, -10, -10, -10, -10, -10, -10, -10, -10, -10, -10, -10, -10, -10, 31.75, 31.833334, 31.875, 31.9375, 32.0625, 32.0625, 32, 31.741072, 31.3125, 31.1875, 31.035713, 31.0625, 31.0625, 31, 31, 31, 30.75, 30.625, 30.5625, 30.473213, 30.392857, 30.267857, 30.1875, 30.125, 30.125, 30.125, 30.0625, 30, 29.875, 29.8125, 29.8125, 29.6875, 29.625, 29.4375, 29.125, 28.9375, 28.678572, 28.4375, 28.375, 28.25, 28.401787, 28.544643, 28.520834, 28.229166, 28.017857, 27.8125, 27.625, 27.5625, 27.455357, 27.169643, 27.125, 27.1875, 27.125, 27.1875, 27.0625, 26.6875, 26.625, 26.4375, 26.446428, 26.770834, 26.779762, 26.773809, 26.741072, 26.604166, 26.56875, 26.398809, 26.220238, -10, -10, -10, -10, 34.5, 35.555557, 35.266666, 35.5, 35.625, 35.75, 35.9375, 36, 35.416668, 35.527775, 35.486607, 35.770832, 35.928574, 35.875, 35.964287, 36.469387, 37.053574, 37.854168, 38.035713, 38.125, 38.142857, 38.395832, 38.8125, 39.1875, 39.419643, 39.625, 39.875, 39.973213, 40.125, 40.1875, 40.026787, 40.044643, 39.834824, 39.388393, 38.561012, 38.495537, 38.446426, 38.5, 38.5625, 38.205357, 37.964287, 37.9375, 37.875, 37.875, 37.892857, 37.773811, 37.663689, 37.416668, 37.258926, 37.0625, 36.830357, 36.491074, 35.854168, 35.330357, 34.857143, 34.357143, 34.020409, 33.270832, 32.928574, 32.708332, 32.5, -10, -10, -10, -10, -10, -10, -10, 18.375, 18.416668, 18.4375, 18.5625, 18.625, 18.4375, 18.276787, 17.875, 17.625, 17.5625, 17.3125, 17.25, 17.125, 17, 17, 17, 17, 16.75, 16.5, 16.25, 16.0625, 16.125, 16.125, 16.125, 16.0625, 16, 16, 16, 16, 16, 15.875, 15.6875, 15.4375, 15.1875, 15.0625, 15, 15, 15, 14.9375, 14.8125, 14.5625, 14.3125, 14.125, 14, 14, 14, 14, 13.9375, 13.678572, 13.3125, 13.125, 12.9375, 13, 13.0625, 13.25, 13.375, 13.375, 13.25, 12.964286, 12.8125, 12.625, 12.4375, 12.25, 12.0625, 12, 12, 11.96875, 11.90625, 11.90625, 11.90625, 11.875, 11.875, 11.625, 11.375, 11.1875, 11, 11, 11, 10.75, 10.5, 10.25, 10, 10, 10, 10, 10, 10, 9.9375, 9.75, 9.5, 9.25, 9.0625, 9, 9, 9, 9, 9, 9, 8.875, 8.625, 8.375, 8.125, 8, 8, 8, 8, 7.875, 7.8125, 7.75, 7.625, 7.75, 7.625, 7.5625, 7.8303571, 7.9940472, 7.8779759, 7.8541665, 7.8125, 7.625, 7.6696429, 7.7232141, 7.875, 8.1696434, 8.125, 8.3125, 8.375, 8.4375, 8.5625, 8.6875, 8.75, 8.875, 9.1875, 9.6339283, 10.150001, -10, -10, -10, -10, -10, -10, -10, -10, -10, -10, -10, 32, 32, 32.25, 32.4375, 32.46875, 32.46875, 32.486607, 32.65625, 32.8125, 33.0625, 33, 33.0625, 33.125, 33.276787, 33.410713, 33.34375, 33.370537, 33.40625, 33.339287, 33.642857, 33.895832, 34.125, 34.375, 34.571426, 34.9375, 35, 35.357143, 36.336311, 37.17857, 37.776787, 38, 38, 38.0625, 38.151787, 38.116074, 38.25, 38.1875, 38.0625, 37.892857, 37.8125, 37.78125, 37.84375, 37.96875, 38.03125, 38.125, 38.1875, 38.125, 38.348213, 38.752975, 38.897957, 39.120403, 38.785713, 38.776787
31.035713, 31.0625, 31.0625, 31, 31, 31, 30.75, 30.6875, 30.625, 30.5625, 30.625, 30.4375, 30.3125, 30.1875, 30.125, 30.125, 30.0625, 30, 29.875, 29.8125, 29.8125, 29.625, 29.5625, 29.375, 29.0625, 28.9375, 28.616072, 28.3125, 28.25, 28.0625, 28.303572, 28.580357, 28.583334, 28.354166, 28.142857, 28, 27.75, 27.625, 27.392857, 27.044643, 26.9375, 27, 27, 27.0625, 27.0625, 26.8125, 26.8125, 26.6875, 26.625, 26.6875, 26.75893, 26.919643, 26.910715, 26.729166, 26.579166, -10, -10, -10, -10, -10, -10, -10, 37.066666, 36.659996, 36.416668, 35.972225, 36.166668, 36.291668, 36.416668, 36.07143, 36.119045, 36.198978, 36.488094, 36.632656, 36.375, 36.401787, 36.836735, 37.193878, 37.729168, 37.910713, 38.0625, 38.080357, 38.333332, 38.75, 39.107143, 39.25, 39.4375, 39.5625, 39.660713, 39.84375, 39.82143, 39.933037, 40.075893, 39.991074, 39.607143, 38.779762, 38.651787, 38.598213, 38.794643, 38.919643, 38.559525, 38.321426, 38.1875, 38.0625, 37.9375, 38.026787, 38.232143, 38.208332, 37.979168, 37.696426, 37.3125, 36.955357, 36.553574, 35.854168, 35.401787, 35.026787, 34.375, 34.107143, 33.583332, 33.303574, 33.125, 33, 33.714287, 33.732143, 33.875, -10, -10, -10, -10, 18.375, 18.416668, 18.4375, 18.5, 18.5625, 18.4375, 18.3125, 18, 17.75, 17.625, 17.375, 17.25, 17.125, 17, 17, 17, 17, 16.75, 16.5, 16.25, 16.125, 16.1875, 16.1875, 16.1875, 16.0625, 16, 16, 16, 15.9375, 15.9375, 15.8125, 15.625, 15.4375, 15.1875, 15.0625, 15, 15, 15, 14.875, 14.6875, 14.4375, 14.1875, 14.0625, 14, 14, 14, 14, 13.9375, 13.6875, 13.4375, 13.1875, 13, 13, 13.0625, 13.25, 13.375, 13.375, 13.25, 12.901786, 12.75, 12.5625, 12.375, 12.25, 12.125, 12.035714, 11.892857, 11.861607, 11.78125, 11.84375, 11.84375, 11.75, 11.6875, 11.4375, 11.25, 11.125, 11, 11, 11, 10.75, 10.5, 10.25, 10, 10, 10, 10, 10, 10, 10, 9.8125, 9.5625, 9.3125, 9.0625, 9, 8.9375, 8.875, 8.875, 8.875, 8.9375, 8.875, 8.625, 8.375, 8.125, 8, 8, 8, 8, 7.9375, 7.875, 7.8125, 7.75, 7.8125, 7.8125, 7.7857141, 7.8303571, 7.8035717, 7.6696429, 7.7916665, 7.75, 7.5625, 7.5446429, 7.5357141, 7.625, 7.9196429, 7.875, 8.0625, 8.1875, 8.25, 8.3125, 8.5, 8.625, 8.8125, 9.125, 9.5178566, 10.1, -10, -10, -10, -10, -10, -10, -10, -10, -10, -10, -10, 32, 32, 32.25, 32.4375, 32.46875, 32.53125, 32.53125, 32.59375, 32.8125, 33, 33, 33.0625, 33.125, 33.245537, 33.379463, 33.375, 33.473213, 33.5, 33.82143, 33.736607, 33.958332, 34.25, 34.5, 34.6875, 34.9375, 35, 35.232143, 36.044643, 36.9375, 37.57143, 37.8125, 37.8125, 37.901787, 38.026787, 37.8125, 37.955357, 37.875, 38, 38.125, 38.125, 38.125, 38.0625, 38.0625, 38.125, 38.125, 38.125, 38.0625, 38.196426, 38.520832, 38.785713, 39.025002, 38.705357, 38.767857, 38.6875, 38.955357, 39.604164, 39.794643, 40, 40, 40, 40.125, 40.3125, 40.700893, 40.888393, 40.987499, 41.424999, -10, -10, -10, -10, -10, -10, -10, -10, -10, -10, -10, -10, -10, -10, -10, -10, -10, -10, -10, -10, -10, -10, -10, -10, -10, -10, 31.625, 31.75, 31.8125, 31.8125, 31.9375, 31.9375, 31.875, 31.75, 31.5, 31.25, 31.0625, 31.0625, 31.0625, 31.0625, 31.0625, 30.9375, 30.6875, 30.625, 30.625, 30.5625, 30.625, 30.4375, 30.25, 30.125, 30, 29.9375, 29.875, 29.875, 29.875, 29.875, 29.875, 29.625, 29.4375, 29.1875, 28.875, 28.75, 28.491072, 28.1875, 28.0625, 27.875, 28.053572, 28.330357, 28.395834, 28.229166, 28.080357, 28, 27.6875, 27.5, 27.276787, 27.044643, 26.9375, 27, 26.9375, 27, 27, 26.875, 26.875, 26.75, 26.6875, 26.6875, 26.82143, 27.107143, 27.13393, 26.854166, 26.6625, -10, -10, -10, -10, -10, -10, -10, 37.333332, 36.94762, 36.416668, 36.229168, 36.612244, 36.46875, 36.625, 36.5625, 36.5625, 36.611607, 36.833332, 36.928574, 36.875, 36.901787, 37.107143, 37.348213, 37.59375, 37.71875, 37.78125, 37.799107, 38.110119, 38.544643, 38.839287, 38.875, 39, 39.0625, 39.160713, 39.40625, 39.53125, 39.620537, 39.888393, 39.991074, 39.732143, 39.114582, 39.0625, 39.219387, 39.515308, 39.581631, 39.166668, 38.821426, 38.517857, 38.3125, 38.0625, 38.089287, 38.419643, 38.369045, 38.059525, 37.767857, 37.3125, 37.017857, 36.607143, 35.854168, 35.526787, 35.1875, 35, 34.741074, 34.177082, 33.772324, 33.46875, 33.464287, 33.809525, 33.82143, 33.916668, 33.875, 34, 34.166664, 18, 18.25, 18.333334, 18.375, 18.4375, 18.5, 18.375, 18.25, 18.0625, 17.8125, 17.6875, 17.4375, 17.25, 17.125, 17, 16.9375, 16.875, 16.875, 16.6875, 16.5625, 16.375, 16.25, 16.25, 16.1875, 16.1875, 16.0625, 16, 16, 16, 15.875, 15.8125, 15.6875, 15.5, 15.375, 15.1875, 15.0625, 15, 14.9375, 14.875, 14.75, 14.5625, 14.375, 14.1875, 14.0625, 14, 14, 14, 14, 14, 13.8125, 13.5625, 13.3125, 13.125, 13.0625, 13.0625, 13.1875, 13.25, 13.25, 13.1875, 12.901786, 12.75, 12.5625, 12.375, 12.25, 12.125, 11.973214, 11.830357, 11.830357, 11.8125, 11.9375, 11.875, 11.6875, 11.5, 11.25, 11.125, 11.0625, 11, 11, 11, 10.75, 10.5, 10.25, 10, 10, 10, 10, 10, 10, 10, 9.875, 9.625, 9.375, 9.125, 9, 8.875, 8.8125, 8.8125, 8.8125, 8.9375, 8.8125, 8.5625, 8.3125, 8.0625, 8, 8, 8, 8, 7.9375, 7.875, 7.8125, 7.75, 7.8125, 7.875, 7.7857141, 7.7053571, 7.6785717, 7.5892859, 7.75, 7.6875, 7.5, 7.5267859, 7.4732141, 7.4375, 7.5625, 7.5625, 7.8125, 8.0625, 8.25, 8.25, 8.4375, 8.5625, 8.6875, 9, 9.2470236, 10.066667, -10, -10, -10, -10, -10, -10, -10, -10, -10, -10, -10, 32, 32, 32.25, 32.4375, 32.5, 32.625, 32.625, 32.6875, 32.875, 33, 32.9375, 33, 33.125, 33.21875, 33.40625, 33.5625, 33.767857, 33.8125, 34.17857, 33.861607, 33.985119, 34.357143, 34.553574, 34.75, 34.9375, 35.0625, 35.25, 35.794643, 36.700893, 37.35268, 37.71875, 37.78125, 37.901787, 37.933037, 37.65625, 37.767857, 37.6875, 37.90625, 38.15625, 38.1875, 38.125, 38.0625, 37.9375, 37.9375, 38, 38, 38.0625, 38.25, 38.3125, 38.642857, 38.998215, 38.8125, 39.017857
31.1875, 31.1875, 31.25, 31.25, 31.1875, 31, 30.6875, 30.5625, 30.5, 30.375, 30.4375, 30.3125, 30.1875, 30.125, 30.0625, 29.973213, 29.767857, 29.696428, 29.75, 29.8125, 29.8125, 29.625, 29.4375, 29.3125, 29.294643, 29.071428, 28.816328, 28.395834, 28.133928, 27.8125, 27.928572, 28.142857, 28.145834, 28.041666, 27.955357, 27.9375, 27.6875, 27.5625, 27.375, 27.107143, 26.9375, 26.9375, 26.875, 26.9375, 27, 26.9375, 26.9375, 26.875, 26.8125, 26.8125, 26.919643, 27, 27.026787, 26.791666, 26.683334, -10, -10, -10, -10, -10, -10, -10, 37.833332, 37.579166, 37.354168, 37.166668, 37.254463, 37.0625, 37.0625, 37, 37.0625, 37.09375, 37.0625, 36.9375, 36.84375, 36.870537, 37.044643, 37.272324, 37.46875, 37.65625, 37.84375, 37.90625, 38.120537, 38.388393, 38.558037, 38.5625, 38.633926, 38.875, 38.973213, 39.21875, 39.28125, 39.433037, 39.763393, 39.928574, 39.732143, 39.197918, 39.169643, 39.191963, 39.513393, 39.633926, 39.354168, 38.946426, 38.642857, 38.4375, 38.25, 38.276787, 38.544643, 38.413689, 37.889881, 37.660713, 37.3125, 37.25, 36.964287, 36.122025, 35.785713, 35.375, 35.125, 34.8125, 34.46875, 34.15625, 33.90625, 33.78125, 33.857143, 33.866074, 33.9375, 33.833332, 33.833332, 33.888885, 18, 18.0625, 18.125, 18.15625, 18.1875, 18.3125, 18.3125, 18.25, 18.1875, 17.875, 17.625, 17.375, 17.125, 17.0625, 17, 16.875, 16.75, 16.6875, 16.5625, 16.5625, 16.5, 16.4375, 16.375, 16.25, 16.1875, 16.0625, 16, 16, 16, 15.875, 15.8125, 15.625, 15.4375, 15.3125, 15.125, 15.0625, 15, 14.9375, 14.8125, 14.625, 14.4375, 14.3125, 14.1875, 14.125, 14.0625, 14, 14, 14, 14, 13.875, 13.625, 13.375, 13.1875, 13.0625, 13.0625, 13.125, 13.125, 13.0625, 13, 12.75, 12.625, 12.5625, 12.375, 12.3125, 12.1875, 11.973214, 11.830357, 11.830357, 11.8125, 11.9375, 11.8125, 11.5625, 11.3125, 11.0625, 11, 11, 11, 11, 11, 10.75, 10.5, 10.25, 10, 10, 10, 10, 10, 10, 10, 9.875, 9.625, 9.375, 9.125, 9, 8.875, 8.8125, 8.8125, 8.8125, 8.9375, 8.8125, 8.5625, 8.3125, 8.0625, 8, 8, 8, 8, 7.9375, 7.875, 7.8125, 7.75, 7.75, 7.8392859, 7.7857141, 7.4642859, 7.5595236, 7.708333, 7.8571429, 7.875, 7.5625, 7.4375, 7.25, 7.2589283, 7.5124998, 7.5178571, 7.875, 8, 8.1875, 8.3125, 8.6071434, 8.875, 9, 8.979167, 9.0595236, -10, -10, -10, -10, -10, -10, -10, -10, -10, -10, -10, -10, 32, 32, 32.25, 32.4375, 32.5625, 32.75, 32.75, 32.8125, 32.9375, 33, 32.9375, 32.9375, 32.9375, 32.90625, 33.03125, 33.357143, 33.903572, 34.020832, 34.553574, 34.397324, 34.401787, 34.607143, 34.678574, 34.875, 35, 35.125, 35.375, 35.875, 36.558037, 37.138393, 37.53125, 37.59375, 37.651787, 37.700893, 37.53125, 37.705357, 37.928574, 38.15625, 38.227676, 38.116074, 38, 37.9375, 37.875, 38, 38.0625, 38.0625, 38.1875, 38.375, 38.5625, 39.017857, 39.373215, 39.1875, 39.330357, 39.1875, 39.3125, 39.508926, 39.770832, 39.833332, 39.8125, 39.875, 40, 40.25, 40.669643, 40.857143, 40.987499, 41.383331, -10, -10, -10, -10, -10, -10, -10, -10, -10, -10, -10, -10, -10, -10, -10, -10, -10, -10, -10, -10, -10, -10, -10, -10, -10, -10, 31.875, 31.916666, 31.9375, 31.875, 31.875, 31.875, 31.8125, 31.8125, 31.625, 31.375, 31.25, 31.1875, 31.25, 31.25, 31.1875, 31, 30.75, 30.625, 30.5, 30.3125, 30.25, 30.125, 30, 30, 29.9375, 29.785713, 29.642857, 29.571428, 29.6875, 29.8125, 29.75, 29.625, 29.5, 29.5, 29.669643, 29.683672, 29.093536, 28.431547, 28.071428, 27.9375, 27.964287, 28.035713, 28.0625, 28.125, 28.0625, 28, 27.6875, 27.4375, 27.1875, 27, 26.9375, 26.9375, 26.9375, 26.9375, 27.0625, 27.0625, 27.125, 27.1875, 27.044643, 26.729166, 26.633928, 26.5625, 26.598213, 26.625, 26.583334, -10, -10, -10, -10, -10, -10, 38, 38.125, 37.879166, 37.604168, 37.577381, 37.629463, 37.53125, 37.5, 37.375, 37.3125, 37.1875, 37.026787, 36.875, 36.84375, 36.90625, 36.9375, 37.109375, 37.25, 37.4375, 37.625, 37.609375, 37.745537, 38.013393, 38.183037, 38.3125, 38.517857, 38.958332, 39.151787, 39.5, 39.602676, 39.647324, 39.727676, 39.75, 39.553574, 39.197918, 39.169643, 39.28125, 39.700893, 39.919643, 39.666668, 39.227676, 38.799107, 38.53125, 38.34375, 38.3125, 38.375, 38.205357, 37.785713, 37.589287, 37.3125, 37.1875, 36.910713, 36.267857, 35.964287, 35.553574, 35.104168, 34.830357, 34.46875, 34.28125, 34.15625, 34.09375, 34.0625, 34, 34, 33.84375, 33.78125, 33.791664, 18, 18, 18, 18, 18, 18.125, 18.1875, 18.1875, 18.1875, 17.8125, 17.5, 17.25, 17, 17, 17, 16.875, 16.75, 16.6875, 16.625, 16.6875, 16.6875, 16.625, 16.4375, 16.25, 16.125, 16, 16, 16, 16, 15.875, 15.8125, 15.625, 15.4375, 15.3125, 15.125, 15.0625, 15, 14.9375, 14.75, 14.5, 14.3125, 14.1875, 14.1875, 14.1875, 14.125, 14.0625, 14, 14, 14, 13.9375, 13.6875, 13.4375, 13.25, 13.0625, 13.0625, 13.0625, 13, 12.875, 12.8125, 12.625, 12.5625, 12.5625, 12.375, 12.3125, 12.1875, 11.973214, 11.830357, 11.767857, 11.6875, 11.75, 11.5625, 11.375, 11.1875, 11, 11, 11, 11, 11, 11, 10.75, 10.5, 10.25, 10, 10, 10, 10, 10, 10, 10, 9.875, 9.625, 9.375, 9.125, 9, 8.875, 8.8125, 8.8125, 8.8125, 8.9375, 8.8125, 8.5625, 8.3125, 8.0625, 8, 8, 8, 8, 8, 8, 8, 8, 7.9375, 7.9642859, 7.8482141, 7.4017859, 7.4970236, 7.645833, 7.8571429, 8, 7.75, 7.6875, 7.5625, 7.5714283, 7.8249998, 7.8303571, 8.0625, 8.0625, 8.25, 8.375, 8.6696434, 8.9285717, 8.8625002, 8.9077387, 8.8880959, -10, -10, -10, -10, -10, -10, -10, -10, -10, -10, -10, -10, 32, 32, 32.25, 32.5, 32.6875, 32.90625, 32.84375, 32.84375, 32.96875, 33.035713, 33, 32.9375, 32.75, 32.65625, 32.75, 33.107143, 33.778572, 33.895832, 34.459824, 34.397324, 34.464287, 34.732143, 34.803574, 34.9375, 35.0625, 35.25, 35.5, 36, 36.575893, 37.075893, 37.53125, 37.71875, 37.839287, 37.84375, 37.602676, 37.767857, 38.053574, 38.263393, 38.081848, 37.883926, 37.75, 37.75, 37.8125, 38, 38.0625, 38.0625, 38.25, 38.4375, 38.6875, 39.089287, 39.223213, 39.25, 39.25
31.3125, 31.1875, 31.25, 31.25, 31.1875, 31, 30.8125, 30.6875, 30.5, 30.3125, 30.1875, 30.0625, 30, 30, 29.875, 29.660713, 29.517857, 29.446428, 29.625, 29.75, 29.6875, 29.6875, 29.583334, 29.479166, 29.669643, 29.410713, 28.925594, 28.369047, 28.008928, 28, 28, 28, 28, 28, 28, 27.875, 27.625, 27.375, 27.125, 27.0625, 27, 27, 27, 26.9375, 27, 27, 27.0625, 27.1875, 27.232143, 26.958332, 26.721428, 26.333334, 26.380951, 26.5, 26.555557, -10, -10, -10, -10, -10, -10, -10, 38.25, 37.979168, 37.9375, 38.017857, 38.058037, 38.03125, 37.90625, 37.78125, 37.65625, 37.46875, 37.276787, 37.0625, 36.96875, 36.90625, 36.875, 36.984375, 37.0625, 37.25, 37.375, 37.484375, 37.683037, 37.950893, 38.075893, 38.125, 38.267857, 38.708332, 38.901787, 39.392857, 39.474487, 39.366074, 39.446426, 39.5625, 39.491074, 39.197918, 39.232143, 39.28125, 39.53125, 39.8125, 39.6875, 39.352676, 38.924107, 38.59375, 38.40625, 38.1875, 38.125, 37.830357, 37.348213, 37.214287, 37, 36.9375, 36.723213, 36.205357, 36.071426, 35.709824, 35.322918, 35.049107, 34.75, 34.566963, 34.299107, 34.165176, 34.0625, 34, 33.883926, 33.46875, 33.708332, 33.611111, 18, 18, 18, 18, 18, 18.125, 18.1875, 18.1875, 18.125, 17.75, 17.4375, 17.1875, 17, 17, 17, 16.875, 16.75, 16.6875, 16.6875, 16.8125, 16.875, 16.8125, 16.5625, 16.3125, 16.125, 16, 16, 16, 16, 15.9375, 15.875, 15.6875, 15.5, 15.3125, 15.1875, 15.1875, 15.125, 15.0625, 14.8125, 14.5, 14.3125, 14.1875, 14.1875, 14.1875, 14.125, 14.0625, 14, 14, 13.9375, 13.875, 13.6875, 13.4375, 13.3125, 13.125, 13.0625, 13.0625, 13, 12.875, 12.8125, 12.625, 12.5, 12.5, 12.3125, 12.25, 12.125, 11.9375, 11.9375, 11.8125, 11.75, 11.6875, 11.4375, 11.3125, 11.125, 11, 11, 10.9375, 10.9375, 10.9375, 10.9375, 10.8125, 10.625, 10.4375, 10.25, 10.1875, 10.125, 10.0625, 10, 10, 9.9375, 9.8125, 9.5625, 9.3125, 9.125, 9, 8.9375, 8.9375, 8.9375, 8.9375, 9, 8.8125, 8.625, 8.375, 8.125, 8.0625, 8, 8, 8, 8, 8, 8.0625, 8.125, 8.0625, 7.9642859, 7.7053571, 7.3214283, 7.4166665, 7.645833, 7.8571429, 8.0625, 7.875, 7.875, 7.875, 7.9464283, 8.3000002, 8.0803576, 8.25, 8.1875, 8.4375, 8.5625, 8.7321434, 8.8660717, 8.7375002, 8.7827387, 8.7333336, -10, -10, -10, -10, -10, -10, -10, -10, -10, -10, -10, 32, 31.875, 31.916666, 32.1875, 32.5, 32.71875, 32.90625, 32.78125, 32.78125, 32.9375, 33.071426, 33.125, 33.1875, 32.916668, 32.447918, 32.479168, 32.919643, 33.671432, 33.927082, 34.491074, 34.553574, 34.714287, 34.919643, 34.991074, 35.0625, 35.0625, 35.25, 35.5, 35.9375, 36.45982, 36.96875, 37.40625, 37.71875, 37.8125, 37.84375, 37.78125, 37.9375, 38.241074, 38.388393, 38.081848, 37.758926, 37.625, 37.794643, 37.991074, 38.1875, 38.1875, 38.125, 38.25, 38.375, 38.5625, 38.901787, 39.035713, 39.125, 39.1875, 39.0625, 39.1875, 39.258926, 39.645832, 39.708332, 39.4375, 39.4375, 39.651787, 39.857143, 40.1875, 40.375, 40.6875, 40.916664, -10, -10, -10, -10, -10, -10, -10, -10, -10, -10, -10, -10, -10, -10, -10, -10, -10, -10, -10, -10, -10, -10, -10, -10, -10, -10, 32, 32, 32, 32, 32, 31.9375, 31.9375, 31.9375, 31.6875, 31.5, 31.3125, 31.125, 31.1875, 31.1875, 31.125, 31.0625, 30.9375, 30.75, 30.5, 30.25, 30.0625, 30, 30, 30, 29.875, 29.660713, 29.517857, 29.446428, 29.625, 29.75, 29.6875, 29.75, 29.645834, 29.604166, 29.794643, 29.397959, 29.050594, 28.431547, 28.071428, 28, 27.9375, 27.9375, 27.9375, 27.9375, 28, 27.8125, 27.5625, 27.3125, 27.125, 27.1875, 27.125, 27.125, 27.0625, 26.9375, 26.9375, 26.9375, 27, 27.125, 27.232143, 27.020832, 26.783928, -10, -10, -10, -10, -10, -10, -10, -10, -10, -10, -10, 38.5, 38.3125, 38.375, 38.517857, 38.522324, 38.59375, 38.40625, 38.34375, 38.15625, 37.84375, 37.589287, 37.3125, 37.21875, 37.21875, 37.160713, 37.127232, 37.102676, 37.15625, 37.21875, 37.390625, 37.59375, 37.78125, 37.897324, 37.799999, 38.071426, 38.511902, 38.714287, 38.767857, 38.82653, 38.991074, 39.071426, 39.25, 39.375, 39.135418, 39.263393, 39.25, 39.34375, 39.59375, 39.4375, 39.28125, 38.96875, 38.59375, 38.34375, 38, 37.8125, 37.607143, 37.267857, 37.205357, 37.0625, 36.875, 36.669643, 36.267857, 36.071426, 35.897324, 35.483631, 35.058037, 34.709824, 34.473213, 34.236607, 34.227676, 34.21875, 34.107143, 33.550594, 33.018749, -10, -10, -10, -10, 18, 18, 18, 18.0625, 18.125, 18.125, 18.0625, 17.75, 17.4375, 17.1875, 17, 17, 17, 16.9375, 16.875, 16.8125, 16.8125, 16.875, 16.9375, 16.875, 16.625, 16.375, 16.0625, 15.9375, 15.9375, 15.875, 15.9375, 15.9375, 15.875, 15.75, 15.5625, 15.3125, 15.25, 15.25, 15.1875, 15.1875, 14.875, 14.5625, 14.375, 14.1875, 14.1875, 14.1875, 14.125, 14.0625, 14, 13.9375, 13.8125, 13.75, 13.625, 13.4375, 13.3125, 13.125, 13, 12.9375, 12.9375, 12.8125, 12.75, 12.625, 12.4375, 12.375, 12.1875, 12.125, 12.0625, 12, 12, 11.875, 11.8125, 11.6875, 11.5, 11.4375, 11.3125, 11.1875, 11.125, 11, 10.875, 10.875, 10.875, 10.8125, 10.6875, 10.5, 10.3125, 10.1875, 10.125, 10.0625, 10, 10, 9.9375, 9.8125, 9.5625, 9.3125, 9.125, 9, 9, 9, 9, 9, 9, 8.875, 8.75, 8.5, 8.25, 8.125, 8, 8, 8.0714283, 8.333333, 8.4285717, 8.5625, 8.625, 8.5625, 8.4017859, 8.1428566, 7.6964283, 7.6666665, 7.895833, 7.9821429, 8.125, 8, 8.0625, 8.1875, 8.3839283, 8.5749998, 8.3928576, 8.5, 8.375, 8.6875, 8.8482141, 8.8125, 8.8125, 8.6125002, 8.6577387, 8.6499996, -10, -10, -10, -10, -10, -10, -10, -10, -10, -10, -10, -10, 31.75, 31.833332, 32.125, 32.5, 32.65625, 32.78125, 32.65625, 32.65625, 32.875, 33.071426, 33.25, 33.375, 33.166668, 32.760418, 32.666668, 33.044643, 33.689285, 33.989582, 34.584824, 34.709824, 34.90625, 34.96875, 35, 35.0625, 35.0625, 35.1875, 35.4375, 35.8125, 36.30357, 36.8125, 37.125, 37.4375, 37.5625, 37.732143, 37.875, 38.125, 38.428574, 38.544643, 38.175598, 37.946426, 37.9375, 38.169643, 38.366074, 38.5, 38.4375, 38.303574, 38.237499, 38.428574, 38.616074, 38.9375, 39, 39.125, 39.125
31.375, 31.125, 31.0625, 31, 31, 31, 30.9375, 30.75, 30.5, 30.25, 30.0625, 30, 30, 30, 29.8125, 29.5625, 29.5625, 29.5625, 29.75, 29.9375, 29.875, 29.9375, 29.770834, 29.541666, 29.5, 29.160713, 28.666666, 28.348213, 28.125, 28.0625, 28, 28, 27.9375, 27.9375, 27.9375, 27.6875, 27.4375, 27.1875, 27.0625, 27.1875, 27.1875, 27.1875, 27.125, 27, 26.9375, 26.9375, 27, 27.125, 27.294643, 27.145832, 26.971428, -10, -10, -10, -10, -10, -10, -10, -10, -10, -10, -10, 38.75, 38.5, 38.5, 38.674107, 38.741074, 39, 38.90625, 38.8125, 38.59375, 38.147324, 37.693455, 37.517857, 37.5, 37.598213, 37.535713, 37.408482, 37.290176, 37.21875, 37.15625, 37.265625, 37.375, 37.625, 37.741074, 37.674999, 37.9375, 38.199402, 38.464287, 38.339287, 38.397957, 38.616074, 38.696426, 39, 39.196426, 39.010418, 39.084824, 39.214287, 39.25, 39.392857, 39.0625, 39.075893, 38.84375, 38.53125, 38.15625, 37.705357, 37.4375, 37.25, 37.125, 37.125, 37.0625, 36.8125, 36.5625, 36.25, 36.125, 36.084824, 35.796131, 35.450893, 34.834824, 34.517857, 34.174107, 34.191963, 34.325893, 34.148811, 33.300594, 32.731247, -10, -10, -10, -10, 18, 26.333332, 18, 18, 18, 18, 17.9375, 17.6875, 17.4375, 17.1875, 17, 17, 17, 17, 17, 17, 17, 17, 16.9375, 16.8125, 16.5625, 16.3125, 16, 15.875, 15.8125, 15.6875, 15.75, 15.75, 15.6875, 15.625, 15.5, 15.25, 15.25, 15.25, 15.1875, 15.1875, 14.9375, 14.625, 14.4375, 14.25, 14.1875, 14.1875, 14.125, 14.0625, 14, 13.9375, 13.8125, 13.75, 13.625, 13.4375, 13.3125, 13.125, 13, 12.9375, 12.9375, 12.875, 12.875, 12.75, 12.5, 12.3125, 12.0625, 12, 12, 12, 12, 11.875, 11.8125, 11.625, 11.5, 11.4375, 11.3125, 11.25, 11.125, 11, 10.875, 10.875, 10.875, 10.8125, 10.6875, 10.5, 10.3125, 10.1875, 10.125, 10.0625, 10, 10, 9.9375, 9.8125, 9.625, 9.375, 9.1875, 9.1428566, 9.333333, 9.4285717, 9.4285717, 9.3000002, 9.4285717, 9.270833, 9.1750002, 9.1160717, 8.8571434, 8.5357141, 8.4285717, 8.4897966, 8.5714283, 9, 9, 9.2857141, 9.4285717, 9.4285717, 9.25, 8.8775511, 8.3125, 8.1875, 8.25, 8.3125, 8.4375, 8.375, 8.5, 8.625, 8.84375, 8.90625, 8.71875, 8.75, 8.7946434, 9.125, 9.2857141, 9.0803566, 8.7142859, 8.4499998, 8.8660717, 8.8999996, -10, -10, -10, -10, -10, -10, -10, -10, -10, -10, -10, -10, 31.75, 31.833332, 32.125, 32.5, 32.59375, 32.65625, 32.53125, 32.53125, 32.8125, 33.008926, 33.214287, 33.482143, 33.407738, 33.135418, 33.166668, 33.5625, 34.026787, 34.46875, 34.71875, 34.84375, 34.96875, 34.96875, 35, 35.0625, 35.0625, 35.25, 35.5, 35.8125, 36.258926, 36.65625, 36.84375, 37.15625, 37.28125, 37.607143, 37.875, 38.125, 38.25, 38.232143, 38.041668, 38.017857, 38.169643, 38.482143, 38.616074, 38.5625, 38.401787, 38.303574, 38.353569, 38.589287, 38.616074, 38.705357, 38.6875, 38.821426, 39.0625, 39.0625, 39.25, 39.125, 39.1875, 39.1875, 38.9375, 39.0625, 39.464287, 39.732143, 40.1875, 40.375, 40.625, 40.895832, 41.166664, -10, -10, -10, -10, -10, -10, -10, -10, -10, -10, -10, -10, -10, -10, -10, -10, -10, -10, -10, -10, -10, -10, -10, -10, -10, 31.875, 31.916666, 31.9375, 31.9375, 31.9375, 31.8125, 31.8125, 31.8125, 31.75, 31.75, 31.5, 31.25, 31.125, 31, 31, 31, 30.9375, 30.75, 30.5, 30.25, 30.0625, 29.9375, 29.9375, 29.9375, 29.8125, 29.6875, 29.6875, 29.6875, 29.8125, 30, 30, 30, 29.726191, 29.354166, 29.125, 28.875, 28.71875, 28.46875, 28.28125, 28.09375, 28, 28, 27.9375, 27.875, 27.8125, 27.5625, 27.3125, 27.125, 27.0625, 27.1875, 27.1875, 27.1875, 27.125, 27, 26.875, 26.875, 26.875, 26.9375, 27.1875, 27.229166, 27.0875, -10, -10, -10, -10, -10, -10, -10, -10, -10, -10, -10, 38.75, 38.75, 38.75, 38.78125, 38.8125, 39.008926, 39.239582, 39.241074, 39.21875, 38.834824, 38.1875, 37.9375, 37.875, 37.973213, 37.910713, 37.830357, 37.633926, 37.5, 37.4375, 37.5, 37.625, 37.75, 37.803574, 37.674999, 37.741074, 37.803574, 37.9375, 37.9375, 38.0625, 38.125, 38.339287, 38.857143, 39.053574, 38.885418, 38.704082, 38.270832, 38.25, 38.291668, 38.535713, 38.857143, 38.8125, 38.6875, 38.375, 37.88393, 37.416668, 37.196426, 37.0625, 37.125, 37.0625, 36.875, 36.625, 36.3125, 36.25, 36.28125, 36.316963, 36.058037, 35.415176, 34.705357, 34.21875, 34.191963, 34.388393, 34.193455, 33.154762, 32.612503, -10, -10, -10, -10, 28.428572, 27.323811, 27.708332, 27.625, 27.416668, 18, 17.9375, 17.75, 17.5, 17.25, 17.0625, 17, 17, 17, 17, 17, 17, 17, 16.9375, 16.75, 16.5, 16.25, 15.9375, 15.875, 15.75, 15.5625, 15.625, 15.625, 15.5625, 15.5, 15.3125, 15.0625, 15.125, 15.1875, 15.1875, 15.1875, 15, 14.75, 14.5625, 14.375, 14.1875, 14.125, 14.0625, 14, 13.9375, 13.8125, 13.625, 13.5, 13.4375, 13.3125, 13.25, 13.125, 13, 12.9375, 12.9375, 12.9375, 12.875, 12.75, 12.5, 12.25, 12.0625, 12, 12, 12, 12, 11.9375, 11.9375, 11.75, 11.625, 11.5, 11.3125, 11.25, 11.125, 11, 10.875, 10.875, 10.875, 10.875, 10.8125, 10.625, 10.375, 10.1875, 10.160714, 10.0625, 10.0625, 10, 10, 10, 9.9375, 9.875, 9.75, 9.7053566, 9.895833, 9.9285717, 9.9285717, 9.8625002, 10.053572, 10.083333, 10.05, 9.9035711, 9.8571434, 10.238095, 10.25, 10.309524, 10.273809, 10.071428, 10.142858, 10.25, 10.357142, 10.214286, 9.9642859, 9.7244892, 9.3928576, 9.3214283, 9.4285717, 9.3214283, 8.895833, 8.833333, 9.020833, 9.1785717, 9.34375, 9.28125, 9.09375, 9.125, 9.2946434, 9.75, 9.9732141, 9.9489794, 10.089286, 9.958333, 9.520833, 9, -10, -10, -10, -10, -10, -10, -10, -10, -10, -10, -10, -10, 31.75, 31.833332, 32.125, 32.5, 32.59375, 32.625, 32.5, 32.5, 32.71875, 32.910713, 33.214287, 33.607143, 33.782738, 33.604168, 33.952381, 34.1875, 34.633926, 35.0625, 35.15625, 35.09375, 35.09375, 35.03125, 35.0625, 35.1875, 35.1875, 35.3125, 35.5625, 35.75, 36.133926, 36.46875, 36.53125, 36.84375, 36.96875, 37.357143, 37.75, 38, 38.125, 38.0625, 38.0625, 38.125, 38.330357, 38.607143, 38.678574, 38.5625, 38.401787, 38.303574, 38.291069, 38.464287, 38.428574, 38.517857, 38.5, 38.6875, 39.150002
31.5625, 31.3125, 31.1875, 31, 31, 31, 30.875, 30.625, 30.375, 30.125, 30, 29.9375, 29.9375, 29.9375, 29.875, 29.8125, 29.8125, 29.8125, 29.875, 29.991072, 29.729166, 29.642857, 29.392857, 29.25, 29.125, 29, 28.78125, 28.53125, 28.34375, 28.09375, 28, 28, 27.875, 27.75, 27.625, 27.375, 27.1875, 27.0625, 27.125, 27.25, 27.3125, 27.3125, 27.1875, 27.0625, 26.9375, 26.9375, 26.9375, 26.866072, 26.666666, 26.642857, 26.5625, 26.083332, 26.5, 26.25, 26.5, 27, 27.200001, -10, -10, -10, -10, -10, 39, 39.083332, 39, 38.816963, 38.758926, 38.883926, 39.270832, 39.459824, 39.5625, 39.303574, 38.6875, 38.5, 38.4375, 38.598213, 38.535713, 38.392857, 38.196426, 37.9375, 37.8125, 37.75, 37.75, 37.75, 37.678574, 37.549999, 37.678574, 37.910713, 38.125, 38.1875, 38.1875, 38.125, 38.214287, 38.607143, 38.803574, 38.697918, 38.647324, 38.34375, 38.3125, 38.3125, 38.4375, 38.732143, 38.8125, 38.8125, 38.5625, 38.13393, 37.666668, 37.446426, 37.3125, 37.34375, 37.28125, 37.09375, 36.78125, 36.4375, 36.375, 36.4375, 36.517857, 36.214287, 35.633926, 35.026787, 34.479591, 34.525513, 34.805061, 34.505955, 33.458336, 33.192856, -10, 34.208336, 34.228569, 33.547619, 31.52857, 30.111113, 28.616665, 28.385715, 28.055557, 28.119047, 18, 17.875, 17.604166, 17.375, 17.0625, 16.9375, 16.9375, 16.9375, 17, 17, 17, 17, 16.9375, 16.75, 16.5, 16.25, 15.9375, 15.875, 15.75, 15.5, 15.5625, 15.5625, 15.4375, 15.4375, 15.25, 15, 15.0625, 15.0625, 15.0625, 15.0625, 14.9375, 14.8125, 14.625, 14.4375, 14.25, 14.125, 14.0625, 13.9375, 13.8125, 13.625, 13.4375, 13.375, 13.3125, 13.25, 13.1875, 13.0625, 13, 12.9375, 12.9375, 12.9375, 12.8125, 12.75, 12.5625, 12.3125, 12.1875, 12.0625, 12, 12, 12, 12, 12.0625, 12.0625, 11.979167, 11.520833, 11.3125, 11.21875, 11.15625, 11.125, 11, 10.9375, 11, 11, 11.0625, 10.9375, 10.464286, 10.321428, 10.473214, 10.375, 10.375, 10.25, 10.383928, 10.708333, 10.732143, 10.8125, 10.892858, 10.87755, 11.095238, 11.132653, 11.096939, 10.95, 11.239797, 11.273809, 11.271429, 11.282653, 11.336736, 11.311225, 11.285714, 11.265306, 11.234694, 10.9375, 11.0625, 11.1875, 11.25, 10.857142, 10.602041, 10.5625, 10.25, 10.357142, 10.535714, 10.428572, 9.5952377, 9.5595236, 9.9861107, 10.418367, 10.5, 10.15625, 10.178572, 10.214286, 10.408164, 10.785714, 11.020408, 10.938775, 10.897959, 10.785714, 10.70238, -10, -10, -10, 15.5, -10, -10, -10, -10, -10, -10, -10, -10, 32, 31.875, 31.916666, 32.1875, 32.5, 32.625, 32.6875, 32.5625, 32.5625, 32.6875, 32.8125, 33.151787, 33.482143, 33.866074, 34.395832, 34.616074, 34.9375, 35.107143, 35.3125, 35.28125, 35.09375, 35.09375, 35.09375, 35.1875, 35.375, 35.4375, 35.5, 35.6875, 35.8125, 36.0625, 36.21875, 36.21875, 36.40625, 36.59375, 36.982143, 37.4375, 37.6875, 37.883926, 37.887501, 37.830357, 38.125, 38.267857, 38.5, 38.5625, 38.375, 38.276787, 38.241074, 38.228569, 38.464287, 38.428574, 38.526787, 38.625, 38.75, 39.212502, 39, 39.133926, 38.9375, 38.9375, 39, 39.0625, 39.375, 39.625, 39.8125, 40.1875, 40.4375, 40.6875, 40.9375, 41, -10, -10, -10, -10, -10, -10, -10, -10, -10, -10, -10, -10, -10, -10, -10, -10, -10, -10, -10, -10, -10, -10, -10, -10, -10, 32, 32, 32, 31.854166, 31.883928, 31.958334, 31.9375, 31.9375, 31.875, 31.9375, 31.75, 31.5, 31.3125, 31.0625, 31, 31, 30.8125, 30.5625, 30.3125, 30.125, 30.035713, 29.901787, 29.9375, 29.875, 29.9375, 29.9375, 29.9375, 29.9375, 29.9375, 29.991072, 29.666666, 29.517857, 29.267857, 29.125, 29.0625, 29.0625, 28.96875, 28.763393, 28.447916, 28.165178, 28.0625, 28.0625, 27.875, 27.776787, 27.660713, 27.375, 27.205357, 27.0625, 27.0625, 27.125, 27.1875, 27.25, 27.1875, 27.125, 27.0625, 27.0625, 27.0625, 26.928572, 26.516666, 26.571428, 26.4625, 26.083332, -10, -10, -10, -10, -10, -10, -10, -10, -10, -10, 39.3125, 39.375, 39.28125, 39.129463, 39.008926, 39.071426, 39.520832, 39.772324, 40, 39.928574, 39.547615, 39.346943, 39.17857, 39.035713, 39, 38.9375, 38.6875, 38.401787, 38.25, 38.0625, 38.0625, 37.919643, 37.642857, 37.666668, 37.833332, 38.160713, 38.375, 38.4375, 38.5, 38.5, 38.651787, 38.818878, 39.075893, 38.947918, 38.709824, 38.464287, 38.607143, 38.607143, 38.8125, 38.982143, 38.924999, 39.044643, 38.8125, 38.57143, 38.104168, 37.821426, 37.625, 37.59375, 37.53125, 37.46875, 37.15625, 36.767857, 36.6875, 36.625, 36.732143, 36.580357, 36.142857, 35.82653, 35.863094, 35.827381, 35.065479, 34.791668, 34.104168, 33.95536, 35, 34.305557, 34.152378, 33.531746, 32.020409, 31.452381, 30.819443, 30.434525, 28.738096, 28.523809, 28.285713, 17.916666, 17.604166, 17.395834, 17.125, 16.9375, 16.9375, 16.9375, 17, 17, 17, 17, 16.9375, 16.75, 16.5, 16.25, 16, 15.9375, 15.8125, 15.5625, 15.4375, 15.339286, 15.25, 15.25, 15.1875, 15, 15, 15, 15, 15, 15, 14.875, 14.6875, 14.5, 14.25, 14.125, 14.0625, 13.9375, 13.75, 13.5625, 13.375, 13.25, 13.1875, 13.125, 13.0625, 13, 13, 13, 13, 13, 12.875, 12.75, 12.625, 12.375, 12.3125, 12.25, 12.125, 12.214286, 12.25, 12.166667, 12.419643, 12.375, 12.416667, 11.666666, 11.428572, 11.357142, 11.46875, 11.4375, 11.375, 11.25, 11.25, 11.1875, 11.125, 11.137755, 11.172619, 11.166667, 10.910714, 10.8125, 10.875, 10.75, 10.955357, 11.666666, 11.765306, 12.107142, 12.071428, 12.117347, 12.226191, 12.209184, 11.991072, 12.135714, 12.209822, 12.440476, 12.385714, 12.359184, 12.489797, 12.525511, 12.375, 12.357143, 12.294643, 12.104167, 12.397959, 12.464286, 12.428572, 12.416667, 12.154762, 11.4375, 11.535714, 11.071428, 11.583333, 11.541667, 11.516666, 11.888888, 11.930554, 11.704082, 11.589286, 11.446428, 11.267858, 11.306122, 11.683675, 11.989797, 11.9375, 11.875, 11.75, 11.5625, 11.619047, -10, -10, 15, 15.333333, -10, -10, -10, -10, -10, -10, -10, -10, 32, 32, 32, 32.25, 32.5, 32.6875, 32.8125, 32.75, 32.875, 33, 33.026787, 33.339287, 33.544643, 33.991074, 34.520832, 34.803574, 35.0625, 35.169643, 35.3125, 35.25, 35.1875, 35.25, 35.3125, 35.4375, 35.625, 35.6875, 35.6875, 35.8125, 35.875, 36, 36.09375, 36.03125, 36.15625, 36.34375, 36.732143, 37.125, 37.375, 37.571426, 37.575001, 37.580357, 37.9375, 38.11607, 38.3125, 38.375, 38.1875, 38.0625, 38.0625, 38.357143, 38.392857, 38.375, 38.401787, 38.5, 38.6875, 39.212502
31.6875, 31.4375, 31.3125, 31.125, 31, 31, 30.8125, 30.5625, 30.375, 30.25, 30.223213, 30.151787, 30.1875, 30.0625, 30.125, 30.1875, 30.125, 30.125, 30.0625, 29.991072, 29.604166, 29.392857, 29.142857, 29, 29, 29.125, 29.21875, 29.096727, 28.53125, 28.209822, 28, 28, 27.875, 27.776787, 27.723213, 27.5, 27.392857, 27.3125, 27.25, 27.25, 27.3125, 27.4375, 27.473213, 27.375, 27.276787, 27.229166, 27.083334, 26.904762, 26.355555, 26.428572, 26.283333, -10, -10, -10, -10, -10, -10, -10, -10, -10, -10, -10, 39.6875, 39.75, 39.65625, 39.535713, 39.446426, 39.446426, 39.833332, 40.116074, 40.375, 40.4375, 40.145832, 40.204082, 40.035713, 39.678574, 39.354168, 39.267857, 39.03125, 38.808037, 38.78125, 38.65625, 38.723213, 38.336735, 38.056122, 38.047619, 38.238094, 38.785713, 38.875, 38.9375, 39, 39, 39.336735, 39.551022, 39.482143, 39.5625, 39.352676, 39.08036, 39.357143, 39.408165, 39.658165, 39.5625, 39.487499, 39.607143, 39.285713, 39.357143, 38.708336, 38.392857, 38.125, 37.96875, 37.90625, 37.84375, 37.59375, 37.330357, 37.1875, 37, 36.919643, 36.75, 36.642857, 36.294643, 36.418369, 36.301022, 35.520836, 35.25, 34.807293, 34.711609, 35.041668, 34.385418, 34.25491, 33.711311, 33.205357, 32.580357, 32.095238, 31.551022, 30.781746, 28.979589, 28.63492, 28.4, 17.604166, 17.5, 17.3125, 17.0625, 17.0625, 17, 17, 17, 16.9375, 16.875, 16.875, 16.75, 16.5625, 16.375, 16.125, 16, 15.9375, 15.71875, 15.53125, 15.370536, 15.21875, 15.1875, 15.125, 15.0625, 15.125, 15.125, 15.0625, 14.892857, 14.8125, 14.6875, 14.5, 14.3125, 14.125, 14, 14, 13.9375, 13.6875, 13.4375, 13.1875, 13, 13, 13.0625, 13.0625, 13.0625, 13.0625, 13, 13, 13, 12.9375, 12.9375, 12.875, 12.75, 12.6875, 12.625, 12.5625, 12.651786, 12.75, 12.729167, 13.044643, 13.125, 13.404762, 13.013888, 12.785714, 12.645833, 12.09375, 12.0625, 12, 11.875, 11.678572, 11.714286, 11.714286, 11.67347, 11.612245, 11.535714, 11.785714, 11.625, 11.625, 11.714286, 11.984694, 12.595238, 12.729592, 13.107142, 13.178572, 13.285714, 13.357142, 13.392858, 13.357142, 13.285714, 13.392858, 13.15625, 13.125, 13.342857, 13.375, 13.67347, 13.678572, 13.571428, 13.392858, 13.321428, 13.357142, 13.428572, 13.428572, 13.357142, 13.132653, 12.785714, 12.714286, 12.875, 13.083333, 13.125, 12.972221, 12.833333, 12.904761, 12.887755, 12.678572, 12.5, 12.285714, 12.234694, 12.586736, 12.811225, 12.928572, 12.928572, 12.6875, 12.357142, 12.333333, -10, -10, 15.083333, 15.25, -10, -10, -10, -10, -10, -10, -10, -10, 32, 32, 32, 32.25, 32.5, 32.75, 32.9375, 32.8125, 32.964287, 33.169643, 33.26786, 33.625, 33.6875, 34.133926, 34.854164, 35.169643, 35.4375, 35.419643, 35.375, 35.25, 35.125, 35.1875, 35.3125, 35.4375, 35.6875, 35.8125, 35.8125, 35.9375, 35.9375, 35.9375, 36.0625, 35.973213, 35.964287, 36.25, 36.589287, 36.9375, 37.1875, 37.321426, 37.387501, 37.455357, 37.75, 37.883926, 38.09375, 38.1875, 38.25, 38.285713, 38.28125, 38.428574, 38.419643, 38.4375, 38.571426, 38.75, 38.866074, 39.212502, 39, 39.071426, 39, 39, 39.120537, 39.388393, 39.647324, 39.84375, 39.9375, 40.1875, 40.4375, 40.75, 41.0625, 41.208336, 41.666668, -10, -10, -10, -10, -10, -10, -10, -10, -10, -10, -10, -10, -10, -10, -10, -10, -10, -10, -10, -10, -10, -10, -10, -10, 32.125, 32.083332, 31.9375, 31.729166, 31.758928, 31.770834, 31.75, 31.8125, 31.5625, 31.5625, 31.5625, 31.3125, 31.25, 31.125, 31, 31, 30.75, 30.5, 30.375, 30.3125, 30.410713, 30.464287, 30.4375, 30.25, 30.25, 30.1875, 30.125, 30.125, 30.125, 30.053572, 29.648809, 29.309525, 29.071428, 28.9375, 29, 29.125, 29.25, 29.127977, 28.5625, 28.303572, 28.125, 28.125, 28, 27.901787, 27.848213, 27.6875, 27.642857, 27.5, 27.4375, 27.4375, 27.4375, 27.625, 27.660713, 27.541666, 27.369049, 27.305555, -10, -10, -10, -10, -10, -10, -10, -10, -10, -10, -10, 40.291664, 40.625, 41.026787, 41.3125, 41.375, 40.5625, 40.5, 40.46875, 40.724487, 40.642857, 40.520409, 40.3125, 40.5, 40.6875, 40.875, 40.875, 40.75, 40.625, 40.428574, 39.940479, 39.806122, 39.642857, 39.443878, 39.611607, 39.477676, 39.683674, 39.863094, 39.845238, 39.944447, 40.228176, 39.848213, 39.830357, 39.8125, 39.75, 39.8125, 40.17857, 40.285713, 40.357143, 40.25, 40.165176, 39.770412, 39.92857, 39.943878, 40.232143, 40.080357, 39.985714, 39.979591, 40, 39.678574, 39.229168, 38.946426, 38.6875, 38.53125, 38.46875, 38.34375, 37.977676, 37.877552, 37.836735, 37.458332, 37.148811, 36.821426, 36.75, 36.857143, 36.848213, 36.625, 35.967262, 35.642857, 35.359375, 35.299107, 35.15625, 34.78125, 34.698662, 34.357143, 33.883926, 33.36607, 32.96875, 32.419643, 31.812925, 30.84127, 28.830357, 28.533333, 17.416666, 17.458334, 17.3125, 17.125, 17.125, 17, 17, 17, 16.875, 16.75, 16.75, 16.6875, 16.5625, 16.4375, 16.1875, 16, 15.9375, 15.71875, 15.46875, 15.245536, 15.09375, 15.0625, 15.0625, 15.0625, 15.1875, 15.1875, 15.0625, 14.684525, 14.625, 14.544643, 14.4375, 14.3125, 14.125, 14, 14, 13.90625, 13.6875, 13.4375, 13.25, 13.15625, 13.125, 13.25, 13.3125, 13.419643, 13.5, 13.285714, 13.428572, 13.166667, 13.142857, 13.125, 13.125, 13.125, 13.0625, 13.125, 13.125, 13.214286, 13.571428, 13.54762, 13.943878, 14.107142, 14.166667, 13.690475, 13.530612, 13.308673, 12.966836, 12.913264, 12.821428, 12.785714, 13.083333, 13.166667, 13.166667, 13.051021, 13.091836, 13.107142, 12.8125, 12.625, 12.5625, 12.755102, 12.767857, 13.458333, 13.651786, 13.9375, 14, 13.96875, 14.17347, 14.408164, 14.471939, 14.482142, 14.21875, 14.03125, 13.9375, 14, 14.285714, 14.428572, 14.535714, 14.571428, 14.428572, 14.357142, 14.0625, 14.0625, 14.0625, 14.0625, 14.17347, 13.928572, 13.892858, 13.857142, 13.821428, 13.892858, 13.928572, 13.6875, 13.75, 13.625, 13.4375, 13.3125, 13.125, 13.080357, 13.357143, 13.491072, 13.5, 13.714286, 13.663264, 14.027778, 14.293651, 15.5, 15.5, 15.25, 15.25, -10, -10, -10, -10, -10, -10, -10, -10, 32, 32, 32, 32.1875, 32.4375, 32.6875, 32.9375, 32.9375, 33.089287, 33.294643, 33.39286, 33.6875, 33.75, 34.196426, 34.979164, 35.33036, 35.5, 35.375, 35.1875, 35.0625, 35.0625, 35.25, 35.375, 35.5625, 35.75, 35.8125, 35.875, 35.9375, 35.9375, 36, 36.1875, 36.098213, 36.026787, 36.25, 36.464287, 36.75, 37, 37.071426, 37.200001, 37.267857, 37.5, 37.660713, 37.96875, 38.232143, 38.4375, 38.535713, 38.53125, 38.678574, 38.732143, 38.8125, 38.883926, 39, 38.901787, 39
31.5625, 31.375, 31.25, 31.1875, 31.125, 31.0625, 30.8125, 30.517857, 30.4375, 30.4375, 30.535713, 30.589287, 30.5, 30.25, 30.25, 30.1875, 30.125, 30.125, 30.125, 30.125, 29.919643, 29.541666, 29.258928, 29, 29, 29.0625, 29.25, 29.190477, 28.625, 28.428572, 28.25, 28.1875, 28.0625, 27.991072, 27.973213, 27.875, 27.892857, 27.75, 27.625, 27.5, 27.375, 27.5625, 27.619049, 27.638887, -10, -10, -10, -10, -10, -10, -10, -10, -10, -10, -10, -10, 40.5, 40.805553, 41.083332, 41.434525, 41.625, 41.75, 41.375, 41.416668, 41.660713, 41.67857, 41.642857, 41.267857, 41.125, 41.1875, 41.25, 41.375, 41.4375, 41.375, 41.375, 41.303574, 41.238094, 41.470238, 41.354168, 41.169643, 40.734692, 40.545918, 40.5051, 40.525513, 40.617344, 40.845242, 41.195576, 41.2449, 41.163265, 41.07143, 40.540813, 40.728573, 41.053574, 41.075893, 41, 41.125, 40.95089, 40.867348, 41.081635, 41.015308, 40.982143, 40.767857, 40.487499, 40.419643, 40.1875, 40.116074, 39.666668, 39.383926, 39.1875, 39.0625, 39, 38.875, 38.571426, 38.267857, 38.169643, 37.895832, 37.541668, 37.258926, 37.125, 37.1875, 37.098213, 36.883926, 36.425594, 36.205357, 35.912949, 35.489582, 35.15625, 34.78125, 34.734375, 34.625, 34.4375, 34.008926, 33.364582, 32.883926, 32.419643, 31.619047, 29.413691, 28.792858, 17.333334, 17.583334, 17.5625, 17.375, 17.3125, 17.125, 17, 17, 16.875, 16.6875, 16.625, 16.5, 16.4375, 16.4375, 16.25, 16.125, 15.96875, 15.6875, 15.4375, 15.151786, 15.111607, 15.294643, 15.428572, 15.491072, 15.354167, 15.330357, 15.1875, 14.934525, 14.75, 14.857143, 14.8125, 14.6875, 14.5625, 14.285714, 14.4375, 14.34375, 14.125, 13.875, 13.8125, 13.571428, 13.52381, 13.625, 13.729167, 13.919643, 13.857143, 14.238095, 13.866072, 13.773809, 13.663264, 13.663264, 13.581633, 13.821428, 13.6875, 13.8125, 13.875, 14.071428, 14.285714, 14.261905, 14.669643, 14.678572, 14.75, 14.669643, 14.352041, 14.183673, 13.744898, 13.642857, 13.520833, 13.645833, 13.988095, 13.833334, 13.761905, 13.836734, 13.877551, 13.964286, 13.892858, 13.75, 13.785714, 13.897959, 13.883928, 14.571428, 14.765306, 15, 15.107142, 14.875, 14.901786, 15.044643, 15.364797, 15.464286, 15.1875, 15.0625, 14.875, 14.8125, 14.875, 14.9375, 15.0625, 15.125, 15.125, 15.035714, 14.767857, 14.633928, 14.5625, 14.5625, 14.87245, 15.042857, 14.892858, 14.758928, 14.625, 14.6875, 14.6875, 14.6875, 14.75, 14.625, 14.678572, 14.535714, 14.357142, 14.224489, 14.232143, 14.303572, 14.3125, 14.375, 14.392857, 14.880952, 15.108844, 15.583333, 15.583333, 15.5, 15.607143, 16.5, -10, -10, -10, -10, -10, -10, -10, 32, 32, 32, 32.125, 32.25, 32.464287, 32.794643, 32.928574, 33.151787, 33.419643, 33.58036, 33.8125, 33.9375, 34.321426, 34.833332, 35.151787, 35.25, 35.25, 35.125, 35.0625, 35.1875, 35.3125, 35.4375, 35.625, 35.75, 35.8125, 35.875, 35.9375, 35.875, 35.9375, 36.1875, 36.133926, 36.151787, 36.375, 36.526787, 36.8125, 37, 37, 37, 37.125, 37.25, 37.473213, 37.71875, 37.919643, 38.1875, 38.379463, 38.5, 38.834824, 39.013393, 39.1875, 39.1875, 39.0625, 38.794643, 38.8125, 38.8125, 38.9375, 39.0625, 39, 39.209824, 39.77232, 39.866074, 40.1875, 40.09375, 40.3125, 40.5625, 40.8125, 41.1875, 41.388889, -10, -10, -10, -10, -10, -10, -10, -10, -10, -10, -10, -10, -10, -10, -10, -10, -10, -10, -10, -10, -10, -10, -10, -10, -10, 31.5, 31.5, 31.375, 31.3125, 31.375, 31.3125, 31.4375, 31.625, 31.5625, 31.625, 31.625, 31.4375, 31.267857, 31.1875, 31.1875, 31.1875, 30.982143, 30.642857, 30.6875, 30.660713, 30.8125, 30.875, 30.625, 30.4375, 30.375, 30.3125, 30.25, 30.1875, 30.125, 30.125, 29.919643, 29.541666, 29.258928, 29, 29, 28.9375, 29.0625, 28.958334, 28.520834, 28.419643, 28.25, 28.1875, 28.125, 28.026787, 27.9375, 27.9375, 27.9375, 27.875, 27.8125, 27.6875, 27.625, 27.8125, 27.889881, -10, -10, -10, -10, -10, -10, -10, -10, -10, -10, -10, -10, 41.666668, 41.200001, 41.261902, 41.517857, 41.854591, 42.05357, 42.160713, 42.714287, 42.714287, 42.714287, 42.607143, 42.3125, 42.080357, 41.8125, 41.8125, 41.875, 41.9375, 42.0625, 42.0625, 42.0625, 42.2449, 42.095238, 42.081635, 41.982143, 41.808674, 41.538265, 41.165176, 41.160713, 41.21875, 41.40625, 41.65625, 41.933037, 42.488094, 42.377552, 42.234692, 42.42857, 42.455952, 41.867348, 41.553574, 41.40625, 41.53125, 41.48214, 41.196426, 41.459187, 41.125, 41.169643, 41.160713, 41.1875, 41.0625, 41.0625, 40.866074, 40.226192, 39.938774, 40, 39.875, 39.6875, 39.383926, 38.964287, 38.625, 38.544643, 38.333332, 37.979168, 37.758926, 37.625, 37.625, 37.473213, 37.205357, 36.883926, 36.625, 36.279018, 35.59375, 35.15625, 34.84375, 34.921875, 35, 34.9375, 34.571426, 33.811012, 33.071426, 32.42857, 31.653061, 29.520834, 29.042858, 29, 17.6, 17.75, 17.625, 17.5625, 17.25, 17.0625, 17, 16.875, 16.625, 16.5, 16.375, 16.375, 16.5625, 16.5, 16.339287, 16.21875, 15.9375, 15.875, 15.6875, 15.736607, 15.982143, 16.053572, 16.205357, 15.935374, 15.901361, 15.619048, 15.470238, 15.666667, 15.37245, 15.25, 15.178572, 15.107142, 15.25, 14.9375, 14.84375, 14.625, 14.4375, 14.678572, 15.163692, 15.222222, 14.285714, 14.404762, 14.8125, 14.357143, 14.428572, 14.616072, 14.904761, 15.470238, 15.505952, 15.315475, 14.883928, 14.428572, 14.607142, 14.75, 14.908164, 16.333334, 16.291666, 15.633928, 15.407738, 15.375, 15.484694, 15.809524, 15.940475, 15.744048, 14.50255, 14.470238, 14.666666, 15.083333, 14.654762, 14.619048, 14.714286, 14.714286, 15.0625, 14.642858, 14.75, 14.928572, 15.040816, 15.178572, 15.571428, 15.801021, 16, 16.142857, 15.90625, 15.933036, 16.013393, 16.053572, 16.0625, 16.214285, 16.25, 16.107143, 15.8125, 15.875, 15.875, 15.75, 15.857142, 16.125, 16.035713, 15.448979, 15.295918, 15.285714, 15.357142, 15.551021, 16.0375, 15.803572, 15.867347, 15.642858, 15.571428, 15.642858, 15.714286, 15.857142, 15.857142, 15.821428, 15.714286, 15.535714, 15.387755, 15.433673, 15.125, 15.125, 15.125, 15.205357, 15.520833, 15.803572, 15.875, 15.9375, 16, 16.107143, 16.666666, -10, -10, -10, -10, -10, -10, -10, 32, 32, 32.03125, 32.15625, 32.21875, 32.433037, 32.794643, 32.866074, 32.857143, 33.086311, 33.449402, 33.741074, 34.0625, 34.383926, 34.895832, 35.214287, 35.3125, 35.375, 35.3125, 35.375, 35.5, 35.5625, 35.625, 35.6875, 35.75, 35.875, 36, 36.0625, 35.9375, 35.9375, 36.1875, 36.23214, 36.339287, 36.5625, 36.607143, 36.875, 36.9375, 36.9375, 36.9375, 37, 37.0625, 37.1875, 37.40625, 37.638393, 37.96875, 38.3125, 38.59375, 38.84375, 39.15625, 39.3125, 39.3125, 39.1875, 38.857143, 38.8125
31.678572, 31.375, 31.205357, 31.0625, 31.1875, 31.1875, 30.982143, 30.642857, 30.6875, 30.660713, 30.8125, 30.8125, 30.5, 30.3125, 30.1875, 30.125, 30.0625, 29.9375, 29.875, 29.9375, 29.794643, 29.479166, 29.258928, 29, 29, 28.875, 28.875, 28.75, 28.5625, 28.5625, 28.428572, 28.1875, 28.125, 27.964287, 27.9375, 27.9375, 27.9375, 27.875, 27.875, 27.8125, 27.8125, 27.958334, 27.805557, -10, -10, -10, -10, -10, -10, -10, -10, -10, -10, -10, -10, 43.299999, 42.916668, 43.194443, 43.333332, 43.654766, 43.791668, 43.791668, 43.642857, 43.5, 43.25, 43.125, 43, 42.830357, 42.625, 42.5625, 42.5625, 42.5625, 42.625, 42.625, 42.625, 42.75, 42.75, 42.732143, 42.612499, 42.494045, 41.964287, 41.863094, 42.041668, 42.09375, 42.21875, 42.424107, 42.700893, 43.095833, 43.091835, 43.07653, 43.010201, 42.926533, 42.214287, 41.928574, 41.65625, 41.75, 41.785713, 41.705357, 41.799107, 41.6875, 41.5625, 41.473213, 41.4375, 41.5, 41.5, 41.357143, 41.416668, 41.166668, 40.892857, 40.75, 40.25, 39.767857, 39.169643, 38.8125, 38.763393, 38.677082, 38.447918, 38.227676, 38.125, 38.125, 37.973213, 37.642857, 37.214287, 36.9375, 36.575893, 35.830357, 35.125, 34.794643, 34.84375, 35.0625, 35.125, 34.92857, 34.177082, 33.383926, 32.035713, 30.960318, 29.830357, 29.342857, 17, 17.533335, 17.8125, 17.75, 17.75, 17.4375, 17.3125, 17.3125, 17.25, 17.0625, 16.9375, 16.75, 16.75, 16.9375, 16.9375, 16.839287, 16.71875, 16.46875, 16.53125, 16.607143, 16.734694, 17.12245, 17.204082, 17.306122, 17.557539, 17.442461, 17.027779, 16.554422, 16.15476, 15.825893, 15.765625, 15.870536, 15.828125, 15.8125, 16.071428, 16.053572, 15.696429, 15.625, 15.791667, 16.080359, 16.333334, 16.208334, 16.194445, 16.010204, 15.086736, 15.239797, 15.678572, 15.952382, 16.224489, 16.290815, 16.270407, 16.336735, 16.5, 16.666666, 16.625, 16.779762, 17.142857, 17.071428, 16.760204, 16.220238, 16.125, 16.232143, 16.666668, 16.603741, 16.790817, 16.498016, 16.454365, 16.537697, 16.309523, 16.444445, 16.527779, 16.583334, 16.583334, 16.464285, 16.458334, 16.142857, 16.071428, 16.163265, 16.321428, 16.375, 16.607143, 16.8125, 17.178572, 17.25, 17.301022, 17.239796, 17.022322, 17.03125, 16.96875, 17.178572, 17.035715, 16.928572, 16.928572, 16.857143, 17.166666, 17.291666, 17.214285, 17.255102, 17.386904, 17.380953, 17.333334, 17.25, 17.363096, 17.364286, 17.168367, 16.821428, 16.821428, 16.678572, 16.75, 16.821428, 16.928572, 16.964285, 16.821428, 16.75, 16.607143, 16.494898, 16.505102, 16.42347, 16.551022, 16.452381, 16.059523, 16.217262, 16.366072, 16.4375, 16.5625, 16.75, 16.982143, 17.166666, -10, -10, -10, -10, -10, -10, -10, 32, 32, 32.03125, 32.09375, 32.15625, 32.370537, 32.669643, 32.803574, 32.705357, 32.800598, 33.270832, 33.491074, 33.9375, 34.25, 34.669643, 34.973213, 35.0625, 35.1875, 35.25, 35.4375, 35.6875, 35.8125, 35.875, 35.9375, 35.9375, 36.0625, 36.125, 36.125, 36, 36, 36.1875, 36.258926, 36.5, 36.625, 36.6875, 36.9375, 36.9375, 36.9375, 36.9375, 36.9375, 37, 37.0625, 37.1875, 37.450893, 37.71875, 38.125, 38.5, 38.78125, 39.09375, 39.1875, 39.1875, 39.0625, 38.794643, 38.8125, 38.8125, 39, 39.25, 39.3125, 39.669643, 40.169643, 40.09375, 40.34375, 40.09375, 40.3125, 40.5, 40.625, 40.833332, -10, -10, -10, -10, -10, -10, -10, -10, -10, -10, -10, -10, -10, -10, -10, -10, -10, -10, -10, -10, -10, -10, -10, -10, -10, -10, 31.5, 31.5, 31.5, 31.4375, 31.4375, 31.4375, 31.5, 31.6875, 31.8125, 31.9375, 31.794643, 31.291666, 31.098213, 30.9375, 31.125, 31.1875, 31.044643, 30.767857, 30.75, 30.660713, 30.6875, 30.5625, 30.3125, 30.1875, 30.125, 30.0625, 30, 29.8125, 29.6875, 29.75, 29.625, 29.5625, 29.375, 29.125, 29.0625, 28.875, 28.875, 28.8125, 28.625, 28.5625, 28.366072, 28, 27.9375, 27.839287, 27.875, 27.9375, 27.9375, 27.9375, 27.9375, 27.875, 28, 28.104168, -10, -10, -10, -10, -10, -10, -10, -10, -10, -10, -10, 44, 44, 43.5, 43.714287, 43.976189, 44.107143, 44.42857, 44.5, 44.464287, 44.25, 44, 43.8125, 43.625, 43.5, 43.4375, 43.3125, 43.25, 43.1875, 43.1875, 43.3125, 43.375, 43.4375, 43.5, 43.4375, 43.419643, 43.174999, 43.083332, 42.438774, 42.666668, 43.226192, 43.375, 43.410713, 43.174107, 43.35268, 43.783333, 43.696426, 43.785713, 43.651787, 43.185715, 42.642857, 42.366074, 42.263393, 42.142857, 42.223213, 41.910713, 41.924107, 41.8125, 41.8125, 41.955357, 42, 41.9375, 41.9375, 41.75, 41.625, 41.4375, 41.375, 41.21875, 40.84375, 40.361607, 39.816963, 39.4375, 39.28125, 39.21875, 39.21875, 39.049107, 38.625, 38.419643, 38.1875, 37.9375, 37.517857, 37.25, 36.857143, 36.205357, 35.464287, 34.773811, 34.75, 35.083332, 35.232143, 35.133926, 34.279762, 33.363094, 32.420635, 30.898808, 29.976191, 29.523809, 17.333334, 17.731251, 18.09375, 18.15625, 18.28125, 18.125, 18, 18, 18, 17.8125, 17.625, 17.267857, 17.25, 17.4375, 17.5625, 17.589287, 17.53125, 17.660715, 17.803572, 17.767857, 17.795918, 17.989796, 17.866072, 17.892857, 18.156462, 17.986393, 17.666668, 17.339285, 16.797619, 16.642857, 16.553572, 16.933037, 16.953125, 17.0625, 17, 17.214285, 17.559525, 17.625, 17.791666, 17.863096, 17.59524, 17.357143, 17.238096, 17.163265, 16.904762, 16.952381, 16.954082, 16.75, 17, 17.098213, 17.438776, 17.581633, 17.571428, 17.571428, 17.428572, 17.489796, 17.6875, 17.5625, 17.438776, 17.078232, 17.107143, 17.232143, 17.458334, 17.510416, 17.745535, 17.630953, 17.603741, 17.639454, 17.547619, 17.523809, 17.59524, 17.642857, 17.642857, 17.678572, 17.428572, 17.357143, 17.25, 17.285715, 17.464285, 17.375, 17.714285, 17.964285, 18.196428, 18.339285, 18.410715, 18.303572, 18.214285, 18.178572, 17.96875, 17.96875, 17.8125, 17.75, 18.142857, 18.130953, 17.916668, 17.988096, 18.107143, 18.163265, 18.224489, 18.183674, 18.142857, 18.142857, 18.275511, 18.414286, 18.275511, 18.040815, 17.928572, 17.928572, 18.071428, 17.984694, 17.758928, 17.75, 17.625, 17.5625, 17.4375, 17.566326, 17.612246, 17.566326, 17.729593, 17.59524, 17.166666, 17.133928, 16.964285, 17.3125, 17.678572, 17.857143, 17.989796, 18.09524, -10, -10, -10, -10, -10, -10, -10, 32, 32, 32.03125, 32.09375, 32.15625, 32.308037, 32.544643, 32.616074, 32.517857, 32.738098, 33.315475, 33.553574, 34, 34.1875, 34.482143, 34.75, 34.875, 35.0625, 35.3125, 35.5625, 35.8125, 35.9375, 36, 36, 36, 36.125, 36.125, 36.125, 36, 36, 36.125, 36.258926, 36.5625, 36.6875, 36.8125, 37, 36.9375, 36.9375, 36.9375, 36.9375, 37.0625, 37.125, 37.1875, 37.34375, 37.53125, 37.875, 38.25, 38.59375, 38.90625, 39, 39.0625, 39, 38.830357, 38.875
31.794643, 31.291666, 31.160713, 30.9375, 31, 31.125, 31.044643, 30.875, 30.875, 30.723213, 30.6875, 30.4375, 30.1875, 30.125, 30.0625, 30.0625, 30, 29.875, 29.75, 29.8125, 29.75, 29.625, 29.4375, 29.1875, 29.0625, 28.9375, 28.9375, 28.875, 28.6875, 28.625, 28.366072, 28, 28, 27.875, 27.9375, 28, 27.875, 27.8125, 27.8125, 27.875, 28.174999, 28.305557, -10, -10, -10, -10, -10, -10, -10, -10, -10, -10, -10, 44.416668, 44.444443, 44.375, 44.5, 44.59375, 44.65625, 44.90625, 44.96875, 44.90625, 44.875, 44.5625, 44.4375, 44.375, 44.25, 44.1875, 44.142857, 44.137501, 44.008926, 44.008926, 44, 44, 44, 44, 44, 44.158165, 43.904083, 43.607143, 43.309525, 43.272106, 43.964287, 44.239799, 44.32143, 44.163265, 44.193878, 44.345833, 44.196426, 44.223213, 44.017857, 43.392857, 42.857143, 42.651787, 42.700893, 42.969387, 42.75, 42.580357, 42.46875, 42.3125, 42.1875, 42.267857, 42.4375, 42.5, 42.625, 42.5, 42.3125, 42.0625, 41.9375, 41.65625, 41.34375, 40.861607, 40.254463, 39.892857, 39.78125, 39.71875, 40, 39.683037, 38.895832, 38.589287, 38.25, 37.9375, 37.455357, 37.080357, 36.803574, 36.559525, 36.071426, 35.372025, 35, 35.108334, 35, 34.919643, 34.057823, 33.047619, 30.965986, 30.077379, 29.472788, 18, 18.489796, 18.454762, 18.719387, 18.75, 19.15625, 19.142857, 19.035715, 19, 19, 18.892857, 18.857143, 18.62755, 18.333334, 18.178572, 18.5, 18.653061, 18.642857, 18.678572, 18.857143, 18.785715, 18.5625, 18.5625, 18.5, 18.526787, 18.741072, 18.666666, 18.395834, 18.276785, 18.361111, 18.163691, 17.96875, 18.012754, 18.035715, 18.285715, 18.25, 18.285715, 18.443878, 18.535715, 18.714285, 18.775511, 18.607143, 18.5, 18.1875, 18.224489, 18, 17.928572, 17.989796, 17.580357, 17.6875, 17.75, 18, 18.223213, 18.1875, 18.125, 17.9375, 17.9375, 18.125, 18.169643, 18.116072, 17.779167, 17.928572, 18.326529, 18.523809, 18.458332, 18.602678, 18.552084, 18.549107, 18.517857, 18.4375, 18.4375, 18.714285, 18.714285, 18.714285, 18.785715, 18.375, 18.464285, 18.285715, 18.285715, 18.428572, 18.535715, 18.785715, 19.035715, 19.285715, 19.25, 19.3125, 19.5, 19.428572, 19.392857, 19.357143, 19.25, 18.9375, 18.9375, 19.357143, 19.380953, 18.666668, 18.738096, 19, 18.9375, 19, 19.178572, 19, 19.25, 19.205357, 19.125, 19.053572, 19.142857, 19.071428, 19.107143, 19.214285, 19.020407, 18.938776, 18.6875, 18.5, 18.4375, 18.5, 18.408163, 18.285713, 18.530613, 18.693878, 18.666668, 18.511904, 18.443878, 18.791666, 18.607143, 18.642857, 18.785715, 18.857143, 19, -10, -10, -10, -10, -10, -10, -10, 32, 32, 32.03125, 32.15625, 32.34375, 32.46875, 32.5625, 32.5, 32.330357, 32.604164, 33.482143, 33.723213, 34.0625, 34.125, 34.294643, 34.5625, 34.75, 34.9375, 35.25, 35.5, 35.75, 35.9375, 36, 35.9375, 35.9375, 36.0625, 36.0625, 36.125, 36.0625, 36.125, 36.25, 36.410713, 36.6875, 36.75, 36.875, 37, 36.9375, 36.9375, 36.9375, 37.008926, 37.3125, 37.375, 37.5, 37.59375, 37.71875, 38.03125, 38.34375, 38.625, 38.875, 38.9375, 39, 39, 38.9375, 38.964287, 39.169643, 39.366074, 39.5625, 39.625, 39.892857, 40.098213, 40.232143, 40.294643, 39.854168, 40.005951, 40.306549, 40.5, 40.949406, 41.849998, -10, -10, -10, -10, -10, -10, -10, -10, -10, -10, -10, -10, -10, -10, -10, -10, -10, -10, -10, -10, -10, -10, -10, -10, -10, 31.625, 31.666666, 31.6875, 31.625, 31.5, 31.375, 31.25, 31.3125, 31.375, 31.5625, 31.607143, 31.166666, 31.142857, 30.9375, 30.9375, 31, 30.9375, 30.875, 30.8125, 30.625, 30.5, 30.25, 30.0625, 30, 29.9375, 29.9375, 29.875, 29.875, 29.785713, 29.776787, 29.8125, 29.625, 29.5, 29.25, 29.0625, 29, 29, 29, 28.875, 28.8125, 28.616072, 28.1875, 28.125, 27.9375, 27.9375, 27.9375, 27.8125, 27.6875, 27.696428, 27.9375, 28.233332, -10, -10, -10, -10, -10, -10, -10, -10, -10, -10, -10, -10, 44.625, 44.708332, 44.78125, 44.96875, 45.15625, 45.1875, 45.375, 45.3125, 45.125, 45.0625, 44.75, 44.75, 44.964287, 44.964287, 44.875, 44.892857, 45.049999, 44.633926, 44.760201, 44.5, 44.4375, 44.5, 44.5, 44.5625, 44.607143, 44.478573, 44.107143, 43.734692, 43.87925, 44.6875, 44.82143, 44.8125, 44.580357, 44.580357, 44.637501, 44.508926, 44.580357, 44.330357, 43.732143, 43.276787, 43.080357, 43.497448, 43.612244, 43.57143, 43.413265, 43.03125, 42.875, 42.8125, 42.8125, 42.875, 43, 43, 42.9375, 42.6875, 42.375, 42.142857, 41.78125, 41.46875, 41.102676, 40.549107, 40.267857, 40.15625, 39.96875, 40.03125, 39.808037, 38.895832, 38.589287, 38.1875, 37.8125, 37.392857, 37.017857, 36.875, 36.955357, 37.010201, 36.340137, 35.3125, 34.941666, 34.473213, 34.325893, 32.777775, 31.494446, 30.299318, 29.268707, 28.150793, 27.271429, 24.371429, 21.581192, 21.26885, 20.741072, 20.357143, 20.214285, 20.071428, 19.8125, 19.75, 19.6875, 19.964285, 19.806122, 20.083334, 20.083334, 19.714285, 19.464287, 19.375, 19.375, 19.5, 19.375, 19.375, 19.3125, 19.125, 19.026787, 19, 18.9375, 18.9375, 19.244898, 19.238096, 19.265306, 18.90625, 19.058037, 19.042412, 19.464285, 19.392857, 19.3125, 19.265306, 19.392857, 19.803572, 19.541666, 19.258928, 19.285715, 19.178572, 19.178572, 19.147959, 18.913265, 18.5625, 18.258928, 18.520834, 18.607143, 18.678572, 19.160713, 18.892857, 18.724489, 18.375, 18.241072, 18.375, 18.723215, 18.901787, 18.924999, 19.116072, 19.267857, 19.547619, 19.452381, 19.446428, 19.547619, 19.510204, 19.510204, 19.5, 19.392857, 19.3125, 19.3125, 19.3125, 19.4375, 19.464285, 19.392857, 19.214285, 19.142857, 19.125, 19.464285, 19.714285, 19.964285, 20.214285, 20.392857, 20.5, 20.5, 20.410715, 20.375, 20.267857, 20.160715, 20.071428, 20.071428, 20.25, 20.273809, 20.263889, 20.347223, 20.107143, 19.875, 19.9375, 20.116072, 20.666666, 20.535715, 20.24107, 20.089287, 20.0625, 19.9375, 20.071428, 20.035715, 20.107143, 19.913265, 19.831633, 19.821428, 19.678572, 19.607143, 19.3125, 19.25, 19.25, 19.339287, 19.482143, 19.520834, 19.666668, 19.653061, 19.75, 19.714285, 19.678572, 19.5625, 19.625, 19.75, -10, -10, -10, 25.266668, -10, -10, -10, 32, 32, 32, 32.125, 32.375, 32.419643, 32.229164, 32.071426, 32.008926, 32.604164, 33.541668, 33.830357, 34.0625, 34.0625, 34.169643, 34.4375, 34.6875, 34.875, 35.125, 35.25, 35.4375, 35.6875, 35.8125, 35.8125, 35.875, 35.9375, 35.9375, 36.0625, 36.0625, 36.25, 36.375, 36.5625, 36.8125, 36.8125, 36.9375, 37, 37, 37.0625, 37.0625, 37.133926, 37.375, 37.4375, 37.6875, 37.919643, 38.0625, 38.3125, 38.5, 38.6875, 38.875, 38.9375, 39, 39, 38.9375, 38.964287
31.366072, 31.166666, 31.142857, 30.9375, 30.8125, 30.8125, 30.75, 30.75, 30.6875, 30.5625, 30.375, 30.125, 30, 29.9375, 29.9375, 29.9375, 29.9375, 30, 29.973213, 29.964287, 30, 29.8125, 29.625, 29.375, 29.125, 29, 29, 29, 28.875, 28.75, 28.5625, 28.25, 28.125, 28, 27.9375, 27.875, 27.75, 27.6875, 27.803572, 28.104166, -10, -10, -10, -10, -10, -10, -10, -10, -10, -10, -10, -10, -10, 44.9375, 45.083332, 45.1875, 45.375, 45.59375, 45.625, 45.75, 45.625, 45.375, 45.25, 45.0625, 45.1875, 45.375, 45.575001, 45.653057, 45.591835, 45.514286, 45.071426, 45.080353, 45.1875, 45.125, 45.25, 45.125, 45.1875, 45.1875, 45.116074, 45.023811, 44.969387, 45.112244, 45.145832, 45.25893, 45.375, 45.3125, 45.3125, 45.25, 45.080357, 45, 44.767857, 44.169643, 43.75893, 43.642857, 43.857143, 43.973213, 43.9375, 43.767857, 43.5625, 43.375, 43.3125, 43.3125, 43.375, 43.5, 43.5, 43.375, 43, 42.508926, 42.169643, 41.78125, 41.53125, 41.34375, 40.84375, 40.517857, 40.375, 40.0625, 40.0625, 39.901787, 38.931545, 38.482143, 38, 37.625, 37.3125, 36.892857, 36.75, 36.9375, 37.071426, 36.683674, 35.541668, 34.608334, 33.67347, 33.336735, 32.207481, 30.995239, 29.214285, 28.428572, 27.619047, 26.976191, 26.559525, 24.433533, 22.468538, 21.696428, 21.267857, 21, 20.875, 20.75, 20.580357, 20.5, 20.75, 20.795918, 20.928572, 20.928572, 20.821428, 20.714285, 20.267857, 20.291666, 20.520834, 20.173468, 20.178572, 20, 19.75, 19.602041, 19.571428, 19.535715, 19.8125, 19.96875, 20.09375, 20.408163, 20.666666, 20.428572, 20.316328, 20.25, 20.357143, 20.464285, 20.791666, 20.916666, 20.846939, 20.416666, 20.196428, 20.125, 20.0625, 20.0625, 20.098213, 19.591837, 19.428572, 19.153061, 20.023809, 19.969389, 20.125, 20.071428, 20.208334, 20.232141, 18.982143, 18.806122, 19.041666, 19.366072, 19.780613, 19.878571, 20.204082, 20.346939, 20.464285, 20.3125, 20.34375, 20.28125, 20.21875, 20.21875, 20.25, 20.1875, 20.25, 20.035715, 20.285713, 20.267857, 20.0625, 19.875, 19.625, 19.5625, 19.979166, 20.276787, 20.625, 20.875, 21.125, 21.5, 21.571428, 21.5, 21.357143, 21.0625, 20.9375, 20.875, 20.75, 20.776787, 20.973213, 20.958334, 21.119049, 21.119049, 21.071428, 21.071428, 21.107143, 21.275511, 21.5, 21.607143, 21.418367, 21.2449, 21.142857, 20.892857, 20.821428, 20.625, 20.75, 20.75, 20.696428, 20.928572, 20.785715, 20.642857, 20.571428, 20.5, 20.428572, 20.428572, 20.357143, 20.357143, 20.428572, 20.540815, 20.5, 20.4375, 20.4375, 20.4375, 20.5, 20.708334, 21.666666, 22.119049, 23.666668, 24.453333, -10, -10, -10, 32, 32, 32, 32.1875, 32.4375, 32.419643, 32.229164, 32.089287, 32.12925, 32.889881, 33.666668, 33.955357, 34.0625, 34.0625, 34.0625, 34.321426, 34.6875, 34.875, 35.125, 35.1875, 35.3125, 35.4375, 35.526787, 35.5625, 35.732143, 35.8125, 35.875, 36, 35.9375, 36.0625, 36.205357, 36.583332, 36.866074, 36.9375, 37, 37, 37, 37.0625, 37.0625, 37.133926, 37.375, 37.4375, 37.6875, 37.928574, 38.270832, 38.491074, 38.6875, 38.84375, 39, 39.125, 39.125, 39.09375, 39.0625, 39.089287, 39.419643, 39.741074, 39.9375, 40.0625, 40.25, 40.375, 40.544643, 40.482143, 40.104168, 40.238094, 40.547619, 40.6875, 41.1875, 41.862499, -10, -10, -10, -10, -10, -10, -10, -10, -10, -10, -10, -10, -10, -10, -10, -10, -10, -10, -10, -10, -10, -10, -10, -10, -10, -10, 31.166666, 31.1875, 31.1875, 31.125, 31.125, 31.0625, 31, 31, 31.0625, 31.1875, 31.1875, 31.1875, 31, 30.75, 30.75, 30.6875, 30.75, 30.785713, 30.651787, 30.5625, 30.25, 30.125, 30, 29.9375, 30, 30, 30.125, 30.098213, 30.026787, 30.0625, 29.8125, 29.625, 29.375, 29.125, 29, 29, 29, 28.875, 28.8125, 28.625, 28.3125, 28.080357, 27.9375, 27.875, 27.8125, 27.75, 27.71875, 27.897322, 28.229166, -10, -10, -10, -10, -10, -10, -10, -10, -10, -10, -10, -10, -10, 44.794643, 45.416664, 45.723213, 45.9375, 46.09375, 46, 46, 45.848213, 45.455357, 45.354168, 45.375, 45.625, 46.0625, 46.325001, 46.089287, 46.035713, 45.950001, 45.821426, 45.767853, 45.712502, 45.892857, 45.854168, 45.666668, 45.633926, 45.4375, 45.366074, 45.041668, 44.883926, 45.2551, 45.270832, 45.38393, 45.5625, 45.6875, 45.6875, 45.625, 45.392857, 45.125, 44.9375, 44.607143, 44.205357, 44.017857, 44, 44.098213, 44.125, 44.125, 43.9375, 43.8125, 43.75, 43.6875, 43.75, 43.8125, 43.8125, 43.669643, 43.142857, 42.580353, 42.169643, 41.75, 41.5, 41.3125, 40.8125, 40.517857, 40.3125, 39.875, 39.75, 39.571426, 38.869045, 38.5, 38.0625, 37.6875, 37.375, 36.892857, 36.642857, 36.625, 36.732143, 36.514881, 35.470238, 33.990479, 33.183674, 32.729591, 31.8125, 30.725, 29.238094, 28.279762, 27.488094, 27.169643, 26.918367, 25.945578, 23.557825, 22.791666, 21.928572, 21.9375, 21.964285, 21.821428, 21.486607, 21.232143, 21.410715, 21.803572, 21.666666, 21.571428, 21.607143, 21.591837, 21.142857, 21.166666, 21.59524, 21.821428, 22.041666, 21.916666, 21.708334, 21.601191, 21.5, 21.375, 21.071428, 20.875, 20.8125, 21.132654, 21.25, 21.339285, 21.441328, 21.589285, 21.071428, 21.458334, 21.857143, 21.892857, 21.811224, 21.476191, 21.188776, 21.035715, 21.107143, 21.214285, 21.2551, 21.386904, 21.297619, 21.172619, 21.202381, 21.147961, 21.035715, 21.107143, 21.071428, 21.12755, 21, 20.982141, 19.90476, 20.311224, 20.459185, 20.674999, 20.803572, 20.883928, 21.145834, 21.241072, 21.34375, 21.28125, 21.21875, 21.21875, 21.25, 21.321428, 21.321428, 21.583334, 21.362244, 21.267857, 20.928572, 20.75, 20.464285, 20.357143, 20.726191, 21.4949, 21.821428, 22.071428, 22.321428, 22.428572, 22.5, 22.1875, 21.9375, 21.8125, 21.75, 21.785713, 21.8125, 21.901787, 21.973213, 21.714285, 22.125, 21.857143, 21.785715, 22.25, 22.214285, 21.991072, 22.125, 22.1875, 21.92857, 21.9949, 21.892857, 21.5, 21.4375, 21.375, 21.4375, 21.801022, 21.964285, 22.035715, 21.928572, 21.75, 21.571428, 21.464285, 21.321428, 21.285715, 21.0625, 21.125, 21, 21.348213, 21.4375, 21.3125, 21.566328, 21.729593, 21.882654, 22.142857, 23, 23.285715, 23.861113, 24.616667, -10, -10, -10, 32, 32, 32, 32.25, 32.5, 32.482143, 32.354164, 32.214287, 32.564629, 32.952381, 33.559525, 33.767857, 33.8125, 33.875, 33.9375, 34.258926, 34.6875, 34.875, 35.0625, 35.0625, 35.0625, 35.125, 35.214287, 35.25, 35.544643, 35.6875, 35.8125, 36, 35.9375, 36, 36.142857, 36.520832, 36.803574, 37, 37.125, 37.125, 37.125, 37.09375, 36.96875, 37.040176, 37.15625, 37.241074, 37.791668, 38.071426, 38.520832, 38.741074, 38.9375, 39.03125, 39.0625, 39.0625, 38.9375, 38.915176, 39.145832, 39.267857
31.0625, 31.0625, 31.0625, 30.875, 30.625, 30.625, 30.625, 30.708334, 30.494047, 30.392857, 30.25, 30.0625, 30, 29.875, 29.875, 29.9375, 30, 30.0625, 29.973213, 29.839287, 29.875, 29.75, 29.6875, 29.5, 29.25, 29.0625, 29, 29, 28.9375, 28.875, 28.6875, 28.375, 28.017857, 27.875, 27.8125, 27.75, 27.8125, 27.84375, 28.084822, 28.375, -10, -10, -10, -10, -10, -10, -10, -10, -10, -10, 43, 43.142857, 43.5, 44.482143, 45.208332, 45.473213, 45.8125, 46.125, 46.125, 46.1875, 46.098213, 45.705357, 45.684525, 45.8125, 45.916668, 46.553574, 46.744644, 46.589287, 46.455357, 46.25, 46.25, 46.125, 46.012501, 46.591835, 46.452385, 45.875, 45.74107, 45.4375, 45.5, 45.5, 45.4375, 45.5625, 45.5625, 45.580357, 45.75, 45.9375, 45.875, 45.6875, 45.357143, 45.125, 44.9375, 44.75, 44.5, 44.25, 44.125, 44.0625, 44.0625, 44.0625, 44, 43.875, 43.8125, 43.75, 43.6875, 43.6875, 43.6875, 43.482143, 43.017857, 42.517857, 42.107143, 41.75, 41.4375, 41.25, 40.75, 40.5625, 40.375, 39.9375, 39.6875, 39.321426, 38.80357, 38.455357, 38.03125, 37.65625, 37.34375, 36.90625, 36.517857, 36.3125, 35.892857, 35.595238, 34.970238, 33.666668, 33.026787, 32.522324, 31.916666, 30.867857, 29.748301, 28.636906, 27.863094, 27.526787, 27.1875, 26.473213, 25.289682, 23.816326, 23.386904, 23.081633, 23.121429, 22.736607, 22.913265, 23.041666, 23.166666, 22.882654, 22.479166, 22.383928, 22.375, 22.410713, 22.142857, 22.40476, 22.666668, 22.780611, 23, 22.928572, 22.714285, 22.693878, 22.607143, 22.464285, 22.083334, 21.714285, 21.678572, 21.928572, 22.066328, 22.197916, 22.464285, 22.535715, 22.875, 23.041666, 22.857143, 22.71875, 22.616072, 22.291666, 22.071428, 21.916666, 22.285715, 22.392857, 22.367346, 22.210205, 22.316328, 22.2449, 22.476192, 22.336735, 21.9375, 21.84375, 21.71875, 21.736607, 21.760204, 22.044218, 22.140875, 22.297621, 22.130953, 21.291666, 21.160713, 21.142857, 21.502975, 22.108843, 22.239796, 22.209185, 22.107143, 22.178572, 22.357143, 22.321428, 22.321428, 22.392857, 22.362244, 22.448978, 22.833334, 22.833334, 22.708334, 22.583334, 22.652779, 22.602041, 22.892857, 23.071428, 23.321428, 23.357143, 23.125, 23, 22.75, 22.6875, 22.928572, 23.040815, 23, 23.102041, 23.183672, 23.416666, 23.392857, 23.583334, 23.583334, 23.392857, 23.1875, 22.785715, 22.892857, 22.928572, 22.744049, 22.642857, 22.5625, 22.482143, 22.178572, 22.375, 22.416666, 22.943878, 23.107143, 23.142857, 23.071428, 22.928572, 22.5, 22.375, 22.25, 22.1875, 22.25, 22.3125, 22.833334, 22.642857, 22.571428, 22.1875, 22.294643, 22.765306, 22.918367, 23.285715, 23.428572, 23.775511, 24.270834, 24.616667, -10, -10, -10, 31.583334, 31.821428, 32, 32.1875, 32.375, 32.357143, 32.291664, 32.276787, 32.529762, 32.992561, 33.174107, 33.339287, 33.508926, 33.741074, 33.9375, 34.196426, 34.625, 34.8125, 35.0625, 35.125, 35, 34.964287, 34.964287, 35, 35.357143, 35.5, 35.6875, 35.875, 35.875, 35.9375, 36.017857, 36.395832, 36.678574, 36.9375, 37.125, 37.0625, 37, 36.84375, 36.59375, 36.59375, 36.620537, 37.116074, 37.800594, 38.258926, 38.708332, 38.928574, 39.0625, 39.03125, 38.9375, 38.8125, 38.696426, 38.936012, 39.324406, 39.553574, 39.75, 40, 40.25, 40.5, 40.616074, 40.549999, 40.678574, 40.616074, 40.6875, 40.857143, 40.928574, 41.0625, 41.383926, 41.904167, -10, -10, -10, -10, -10, -10, -10, -10, -10, -10, -10, -10, -10, -10, -10, -10, -10, -10, -10, -10, -10, -10, -10, -10, -10, -10, -10, 31, 31, 31, 31.1875, 31.1875, 31.125, 31.125, 30.9375, 30.9375, 31, 31, 30.8125, 30.517857, 30.517857, 30.708334, 30.75, 30.244047, 30.0625, 29.875, 29.75, 29.8125, 29.75, 29.8125, 29.9375, 30, 30, 29.9375, 29.8125, 29.839287, 29.910713, 29.75, 29.580357, 29.3125, 29.0625, 29, 29, 28.875, 28.75, 28.5, 28.1875, 27.892857, 27.8125, 27.75, 27.6875, 27.8125, 27.90625, 28.200893, 28.375, -10, -10, -10, -10, -10, -10, -10, -10, -10, 43, 43, 43.228573, 43.666668, 44.169643, 44.895832, 45.066963, 45.375, 45.65625, 45.71875, 45.90625, 45.973213, 45.767857, 45.943451, 46.395832, 46.604168, 47.303574, 47.557144, 47.17347, 47.056122, 46.795918, 46.895832, 46.666664, 46.414288, 46.830357, 46.583336, 46.125, 45.80357, 45.4375, 45.375, 45.3125, 45.1875, 45.3125, 45.4375, 45.625, 45.875, 46.0625, 45.9375, 45.6875, 45.294643, 45.0625, 44.9375, 44.8125, 44.625, 44.4375, 44.1875, 44.0625, 44.0625, 44, 44, 43.875, 43.75, 43.625, 43.5, 43.4375, 43.4375, 43.232143, 42.758926, 42.205357, 41.964287, 41.625, 41.4375, 41.25, 40.8125, 40.6875, 40.5625, 40.178574, 39.729168, 39.258926, 38.74107, 38.392857, 37.96875, 37.65625, 37.28125, 36.84375, 36.455357, 36.071426, 35.4375, 35.044643, 34.470238, 33.520836, 33.17857, 32.741074, 32.166664, 31.535713, 30.795918, 29.952381, 28.517008, 27.922619, 27.526787, 26.919643, 26.180271, 24.930613, 24.367346, 24.036905, 24.240477, 24.117346, 24.045918, 23.892857, 23.964285, 23.882654, 23.619047, 23.510204, 23.375, 23.410713, 23.438776, 23.523809, 23.520834, 23.651785, 23.8125, 23.6875, 23.5625, 23.785715, 23.714285, 23.75, 23.916666, 23.833334, 23.833334, 23.875, 23.925596, 23.322916, 23.424107, 23.4375, 23.785715, 23.857143, 23.726191, 23.863096, 23.438776, 23.448978, 23.321428, 23.541666, 23.464285, 23.464285, 23.241072, 23.174999, 23.303572, 23.303572, 23.571428, 23.459183, 23.285715, 22.607143, 22.464285, 22.474489, 22.615177, 22.991072, 22.952381, 23.153061, 22.908163, 21.90476, 21.719387, 21.734694, 22.217686, 22.751699, 22.882654, 22.852041, 22.714285, 22.96875, 23.285715, 23.0625, 23.0625, 23.1875, 23.223213, 23.510204, 23.714285, 23.642857, 23.5, 23.357143, 23.380953, 23.443878, 23.53125, 23.65625, 23.928572, 24.035713, 23.9375, 23.875, 23.625, 23.821428, 23.928572, 24.112244, 24.178572, 24.336735, 24.37755, 24.357143, 24.392857, 24.357143, 24.428572, 24.464285, 24.5, 24.583334, 24.666666, 24.5, 23.645834, 23.311224, 23.5, 23.801022, 24, 24.041666, 24, 23.989796, 24.112244, 24.030613, 24.035715, 23.857143, 23.714285, 23.5, 23.321428, 23.285715, 23.392857, 23.571428, 23.714285, 23.75, 23.642857, 23.428572, 23.294643, 23.729593, 23.775511, 24.071428, 24.0625, 24.482143, 24.9375, 25.291668, 26.75, 27.541668, 28.440475, 31.333334, 31.714285, 32, 32.1875, 32.3125, 32.3125, 32.5, 32.580357, 32.895832, 33.075893, 32.96875, 33.053574, 33.404762, 33.678574, 33.9375, 34.071426, 34.4375, 34.625, 34.9375, 35.0625, 34.9375, 34.839287, 34.776787, 34.75, 35.044643, 35.241074, 35.666668, 35.875, 35.9375, 35.875, 35.892857, 36.208332, 36.491074, 36.8125, 37.0625, 37.03125, 36.9375, 36.625, 36.3125, 36.28125, 36.339287, 36.991074, 37.720238, 38.089287, 38.583332, 38.803574, 39, 39.03125, 39, 38.9375, 38.883926, 39.186012, 39.574406, 39.803574
31, 31.0625, 31.0625, 30.875, 30.535713, 30.517857, 30.645834, 30.625, 30.056547, 29.75, 29.357143, 29.4375, 29.5625, 29.625, 29.75, 30, 30.125, 30.125, 30, 29.776787, 29.776787, 29.848213, 29.8125, 29.642857, 29.4375, 29.1875, 29.0625, 29.0625, 28.8125, 28.6875, 28.4375, 28.125, 27.892857, 27.8125, 27.75, 27.75, 27.875, 27.90625, 28.09375, 28.208334, -10, -10, -10, -10, -10, -10, -10, -10, -10, -10, 42.75, 42.963097, 43.3125, 43.482143, 44.208332, 44.127552, 44.392857, 44.67857, 45.09375, 45.450893, 45.660713, 45.642857, 45.952377, 46.75, 47.050598, 47.803574, 48.193878, 48.559525, 48.720234, 48.583332, 47.690475, 47.345238, 46.789288, 47.080357, 46.614586, 46.089287, 45.74107, 45.375, 45.3125, 45.25, 45.125, 45.1875, 45.3125, 45.5, 45.6875, 45.875, 45.8125, 45.5625, 45.276787, 45.0625, 44.9375, 44.875, 44.6875, 44.5, 44.25, 44.0625, 44.0625, 44, 43.9375, 43.75, 43.5625, 43.3125, 43.1875, 43.125, 43.125, 43.044643, 42.625, 42.133926, 42, 41.625, 41.5, 41.25, 40.8125, 40.75, 40.6875, 40.348213, 39.770836, 39.133926, 38.526787, 37.958332, 37.611607, 37.34375, 37.03125, 36.78125, 36.455357, 36.05357, 35.291668, 34.866074, 34.357143, 33.729168, 33.571426, 33.116074, 32.604164, 32.098213, 31.571428, 31.068027, 30.15873, 28.316326, 27.797621, 27.276785, 26.857143, 25.725, 25.581633, 25.764284, 25.332312, 25.262754, 24.90625, 24.78125, 24.84375, 24.678572, 24.666666, 24.540815, 24.464285, 24.5, 24.5, 24.647959, 24.75, 24.790815, 24.625, 24.625, 24.625, 24.464285, 24.428572, 25.035715, 25, 24.946428, 24.875, 24.875, 24.882654, 24.636904, 24.716837, 24.53125, 24.625, 24.6875, 24.604166, 24.988096, 24.117346, 24.440475, 24.333334, 24.571428, 24.566328, 24.5, 24.418367, 24.307142, 24.311224, 24.234694, 24.357143, 24.326529, 24.357143, 24.5, 24.416666, 24.232141, 23.521427, 23.84375, 23.65625, 23.866072, 23.803572, 24.015871, 24.023809, 24.053572, 24.29365, 24.563492, 24.619049, 24.559525, 24.178572, 24, 24.0625, 24.125, 23.857143, 24.166666, 24.5, 24.375, 24.732143, 24.530611, 24.5, 24.357143, 24.196428, 24.125, 24.267857, 24.339285, 24.596939, 25.035713, 24.875, 25.035715, 24.892857, 24.964285, 25.142857, 25.306122, 25.357143, 25.464285, 25.392857, 25.1875, 25.1875, 25.1875, 25.25, 25.464285, 25.428572, 25.285715, 25.321428, 25.178572, 24.809525, 24.952383, 24.714285, 24.908163, 24.928572, 24.964285, 24.892857, 25, 24.821426, 24.607143, 24.642857, 24.4375, 24.607143, 24.5, 24.392857, 24.392857, 24.428572, 24.535715, 24.653061, 24.800001, 24.510204, 24.413265, 24.5, 24.6875, 24.507654, 24.734694, 24.875, 25.107143, 25.4375, 26.119049, 27.071428, 27.837303, 28.674601, 31.083334, 31.607141, 32, 32.125, 32.25, 32.25, 32.5, 32.625, 32.75, 32.96875, 32.84375, 32.928574, 33.351189, 33.741074, 33.9375, 34.0625, 34.1875, 34.4375, 34.75, 34.9375, 34.875, 34.839287, 34.8125, 34.75, 34.9375, 35.116074, 35.541668, 35.8125, 36, 36, 36.0625, 36.25, 36.5, 36.8125, 37.0625, 37.03125, 36.9375, 36.5625, 36.1875, 36.15625, 36.214287, 36.991074, 37.845238, 38.267857, 38.625, 38.8125, 38.9375, 38.9375, 38.9375, 38.9375, 39.008926, 39.404762, 39.761906, 39.928574, 40, 40.0625, 40.3125, 40.625, 40.776787, 40.737499, 40.991074, 40.991074, 41.125, 41.1875, 41.125, 41.321426, 41.729168, 41.955555, -10, -10, -10, -10, -10, -10, -10, -10, -10, -10, -10, -10, -10, -10, -10, -10, -10, -10, -10, -10, -10, -10, -10, -10, -10, -10, -10, 31.166666, 31.25, 31.166666, 31.553572, 31.491072, 31.4375, 31.392857, 31.3125, 31.178572, 31.166666, 31.125, 30.8125, 30.598213, 30.455357, 30.458334, 30.267857, 29.583334, 29.285715, 29.0625, 29.0625, 29.25, 29.375, 29.5625, 29.892857, 30.208334, 30.303572, 30.178572, 29.693451, 29.669643, 29.723213, 29.8125, 29.767857, 29.5625, 29.3125, 29.125, 29.0625, 28.875, 28.75, 28.5, 28.25, 28.0625, 27.9375, 27.875, 27.8125, 27.875, 27.875, 28, 28.083334, 28, -10, -10, -10, -10, -10, -10, -10, -10, -10, 42.625, 42.879765, 43.1875, 43.25, 43.4375, 43.34375, 43.403057, 43.916664, 44.275513, 44.888393, 45.1875, 45.375, 45.785713, 46.6875, 47.166664, 47.970238, 48.586311, 48.964287, 49.32143, 49.035713, 47.958332, 47.416668, 46.889286, 46.84375, 46.432293, 45.985119, 45.669643, 45.375, 45.3125, 45.25, 45.125, 45.1875, 45.3125, 45.4375, 45.625, 45.75, 45.6875, 45.5, 45.276787, 45.1875, 45.0625, 45.0625, 44.8125, 44.5625, 44.3125, 44, 44, 43.875, 43.75, 43.5625, 43.3125, 43.0625, 42.9375, 42.90625, 42.84375, 42.866074, 42.690475, 42.133926, 42.071426, 41.6875, 41.5625, 41.3125, 40.875, 40.75, 40.6875, 40.348213, 39.770836, 39.133926, 38.526787, 37.895832, 37.441963, 37.15625, 36.78125, 36.59375, 36.375, 35.99107, 35.291668, 34.866074, 34.366074, 33.875, 33.714287, 33.375, 33.0625, 32.723213, 32.3125, 31.758928, 30.761904, 29.642859, 28.193453, 27.705357, 27.285715, 26.519047, 26.397959, 26.440815, 26.134523, 26.306122, 25.9375, 25.892857, 25.892857, 25.857143, 25.928572, 25.321428, 25.214285, 25.4375, 25.535715, 25.576529, 25.642857, 25.734694, 25.669643, 25.892857, 25.928572, 26.166666, 26.166666, 26.035715, 26, 26.071428, 25.9375, 25.9375, 25.928572, 25.880951, 25.795918, 25.714285, 25.678572, 25.714285, 25.619047, 25.880953, 25.880951, 26.095238, 26.083334, 25.714285, 25.428574, 25.3125, 25.459185, 25.52857, 24.954082, 24.913265, 25.035715, 25.160713, 25.357143, 25.285715, 25.214285, 25.056122, 24.697958, 24.549107, 24.299107, 24.761906, 24.857141, 25.156462, 25.163265, 25.107143, 25.132654, 25.309523, 25.387756, 25.408163, 25.321428, 25.357143, 25.357143, 25.5, 25.875, 25.833334, 25.642857, 25.607143, 25.801022, 26.029762, 26.083334, 26.041666, 25.958334, 25.895834, 26.0625, 26.145834, 26.369049, 26.326529, 26.107143, 26.107143, 26.035715, 26.142857, 26.25, 26.1875, 26.321428, 26.321428, 26, 25.901787, 25.973213, 26, 26.1875, 26.169643, 25.979166, 25.892857, 25.9375, 25.875, 25.904764, 25.887756, 25.75, 25.607143, 25.625, 25.6875, 25.794643, 25.875, 25.883926, 25.37245, 25.642857, 25.214285, 25.5, 25.375, 25.3125, 25.3125, 25.3125, 25.3125, 25.383928, 25.450001, 25.196428, 25.448978, 25.510204, 25.806122, 26.208334, 26.380951, 25.732143, 25.857143, 26.1875, 26.741072, 27.410715, 28.127977, 29.172619, 30.904762, 31.544641, 32, 32.0625, 32.1875, 32.25, 32.5, 32.6875, 32.875, 33.004463, 32.736607, 32.785713, 33.194939, 33.647324, 33.90625, 34, 34, 34.125, 34.375, 34.625, 34.794643, 34.901787, 34.9375, 34.8125, 34.839287, 34.928574, 35.354168, 35.6875, 35.9375, 36, 36.125, 36.223213, 36.375, 36.741074, 36.9375, 36.96875, 36.875, 36.59375, 36.28125, 36.3125, 36.433037, 37.1875, 37.74107, 38.0625, 38.375, 38.625, 38.8125, 38.875, 39.0625, 39.1875, 39.383926, 39.895832, 40.053574, 40.1875
31.303572, 31.291666, 31.125, 30.625, 30.535713, 30.4375, 30.342262, 29.892857, 29.375, 28.982143, 28.964287, 29.107143, 29.294643, 29.5, 29.625, 29.892857, 30.270834, 30.428572, 30.491072, 30.068451, 29.836309, 29.848213, 29.75, 29.705357, 29.5, 29.25, 29.125, 29.0625, 28.875, 28.75, 28.5, 28.25, 28.125, 28, 27.9375, 27.875, 27.875, 27.875, 27.9375, 28, 28, 28.125, -10, -10, -10, -10, -10, -10, -10, -10, 42.190472, 42.608334, 42.723213, 42.875, 42.607143, 42.464287, 42.790176, 43.239582, 43.647324, 44.075893, 44.375, 44.633926, 45.309525, 46.294643, 47.03125, 47.635418, 48.568027, 48.87347, 49.142857, 49.011906, 47.973957, 47.503719, 47.042412, 46.765625, 46.390625, 46.151787, 45.8125, 45.4375, 45.214287, 45.0625, 44.9375, 45, 45.0625, 45.125, 45.25, 45.4375, 45.607143, 45.544643, 45.3125, 45.25, 45.0625, 45.0625, 44.875, 44.625, 44.4375, 44.071426, 43.849998, 43.803574, 43.571426, 43.625, 43.1875, 43, 42.875, 42.78125, 42.71875, 42.803574, 42.601189, 41.892857, 41.75, 41.3125, 41.1875, 41, 40.6875, 40.5625, 40.4375, 40.098213, 39.520836, 39, 38.508926, 37.833332, 37.348213, 37.0625, 36.6875, 36.5625, 36.4375, 36.17857, 35.666668, 35.366074, 34.991074, 34.5, 34.068451, 33.758926, 33.5, 33.267857, 32.875, 32.366074, 31.395834, 30.333332, 28.672621, 28.125, 27.714287, 27.1, 27.0625, 27.1, 26.934523, 26.946428, 26.964285, 26.857143, 26.857143, 26.857143, 26.928572, 27.041666, 26.916666, 26.571428, 26.3125, 26.410713, 26.4375, 26.464287, 26.836735, 26.821428, 26.964285, 26.964285, 27.035715, 26.875, 26.875, 27.178572, 27.107143, 27, 26.964285, 26.6875, 26.625, 26.5625, 26.714285, 26.714285, 26.738096, 26.708334, 26.826532, 27.010204, 26.928572, 26.75, 26.428574, 26.535715, 26.535715, 26.678572, 26.666666, 26.559525, 26.5, 25.941963, 25.9375, 25.875, 25.875, 25.799107, 25.757143, 25.465773, 25.382654, 25.727892, 26, 26.311224, 26.285715, 26.03125, 25.96875, 25.9375, 26.0625, 26.1875, 26.392857, 26.5, 26.535715, 26.607143, 26.75, 26.642857, 26.607143, 26.607143, 26.658163, 26.775511, 26.821428, 26.785715, 26.821428, 26.767857, 26.875, 26.946428, 27.102039, 27.234694, 27.071428, 27.035715, 27, 27.071428, 27.214285, 27.25, 27.214285, 27, 26.8125, 26.714287, 26.723213, 26.964285, 27.142857, 26.848213, 26.579166, 26.642857, 26.553572, 26.589287, 26.625, 26.5625, 26.5, 26.5, 26.544643, 26.321428, 27.051022, 27.178572, 27.13265, 27.071428, 26.806122, 26.833334, 26.642857, 26.535715, 26.428572, 26.357143, 26.214285, 26.178572, 26.196428, 26.432144, 26.010204, 26.392857, 26.339287, 26.770407, 26.964285, 27.112244, 26.801022, 26.571428, 26.919643, 27.419643, 28.035715, 28.690477, 29.494045, 30.678572, 31.473213, 31.892857, 32.0625, 32.25, 32.375, 32.625, 32.8125, 33, 33.160713, 32.955357, 32.982143, 33.186012, 33.53125, 33.78125, 33.875, 33.8125, 33.8125, 33.875, 34.169643, 34.711311, 34.9375, 35.125, 34.910713, 34.803574, 34.991074, 35.398811, 35.75, 36, 36, 36.0625, 36.035713, 36.142857, 36.636906, 36.866074, 37.09375, 37.0625, 36.90625, 36.71875, 36.6875, 36.71875, 37.125, 37.544643, 37.8125, 38.1875, 38.4375, 38.6875, 38.875, 39.25, 39.5, 39.75, 40.125, 40.25, 40.375, 40.5, 40.5, 40.705357, 41.169643, 41.526787, 41.6875, 41.8125, 41.75, 41.625, 41.5625, 41.5, 41.571426, 41.833336, -10, -10, -10, -10, -10, -10, -10, -10, -10, -10, -10, -10, -10, -10, -10, -10, -10, -10, -10, -10, -10, -10, -10, -10, -10, -10, -10, -10, -10, 31.4375, 31.375, 31.647322, 31.553572, 31.4375, 31.392857, 31.5, 31.366072, 31.291666, 31.125, 30.625, 30.642857, 30.544643, 30.196428, 29.726191, 29.5, 29.1875, 29.276787, 29.419643, 29.419643, 29.5625, 29.625, 29.830357, 30.270834, 30.428572, 30.491072, 30.130951, 29.872025, 29.75, 29.6875, 29.625, 29.4375, 29.25, 29.125, 29.0625, 28.9375, 28.875, 28.6875, 28.5, 28.3125, 28.125, 28.0625, 28, 28, 28.0625, 28.125, 28.1875, 28.25, 28.5, 28.916668, -10, -10, -10, -10, -10, -10, -10, 40.880951, 42.009525, 41.973213, 42.21875, 42.15625, 42.0625, 42.196426, 42.583332, 42.991074, 43.357143, 43.625, 43.946426, 44.675598, 45.639881, 46.459824, 47.046131, 47.033733, 46.742859, 47.208332, 47.592258, 47.578125, 47.301338, 47.015625, 46.703125, 46.390625, 46.116074, 45.8125, 45.375, 45.178574, 45, 44.875, 44.9375, 44.875, 44.875, 45.0625, 45.419643, 45.732143, 45.732143, 45.5, 45.375, 45.125, 45.125, 44.9375, 44.625, 44.375, 43.901787, 43.599998, 43.553574, 43.383926, 43.473213, 42.955357, 42.758926, 42.5625, 42.40625, 42.34375, 42.491074, 42.422619, 41.785713, 41.571426, 41.125, 41, 40.875, 40.5625, 40.4375, 40.25, 39.919643, 39.541668, 39.125, 38.633926, 37.895832, 37.473213, 37.125, 36.875, 36.8125, 36.607143, 36.357143, 36.166668, 35.883926, 35.616074, 35.285713, 34.630951, 34.321426, 34.0625, 33.767857, 33.375, 32.803574, 31.788691, 30.892857, 29.458334, 28.642857, 28.12245, 27.875, 27.875, 27.75, 27.767857, 27.830357, 27.75, 27.625, 27.517857, 27.714285, 27.714285, 27.678572, 27.663265, 27.642857, 27.535715, 27.410713, 27.4375, 27.614286, 27.836735, 27.696428, 27.75, 27.8125, 27.875, 27.875, 28.071428, 28.071428, 28.035715, 27.964285, 27.616072, 27.5, 27.5, 27.551022, 27.714285, 27.857143, 27.964285, 27.8125, 27.75, 27.776787, 27.6875, 27.5, 27.653063, 27.607143, 27.678572, 27.821428, 27.607143, 27.275511, 27.020407, 26.566963, 26.5625, 26.625, 26.5, 26.571428, 26.5, 26.602678, 26.443026, 26.564625, 26.571428, 26.959822, 26.96875, 26.714285, 26.84375, 26.571428, 26.875, 27, 27.357143, 27.5, 27.571428, 27.392857, 27.708334, 27.607143, 27.321428, 27.5625, 27.336735, 27.525511, 27.607143, 27.678572, 27.75, 27.668367, 27.885416, 27.852678, 27.875, 28, 27.9375, 27.9375, 27.9375, 27.9375, 28, 27.9375, 27.875, 27.8125, 27.625, 27.651787, 27.723213, 27.75, 27.875, 27.660713, 27.329166, 27.591837, 27.303572, 27.401787, 27.4375, 27.375, 27.3125, 27.5, 27.62245, 27.958334, 28.051022, 28.107143, 28.091837, 27.938776, 27.938776, 27.892857, 27.928572, 27.541666, 27.173468, 27.166666, 26.946428, 27.035715, 27.265306, 27.665308, 27.714287, 27.530611, 27.352041, 27.392857, 27.59375, 27.785713, 27.544643, 27.401787, 27.989796, 28.294643, 28.785715, 29.232143, 29.858631, 30.709822, 31.486607, 31.861607, 32, 32.25, 32.4375, 32.6875, 32.9375, 33.0625, 33.160713, 33.017857, 32.982143, 33.040176, 33.40625, 33.65625, 33.875, 33.8125, 33.6875, 33.6875, 33.919643, 34.523811, 34.875, 35.125, 35.035713, 34.991074, 35.1875, 35.419643, 35.75, 35.9375, 36, 36, 35.973213, 36.080357, 36.619049, 36.866074, 37.125, 37.125, 37.0625, 36.9375, 36.9375, 37, 37.3125, 37.625, 37.875, 38.125, 38.375, 38.625, 38.8125, 39.1875, 39.375, 39.633926, 40.208332, 40.428574, 40.625
31.366072, 31.229166, 31.0625, 30.625, 30.75, 30.732143, 30.446428, 29.976191, 29.8125, 29.5, 29.589287, 29.732143, 29.607143, 29.6875, 29.6875, 29.767857, 30.145834, 30.303572, 30.428572, 30.166666, 29.934525, 29.875, 29.75, 29.75, 29.625, 29.5, 29.5, 29.285715, 29.4375, 29.375, 29.1875, 29, 28.8125, 28.625, 28.5625, 28.285715, 28.4375, 28.4375, 28.5, 28.625, 28.785713, 28.9375, 29.388891, 29.666666, -10, -10, -10, -10, -10, -10, 40.095238, 40.715874, 41.660713, 41.9375, 41.9375, 41.8125, 41.946426, 42.270832, 42.553574, 42.8125, 43.0625, 43.383926, 44.175598, 45.139881, 45.959824, 46.483631, 46.411564, 45.959187, 46.535713, 46.875, 47.033482, 46.801338, 46.578125, 46.390625, 46.234375, 46.089287, 45.75, 45.3125, 45.053574, 44.9375, 44.875, 44.9375, 44.875, 44.8125, 45, 45.357143, 45.669643, 45.732143, 45.4375, 45.276787, 45.0625, 45.0625, 44.9375, 44.6875, 44.5, 44.00893, 43.516666, 43.375, 43.196426, 43.285713, 42.767857, 42.633926, 42.3125, 42.09375, 41.96875, 42.053574, 42.056549, 41.598213, 41.383926, 41, 40.875, 40.8125, 40.5625, 40.375, 40.125, 39.8125, 39.625, 39.375, 39, 38.5, 37.973213, 37.625, 37.3125, 37.1875, 36.982143, 36.678574, 36.416668, 36.133926, 35.9375, 35.82143, 35.241497, 34.974491, 34.5, 34.142857, 33.8125, 33.205357, 32.050594, 31.309523, 30.309523, 30.035715, 29.476191, 28.928572, 28.714285, 28.571428, 28.517857, 28.770834, 28.866072, 28.5, 28.341837, 28.357143, 28.357143, 28.357143, 28.642857, 28.625, 28.678572, 28.714285, 28.785715, 28.952042, 28.732143, 28.696428, 28.625, 28.821428, 28.857143, 28.857143, 28.928572, 28.75, 28.857143, 28.875, 28.489796, 28.178572, 28.178572, 28.193878, 28.785715, 28.928572, 28.964285, 28.964285, 28.821428, 28.526787, 28.5, 28.4375, 28.693878, 28.607143, 28.607143, 28.607143, 28.25, 27.946428, 27.642857, 27.34375, 27.25, 27.375, 28.101191, 28.3125, 28.458334, 28.142857, 27.484125, 27.319729, 27.428572, 27.75, 27.96875, 28.4375, 28.071428, 28.208334, 27.75, 27.9375, 28.0625, 28.25, 28.4375, 28.42857, 28.84524, 28.693878, 28.916666, 28.714285, 28.833334, 29.041666, 29.125, 29.375, 29.583334, 29.642859, 29.15476, 28.821428, 28.8125, 28.875, 29.142857, 29.285715, 29.285715, 29.0625, 29.0625, 28.714285, 28.642857, 28.571428, 28.928572, 28.908163, 28.87755, 28.821428, 28.75, 28.535713, 28.566668, 28.795918, 28.775511, 28.852041, 28.785715, 28.642857, 28.535715, 28.571428, 28.765306, 28.964285, 28.982143, 28.785715, 29, 28.875, 28.8125, 28.964285, 29.071428, 29.25, 29.196428, 28.354166, 28.133928, 27.75, 28.196428, 28.836735, 28.785715, 28.517857, 28.030613, 28.25, 28.276787, 28.4375, 28.419643, 28.464287, 29.096939, 29.520407, 29.544643, 29.8125, 30.322916, 30.816965, 31.53125, 31.861607, 32, 32.25, 32.5, 32.75, 33, 33.125, 33.160713, 33.017857, 32.982143, 32.96875, 33.21875, 33.59375, 33.848213, 33.84375, 33.59375, 33.46875, 33.669643, 34.336311, 34.8125, 35.125, 35.066963, 34.991074, 35.125, 35.294643, 35.5625, 35.75, 35.875, 35.9375, 35.973213, 36.080357, 36.619049, 36.866074, 37.125, 37.0625, 37, 36.9375, 36.9375, 37.125, 37.4375, 37.6875, 37.9375, 38.0625, 38.3125, 38.5625, 38.75, 39.196426, 39.5, 39.633926, 40.208332, 40.607143, 40.875, 41.125, 41.1875, 41.205357, 41.642857, 42.244049, 42.410713, 42.53125, 42.34375, 42.09375, 41.924107, 41.875, 41.9375, 42.041668, -10, -10, -10, -10, -10, -10, -10, -10, -10, -10, -10, -10, -10, -10, -10, -10, -10, -10, -10, -10, -10, -10, -10, -10, -10, -10, -10, -10, -10, -10, 31.708334, 31.71875, 31.6875, 31.5, 31.375, 31.3125, 31.1875, 31.1875, 31.0625, 30.75, 30.8125, 30.857143, 30.696428, 30.270834, 30.1875, 29.9375, 30.026787, 30.232143, 30.044643, 30.0625, 30.03125, 30, 30.1875, 30.34375, 30.53125, 30.625, 30.333332, 30.5, 30.205357, 30.071428, 29.9375, 29.875, 29.9375, 30.333334, 29.9375, 29.875, 29.75, 29.625, 29.5, 29.653061, 29.671429, 29.722221, 29.071428, 29.270834, 29.166666, 29.267857, 29.564627, 29.450001, 29.6, -10, -10, -10, -10, -10, 39, 39, 39.583332, 40.161224, 41.142857, 41.5625, 41.75, 41.75, 41.875, 41.9375, 42.125, 42.3125, 42.5625, 42.915176, 43.706848, 44.546131, 45.15625, 45.737244, 45.6199, 45.03125, 45.625, 45.982143, 46.30357, 46.262756, 45.828125, 45.796875, 45.6875, 45.651787, 45.375, 45.0625, 44.928574, 44.875, 44.875, 44.9375, 44.8125, 44.75, 44.875, 45.169643, 45.419643, 45.294643, 44.830357, 44.651787, 44.5625, 44.758926, 44.78125, 44.71875, 44.53125, 44.07143, 43.472027, 43.3125, 43.133926, 43.285713, 42.80357, 42.526787, 42.133926, 41.8125, 41.776787, 41.982143, 41.955357, 41.651787, 41.3125, 40.875, 40.75, 40.6875, 40.5, 40.375, 40.125, 39.875, 39.75, 39.5, 39.1875, 38.75, 38.267857, 37.9375, 37.6875, 37.5625, 37.348213, 36.907738, 36.613094, 36.321426, 36.25, 36.0625, 35.604168, 35.321426, 35, 34.580357, 34.1875, 33.589287, 32.538689, 31.827381, 31.166666, 30.704082, 30.234694, 29.928572, 29.5, 29.4375, 29.455357, 29.952381, 30.061224, 30.166666, 29.928572, 29.833334, 29.791666, 29.791666, 29.734694, 29.821428, 29.75, 29.785715, 29.857143, 30.008163, 29.785715, 29.688776, 29.571428, 29.642857, 29.625, 29.75, 29.607143, 29.642857, 29.982143, 30.178572, 30.285715, 30, 29.958334, 29.904762, 29.785715, 29.928572, 29.75, 29.75, 29.625, 29.526787, 29.642857, 29.714285, 29.785715, 29.5, 29.285715, 29.178572, 28.964285, 28.581633, 28.198978, 28, 27.946428, 28.75, 29.086735, 29.267857, 29.37245, 29.108843, 28.968252, 28.964285, 29.095238, 29.270834, 29.125, 29.160715, 29.160715, 29.142857, 29.107143, 29.321428, 28.857143, 29, 29.714285, 29.668365, 29.84524, 29.765306, 29.785715, 29.75, 29.714285, 29.892857, 29.964285, 30.178572, 30.357143, 30.408163, 30.119047, 30.010204, 29.928572, 30, 30.214285, 30.357143, 30.428572, 30.357143, 30.25, 30.291666, 30.208334, 30.208334, 30, 30, 29.928572, 29.928572, 29.857143, 29.7449, 29.771427, 29.857143, 29.959185, 30.051022, 30.035715, 30, 29.541666, 29.857143, 29.732143, 29.8125, 30.035715, 30.291666, 30, 29.892857, 29.892857, 29.964285, 30.107143, 30.142857, 30.096939, 29.65476, 29.510204, 29.672617, 29.352039, 29.5625, 29.5, 29.698978, 29.934525, 29.5051, 29.423471, 29.491072, 29.658163, 29.836735, 30.071428, 30.316328, 30.1875, 30.3125, 30.678572, 31.076532, 31.53125, 31.861607, 32, 32.25, 32.5, 32.75, 33, 33.0625, 33.125, 33.1875, 33.25, 33.25, 33.375, 33.5625, 33.723213, 33.84375, 33.825893, 33.71875, 33.888393, 34.416668, 34.8125, 35.098213, 35.066963, 35.026787, 35.125, 35.357143, 35.5625, 35.75, 35.875, 35.9375, 36, 36.205357, 36.627975, 36.866074, 37.125, 37.0625, 37, 36.9375, 36.875, 37.125, 37.4375, 37.6875, 38, 38.125, 38.375, 38.625, 38.8125, 39.205357, 39.708332, 39.803574, 40.333332, 40.732143, 41.044643
