-10, -10, -10, -10, -10, -10, -10, -10, 60.75, 60.5, 60.125, 59.410713, 58.785713, 58.375, 57.875, 57.5, 57.0625, 56.5625, 56.25, 55.705357, 55.25, 54.660713, 54.3125, 53.875, 53.5, 52.955357, 52.392857, 51.861607, 51.46875, 50.96875, 50.53125, 50, 49.5, 49.25, 48.75, 48.4375, 47.892857, 47.1875, 46.553574, 46, 45.4375, 44.892857, 44.3125, 43.9375, 43.5, 43.3125, 42.9375, 42.625, 42.125, 41.535713, 41.125, 40.625, 40.375, 39.875, 39.5, 39.125, 38.535713, 37.645832, 37.089287, 36.541668, 36.290176, 35.96875, 35.65625, 35.151787, 34.434525, 34.008926, 33.5625, 33.0625, 32.535713, 32.25, 31.75, 31.5, 30.964287, 30.145834, 29.705357, 29.1875, 28.8125, 28.330357, 27.875, 27.5, 27.25, 26.8125, 26.25, 25.571428, 25.1875, 24.6875, 24.375, 24, 23.419643, 22.601189, 22.196428, 21.6875, 21.4375, 21.1875, 20.9375, 21.169643, 22.190475, 23.077381, 23.785713, 24.1875, 24.375, 24.5, 24.4375, 24.375, 24.419643, 24.294643, 24.25, 24.125, 23.8125, 23.616072, 23.638393, 23.584822, 23.78125, 23.875, 23.9375, 24, 24, 23.9375, 24.026787, 24.294643, 24.419643, 24.5, 24.4375, 24.3125, 24.25, 24.375, 24.4375, 24.705357, 25.107143, 25.169643, 25.375, 25.3125, 25.1875, 25.1875, 25.0625, 25, 25, 25, 25.0625, 25.1875, 25.4375, 25.6875, 25.875, 26, 26, 25.9375, 25.9375, 25.9375, 25.9375, 26, 26, 26, 26, 26.0625, 26.125, 26.125, 26.125, 26, 25.9375, 26, 26.25, 26.5625, 26.8125, 27, 27, 27, 27, 27, 27, 26.9375, 26.875, 26.6875, 26.5625, 26.4375, 26.3125, 26.4375, 26.5, 26.5, 26.4375, 26.375, 26.1875, 26.25, 26.34375, 26.28125, 26.46875, 26.40625, 26.4375, 26.357143, 26.0625, 26.0625, 25.9375, 25.910713, 25.767857, 25.633928, 25.5, 25.4375, 25.25, 25.3125, 25.5, 25.625, 25.75, 25.8125, 25.625, 25.5625, 25.4375, 25, 24.839287, 24.625, 24.5625, 24.625, 24.5, 24.5625, 24.5625, 24.625, 24.5625, 24.4375, 24.25, 24.0625, 24.0625, 24.0625, 24.1875, 24.3125, 24.375, 24.3125, 24.125, 24, 24, 24, 24.0625, 24.125, 24.125, 24.125, 24.3125, 24.4375, 24.625, 24.8125, 24.8125, 24.8125, 24.75, 25, 11, 11, 11, 11, 10.9375, 10.875, 10.875, 10.875, 10.9375, 11, 11, 11, 11, 10.9375, 10.9375, 10.9375, 10.9375, 11, 11, 11, 11, 11, 10.9375, 10.9375, 10.9375, 10.9375, 11, 11, 11, 11, 11, 11, 11, 10.9375, 10.9375, 10.875, 10.875, 10.9375, 10.9375, 10.9375, 10.9375, 10.9375, 10.9375, 11, 11, 11, 11, 10.9375, 10.875, 10.8125, 10.8125, 10.875, 10.9375, 11, 11, 11, 11, -10, -10, -10, -10, -10, -10, -10, -10, -10, -10, 26.25, 26.472221, 26.638887, 26.6875, 26.791666, 26.75, 26.75, 26.75, 26.75, 26.75, 26.75, 26.75, 26.6875, 26.625, 26.75, 26.8125, 26.982143, 27.125, 27.214285, 27, 26.9375, 26.830357, 26.75, 26.6875, 26.625, 26.4375, 26.5, 26.375, 26.3125, 26.330357, 26.395834, 26.395834, 26.229166, 26.267857, 26.28125, 26.125, -10, -10, -10, -10, -10, -10, -10, -10, -10, -10, -10, -10, -10, -10, -10, -10, -10, -10, -10, -10, -10, -10, -10, -10, -10, -10, -10, -10, -10, -10, -10, -10, -10, -10, -10, -10, -10, -10, -10, -10, -10, 60.625, 60.416668, 60.125, 59.44643, 58.619049, 58.178574, 57.6875, 57.375, 57, 56.5625, 56.25, 55.705357, 55.1875, 54.55357, 54.25, 53.8125, 53.5625, 53.0625, 52.455357, 51.924107, 51.46875, 50.96875, 50.53125, 50, 49.5, 49.1875, 48.6875, 48.375, 47.892857, 47.303574, 46.577381, 46, 45.4375, 44.955357, 44.375, 44, 43.5625, 43.3125, 42.9375, 42.625, 42.1875, 41.598213, 41.125, 40.580357, 40.25, 39.75, 39.375, 39, 38.473213, 37.583332, 37.089287, 36.479168, 36.227676, 35.84375, 35.53125, 35.151787, 34.479168, 34.133926, 33.6875, 33.125, 32.553574, 32.1875, 31.6875, 31.4375, 30.901787, 30.208334, 29.8125, 29.3125, 28.9375, 28.455357, 28.0625, 27.6875, 27.4375, 26.9375, 26.258928, 25.571428, 25.25, 24.75, 24.4375, 24.017857, 23.482143, 22.663689, 22.258928, 21.75, 21.4375, 21.125, 20.8125, 20.973215, 21.648809, 22.541666, 23.535713, 23.955357, 24.1875, 24.25, 24.1875, 24.1875, 24.294643, 24.232143, 24.1875, 23.9375, 23.5, 23.241072, 23.433037, 23.441965, 23.65625, 23.75, 23.8125, 23.9375, 24, 23.9375, 23.964287, 24.232143, 24.294643, 24.3125, 24.25, 24.0625, 24, 24.125, 24.1875, 24.455357, 24.857143, 24.919643, 25.0625, 24.964287, 24.982143, 25.053572, 25, 25, 25, 25, 25.0625, 25.125, 25.3125, 25.5, 25.6875, 25.875, 25.875, 25.8125, 25.8125, 25.8125, 25.875, 26, 26, 26, 26, 26.0625, 26.125, 26.125, 26.125, 26.0625, 26, 26.0625, 26.3125, 26.5625, 26.75, 26.9375, 26.9375, 26.9375, 27, 26.9375, 26.8125, 26.6875, 26.732143, 26.616072, 26.5625, 26.4375, 26.3125, 26.5, 26.5625, 26.5625, 26.5, 26.375, 26.1875, 26.3125, 26.46875, 26.46875, 26.65625, 26.59375, 26.625, 26.482143, 26.1875, 26.125, 25.9375, 25.910713, 25.767857, 25.571428, 25.4375, 25.375, 25.1875, 25.25, 25.375, 25.4375, 25.4375, 25.4375, 25.1875, 25.0625, 25.0625, 24.75, 24.6875, 24.625, 24.5, 24.5, 24.375, 24.3125, 24.3125, 24.3125, 24.3125, 24.1875, 24.0625, 24, 24, 24, 24.0625, 24.125, 24.125, 24, 23.8125, 23.625, 23.5625, 23.625, 23.6875, 23.8125, 23.875, 23.8125, 23.9375, 23.9375, 24.089287, 24.491072, 24.5625, 24.625, 24.583334, 11, 11, 11, 10.9375, 10.875, 10.75, 10.6875, 10.75, 10.8125, 10.9375, 11, 11, 10.9375, 10.875, 10.75, 10.6875, 10.6875, 10.75, 10.875, 10.9375, 11, 11, 10.9375, 10.8125, 10.8125, 10.8125, 10.875, 10.9375, 10.875, 10.8125, 10.8125, 10.785714, 10.714286, 10.75, 10.625, 10.75, 10.75, 10.8125, 10.875, 10.8125, 10.6875, 10.5625, 10.5625, 10.5625, 10.6875, 10.8125, 10.875, 10.9375, 10.90625, 10.8125, 10.75, 10.75, 10.84375, 10.9375, 11, 11, -10, -10, -10, -10, -10, -10, -10, 25.375, 25.714287, 25.875, 26, 26, 26.166666, 26.291666, 26.416666, 26.5, 26.5625, 26.5625, 26.5, 26.4375, 26.375, 26.375
-10, -10, -10, -10, -10, -10, -10, -10, 60.625, 60.416668, 60.125, 59.375, 58.440475, 57.94643, 57.5, 57.25, 57, 56.625, 56.3125, 55.767857, 55.25, 54.660713, 54.3125, 53.875, 53.5625, 53.0625, 52.517857, 52.03125, 51.53125, 51.03125, 50.53125, 50.0625, 49.5625, 49.1875, 48.642857, 48.3125, 47.875, 47.366074, 46.639881, 46.0625, 45.517857, 45.0625, 44.4375, 44.125, 43.6875, 43.4375, 43, 42.580357, 42.1875, 41.642857, 41.125, 40.535713, 40.1875, 39.6875, 39.3125, 38.830357, 38.392857, 37.6875, 37.285713, 36.666668, 36.321426, 35.9375, 35.5, 35.080357, 34.625, 34.25, 33.8125, 33.1875, 32.491074, 32.017857, 31.5625, 31.3125, 30.875, 30.5, 30.0625, 29.5625, 29.0625, 28.517857, 28.1875, 27.741072, 27.291666, 26.821428, 26.133928, 25.553572, 25.1875, 24.6875, 24.375, 23.955357, 23.544643, 22.770832, 22.321428, 21.8125, 21.4375, 21.0625, 20.6875, 20.714287, 20.982143, 21.67687, 23.202379, 23.6875, 24, 24.0625, 24.09375, 24.09375, 24.03125, 23.90625, 23.8125, 23.5625, 23.1875, 22.928572, 23.183037, 23.316965, 23.53125, 23.625, 23.625, 23.6875, 23.75, 23.75, 23.776787, 23.982143, 23.982143, 24, 23.9375, 23.875, 23.9375, 24, 24.0625, 24.205357, 24.482143, 24.544643, 24.535715, 24.714287, 24.857143, 24.991072, 25, 25, 25, 25, 25.0625, 25.125, 25.25, 25.375, 25.5625, 25.75, 25.75, 25.6875, 25.6875, 25.6875, 25.8125, 26, 26.0625, 26.0625, 26.0625, 26.0625, 26, 26, 25.928572, 25.75, 25.75, 25.8125, 26.125, 26.375, 26.625, 26.8125, 26.875, 26.9375, 26.9375, 26.8125, 26.625, 26.5, 26.607143, 26.553572, 26.5625, 26.5, 26.4375, 26.625, 26.625, 26.625, 26.5625, 26.5, 26.4375, 26.5625, 26.65625, 26.59375, 26.65625, 26.53125, 26.5625, 26.419643, 26.125, 26.0625, 25.9375, 25.910713, 25.830357, 25.696428, 25.4375, 25.166666, 24.928572, 24.875, 25.0625, 25.125, 25.0625, 25.0625, 24.8125, 24.6875, 24.8125, 24.5625, 24.5, 24.4375, 24.25, 24.25, 24.1875, 24.1875, 24.125, 24.0625, 24.0625, 23.9375, 23.9375, 24, 23.9375, 23.8125, 23.75, 23.6875, 23.6875, 23.6875, 23.5625, 23.4375, 23.375, 23.375, 23.4375, 23.625, 23.6875, 23.625, 23.6875, 23.625, 23.776787, 24.178572, 24.3125, 24.375, 24.333334, 10.833333, 10.916667, 10.9375, 10.875, 10.75, 10.5625, 10.4375, 10.5, 10.5625, 10.6875, 10.75, 10.75, 10.6875, 10.625, 10.5, 10.4375, 10.4375, 10.5625, 10.75, 10.875, 11, 11, 10.9375, 10.8125, 10.75, 10.75, 10.75, 10.75, 10.6875, 10.5625, 10.625, 10.598214, 10.526786, 10.5625, 10.375, 10.5, 10.625, 10.75, 10.8125, 10.75, 10.5625, 10.4375, 10.4375, 10.4375, 10.5, 10.59375, 10.71875, 10.84375, 10.875, 10.8125, 10.75, 10.75, 10.84375, 10.9375, -10, -10, -10, -10, -10, -10, 24, 24.200001, 24.791668, 25.488096, 25.809525, 25.916666, 26, 26, 26.0625, 26.041666, 26.0625, 26.125, 26.1875, 26.1875, 26.125, 26, 25.875, 25.8125, 25.839287, 26.044643, 26.116072, 26.125, 26.125, 26.1875, 26.357143, 26.4375, 26.285715, 26.4375, 26.3125, 26.205357, 26.098213, 25.892857, 25.821428, 25.8125, 25.9375, 25.875, 25.8125, 25.830357, 25.895834, 25.869049, 25.559523, 25.339285, 25.308037, 25.379463, 25.25, 25.333334, -10, -10, -10, -10, -10, -10, -10, -10, -10, -10, -10, -10, -10, -10, -10, -10, -10, -10, -10, -10, -10, -10, -10, -10, -10, -10, -10, -10, -10, -10, -10, -10, -10, -10, -10, -10, -10, -10, -10, 60.625, 60.416668, 60.1875, 59.491074, 58.464287, 57.955357, 57.5, 57.25, 57, 56.625, 56.375, 55.875, 55.3125, 54.678574, 54.3125, 53.8125, 53.5, 53, 52.5, 52.03125, 51.53125, 51.03125, 50.53125, 50.125, 49.625, 49.1875, 48.598213, 48.1875, 47.75, 47.303574, 46.622025, 46.0625, 45.517857, 45.0625, 44.4375, 44.1875, 43.8125, 43.5625, 43.0625, 42.535713, 42.125, 41.625, 41.1875, 40.598213, 40.25, 39.75, 39.3125, 38.767857, 38.375, 37.9375, 37.553574, 36.916668, 36.446426, 36, 35.5, 35.080357, 34.5625, 34.151787, 33.75, 33.1875, 32.660713, 32.13393, 31.541666, 31.1875, 30.75, 30.375, 29.9375, 29.5, 29, 28.517857, 28.1875, 27.678572, 27.122023, 26.633928, 25.946428, 25.473213, 25.0625, 24.625, 24.3125, 23.861607, 23.522322, 22.885416, 22.477678, 21.9375, 21.5, 21.0625, 20.5625, 20.464287, 20.553572, 21.020407, 22.940475, 23.473215, 23.875, 23.8125, 23.71875, 23.65625, 23.59375, 23.53125, 23.5, 23.375, 23.125, 22.928572, 23.013393, 23.013393, 23.15625, 23.25, 23.3125, 23.4375, 23.5, 23.5, 23.526787, 23.732143, 23.732143, 23.75, 23.75, 23.75, 23.875, 23.9375, 24, 24.125, 24.1875, 24.25, 24.3125, 24.401787, 24.669643, 24.803572, 24.9375, 24.9375, 24.9375, 25, 25, 25, 25.0625, 25.125, 25.3125, 25.5, 25.5, 25.5, 25.5625, 25.625, 25.8125, 26, 26.0625, 26.0625, 26.125, 26.125, 26.0625, 26, 25.678572, 25.5625, 25.607143, 25.75, 26.0625, 26.1875, 26.339287, 26.5625, 26.696428, 26.78125, 26.78125, 26.59375, 26.4375, 26.4375, 26.669643, 26.803572, 26.875, 26.8125, 26.678572, 26.612499, 26.607143, 26.4375, 26.4375, 26.375, 26.375, 26.4375, 26.5, 26.535713, 26.5, 26.5, 26.4375, 26.294643, 26, 25.9375, 25.875, 25.910713, 25.892857, 25.883928, 25.75, 25.425594, 24.845238, 24.598213, 24.6875, 24.794643, 24.8125, 24.875, 24.6875, 24.625, 24.6875, 24.5, 24.375, 24.25, 24.0625, 24.0625, 24.0625, 24, 23.875, 23.75, 23.6875, 23.6875, 23.75, 23.8125, 23.75, 23.5625, 23.5, 23.4375, 23.4375, 23.4375, 23.3125, 23.1875, 23.125, 23.125, 23.1875, 23.4375, 23.5, 23.4375, 23.4375, 23.3125, 23.464287, 23.803572, 24, 24, 23.895834, 10.833333, 10.666667, 10.770833, 10.6875, 10.5625, 10.375, 10.1875, 10.25, 10.3125, 10.4375, 10.4375, 10.4375, 10.375, 10.3125, 10.25, 10.1875, 10.1875, 10.3125, 10.5625, 10.75, 10.9375, 10.9375, 10.8125, 10.625, 10.5, 10.5, 10.5, 10.5, 10.5, 10.375, 10.4375, 10.410714, 10.276786, 10.3125, 10.125, 10.3125, 10.4375, 10.5625, 10.625, 10.5, 10.3125, 10.1875, 10.1875, 10.1875, 10.25, 10.34375, 10.53125, 10.78125, 10.910714, 10.875, 10.8125, 10.75, 10.791667, 10.916667, -10, -10, -10, -10, -10, -10, 24.380951, 24.633333, 25.111113, 25.553572, 25.857143, 25.9375, 25.9375, 25.875, 25.75, 25.625, 25.625, 25.6875, 25.8125, 25.8125, 25.75, 25.625, 25.5, 25.4375
-10, -10, -10, -10, -10, -10, -10, -10, 60.5, 60.333332, 60.125, 59.553574, 58.571426, 58.017857, 57.5625, 57.25, 57, 56.625, 56.375, 55.875, 55.3125, 54.678574, 54.3125, 53.8125, 53.5, 53, 52.5, 52.0625, 51.5625, 51.0625, 50.517857, 50.1875, 49.6875, 49.1875, 48.55357, 48.0625, 47.6875, 47.3125, 46.4375, 45.919643, 45.392857, 45, 44.5625, 44.3125, 44, 43.678574, 43.041668, 42.482143, 42.0625, 41.625, 41.1875, 40.598213, 40.1875, 39.6875, 39.1875, 38.642857, 38.25, 37.75, 37.4375, 37, 36.553574, 35.916668, 35.3125, 34.830357, 34.375, 33.964287, 33.625, 33.1875, 32.705357, 32.13393, 31.497025, 31.125, 30.6875, 30.3125, 29.767857, 29.375, 28.875, 28.5, 28.125, 27.616072, 27.059523, 26.633928, 26.0625, 25.497023, 25, 24.5625, 24.25, 23.799107, 23.53125, 23.03125, 22.477678, 21.892857, 21.4375, 20.9375, 20.5, 20.3125, 20.125, 20.571428, 22.442175, 23.035715, 23.517857, 23.5625, 23.46875, 23.40625, 23.34375, 23.21875, 23.125, 23, 22.875, 22.8125, 22.919643, 22.919643, 22.9375, 23, 23.0625, 23.1875, 23.25, 23.3125, 23.3125, 23.375, 23.375, 23.375, 23.5, 23.625, 23.75, 23.875, 23.9375, 24, 24.0625, 24.0625, 24, 24.151787, 24.482143, 24.616072, 24.875, 24.875, 24.875, 25, 25, 25, 25, 25, 25.125, 25.3125, 25.285713, 25.276787, 25.4375, 25.544643, 25.8125, 26, 26.0625, 26.0625, 26.125, 26.125, 26.0625, 26, 25.678572, 25.5625, 25.607143, 25.75, 26, 26.09375, 26.245537, 26.46875, 26.633928, 26.6875, 26.625, 26.3125, 26.169643, 26.330357, 26.633928, 26.897322, 26.96875, 26.90625, 26.709822, 26.549999, 26.517857, 26.3125, 26.375, 26.3125, 26.375, 26.375, 26.4375, 26.410713, 26.375, 26.375, 26.25, 26.1875, 26, 25.9375, 25.875, 25.875, 26, 26.0625, 26, 25.675594, 25.095238, 24.848213, 24.8125, 24.857143, 24.8125, 24.75, 24.625, 24.5, 24.5, 24.375, 24.25, 24.1875, 24.0625, 24.0625, 24, 23.8125, 23.625, 23.5, 23.4375, 23.5, 23.625, 23.625, 23.5625, 23.375, 23.25, 23.1875, 23.1875, 23.25, 23.1875, 23.125, 23.0625, 23, 23, 23.25, 23.3125, 23.3125, 23.3125, 23.125, 23.214287, 23.491072, 23.6875, 23.6875, 23.645834, 23.166668, 10.666667, 10.770833, 10.625, 10.4375, 10.25, 10.0625, 10.125, 10.1875, 10.3125, 10.3125, 10.375, 10.375, 10.3125, 10.3125, 10.1875, 10.125, 10.1875, 10.3125, 10.5, 10.6875, 10.6875, 10.5625, 10.4375, 10.3125, 10.3125, 10.3125, 10.25, 10.25, 10.125, 10.1875, 10.160714, 10.026786, 10.0625, 9.9375, 10.125, 10.25, 10.375, 10.375, 10.25, 10.125, 10, 10, 10, 10, 10.09375, 10.28125, 10.59375, 10.806547, 11, 11, 10.916667, -10, -10, -10, -10, -10, -10, 24.916668, 25.125, 24.598213, 24.7875, 25.208334, 25.491072, 25.732143, 25.8125, 25.75, 25.625, 25.5, 25.3125, 25.25, 25.3125, 25.4375, 25.5, 25.5, 25.375, 25.25, 25.1875, 25.214287, 25.294643, 25.303572, 25.375, 25.428572, 25.708334, 25.8125, 25.857143, 25.642857, 25.571428, 25.53125, 25.59375, 25.535713, 25.392857, 25.290178, 25.34375, 25.5, 25.5, 25.5, 25.375, 25.125, 25.098213, 24.955357, 24.758928, 24.839287, 24.92857, 25.208334, 25.47024, 25.833332, -10, -10, -10, -10, -10, -10, -10, -10, -10, -10, -10, -10, -10, -10, -10, -10, -10, -10, -10, -10, -10, -10, -10, -10, -10, -10, -10, -10, -10, -10, -10, -10, -10, -10, -10, -10, -10, -10, 60.375, 60.25, 60, 59.5, 58.738098, 58.151783, 57.642857, 57.3125, 57, 56.625, 56.3125, 55.8125, 55.25, 54.660713, 54.3125, 53.875, 53.5625, 53.0625, 52.517857, 52.125, 51.625, 51.1875, 50.642857, 50.25, 49.705357, 49.1875, 48.55357, 48, 47.625, 47.258926, 46.520832, 45.877975, 45.339283, 44.9375, 44.625, 44.375, 44.125, 43.866074, 43.220238, 42.523811, 42, 41.5625, 41.125, 40.580357, 40.25, 39.75, 39.25, 38.660713, 38.25, 37.75, 37.4375, 37, 36.491074, 35.809525, 35.1875, 34.642857, 34.25, 33.839287, 33.553574, 33.041668, 32.5625, 32.00893, 31.434525, 31.0625, 30.75, 30.366072, 29.684523, 29.321428, 28.8125, 28.5, 28.0625, 27.491072, 26.934523, 26.508928, 26.053572, 25.497023, 24.9375, 24.5, 24.25, 23.84375, 23.59375, 23.09375, 22.415178, 21.785713, 21.375, 20.875, 20.5, 20.25, 20, 20.285713, 21.174603, 22.642857, 23.160713, 23.3125, 23.21875, 23.15625, 23.03125, 22.84375, 22.6875, 22.625, 22.6875, 22.6875, 22.75, 22.75, 22.75, 22.875, 22.9375, 23, 23, 23.0625, 23.0625, 23.0625, 23.0625, 23.0625, 23.1875, 23.375, 23.5625, 23.75, 23.875, 24, 24.0625, 24.0625, 24.0625, 24.25, 24.4375, 24.5, 24.75, 24.75, 24.8125, 25, 25, 25, 25, 25, 25.125, 25.3125, 25.285713, 25.276787, 25.4375, 25.544643, 25.8125, 26, 26.0625, 26.0625, 26.125, 26.125, 26.0625, 26, 25.678572, 25.5625, 25.607143, 25.8125, 26, 26.03125, 26.245537, 26.40625, 26.633928, 26.6875, 26.4375, 25.946428, 25.919643, 26.413691, 26.705357, 27, 26.90625, 26.78125, 26.584822, 26.362499, 26.392857, 26.25, 26.3125, 26.25, 26.25, 26.125, 26.142857, 26.173214, 26.041666, 26.303572, 26.178572, 26.1875, 26, 25.9375, 25.875, 25.8125, 25.9375, 26.0625, 26.0625, 25.800594, 25.220238, 24.910713, 24.8125, 24.857143, 24.875, 24.875, 24.8125, 24.6875, 24.5625, 24.375, 24.1875, 24.0625, 24, 23.9375, 23.875, 23.6875, 23.4375, 23.375, 23.1875, 23.25, 23.3125, 23.1875, 23.1875, 23.0625, 23, 23, 23, 23.0625, 23.0625, 23.0625, 23.0625, 22.9375, 22.875, 23, 23, 23.0625, 23.0625, 23.03125, 23.15625, 23.21875, 23.40625, 23.375, 23.3125, 23.111113, 10.541667, 10.604166, 10.5, 10.375, 10.1875, 10, 10, 10, 10.0625, 10.0625, 10.125, 10.1875, 10.1875, 10.25, 10.1875, 10.125, 10.125, 10.1875, 10.3125, 10.4375, 10.4375, 10.375, 10.3125, 10.1875, 10.1875, 10.125, 10.0625, 10.125, 10.0625, 10.125, 10.125, 10.0625, 10.0625, 10, 10.0625, 10.125, 10.1875, 10.1875, 10.125, 10.125, 10.125, 10.125, 10.125, 10.0625, 10.03125, 10.15625, 10.40625, 10.78373, -10, -10, -10, -10, -10, -10, -10, -10, 25.416668, 25.027779, 25.083334, 24.848213, 25.0375, 25.395834, 25.616072, 25.660713, 25.589287, 25.5, 25.3125, 25.25, 25.125, 25.0625, 25.0625, 25.1875, 25.1875, 25.1875, 25.0625, 24.875, 24.8125
-10, -10, -10, -10, -10, -10, -10, -10, 60.25, 60.166664, 59.9375, 59.553574, 58.916668, 58.383926, 57.830357, 57.4375, 57, 56.5625, 56.1875, 55.6875, 55.125, 54.535713, 54.25, 53.8125, 53.5625, 53.0625, 52.517857, 52.125, 51.625, 51.1875, 50.642857, 50.1875, 49.642857, 49.1875, 48.598213, 48.125, 47.75, 47.321426, 46.583332, 45.877975, 45.339283, 45, 44.75, 44.5, 44.25, 43.928574, 43.220238, 42.523811, 41.9375, 41.5, 41.0625, 40.5625, 40.25, 39.75, 39.25, 38.660713, 38.25, 37.8125, 37.5, 37.0625, 36.50893, 35.872025, 35.3125, 34.875, 34.4375, 33.964287, 33.5, 32.934525, 32.5, 31.991072, 31.434525, 31.0625, 30.8125, 30.419643, 29.601189, 29.267857, 28.75, 28.5, 28.0625, 27.5625, 27.196428, 26.604166, 26.1875, 25.559523, 25, 24.517857, 24.25, 23.84375, 23.59375, 23.15625, 22.46875, 21.702379, 21.321428, 20.8125, 20.5, 20.28125, 20.0625, 20.267857, 20.911564, 22.348213, 22.767857, 22.9375, 22.875, 22.875, 22.875, 22.75, 22.5625, 22.5, 22.5, 22.5, 22.5, 22.375, 22.4375, 22.625, 22.8125, 23, 23, 23, 23, 23, 23, 23, 23.125, 23.25, 23.3125, 23.4375, 23.4375, 23.571428, 23.895834, 23.991072, 24.0625, 24.1875, 24.3125, 24.375, 24.625, 24.6875, 24.8125, 25, 25, 25, 25, 25.0625, 25.15625, 25.28125, 25.254463, 25.183037, 25.3125, 25.482143, 25.75, 25.9375, 26, 26, 26.0625, 26.0625, 26.0625, 26, 25.75, 25.8125, 25.857143, 26.0625, 26.125, 26.09375, 26.245537, 26.40625, 26.571428, 26.5625, 26.25, 25.696428, 25.785715, 26.517857, 26.830357, 27.125, 26.84375, 26.65625, 26.397322, 26.112499, 26.205357, 26.0625, 26.1875, 26.125, 26.0625, 25.9375, 26.017857, 26.083927, 25.872023, 26.125, 25.991072, 26.0625, 26, 26, 25.9375, 25.875, 25.9375, 26, 26.0625, 25.946428, 25.416666, 25.098213, 24.875, 24.919643, 24.875, 24.875, 24.8125, 24.625, 24.4375, 24.25, 24.0625, 24, 23.9375, 23.8125, 23.6875, 23.5, 23.375, 23.321428, 22.895834, 22.946428, 22.910713, 22.75, 22.875, 22.8125, 22.8125, 22.875, 22.875, 22.875, 22.9375, 22.9375, 22.875, 22.8125, 22.75, 22.875, 22.9375, 22.9375, 22.875, 22.78125, 22.84375, 22.90625, 23.09375, 23.125, 23.0625, 23.083334, 10.375, 10.416666, 10.3125, 10.25, 10.125, 10, 10, 10, 10.0625, 10.0625, 10.125, 10.1875, 10.1875, 10.25, 10.1875, 10.125, 10.0625, 10.0625, 10.125, 10.1875, 10.1875, 10.125, 10.0625, 10, 10, 10, 10, 10.0625, 10.0625, 10.0625, 10.0625, 10, 10, 10, 10.0625, 10.0625, 10.0625, 10.0625, 10, 10, 10, 10, 10, 10, 10, 10.0625, 10.333333, -10, -10, -10, -10, -10, -10, -10, -10, 25.416668, 25.361113, 25.020834, 25.0625, 25.098213, 25.1875, 25.3125, 25.4375, 25.348213, 25.214287, 25.0625, 24.75, 24.776787, 24.857143, 24.857143, 24.875, 24.875, 24.75, 24.75, 24.6875, 24.5625, 24.6875, 24.75, 24.8125, 24.875, 24.875, 24.928572, 25.208334, 25.25, 25.160715, 24.684523, 24.526785, 24.53125, 24.65625, 24.625, 24.6875, 24.65625, 24.6875, 24.78125, 24.71875, 24.65625, 24.625, 24.5, 24.625, 24.75, 24.75, 24.875, 24.830357, 25.145834, 25.428572, 25.633331, -10, -10, -10, -10, -10, -10, -10, -10, -10, -10, -10, -10, -10, -10, -10, -10, -10, -10, -10, -10, -10, -10, -10, -10, -10, -10, -10, -10, -10, -10, -10, -10, -10, -10, -10, -10, -10, -10, 60.125, 60.083332, 59.8125, 59.5, 59, 58.4375, 57.892857, 57.4375, 56.9375, 56.5, 56.125, 55.625, 55.1875, 54.642857, 54.3125, 53.875, 53.5625, 53.0625, 52.517857, 52.125, 51.625, 51.1875, 50.642857, 50.1875, 49.642857, 49.25, 48.705357, 48.25, 47.875, 47.446426, 46.708332, 45.940475, 45.357143, 45.0625, 44.875, 44.625, 44.3125, 43.88393, 43.220238, 42.568451, 42.0625, 41.625, 41.0625, 40.517857, 40.1875, 39.6875, 39.1875, 38.55357, 38.1875, 37.75, 37.5, 37.0625, 36.50893, 35.872025, 35.3125, 34.90625, 34.53125, 34.03125, 33.53125, 32.934525, 32.375, 31.875, 31.410713, 31.125, 30.875, 30.482143, 29.619047, 29.267857, 28.75, 28.5, 28.125, 27.6875, 27.366072, 26.747023, 26.375, 25.684523, 25.125, 24.535713, 24.1875, 23.75, 23.5, 23.0625, 22.4375, 21.702379, 21.321428, 20.875, 20.5625, 20.40625, 20.25, 20.375, 20.839287, 22, 22.392857, 22.625, 22.625, 22.6875, 22.75, 22.625, 22.4375, 22.3125, 22.25, 22.25, 22.3125, 22.25, 22.3125, 22.5, 22.625, 22.8125, 22.875, 22.9375, 23, 23, 23, 23, 23.0625, 23.125, 23.125, 23.1875, 23.1875, 23.321428, 23.708334, 23.803572, 23.9375, 24.125, 24.294643, 24.4375, 24.6875, 24.75, 24.875, 25, 25, 25, 25, 25.0625, 25.15625, 25.28125, 25.254463, 25.183037, 25.3125, 25.482143, 25.75, 25.9375, 26, 26, 26, 25.9375, 25.9375, 25.9375, 25.9375, 25.9375, 25.875, 25.9375, 25.9375, 26.09375, 26.34375, 26.46875, 26.5625, 26.46875, 26.21875, 25.821428, 26.004465, 26.736607, 26.986607, 27.15625, 26.75, 26.5, 26.25, 26.0625, 26.098213, 26.0625, 26.125, 26.0625, 26, 25.9375, 26.017857, 26.048214, 25.809523, 25.9375, 25.803572, 25.875, 25.9375, 26, 26, 25.9375, 25.9375, 25.9375, 25.9375, 25.875, 25.6875, 25.375, 25.017857, 24.875, 24.6875, 24.625, 24.5625, 24.375, 24.25, 24.125, 24, 23.9375, 23.8125, 23.625, 23.4375, 23.3125, 23.1875, 23.071428, 22.645834, 22.571428, 22.535713, 22.4375, 22.5625, 22.5625, 22.5625, 22.625, 22.625, 22.625, 22.6875, 22.6875, 22.625, 22.625, 22.625, 22.75, 22.875, 22.8125, 22.6875, 22.53125, 22.46875, 22.59375, 22.78125, 22.9375, 23, 23, 10.375, 10.333333, 10.25, 10.1875, 10.0625, 10.0625, 10.0625, 10.0625, 10.125, 10.125, 10.1875, 10.25, 10.25, 10.25, 10.1875, 10.125, 10.0625, 10, 10, 10, 10, 10, 10, 10, 10, 10, 10, 10, 10, 10, 10, 10, 10, 10, 10, 10, 10, 10, 10, 10.0625, 10.0625, 10.0625, 10.0625, 10, 10.0625, 10.083333, -10, -10, -10, -10, -10, -10, -10, -10, 25.125, 25.277779, 25.270834, 25.145834, 25.0625, 25.0625, 25.0625, 25.125, 25.25, 25.098213, 24.892857, 24.541666, 24.267857, 24.339287, 24.607143, 24.669643, 24.625, 24.5, 24.3125, 24.3125, 24.375, 24.375, 24.5
-10, -10, -10, -10, -10, -10, -10, 60, 60.125, 60.083332, 59.875, 59.625, 59.178574, 58.479168, 57.892857, 57.4375, 56.9375, 56.5, 56.0625, 55.5625, 55.1875, 54.6875, 54.375, 53.9375, 53.5625, 53.0625, 52.517857, 52.0625, 51.5625, 51.125, 50.625, 50.1875, 49.642857, 49.25, 48.705357, 48.3125, 47.875, 47.4375, 46.892857, 46.083332, 45.482143, 45.1875, 45, 44.75, 44.375, 43.848213, 43.366074, 42.684525, 42.1875, 41.642857, 41.125, 40.580357, 40.3125, 39.8125, 39.25, 38.57143, 38.25, 37.8125, 37.5625, 37.0625, 36.392857, 35.848213, 35.375, 35.03125, 34.65625, 34.15625, 33.549107, 32.934525, 32.375, 31.9375, 31.517857, 30.979166, 30.758928, 30.419643, 29.663689, 29.267857, 28.705357, 28.4375, 28.0625, 27.6875, 27.303572, 26.622023, 26.258928, 25.705357, 25.1875, 24.55357, 24.1875, 23.6875, 23.4375, 23, 22.491072, 21.809523, 21.383928, 21, 20.625, 20.53125, 20.4375, 20.59375, 21.075893, 21.90625, 22.21875, 22.375, 22.375, 22.375, 22.40625, 22.34375, 22.15625, 22.09375, 22.0625, 22.0625, 22.1875, 22.1875, 22.25, 22.375, 22.4375, 22.5625, 22.625, 22.6875, 22.8125, 22.875, 22.9375, 22.9375, 22.9375, 22.9375, 22.9375, 23, 23, 23.133928, 23.458334, 23.553572, 23.75, 23.9375, 24.169643, 24.4375, 24.6875, 24.8125, 24.9375, 25, 25, 25, 25, 25.0625, 25.15625, 25.21875, 25.21875, 25.28125, 25.375, 25.5625, 25.8125, 25.9375, 26, 26, 26, 25.9375, 25.9375, 25.90625, 25.84375, 25.78125, 25.71875, 25.8125, 25.8125, 26.026787, 26.321428, 26.34375, 26.53125, 26.46875, 26.3125, 25.959822, 25.787416, 26.440475, 26.688988, 26.982143, 26.78125, 26.53125, 26.34375, 26.125, 26.0625, 26.0625, 26.0625, 26.0625, 26, 25.9375, 25.955357, 25.985714, 25.747023, 25.875, 25.803572, 25.875, 25.9375, 26, 26, 25.875, 25.8125, 25.75, 25.6875, 25.625, 25.4375, 25.125, 24.767857, 24.625, 24.4375, 24.375, 24.3125, 24.1875, 24.125, 24.0625, 24, 23.875, 23.6875, 23.5, 23.3125, 23.1875, 23.017857, 22.821428, 22.395834, 22.321428, 22.223213, 22.1875, 22.25, 22.25, 22.3125, 22.375, 22.375, 22.4375, 22.5, 22.5, 22.4375, 22.375, 22.375, 22.4375, 22.5625, 22.5, 22.375, 22.28125, 22.21875, 22.34375, 22.59375, 22.8125, 22.875, 22.916666, 10.125, 10.083333, 10.0625, 10.0625, 10, 10.0625, 10.0625, 10.0625, 10.0625, 10, 10, 10, 10, 10, 10, 10, 10.0625, 10.035714, 9.9642859, 10, 9.9375, 10, 10, 10, 10, 10, 10, 10, 10, 10, 10, 10, 10, 10, 10, 10, 10, 10, 10, 10.0625, 10.0625, 10.0625, 10.125, 10.083333, 10.083333, 10.111111, -10, -10, -10, -10, -10, -10, 24.25, 24.458332, 24.916666, 25.145834, 25.020834, 25, 24.9375, 24.9375, 25, 24.9375, 24.9375, 24.848213, 24.55357, 24.193453, 24.017857, 24.089287, 24.419643, 24.482143, 24.4375, 24.25, 24.0625, 24.0625, 24.125, 24.125, 24.25, 24.3125, 24.375, 24.5625, 24.625, 24.75, 24.8125, 24.6875, 24.491072, 24.104166, 23.955357, 24, 24.1875, 24.1875, 24.25, 24.25, 24.21875, 24.21875, 24.15625, 24.09375, 24.0625, 24.1875, 24.4375, 24.6875, 24.875, 24.9375, 24.901787, 25.035713, 25.1875, 25.383331, -10, -10, -10, -10, -10, -10, -10, -10, -10, -10, -10, -10, -10, -10, -10, -10, -10, -10, -10, -10, -10, -10, -10, -10, -10, -10, -10, -10, -10, -10, -10, -10, -10, -10, -10, -10, -10, 60, 60, 60.083332, 59.973213, 59.75, 59.136906, 58.488098, 57.9375, 57.5, 57, 56.5, 56.0625, 55.5625, 55.25, 54.75, 54.4375, 53.9375, 53.5, 53, 52.5, 52, 51.5, 51, 50.5, 50.125, 49.625, 49.25, 48.705357, 48.3125, 47.8125, 47.375, 46.830357, 46.1875, 45.55357, 45.25, 44.9375, 44.65625, 44.21875, 43.629463, 43.21875, 42.705357, 42.25, 41.660713, 41.1875, 40.642857, 40.375, 39.875, 39.3125, 38.678574, 38.3125, 37.875, 37.5625, 37.0625, 36.455357, 35.955357, 35.5, 35.15625, 34.71875, 34.15625, 33.287201, 32.839287, 32.375, 32.0625, 31.642857, 31.041666, 30.651785, 30.303572, 29.684523, 29.258928, 28.660713, 28.375, 28, 27.6875, 27.303572, 26.613094, 26.196428, 25.75, 25.1875, 24.571428, 24.125, 23.625, 23.375, 22.9375, 22.553572, 21.916666, 21.446428, 21.125, 20.6875, 20.65625, 20.625, 20.8125, 21.3125, 21.75, 21.982143, 22.0625, 22.0625, 22.125, 22.15625, 22.09375, 21.90625, 21.78125, 21.6875, 21.6875, 21.8125, 21.875, 22, 22.125, 22.1875, 22.3125, 22.375, 22.4375, 22.5625, 22.625, 22.6875, 22.6875, 22.75, 22.875, 22.833334, 22.725, 22.741072, 22.696428, 23.145834, 23.272322, 23.59375, 23.78125, 24.075893, 24.4375, 24.6875, 24.875, 24.9375, 24.9375, 24.9375, 24.9375, 25, 25.0625, 25.09375, 25.09375, 25.09375, 25.15625, 25.25, 25.4375, 25.625, 25.65625, 25.6875, 25.625, 25.625, 25.65625, 25.794643, 25.84375, 25.84375, 25.84375, 25.78125, 25.84375, 25.90625, 26.120537, 26.352678, 26.28125, 26.135416, 25.916668, 25.775511, 25.586735, 24.870041, 24.941668, 26.052721, 26.420069, 26.352039, 26.214285, 26.035715, 25.8125, 25.875, 25.9375, 26.0625, 26.0625, 26.0625, 26.0625, 26.0625, 26.035713, 25.830357, 25.696428, 25.625, 25.6875, 25.75, 25.8125, 25.875, 25.75, 25.6875, 25.625, 25.5, 25.4375, 25.3125, 25.0625, 24.705357, 24.5, 24.25, 24.125, 24.0625, 24, 24, 24, 24, 23.875, 23.616072, 23.229166, 22.946428, 22.875, 22.74107, 22.401785, 22.029762, 21.883928, 21.910713, 22, 22.0625, 22.125, 22.125, 22.125, 22.125, 22.1875, 22.1875, 22.1875, 22.125, 22.125, 22.1875, 22.1875, 22.214287, 22.125, 22.107143, 22.0625, 22.0625, 22.1875, 22.375, 22.5625, 22.625, 22.666666, 10, 10, 10, 10, 10, 10.0625, 10.0625, 10.0625, 10.0625, 10, 10, 10, 10, 10, 10, 10, 10, 9.9107141, 9.8392859, 9.875, 9.8125, 9.9375, 9.9375, 9.9375, 10, 10, 10, 10, 10, 10, 10, 10, 10, 10, 10, 10, 10, 10, 10, 10.125, 10.145833, 10.083333, 10.166667, 10.111111, -10, -10, -10, -10, -10, 22.875, 23.25, 23.589287, 24.166666, 24.305555, 24.75, 24.895834, 24.875, 24.9375, 24.875, 24.8125, 24.8125, 24.6875, 24.5625, 24.375, 23.982141, 23.568453, 23.517857, 23.625, 23.982143, 24.044643, 24, 23.8125, 23.625, 23.625, 23.75, 23.875, 24.0625
-10, -10, -10, -10, -10, -10, -10, -10, 59.75, 60, 59.973213, 59.696426, 59.065475, 58.425598, 57.875, 57.5, 57, 56.5, 56.0625, 55.5625, 55.3125, 54.8125, 54.5, 54, 53.5, 53, 52.5, 52, 51.5, 51, 50.5, 50.1875, 49.6875, 49.25, 48.660713, 48.1875, 47.6875, 47.3125, 46.767857, 46.1875, 45.55357, 45.25, 44.875, 44.59375, 44.09375, 43.504463, 43.21875, 42.75, 42.375, 41.785713, 41.25, 40.660713, 40.375, 39.875, 39.375, 38.785713, 38.375, 37.875, 37.5, 37, 36.4375, 35.955357, 35.5, 35.15625, 34.78125, 34.34375, 33.491497, 33.029762, 32.553574, 32.1875, 31.705357, 31.104166, 30.589285, 30.25, 29.767857, 29.3125, 28.723213, 28.375, 27.9375, 27.5625, 27.1875, 26.625, 26.041666, 25.633928, 25.053572, 24.345238, 23.883928, 23.4375, 23.25, 22.8125, 22.5, 22.0625, 21.5625, 21.3125, 20.8125, 20.75, 20.75, 20.875, 21.3125, 21.4375, 21.625, 21.6875, 21.75, 21.875, 21.90625, 21.84375, 21.65625, 21.46875, 21.375, 21.375, 21.5, 21.625, 21.75, 21.785713, 21.791666, 22.0625, 22.125, 22.25, 22.3125, 22.375, 22.4375, 22.4375, 22.5, 22.625, 22.645834, 22.6, 22.678572, 22.6875, 22.9375, 23.03125, 23.34375, 23.59375, 23.950893, 24.3125, 24.5625, 24.75, 24.75, 24.75, 24.8125, 24.8125, 24.9375, 25, 25, 24.9375, 24.9375, 25.0625, 25.1875, 25.375, 25.5, 25.40625, 25.34375, 25.28125, 25.28125, 25.375, 25.544643, 25.59375, 25.59375, 25.65625, 25.59375, 25.65625, 25.78125, 25.995537, 26.196428, 26.0625, 25.724701, 23.965277, 23.5, 23.258928, 23.076391, 23.201391, 23.685516, 24.203375, 24.425596, 24.645834, 24.928572, 25.276787, 25.6875, 25.866072, 26, 26, 26, 26, 26, 26, 25.9375, 25.875, 25.8125, 25.75, 25.6875, 25.625, 25.625, 25.5, 25.4375, 25.375, 25.3125, 25.3125, 25.25, 25.125, 24.767857, 24.5, 24.25, 24, 23.875, 23.8125, 23.75, 23.8125, 23.875, 23.75, 23.491072, 22.925594, 22.526785, 22.455357, 22.36607, 22.049107, 21.915178, 21.65625, 21.71875, 21.75, 21.8125, 21.9375, 21.9375, 22, 21.9375, 21.9375, 21.8125, 21.75, 21.75, 21.6875, 21.75, 21.625, 21.387756, 21.6875, 21.839287, 21.9375, 21.9375, 22, 22.125, 22.25, 22.375, 22.416666, 10.125, 10.166667, 10.1875, 10.25, 10.25, 10.25, 10.1875, 10.125, 10.0625, 10, 10, 10, 10, 10, 10, 10, 10, 9.9107141, 9.8392859, 9.875, 9.8125, 9.9375, 9.9375, 9.9375, 10, 10, 10, 10, 10, 10, 10, 10, 10, 10, 10, 10, 9.9375, 9.875, 9.8928566, 10.208333, 10.295834, -10, -10, -10, -10, -10, -10, 23.5, 23.5, 23.25, 23.5, 23.726191, 24.125, 24.229166, 24.375, 24.625, 24.625, 24.6875, 24.589287, 24.5, 24.5, 24.375, 24.25, 24.125, 23.663265, 23.443453, 23.455357, 23.473213, 23.625, 23.6875, 23.625, 23.5, 23.4375, 23.4375, 23.625, 23.8125, 23.857143, 23.862499, 23.857143, 23.8125, 24, 24.1875, 24.348213, 24.3125, 24.214287, 24.0625, 24, 24, 24.0625, 24, 24, 24, 24.125, 24.25, 24.25, 24.25, 24.0625, 24.1875, 24.4375, 24.6875, 24.9375, 24.9375, 25.089287, 25.285713, 25.375, 25.583332, -10, -10, -10, -10, -10, -10, -10, -10, -10, -10, -10, -10, -10, -10, -10, -10, -10, -10, -10, -10, -10, -10, -10, -10, -10, -10, -10, -10, -10, -10, -10, -10, -10, -10, -10, -10, -10, -10, 60, 60.150002, 59.952381, 59.571426, 58.940475, 58.363098, 57.8125, 57.5, 57, 56.5, 56, 55.5, 55.25, 54.75, 54.5, 54, 53.5, 53.0625, 52.553574, 51.916668, 51.446426, 50.9375, 50.5, 50.125, 49.625, 49.125, 48.535713, 48.0625, 47.5625, 47.25, 46.736607, 46.28125, 45.691963, 45.34375, 44.875, 44.53125, 44.03125, 43.486607, 43.21875, 42.75, 42.375, 41.785713, 41.25, 40.660713, 40.375, 39.875, 39.375, 38.785713, 38.375, 37.875, 37.5, 37, 36.4375, 36.017857, 35.5625, 35.1875, 34.767857, 34.375, 33.819729, 33.092262, 32.616074, 32.25, 31.8125, 31.166666, 30.651785, 30.3125, 29.875, 29.375, 28.785713, 28.375, 27.875, 27.5, 27.1875, 26.669643, 26.104166, 25.696428, 25.0625, 24.160713, 23.705357, 23.3125, 23.1875, 22.8125, 22.5, 22.125, 21.6875, 21.5, 21.125, 21.03125, 20.96875, 20.96875, 21.21875, 21.1875, 21.3125, 21.375, 21.4375, 21.5625, 21.53125, 21.46875, 21.28125, 21.15625, 21.125, 21.125, 21.25, 21.375, 21.5625, 21.598213, 21.604166, 21.8125, 21.8125, 21.9375, 22, 22.125, 22.1875, 22.1875, 22.25, 22.375, 22.395834, 22.4125, 22.491072, 22.375, 22.5625, 22.763393, 23.084822, 23.40625, 23.71875, 24.0625, 24.3125, 24.5, 24.5, 24.5, 24.5625, 24.625, 24.8125, 24.9375, 25, 24.9375, 24.9375, 25.0625, 25.125, 25.25, 25.3125, 25.15625, 25.09375, 25.03125, 25.03125, 25.1875, 25.357143, 25.40625, 25.40625, 25.46875, 25.46875, 25.53125, 25.65625, 25.745537, 25.883928, 25.75, 25.443451, 23.861109, 23.291666, 22.696428, 22.353743, 22.261906, 22.748301, 23.29932, 23.704082, 24.071428, 24.25, 24.647959, 25.4375, 25.616072, 25.875, 25.875, 25.9375, 26, 26, 26, 25.9375, 25.875, 25.8125, 25.6875, 25.5625, 25.4375, 25.375, 25.25, 25.1875, 25.125, 25.0625, 25.0625, 25.0625, 25.0625, 24.875, 24.6875, 24.4375, 24.0625, 23.839287, 23.75, 23.625, 23.75, 23.8125, 23.75, 23.544643, 22.77976, 22.276785, 22.142857, 22.05357, 21.736607, 21.665178, 21.46875, 21.59375, 21.6875, 21.8125, 21.9375, 21.875, 21.9375, 21.875, 21.875, 21.75, 21.5625, 21.392857, 21.1875, 21.125, 21, 20.964287, 21.1875, 21.401787, 21.589287, 21.723213, 21.75, 21.9375, 22, 22.125, 22.166666, 10.375, 10.416667, 10.4375, 10.5, 10.4375, 10.3125, 10.1875, 10.0625, 10, 10, 10, 10, 10, 10, 10, 10, 10, 9.9107141, 9.8392859, 9.875, 9.8125, 9.9375, 9.9375, 9.9375, 10, 9.9375, 9.875, 9.875, 9.875, 9.9375, 10, 10, 10, 10, 10, 10, 9.9375, 9.875, 9.9553566, 10.270833, 10.4, -10, -10, -10, -10, -10, 24, 23.666666, 23.666666, 23.4375, 23.5625, 23.669643, 23.8125, 23.875, 24, 24.1875, 24.1875, 24.21875, 24.183037, 24.09375, 24.09375, 23.9375, 23.75, 23.65625, 23.428572, 23.339287, 23.40625, 23.410713, 23.40625, 23.40625, 23.25, 23.1875, 23.25, 23.285713, 23.5, 23.6875, 23.669643
-10, -10, -10, -10, -10, -10, -10, -10, 60.25, 60.316666, 60.014881, 59.464287, 58.761902, 58.321426, 57.8125, 57.5, 57.0625, 56.5625, 56.0625, 55.517857, 55.25, 54.75, 54.5, 54, 53.5, 53.0625, 52.553574, 51.916668, 51.446426, 50.9375, 50.5, 50.0625, 49.5625, 49.0625, 48.517857, 48.0625, 47.5625, 47.3125, 46.84375, 46.28125, 45.754463, 45.28125, 44.767857, 44.40625, 43.96875, 43.53125, 43.28125, 42.8125, 42.4375, 41.892857, 41.25, 40.616074, 40.3125, 39.8125, 39.4375, 38.892857, 38.375, 37.830357, 37.4375, 36.9375, 36.5, 36.125, 35.625, 35.25, 34.767857, 34.4375, 33.782738, 33.092262, 32.571426, 32.1875, 31.75, 31.375, 30.830357, 30.4375, 29.9375, 29.4375, 28.892857, 28.375, 27.830357, 27.4375, 27.1875, 26.732143, 26.104166, 25.651785, 25.0625, 24.267857, 23.821428, 23.291666, 23.133928, 22.75, 22.5, 22.125, 21.6875, 21.4375, 21.125, 21.03125, 20.96875, 21, 21.125, 21.09375, 21.15625, 21.1875, 21.25, 21.375, 21.375, 21.3125, 21.1875, 21.0625, 21.0625, 21.0625, 21.125, 21.1875, 21.3125, 21.348213, 21.354166, 21.5625, 21.625, 21.75, 21.8125, 21.9375, 21.9375, 22, 22.0625, 22.1875, 22.208334, 22.1625, 22.241072, 22.1875, 22.5, 22.799107, 23.084822, 23.34375, 23.53125, 23.8125, 24.0625, 24.25, 24.25, 24.25, 24.3125, 24.4375, 24.6875, 24.875, 25, 24.9375, 24.9375, 25, 25, 25.0625, 25.0625, 24.90625, 24.84375, 24.78125, 24.78125, 24.9375, 25.107143, 25.1875, 25.25, 25.375, 25.375, 25.46875, 25.59375, 25.59375, 25.625, 25.46875, 25.037201, 24.472221, 24.083334, 22.875, 22.556122, 22.428572, 22.760204, 23.166668, 23.454082, 23.96875, 24.03125, 24.410713, 25.0625, 25.303572, 25.625, 25.625, 25.71875, 25.84375, 25.90625, 25.96875, 25.9375, 25.875, 25.75, 25.5625, 25.375, 25.1875, 25.0625, 25, 25, 25, 25.0625, 25.0625, 25.0625, 25.0625, 24.9375, 24.75, 24.5, 24.125, 23.839287, 23.75, 23.5625, 23.6875, 23.75, 23.75, 23.607143, 22.71726, 22.107141, 21.955357, 21.848213, 21.549107, 21.415178, 21.09375, 21.15625, 21.25, 21.4375, 21.6875, 21.6875, 21.75, 21.75, 21.6875, 21.625, 21.4375, 21.205357, 21, 20.8125, 20.625, 20.589287, 20.8125, 21.089287, 21.339287, 21.473213, 21.5, 21.6875, 21.75, 21.875, 21.916666, 10.5, 10.541667, 10.5625, 10.65625, 10.53125, 10.375, 10.21875, 10.0625, 10, 10, 10, 10, 10, 10, 10, 10, 9.9375, 9.875, 9.875, 9.875, 9.875, 9.9375, 9.9375, 9.9375, 10, 9.9375, 9.875, 9.875, 9.875, 10, 10.0625, 10.0625, 10.0625, 10, 9.9375, 9.9375, 9.875, 9.8125, 10.017857, 10.395833, 10.566668, -10, -10, -10, -10, -10, -10, 23.75, 23.75, 23.8125, 23.75, 23.6875, 23.625, 23.625, 23.6875, 23.8125, 23.875, 23.78125, 23.745537, 23.65625, 23.65625, 23.625, 23.5, 23.40625, 23.205357, 23.125, 23.21875, 23.223213, 23.15625, 23.15625, 22.9375, 22.9375, 22.9375, 22.973213, 23.1875, 23.375, 23.419643, 23.424999, 23.419643, 23.25, 23.375, 23.4375, 23.607143, 23.762501, 23.598213, 23.705357, 23.75, 23.875, 24, 23.9375, 23.9375, 23.9375, 24.125, 24.3125, 24.3125, 24.3125, 24.196428, 24.520834, 24.708334, 24.666666, 24.696428, 24.6875, 24.875, 25.25, 25.5625, 25.799999, -10, -10, -10, -10, -10, -10, -10, -10, -10, -10, -10, -10, -10, -10, -10, -10, -10, -10, -10, -10, -10, -10, -10, -10, -10, -10, -10, -10, -10, -10, -10, -10, -10, -10, -10, -10, -10, -10, 60.625, 60.466667, 59.979168, 59.401787, 58.866074, 58.5, 57.9375, 57.517857, 57.125, 56.625, 56.125, 55.535713, 55.1875, 54.75, 54.482143, 53.892857, 53.446426, 53, 52.553574, 51.916668, 51.446426, 50.9375, 50.5, 50.0625, 49.5625, 49.125, 48.580357, 48.1875, 47.6875, 47.375, 46.90625, 46.28125, 45.754463, 45.21875, 44.705357, 44.375, 43.9375, 43.5625, 43.25, 42.75, 42.4375, 41.9375, 41.3125, 40.678574, 40.25, 39.705357, 39.375, 38.830357, 38.375, 37.830357, 37.4375, 36.9375, 36.5, 36.125, 35.625, 35.3125, 34.830357, 34.5625, 34.116074, 33.395832, 32.821426, 32.3125, 31.8125, 31.375, 30.830357, 30.4375, 30, 29.553572, 28.916666, 28.383928, 27.830357, 27.4375, 27.1875, 26.741072, 26.229166, 25.714285, 25.1875, 24.375, 23.883928, 23.309523, 23.133928, 22.75, 22.5, 22.125, 21.6875, 21.4375, 21.125, 21.03125, 20.96875, 20.96875, 21.03125, 21, 21, 21, 21.0625, 21.125, 21.1875, 21.1875, 21.125, 21.0625, 21, 20.9375, 20.875, 20.8125, 20.9375, 20.973213, 21.041666, 21.3125, 21.375, 21.5, 21.625, 21.8125, 21.875, 22, 22, 22, 22.0625, 22.125, 22.125, 22.125, 22.1875, 22.508928, 22.991072, 23.258928, 23.4375, 23.5625, 23.758928, 24.145834, 24.169643, 24.1875, 24.1875, 24.25, 24.5, 24.75, 24.9375, 24.875, 24.875, 24.9375, 24.9375, 25.0625, 25.0625, 24.9375, 24.90625, 24.90625, 24.90625, 24.96875, 25, 25, 25, 25.0625, 25.125, 25.25, 25.3125, 25.3125, 25.28125, 25.15625, 24.995537, 24.809525, 24.581633, 24.333334, 24.428572, 24.375, 24.666666, 24.583334, 24.625, 24.34375, 24.227678, 24.310715, 24.9375, 25.044643, 25.375, 25.375, 25.53125, 25.71875, 25.84375, 25.96875, 25.9375, 25.875, 25.6875, 25.4375, 25.3125, 25.1875, 25.044643, 24.854166, 24.758928, 24.6875, 24.875, 24.9375, 25, 24.991072, 24.75, 24.625, 24.375, 24.125, 23.839287, 23.75, 23.5625, 23.625, 23.625, 23.5625, 23.428572, 22.738094, 22.160713, 21.955357, 21.8125, 21.65625, 21.53125, 21.21875, 21.09375, 21.0625, 21.1875, 21.4375, 21.5, 21.5625, 21.5625, 21.5, 21.5625, 21.375, 21.142857, 20.875, 20.5625, 20.4375, 20.4375, 20.625, 20.857143, 21.089287, 21.223213, 21.25, 21.4375, 21.5, 21.625, 21.888887, 10.5, 10.541667, 10.5625, 10.65625, 10.53125, 10.375, 10.21875, 10.0625, 10, 10, 10, 10, 10, 10, 10, 10, 10, 10, 10, 10, 10, 10, 10, 10, 10, 9.9375, 9.875, 9.875, 9.9375, 10.125, 10.1875, 10.1875, 10.125, 9.9375, 9.8125, 9.8125, 9.75, 9.729167, 10.023809, 10.444444, 10.644444, -10, -10, -10, -10, -10, -10, 24, 24, 24, 23.875, 23.6875, 23.5625, 23.5625, 23.5, 23.5625, 23.5, 23.28125, 23.308037, 23.28125, 23.34375, 23.3125, 23.125, 23.058037, 23.0625, 23.107143, 23.138393, 23.0375, 23.052084, 22.84375, 22.758928, 22.6875, 22.6875, 22.723213, 22.875, 23.0625, 23.107143
-10, -10, -10, -10, -10, -10, -10, -10, 60.75, 60.466667, 59.979168, 59.517857, 59, 58.580357, 58, 57.517857, 57.1875, 56.6875, 56.3125, 55.767857, 55.196426, 54.741074, 54.357143, 53.767857, 53.321426, 52.875, 52.491074, 51.854168, 51.446426, 50.9375, 50.5, 50, 49.5, 49.125, 48.625, 48.3125, 47.8125, 47.4375, 46.96875, 46.34375, 45.861607, 45.21875, 44.660713, 44.3125, 43.875, 43.5, 43.080357, 42.625, 42.25, 41.8125, 41.3125, 40.723213, 40.3125, 39.767857, 39.3125, 38.723213, 38.3125, 37.767857, 37.4375, 37, 36.5625, 36.125, 35.580357, 35.25, 34.705357, 34.4375, 33.9375, 33.4375, 32.955357, 32.491074, 31.854166, 31.3125, 30.767857, 30.375, 30, 29.607143, 28.833332, 28.330357, 27.799107, 27.46875, 27.15625, 26.71875, 26.375, 25.830357, 25.321428, 24.601191, 24.0625, 23.434523, 23.196428, 22.75, 22.4375, 21.955357, 21.5625, 21.3125, 21.1875, 21.15625, 21.09375, 21.09375, 21.03125, 20.9375, 20.875, 20.875, 20.875, 20.9375, 21, 21, 21, 21, 21, 20.9375, 20.8125, 20.6875, 20.6875, 20.75, 20.875, 21, 21.125, 21.1875, 21.375, 21.5625, 21.6875, 21.875, 21.9375, 21.9375, 22, 22.125, 22.160713, 22.125, 22.15625, 22.383928, 22.866072, 23.133928, 23.28125, 23.40625, 23.633928, 24.052084, 24.138393, 24.1875, 24.09375, 24.125, 24.3125, 24.5, 24.6875, 24.6875, 24.75, 24.875, 24.9375, 25.0625, 25.0625, 25, 25, 25, 25, 25, 25, 25, 25, 25, 25.0625, 25.1875, 25.1875, 25.1875, 25.125, 25, 25.03125, 25.15625, 25.0625, 24.964285, 25.081633, 25, 25.178572, 25.071428, 25, 25.071428, 24.758928, 24.721428, 25, 24.928572, 25.125, 25.125, 25.28125, 25.53125, 25.71875, 25.84375, 25.875, 25.8125, 25.5625, 25.375, 25.25, 25.0625, 24.919643, 24.666666, 24.508928, 24.375, 24.526787, 24.732143, 24.794643, 24.741072, 24.464287, 24.375, 24.1875, 24.125, 23.964287, 23.9375, 23.8125, 23.75, 23.625, 23.5, 23.366072, 22.845238, 22.267857, 22.0625, 21.75, 21.6875, 21.5, 21.25, 21.0625, 21, 21.0625, 21.3125, 21.348213, 21.276787, 21.375, 21.3125, 21.5, 21.375, 21.080357, 20.875, 20.5625, 20.5, 20.5625, 20.625, 20.6875, 20.776787, 20.910713, 20.9375, 21.1875, 21.3125, 21.5, 10, 10.375, 10.375, 10.375, 10.40625, 10.28125, 10.1875, 10.09375, 10, 10, 10, 10, 10, 10, 10, 10, 10, 10, 10, 10, 10, 10, 10, 10, 10, 10, 9.9375, 9.875, 9.875, 9.9375, 10.125, 10.1875, 10.1875, 10.0625, 9.8125, 9.625, 9.5625, 9.5625, 9.604167, -10, -10, -10, -10, -10, -10, -10, -10, -10, 23.916666, 23.9375, 23.875, 23.75, 23.5, 23.375, 23.375, 23.3125, 23.3125, 23.1875, 23.03125, 23.09375, 23.09375, 23.09375, 23, 22.75, 22.620537, 22.625, 22.669643, 22.700893, 22.6, 22.694941, 22.543751, 22.401785, 22.4375, 22.375, 22.473213, 22.5625, 22.6875, 22.75, 22.75, 22.75, 22.75, 22.8125, 22.9375, 23.071428, 23.200001, 23.071428, 23.205357, 23.25, 23.4375, 23.625, 23.75, 23.875, 23.9375, 24.0625, 24.1875, 24.1875, 24.25, 24.383928, 24.752977, 24.895834, 24.666666, 24.446428, 24.392857, 24.583334, 24.964287, 25.6875, 25.9, -10, -10, -10, -10, -10, -10, -10, -10, -10, -10, -10, -10, -10, -10, -10, -10, -10, -10, -10, -10, -10, -10, -10, -10, -10, -10, -10, -10, -10, -10, -10, -10, -10, -10, -10, -10, -10, -10, 60.5, 60.316666, 60, 59.580357, 59.017857, 58.580357, 58, 57.517857, 57.1875, 56.6875, 56.375, 55.830357, 55.258926, 54.803574, 54.357143, 53.767857, 53.258926, 52.705357, 52.3125, 51.8125, 51.4375, 51, 50.5625, 50.0625, 49.517857, 49.1875, 48.6875, 48.4375, 47.9375, 47.5, 47, 46.3125, 45.830357, 45.1875, 44.660713, 44.3125, 43.875, 43.4375, 42.910713, 42.5, 42.0625, 41.6875, 41.3125, 40.767857, 40.375, 39.830357, 39.3125, 38.723213, 38.3125, 37.767857, 37.4375, 37, 36.5625, 36.0625, 35.517857, 35.1875, 34.6875, 34.4375, 33.9375, 33.4375, 33.017857, 32.544643, 31.770832, 31.1875, 30.642857, 30.3125, 29.9375, 29.607143, 28.833332, 28.330357, 27.861607, 27.53125, 27.15625, 26.674107, 26.3125, 25.767857, 25.375, 24.892857, 24.303572, 23.577381, 23.258928, 22.75, 22.375, 21.785713, 21.375, 21.0625, 20.875, 20.8125, 20.8125, 20.875, 20.875, 20.875, 20.75, 20.6875, 20.6875, 20.6875, 20.8125, 20.875, 20.9375, 20.9375, 20.875, 20.75, 20.5625, 20.4375, 20.4375, 20.5625, 20.75, 20.875, 20.9375, 20.875, 20.9375, 21.125, 21.375, 21.732143, 21.8125, 21.875, 21.9375, 22, 22.098213, 22.125, 22.21875, 22.401785, 22.875, 23.071428, 23.15625, 23.28125, 23.508928, 23.989584, 24.138393, 24.1875, 24.09375, 24, 24.125, 24.25, 24.375, 24.4375, 24.5, 24.5625, 24.6875, 24.875, 24.875, 24.875, 24.875, 24.875, 24.9375, 25, 25, 25, 25, 25, 25.0625, 25.1875, 25.1875, 25.1875, 25.125, 25, 25, 25.0625, 25.0625, 25.1875, 25.375, 25.375, 25.5, 25.375, 25.25, 25.25, 25.071428, 24.8375, 24.9375, 24.866072, 24.9375, 25, 25.09375, 25.28125, 25.46875, 25.59375, 25.6875, 25.6875, 25.5, 25.375, 25.25, 25, 24.794643, 24.479166, 24.258928, 24.0625, 24.214287, 24.419643, 24.482143, 24.491072, 24.276787, 24.1875, 24.0625, 24.125, 23.928572, 23.799999, 23.866072, 23.669643, 23.5625, 23.375, 23.1875, 22.928572, 22.517857, 22.3125, 22, 21.875, 21.5625, 21.25, 20.875, 20.75, 20.75, 20.9375, 21.035713, 20.901787, 21, 21, 21.25, 21.3125, 21.125, 20.9375, 20.625, 20.4375, 20.4375, 20.4375, 20.5, 20.5625, 20.6875, 20.75, 20.916666, 21.166666, 10.166666, 10.166667, 10.3125, 10.3125, 10.25, 10.21875, 10.09375, 10.0625, 10.03125, 10, 10, 10, 10, 10, 10, 10, 10, 10, 10, 10, 10, 10, 10, 10, 10, 10, 10, 10, 10, 10, 10.0625, 10.1875, 10.1875, 10.1875, 10.0625, 9.75, 9.5, 9.375, 9.3125, 9.354167, -10, -10, -10, -10, -10, -10, -10, -10, 23.25, 23.75, 23.8125, 23.8125, 23.75, 23.5, 23.375, 23.3125, 23.25, 23.25, 23.125, 23, 23, 22.9375, 22.875, 22.75, 22.4375, 22.276787, 22.3125, 22.357143, 22.321428, 22.35, 22.520834, 22.387501, 22.339285, 22.3125, 22.125, 22.1875, 22.1875, 22.25, 22.375
-10, -10, -10, -10, -10, -10, -10, -10, 60.25, 60.150002, 59.875, 59.5625, 59.017857, 58.580357, 58.0625, 57.580357, 57.1875, 56.642857, 56.3125, 55.8125, 55.196426, 54.741074, 54.294643, 53.705357, 53.196426, 52.598213, 52.25, 51.75, 51.4375, 51.0625, 50.625, 50.125, 49.535713, 49.1875, 48.6875, 48.375, 47.875, 47.375, 46.875, 46.375, 45.830357, 45.3125, 44.767857, 44.375, 43.875, 43.375, 42.848213, 42.4375, 42, 41.580357, 41.3125, 40.8125, 40.4375, 39.892857, 39.25, 38.616074, 38.3125, 37.8125, 37.5, 37.0625, 36.5625, 36.0625, 35.517857, 35.125, 34.625, 34.34375, 33.84375, 33.46875, 33.09375, 32.607143, 31.895832, 31.25, 30.705357, 30.330357, 29.9375, 29.575893, 28.802082, 28.361607, 27.9375, 27.59375, 27.15625, 26.611607, 26.3125, 25.8125, 25.4375, 24.857143, 23.958334, 23.410713, 23.125, 22.75, 22.375, 21.785713, 21.375, 21.125, 20.875, 20.75, 20.6875, 20.625, 20.625, 20.5625, 20.5, 20.4375, 20.4375, 20.5, 20.5625, 20.6875, 20.8125, 20.84375, 20.71875, 20.53125, 20.28125, 20.125, 20.1875, 20.375, 20.535713, 20.589287, 20.625, 20.5, 20.5625, 20.758928, 21.270834, 21.660713, 21.8125, 21.8125, 21.875, 21.9375, 22.035713, 22.0625, 22.09375, 22.241072, 22.75, 23.071428, 23.15625, 23.21875, 23.446428, 23.864584, 24.075893, 24.1875, 24.09375, 23.96875, 24.09375, 24.21875, 24.34375, 24.40625, 24.40625, 24.46875, 24.53125, 24.6875, 24.6875, 24.6875, 24.8125, 24.946428, 25.03125, 25.09375, 24.96875, 24.9375, 24.9375, 24.9375, 25.0625, 25.0625, 25.0625, 25.0625, 25, 25, 25, 25, 24.9375, 25, 25.125, 25.1875, 25.3125, 25.25, 25.1875, 25.25, 25.196428, 24.9, 24.9375, 24.803572, 24.8125, 24.9375, 25.0625, 25.1875, 25.25, 25.25, 25.330357, 25.4375, 25.3125, 25.3125, 25.1875, 25, 24.794643, 24.416666, 24.133928, 23.875, 23.964287, 24.169643, 24.232143, 24.241072, 24.089287, 24.035713, 23.901787, 24, 23.741072, 23.612499, 23.741072, 23.544643, 23.4375, 23.25, 23, 22.866072, 22.625, 22.428572, 21.979166, 21.821428, 21.5, 21.3125, 20.9375, 20.75, 20.75, 20.8125, 20.848213, 20.714287, 20.6875, 20.625, 20.875, 20.9375, 20.8125, 20.6875, 20.4375, 20.3125, 20.25, 20.25, 20.25, 20.25, 20.4375, 20.5, 20.604166, 10.25, 10.333333, 10.3125, 10.4375, 10.375, 10.25, 10.125, 10, 10, 10, 10.0625, 10.125, 10.125, 10.125, 10.0625, 10, 9.9375, 9.9375, 9.9375, 9.875, 9.9375, 9.9375, 9.9375, 10, 10, 10, 10, 10, 10, 10, 10, 10.0625, 10.125, 10.125, 10.125, 10, 9.6875, 9.4375, 9.25, 9.125, 9.229167, -10, -10, -10, -10, -10, -10, -10, -10, 23.25, 23.5, 23.645834, 23.6875, 23.75, 23.5625, 23.4375, 23.3125, 23.1875, 23.125, 23, 22.9375, 22.9375, 22.875, 22.6875, 22.4375, 22.0625, 21.901787, 22, 22.107143, 22.008928, 22.1, 22.333334, 22.200001, 22.214285, 22.125, 21.9375, 22, 22, 22.0625, 22.125, 22.125, 22.1875, 22.3125, 22.375, 22.5625, 22.6875, 22.75, 22.875, 23, 23.0625, 23.1875, 23.3125, 23.4375, 23.625, 23.6875, 23.8125, 23.946428, 24.270834, 24.491072, 24.5625, 24.669643, 24.625, 24.4375, 24.34375, 24.361607, 24.552084, 24.745537, 25.40625, 25.475, -10, -10, -10, -10, -10, -10, -10, -10, -10, -10, -10, -10, -10, -10, -10, -10, -10, -10, -10, -10, -10, -10, -10, -10, -10, -10, -10, -10, -10, -10, -10, -10, -10, -10, -10, -10, -10, -10, 60, 59.916668, 59.75, 59.375, 58.830357, 58.392857, 58, 57.625, 57.1875, 56.598213, 56.25, 55.794643, 55.196426, 54.678574, 54.25, 53.75, 53.1875, 52.553574, 52.1875, 51.6875, 51.4375, 51.0625, 50.625, 50.125, 49.535713, 49.125, 48.625, 48.3125, 47.8125, 47.375, 46.875, 46.4375, 45.9375, 45.4375, 44.892857, 44.4375, 43.9375, 43.375, 42.910713, 42.5, 42, 41.535713, 41.25, 40.75, 40.4375, 39.892857, 39.25, 38.647324, 38.34375, 37.84375, 37.53125, 37.0625, 36.5, 35.955357, 35.455357, 35, 34.5625, 34.21875, 33.71875, 33.40625, 33.03125, 32.607143, 31.958332, 31.375, 30.875, 30.410713, 29.9375, 29.459822, 28.778273, 28.352678, 27.9375, 27.59375, 27.09375, 26.549107, 26.1875, 25.6875, 25.375, 24.75, 23.645834, 23.196428, 22.9375, 22.6875, 22.375, 21.785713, 21.375, 21.0625, 20.8125, 20.625, 20.5, 20.4375, 20.375, 20.3125, 20.25, 20.1875, 20.125, 20.125, 20.1875, 20.3125, 20.5, 20.59375, 20.53125, 20.40625, 20.21875, 20.125, 20.125, 20.25, 20.348213, 20.339287, 20.375, 20.25, 20.25, 20.446428, 20.958334, 21.410713, 21.6875, 21.75, 21.8125, 21.875, 21.973213, 22.0625, 22.21875, 22.3125, 22.5625, 22.875, 22.96875, 23.15625, 23.4375, 23.65625, 23.90625, 24, 23.90625, 23.78125, 23.78125, 23.915178, 24.239584, 24.397322, 24.46875, 24.53125, 24.53125, 24.5625, 24.5, 24.4375, 24.625, 24.821428, 24.96875, 25.09375, 24.90625, 24.8125, 24.75, 24.6875, 24.75, 24.6875, 24.6875, 24.6875, 24.6875, 24.8125, 24.875, 24.875, 24.8125, 24.75, 24.8125, 24.875, 25, 25.0625, 25, 25.0625, 25.125, 24.9375, 24.8125, 24.6875, 24.625, 24.8125, 24.9375, 25.0625, 25, 24.875, 24.955357, 25.0625, 25, 25.0625, 24.875, 24.6875, 24.5, 24.3125, 24.125, 23.875, 23.964287, 24.080357, 24.00893, 24.0625, 23.964287, 24, 24.142857, 24.166666, 23.782738, 23.541071, 23.553572, 23.419643, 23.3125, 23.125, 22.9375, 22.866072, 22.625, 22.428572, 21.872023, 21.633928, 21.3125, 21.1875, 20.875, 20.6875, 20.625, 20.625, 20.598213, 20.464287, 20.4375, 20.3125, 20.4375, 20.4375, 20.3125, 20.25, 20.125, 20.0625, 20, 20, 20, 20, 20.1875, 20.25, 20.354166, 10.25, 10.5, 10.5625, 10.625, 10.5, 10.3125, 10.125, 10, 10, 10, 10.0625, 10.125, 10.125, 10.125, 10.0625, 10, 9.875, 9.875, 9.875, 9.8125, 9.9375, 9.9375, 9.9375, 10, 10, 10, 10, 10, 10, 9.9375, 9.9375, 9.9375, 9.9375, 10, 10, 9.9375, 9.6875, 9.4375, 9.25, 9.125, 9.25, 9.666666, -10, -10, -10, -10, -10, -10, -10, -10, 23.25, 23.479168, 23.5625, 23.6875, 23.5625, 23.3125, 23.017857, 22.9375, 22.875, 22.875, 22.875, 22.8125, 22.6875, 22.4375, 22.25, 22, 21.9375, 22, 22, 21.933037, 22.09375, 22.28125, 22.342857, 22.142857, 22.125, 21.875, 22, 22, 22, 22
-10, -10, -10, -10, -10, -10, -10, -10, 60, 59.833336, 59.625, 59.1875, 58.642857, 58.3125, 58, 57.75, 57.303574, 56.577381, 56.133926, 55.625, 55.1875, 54.642857, 54.25, 53.75, 53.25, 52.616074, 52.25, 51.75, 51.4375, 51.0625, 50.625, 50.125, 49.535713, 49.0625, 48.625, 48.3125, 47.8125, 47.321426, 46.767857, 46.375, 45.875, 45.5, 45, 44.5, 44, 43.4375, 43.080357, 42.625, 42.125, 41.55357, 41.1875, 40.6875, 40.3125, 39.767857, 39.25, 38.691963, 38.40625, 37.90625, 37.53125, 37, 36.4375, 35.892857, 35.4375, 34.9375, 34.5, 34.09375, 33.59375, 33.34375, 32.90625, 32.553574, 32.104164, 31.5625, 31.0625, 30.49107, 29.9375, 29.34375, 28.754463, 28.34375, 27.90625, 27.5625, 27.125, 26.580357, 26.1875, 25.642857, 25.375, 24.794643, 23.708334, 23.214285, 22.875, 22.5, 22.3125, 21.767857, 21.4375, 21.0625, 20.625, 20.375, 20.1875, 20.125, 20.125, 20.125, 20.125, 20.0625, 19.9375, 19.8125, 19.75, 19.875, 20.125, 20.28125, 20.28125, 20.15625, 20.03125, 20, 20.0625, 20.1875, 20.223213, 20.151787, 20.125, 20.0625, 20.0625, 20.321428, 20.833334, 21.285713, 21.625, 21.75, 21.875, 21.875, 21.9375, 22, 22.125, 22.25, 22.5, 22.8125, 22.9375, 23.1875, 23.5, 23.723213, 23.875, 23.830357, 23.6875, 23.59375, 23.71875, 23.950893, 24.364584, 24.504465, 24.227678, 24.197916, 24.200893, 24.241072, 24.25, 24.1875, 24.375, 24.633928, 24.84375, 25.03125, 24.90625, 24.75, 24.625, 24.5, 24.5, 24.5, 24.5625, 24.5625, 24.5625, 24.625, 24.625, 24.625, 24.5625, 24.5, 24.5, 24.5625, 24.6875, 24.8125, 24.8125, 24.8125, 24.8125, 24.5625, 24.4375, 24.375, 24.375, 24.625, 24.8125, 24.9375, 24.8125, 24.625, 24.580357, 24.625, 24.625, 24.6875, 24.5625, 24.5, 24.375, 24.25, 24.125, 24, 24.125, 24.098213, 24.026787, 24.0625, 24.0625, 24.1875, 24.276785, 23.916666, 23.491072, 23.291071, 23.303572, 23.294643, 23.125, 22.9375, 22.8125, 22.75, 22.625, 22.321428, 21.747023, 21.383928, 21.125, 21.0625, 20.75, 20.5625, 20.4375, 20.3125, 20.3125, 20.25, 20.125, 20, 20, 19.9375, 19.875, 19.8125, 19.625, 19.5625, 19.5, 19.607143, 19.75, 19.875, 20.0625, 20.125, 20.166666, 20, 10.5, 10.645833, 10.6875, 10.5625, 10.375, 10.125, 10, 10, 10, 10.0625, 10.125, 10.125, 10.125, 10.0625, 10, 9.875, 9.875, 9.875, 9.8125, 9.9375, 9.9375, 9.9375, 10, 10, 10, 10, 10, 9.9375, 9.8125, 9.8125, 9.8125, 9.875, 10, 9.9375, 9.9375, 9.6875, 9.5, 9.4375, 9.3125, 9.5, 9.7777777, -10, -10, -10, -10, -10, -10, -10, -10, 23.083334, 23.375002, 23.5625, 23.75, 23.75, 23.5, 23.133928, 22.875, 22.8125, 22.8125, 22.8125, 22.6875, 22.5, 22.25, 22.125, 21.9375, 21.9375, 22, 22, 21.995537, 22.21875, 22.325893, 22.330357, 22.1875, 22.0625, 21.875, 21.9375, 21.9375, 21.9375, 21.9375, 21.9375, 21.9375, 22.0625, 22.25, 22.375, 22.580357, 22.723213, 22.8125, 23.0625, 23.169643, 23.25, 23.3125, 23.25, 23.375, 23.4375, 23.5625, 23.758928, 24.208334, 24.5, 24.46875, 24.53125, 24.34375, 24.3125, 24.46875, 24.65625, 24.78125, 24.84375, 25.03125, 24.958334, -10, -10, -10, -10, -10, -10, -10, -10, -10, -10, -10, -10, -10, -10, -10, -10, -10, -10, -10, -10, -10, -10, -10, -10, -10, -10, -10, -10, -10, -10, -10, -10, -10, -10, -10, -10, -10, -10, 60, 59.750004, 59.5625, 59.125, 58.625, 58.3125, 58, 57.75, 57.366074, 56.639881, 56.196426, 55.6875, 55.125, 54.535713, 54.1875, 53.6875, 53.25, 52.616074, 52.3125, 51.8125, 51.5, 51.0625, 50.5625, 50.0625, 49.517857, 49, 48.5625, 48.25, 47.75, 47.258926, 46.660713, 46.3125, 45.8125, 45.5, 45.0625, 44.5625, 44.0625, 43.517857, 43.25, 42.75, 42.25, 41.5, 41.017857, 40.5625, 40.1875, 39.705357, 39.25, 38.691963, 38.40625, 37.90625, 37.53125, 37, 36.4375, 35.955357, 35.491074, 34.854168, 34.446426, 33.96875, 33.53125, 33.28125, 32.78125, 32.5, 32.1875, 31.6875, 31.1875, 30.55357, 30.0625, 29.397322, 28.671129, 28.21875, 27.71875, 27.4375, 27.0625, 26.625, 26.1875, 25.598213, 25.3125, 24.732143, 23.770834, 23.321428, 22.875, 22.455357, 22.25, 21.75, 21.4375, 21, 20.5625, 20.3125, 20.0625, 20, 20, 19.9375, 19.9375, 19.9375, 19.75, 19.625, 19.5, 19.5, 19.6875, 19.84375, 19.90625, 19.90625, 19.90625, 19.9375, 20, 20.0625, 20.035713, 19.964287, 20, 20, 20.0625, 20.321428, 20.770834, 21.178572, 21.535713, 21.526787, 21.75, 21.794643, 21.875, 22, 22.0625, 22.125, 22.375, 22.6875, 22.9375, 23.25, 23.5625, 23.723213, 23.75, 23.642857, 23.4375, 23.40625, 23.53125, 23.763393, 24.177084, 24.254465, 24.040178, 24.072916, 24.075893, 24.116072, 24.1875, 24.1875, 24.4375, 24.758928, 24.90625, 25.03125, 24.90625, 24.6875, 24.5, 24.3125, 24.3125, 24.375, 24.4375, 24.4375, 24.375, 24.375, 24.375, 24.375, 24.3125, 24.25, 24.25, 24.3125, 24.4375, 24.5625, 24.5625, 24.5625, 24.5625, 24.375, 24.25, 24.1875, 24.1875, 24.375, 24.5625, 24.6875, 24.5625, 24.375, 24.330357, 24.375, 24.375, 24.4375, 24.3125, 24.3125, 24.25, 24.1875, 24.1875, 24.1875, 24.3125, 24.285713, 24.151787, 24.0625, 24, 24.125, 24.151785, 23.729166, 23.4375, 23.303572, 23.25, 23.294643, 22.964287, 22.875, 22.6875, 22.625, 22.375, 22.008928, 21.434523, 21.133928, 21, 21, 20.75, 20.5, 20.3125, 20.1875, 20.1875, 20.125, 19.9375, 19.6875, 19.5625, 19.4375, 19.375, 19.375, 19.25, 19.25, 19.25, 19.419643, 19.5625, 19.71875, 19.90625, 19.90625, 19.90625, 19.888887, 10.416667, 10.520833, 10.5625, 10.5, 10.375, 10.25, 10.125, 10.0625, 10.0625, 10.0625, 10.125, 10.125, 10.125, 10.0625, 10, 9.875, 9.875, 9.875, 9.8125, 9.9375, 9.9375, 9.9375, 10, 10, 10, 10, 10, 9.9375, 9.8125, 9.8125, 9.75, 9.75, 9.8125, 9.6875, 9.75, 9.5625, 9.4375, 9.5, 9.4375, 9.6875, 9.833333, -10, -10, -10, -10, -10, -10, -10, -10, 23.25, 23.500002, 23.625, 23.8125, 23.8125, 23.5625, 23.196428, 22.875, 22.8125, 22.8125, 22.75, 22.5625, 22.4375, 22.25, 22.1875, 22.125, 22.0625, 22, 22, 22.03125, 22.15625, 22.15625, 22.142857, 22, 21.9375, 21.875, 21.875, 21.875, 21.875, 21.875
-10, -10, -10, -10, -10, -10, -10, -10, 60.125, 59.750004, 59.517857, 59, 58.5, 58.3125, 58, 57.875, 57.553574, 56.809525, 56.267853, 55.705357, 55.125, 54.535713, 54.1875, 53.6875, 53.3125, 52.723213, 52.3125, 51.767857, 51.4375, 50.9375, 50.5, 50, 49.5, 49, 48.5625, 48.25, 47.75, 47.258926, 46.660713, 46.3125, 45.8125, 45.5, 45.0625, 44.5625, 44.0625, 43.517857, 43.21875, 42.71875, 42.28125, 41.535713, 40.788689, 40.375, 40, 39.642857, 39.3125, 38.799107, 38.46875, 37.96875, 37.53125, 37, 36.4375, 35.955357, 35.491074, 34.916668, 34.508926, 34, 33.517857, 33.25, 32.75, 32.5, 32.125, 31.625, 31.1875, 30.598213, 30.125, 29.446428, 28.702379, 28.1875, 27.642857, 27.375, 27.0625, 26.6875, 26.1875, 25.55357, 25.25, 24.705357, 24.0625, 23.571428, 23, 22.410713, 22.125, 21.625, 21.375, 20.875, 20.5, 20.25, 19.9375, 19.875, 19.875, 19.75, 19.6875, 19.75, 19.5625, 19.4375, 19.375, 19.25, 19.3125, 19.4375, 19.4375, 19.5, 19.5625, 19.625, 19.8125, 19.875, 19.9375, 20, 20, 20.0625, 20.0625, 20.25, 20.4375, 20.75, 21.098213, 21.214287, 21.5, 21.607143, 21.75, 21.875, 21.9375, 22, 22.25, 22.5625, 22.982143, 23.375, 23.6875, 23.785713, 23.6875, 23.455357, 23.1875, 23.125, 23.1875, 23.357143, 23.708334, 23.848215, 23.758928, 23.854166, 23.982143, 24.053572, 24.125, 24.125, 24.3125, 24.5625, 24.71875, 24.84375, 24.78125, 24.53125, 24.3125, 24.125, 24.125, 24.28125, 24.34375, 24.34375, 24.21875, 24.125, 24.125, 24.125, 24.125, 24.0625, 24.0625, 24.125, 24.1875, 24.3125, 24.25, 24.1875, 24.125, 24, 24, 24, 24.0625, 24.1875, 24.3125, 24.4375, 24.375, 24.25, 24.1875, 24.125, 24.125, 24.125, 24.0625, 24.0625, 24.0625, 23.991072, 23.791666, 23.830357, 24, 24.142857, 24.089287, 24.0625, 23.9375, 24.026787, 24.0625, 23.604166, 23.375, 23.241072, 23.25, 23.267857, 22.794643, 22.705357, 22.5, 22.4375, 22.125, 21.497023, 21.160713, 20.90625, 20.84375, 20.90625, 20.65625, 20.4375, 20.1875, 19.9375, 19.875, 19.75, 19.625, 19.4375, 19.25, 19.125, 19, 18.9375, 18.875, 18.875, 19, 19.232143, 19.375, 19.53125, 19.65625, 19.65625, 19.65625, 19.888887, 10.25, 10.364583, 10.40625, 10.46875, 10.46875, 10.4375, 10.375, 10.25, 10.1875, 10.0625, 10, 10, 10, 10, 10, 9.9375, 9.9375, 9.9375, 9.9375, 10, 10, 10, 10, 10, 10, 10, 10, 9.9375, 9.8125, 9.75, 9.625, 9.5625, 9.5625, 9.5, 9.625, 9.5625, 9.5625, 9.6875, 9.6875, 9.875, 10, -10, -10, -10, -10, -10, -10, -10, -10, 23.375, 23.583334, 23.6875, 23.75, 23.75, 23.5, 23.133928, 22.875, 22.875, 22.875, 22.8125, 22.5625, 22.375, 22.1875, 22.125, 22.125, 22.0625, 22.0625, 22.0625, 22.09375, 22.15625, 21.96875, 21.892857, 21.75, 21.75, 21.8125, 21.875, 21.875, 21.875, 21.875, 21.9375, 21.9375, 22.0625, 22.25, 22.4375, 22.705357, 22.723213, 22.8125, 22.9375, 22.982143, 23.1875, 23.25, 23.1875, 23.401787, 23.669643, 23.770834, 23.924999, 24.107143, 24.133928, 24.21875, 24.21875, 24.28125, 24.5, 24.75, 25, 25.0625, 25.1875, 25.21875, 25.208334, -10, -10, -10, -10, -10, -10, -10, -10, -10, -10, -10, -10, -10, -10, -10, -10, -10, -10, -10, -10, -10, -10, -10, -10, -10, -10, -10, -10, -10, -10, -10, -10, -10, -10, -10, -10, -10, -10, 60.25, 59.916668, 59.642857, 59.0625, 58.517857, 58.375, 58.035713, 57.901787, 57.669647, 56.809525, 56.267853, 55.705357, 55.125, 54.535713, 54.1875, 53.6875, 53.375, 52.830357, 52.3125, 51.723213, 51.375, 50.875, 50.5, 50.0625, 49.5625, 49.0625, 48.580357, 48.1875, 47.6875, 47.133926, 46.535713, 46.25, 45.75, 45.5, 45.0625, 44.5625, 44.0625, 43.517857, 43.15625, 42.59375, 42.183037, 41.464287, 40.517857, 40.1875, 39.8125, 39.625, 39.25, 38.705357, 38.375, 37.875, 37.5, 37, 36.5, 36.0625, 35.553574, 35.041668, 34.571426, 34.125, 33.642857, 33.3125, 32.8125, 32.5, 32.0625, 31.5625, 31.125, 30.580357, 30.125, 29.508928, 28.809523, 28.25, 27.705357, 27.375, 27.125, 26.75, 26.3125, 25.67857, 25.3125, 24.8125, 24.4375, 23.892857, 23.1875, 22.428572, 22, 21.5, 21.3125, 20.8125, 20.5, 20.25, 19.875, 19.75, 19.75, 19.5625, 19.5, 19.5625, 19.375, 19.3125, 19.25, 19.125, 19.125, 19.1875, 19.1875, 19.25, 19.3125, 19.375, 19.5625, 19.6875, 19.8125, 19.9375, 20, 20.0625, 20.0625, 20.125, 20.276787, 20.607143, 20.901785, 21.026787, 21.1875, 21.232143, 21.392857, 21.791666, 22.008928, 22.125, 22.375, 22.625, 22.982143, 23.4375, 23.75, 23.785713, 23.625, 23.330357, 23.0625, 23.0625, 23.1875, 23.285713, 23.375, 23.419643, 23.321428, 23.479166, 23.732143, 23.928572, 24.0625, 24.125, 24.3125, 24.5625, 24.78125, 24.879463, 24.736607, 24.477678, 24.25, 24.125, 24.1875, 24.34375, 24.40625, 24.40625, 24.21875, 24.0625, 24, 24, 24, 24, 24, 23.9375, 23.875, 23.875, 23.75, 23.6875, 23.625, 23.5625, 23.625, 23.75, 23.875, 23.9375, 24, 24.0625, 24.0625, 24.0625, 24.0625, 24, 23.9375, 23.9375, 23.9375, 23.875, 23.8125, 23.642857, 23.416666, 23.517857, 23.75, 23.919643, 23.9375, 23.875, 23.8125, 23.8125, 23.633928, 23.1875, 23.083334, 23.0625, 23.15625, 23.142857, 22.669643, 22.580357, 22.40625, 22.375, 22.071428, 21.267857, 21.089285, 20.84375, 20.736607, 20.727678, 20.46875, 20.25, 20, 19.6875, 19.5625, 19.4375, 19.3125, 19.125, 19, 18.9375, 18.75, 18.75, 18.6875, 18.6875, 18.9375, 19.169643, 19.25, 19.34375, 19.40625, 19.40625, 19.40625, 9.75, 9.916667, 10.052083, 10.21875, 10.40625, 10.53125, 10.625, 10.625, 10.4375, 10.3125, 10.125, 10, 10, 10, 10, 10, 10, 10, 10, 10, 10, 10, 10, 10, 10, 10, 10, 10, 9.9375, 9.875, 9.8125, 9.625, 9.5, 9.375, 9.3125, 9.5, 9.5625, 9.6875, 9.75, 9.6875, 9.8125, 9.833333, -10, -10, -10, -10, -10, -10, -10, -10, 23.458334, 23.625, 23.75, 23.6875, 23.6875, 23.5625, 23.303572, 23.0625, 23.0625, 22.9375, 22.875, 22.625, 22.4375, 22.25, 22.125, 22.125, 22.0625, 22.0625, 22.125, 22.098213, 21.955357, 21.633928, 21.5, 21.5, 21.5, 21.625, 21.625, 21.625, 21.625, 21.6875
-10, -10, -10, -10, -10, -10, -10, -10, 60.375, 60, 59.660713, 59.0625, 58.517857, 58.375, 57.973213, 57.839287, 57.598217, 56.714287, 56.125, 55.580357, 55, 54.517857, 54.25, 53.75, 53.4375, 52.955357, 52.366074, 51.639881, 51.25, 50.75, 50.4375, 50.0625, 49.625, 49.125, 48.535713, 48.0625, 47.5625, 47.0625, 46.517857, 46.25, 45.75, 45.5, 45.0625, 44.5625, 44.0625, 43.517857, 43.09375, 42.53125, 42.120537, 41.446426, 40.517857, 40.1875, 39.8125, 39.625, 39.1875, 38.642857, 38.3125, 37.8125, 37.5, 37, 36.5, 36.0625, 35.553574, 35.104168, 34.633926, 34.25, 33.767857, 33.375, 32.875, 32.4375, 31.892857, 31.4375, 31, 30.5625, 30.125, 29.571428, 28.916666, 28.3125, 27.767857, 27.375, 27.0625, 26.6875, 26.3125, 25.723213, 25.375, 24.875, 24.5, 24, 23.3125, 22.678572, 22.0625, 21.517857, 21.25, 20.75, 20.5, 20.25, 19.8125, 19.625, 19.5625, 19.3125, 19.25, 19.3125, 19.1875, 19.1875, 19.25, 19.098213, 18.964287, 19, 18.875, 18.928572, 18.862499, 19.053572, 19.3125, 19.5625, 19.75, 19.9375, 20, 20, 20, 20, 20.151787, 20.482143, 20.714285, 20.839287, 20.875, 20.94643, 21.25, 21.720238, 22.008928, 22.125, 22.375, 22.625, 22.982143, 23.375, 23.5625, 23.5, 23.375, 23.1875, 23, 23, 23, 23, 23, 23.0625, 23.25, 23.5, 23.75, 23.9375, 24.0625, 24.125, 24.375, 24.625, 24.84375, 24.879463, 24.611607, 24.352678, 24.125, 24, 24.0625, 24.09375, 24.03125, 24.03125, 23.84375, 23.75, 23.8125, 23.8125, 23.8125, 23.8125, 23.75, 23.6875, 23.625, 23.5625, 23.4375, 23.375, 23.3125, 23.3125, 23.375, 23.5, 23.625, 23.625, 23.625, 23.625, 23.625, 23.75, 23.875, 23.875, 23.8125, 23.75, 23.6875, 23.625, 23.5, 23.330357, 23.104166, 23.142857, 23.4375, 23.607143, 23.6875, 23.75, 23.625, 23.5625, 23.3125, 23.125, 23.0625, 22.9375, 23.09375, 23.017857, 22.669643, 22.642857, 22.46875, 22.5, 22.178572, 21.291666, 21.098213, 20.78125, 20.611607, 20.540178, 20.28125, 20.0625, 19.8125, 19.5, 19.3125, 19.1875, 19.0625, 18.875, 18.75, 18.6875, 18.5, 18.5, 18.5625, 18.625, 18.875, 19.0625, 19.0625, 19.09375, 19.15625, 19.15625, 19.15625, 10.166667, 10.166667, 10.15625, 10.28125, 10.40625, 10.53125, 10.6875, 10.6875, 10.5, 10.3125, 10.125, 10, 10, 10, 10, 10, 10, 10, 10, 10, 10, 10, 10, 10, 10, 10, 10, 10, 10, 10, 9.875, 9.625, 9.4375, 9.1875, 9.25, 9.5, 9.625, 9.75, 9.6875, 9.5625, 9.625, 9.666666, -10, -10, -10, -10, -10, -10, -10, 23.25, 23.458334, 23.604166, 23.75, 23.625, 23.5625, 23.4375, 23.1875, 23.125, 23.125, 23, 22.875, 22.625, 22.4375, 22.25, 22.125, 22.125, 22.0625, 22.0625, 22.1875, 22.133926, 21.848213, 21.517857, 21.3125, 21.3125, 21.3125, 21.4375, 21.4375, 21.4375, 21.4375, 21.5625, 21.6875, 21.8125, 22, 22.0625, 22.25, 22.375, 22.4375, 22.625, 22.75, 22.875, 23.1875, 23.375, 23.5, 23.776787, 24.044643, 24.083334, 24.014286, 24.107143, 23.9375, 24.0625, 24.0625, 24.3125, 24.5625, 24.8125, 25, 25, 25.125, 25.28125, 25.375002, -10, -10, -10, -10, -10, -10, -10, -10, -10, -10, -10, -10, -10, -10, -10, -10, -10, -10, -10, -10, -10, -10, -10, -10, -10, -10, -10, -10, -10, -10, -10, -10, -10, -10, -10, -10, -10, -10, 60.5, 60.083332, 59.75, 59.169643, 58.535713, 58.383926, 57.973213, 57.839287, 57.535717, 56.651787, 56.03125, 55.486607, 54.973213, 54.395832, 54.1875, 53.6875, 53.5, 53.125, 52.482147, 51.619049, 51.125, 50.625, 50.375, 50.0625, 49.6875, 49.25, 48.660713, 48.0625, 47.517857, 47, 46.5, 46.25, 45.8125, 45.5625, 45.0625, 44.517857, 44, 43.5, 43.03125, 42.46875, 42.058037, 41.5, 40.6875, 40.3125, 39.875, 39.508926, 39.017857, 38.5625, 38.25, 37.8125, 37.5, 37, 36.4375, 35.892857, 35.4375, 35.1875, 34.75, 34.375, 33.785713, 33.375, 32.875, 32.4375, 31.892857, 31.4375, 31, 30.5625, 30.125, 29.580357, 29.0625, 28.383928, 27.857143, 27.419643, 26.955357, 26.571428, 26.1875, 25.705357, 25.3125, 24.8125, 24.4375, 23.9375, 23.375, 22.785713, 22.1875, 21.642857, 21.3125, 20.8125, 20.5, 20.1875, 19.6875, 19.4375, 19.3125, 19.125, 19.125, 19.125, 19, 18.9375, 19, 18.910713, 18.776787, 18.8125, 18.625, 18.616072, 18.487499, 18.678572, 18.9375, 19.25, 19.5625, 19.8125, 19.9375, 20, 20, 19.9375, 20.089287, 20.357143, 20.678572, 20.9375, 20.8125, 20.839287, 21.169643, 21.648809, 22.008928, 22.125, 22.3125, 22.5625, 22.857143, 23.1875, 23.3125, 23.125, 23, 22.982143, 22.928572, 23, 23, 23, 23, 23.0625, 23.1875, 23.4375, 23.6875, 23.8125, 23.9375, 24, 24.294643, 24.5625, 24.8125, 24.785713, 24.455357, 24.196428, 24, 23.866072, 23.666666, 23.611607, 23.53125, 23.59375, 23.53125, 23.5, 23.5625, 23.5625, 23.5625, 23.5625, 23.5, 23.4375, 23.375, 23.3125, 23.1875, 23.125, 23.0625, 23.0625, 23.125, 23.25, 23.375, 23.375, 23.375, 23.375, 23.375, 23.5, 23.6875, 23.6875, 23.625, 23.5625, 23.4375, 23.375, 23.25, 23.080357, 22.791666, 22.767857, 23, 23.107143, 23.1875, 23.3125, 23.25, 23.25, 23.0625, 22.875, 22.75, 22.625, 22.78125, 22.785713, 22.642857, 22.642857, 22.486607, 22.125, 21.857143, 21.041666, 20.973213, 20.78125, 20.549107, 20.415178, 20.15625, 19.875, 19.625, 19.3125, 19.0625, 18.96875, 18.875, 18.6875, 18.5625, 18.46875, 18.3125, 18.3125, 18.4375, 18.5, 18.6875, 18.8125, 18.8125, 18.875, 18.9375, 19, 19, 10.291667, 10.354167, 10.40625, 10.40625, 10.40625, 10.46875, 10.5, 10.5625, 10.4375, 10.25, 10.125, 10, 10, 10, 10, 10, 9.9375, 9.9375, 9.9375, 9.9375, 10, 10, 10, 10, 10, 10, 10, 10, 10, 10, 9.875, 9.6875, 9.5625, 9.375, 9.4375, 9.5625, 9.6875, 9.8125, 9.75, 9.625, 9.625, 9.583333, -10, -10, -10, -10, -10, -10, -10, 23.333334, 23.375, 23.541666, 23.75, 23.59375, 23.53125, 23.40625, 23.15625, 23.125, 23.125, 23, 22.9375, 22.6875, 22.4375, 22.1875, 22, 22, 22.0625, 22.125, 22.3125, 22.24107, 21.74107, 21.401785, 21.0625, 21.0625, 21, 21.0625, 21.1875, 21.1875, 21.25, 21.375
-10, -10, -10, -10, -10, -10, -10, -10, 60.625, 60.233334, 59.857143, 59.357143, 58.723213, 58.508926, 57.827381, 57.598213, 57.223217, 56.464287, 56.022324, 55.59375, 55.223213, 54.699406, 54.208332, 53.678574, 53.4375, 53.125, 52.598213, 51.64286, 51.133926, 50.625, 50.375, 50.125, 49.75, 49.3125, 48.67857, 48.125, 47.580357, 47.125, 46.625, 46.3125, 45.875, 45.5625, 45.0625, 44.517857, 44, 43.5, 43, 42.4375, 41.964287, 41.446426, 40.916668, 40.5, 40, 39.464287, 38.955357, 38.5, 38.1875, 37.705357, 37.4375, 36.9375, 36.4375, 35.892857, 35.4375, 35.1875, 34.8125, 34.491074, 33.809525, 33.383926, 32.875, 32.4375, 31.892857, 31.4375, 30.9375, 30.5, 30.0625, 29.5625, 29.0625, 28.383928, 27.928572, 27.464287, 26.848213, 26.455357, 26.0625, 25.6875, 25.3125, 24.8125, 24.4375, 23.9375, 23.4375, 22.955357, 22.366072, 21.767857, 21.4375, 20.875, 20.517857, 20.125, 19.625, 19.375, 19.125, 19, 19, 18.9375, 18.8125, 18.75, 18.8125, 18.723213, 18.651787, 18.625, 18.5, 18.491072, 18.424999, 18.678572, 18.8125, 19.1875, 19.4375, 19.625, 19.8125, 19.875, 19.9375, 19.9375, 20.026787, 20.294643, 20.584822, 20.8125, 20.75, 20.776787, 21.107143, 21.617559, 21.977678, 22.03125, 22.125, 22.25, 22.375, 22.6875, 22.8125, 22.6875, 22.6875, 22.794643, 22.866072, 23.0625, 23.125, 23.1875, 23.1875, 23.125, 23.125, 23.3125, 23.5625, 23.75, 23.9375, 24, 24.294643, 24.5625, 24.84375, 24.816963, 24.486607, 24.227678, 23.9375, 23.678572, 23.318453, 23.205357, 23.125, 23.25, 23.25, 23.25, 23.3125, 23.3125, 23.3125, 23.3125, 23.25, 23.1875, 23.0625, 22.9375, 22.8125, 22.8125, 22.875, 22.9375, 23, 23.0625, 23.125, 23.125, 23.125, 23.125, 23.125, 23.25, 23.4375, 23.4375, 23.375, 23.3125, 23.1875, 23.125, 23, 22.901787, 22.875, 22.875, 23, 22.875, 22.8125, 22.8125, 22.75, 22.8125, 22.6875, 22.5625, 22.5, 22.375, 22.46875, 22.5, 22.5, 22.428572, 22.090775, 21.705357, 21.482143, 21.0625, 21.017857, 20.875, 20.642857, 20.383928, 20.125, 19.705357, 19.4375, 19.125, 18.875, 18.78125, 18.625, 18.4375, 18.3125, 18.21875, 18.125, 18.1875, 18.375, 18.4375, 18.5625, 18.625, 18.625, 18.6875, 18.508928, 18.057142, 11.25, 10.541667, 10.604167, 10.625, 10.5, 10.375, 10.3125, 10.25, 10.3125, 10.25, 10.125, 10.0625, 10, 10, 10, 10, 10, 9.9375, 9.9375, 9.9375, 9.9375, 9.9375, 9.9375, 9.9375, 9.9375, 10, 10, 10, 10, 9.9375, 9.9375, 9.8125, 9.6875, 9.6875, 9.5625, 9.625, 9.6875, 9.75, 9.8125, 9.75, 9.625, 9.625, 9.583333, -10, -10, -10, -10, -10, -10, -10, 23.375, 23.416666, 23.5625, 23.75, 23.6875, 23.5625, 23.4375, 23.25, 23.1875, 23.1875, 23.0625, 22.9375, 22.75, 22.5, 22.25, 22.0625, 21.9375, 21.9375, 21.875, 22, 21.92857, 21.42857, 21.214285, 20.90625, 20.84375, 20.71875, 20.65625, 20.75, 20.8125, 20.9375, 21.125, 21.1875, 21.446428, 21.8125, 21.9375, 22.125, 22.0625, 22.1875, 22.375, 22.625, 23, 23.3125, 23.625, 23.875, 24, 24.125, 24, 23.901787, 23.9375, 23.875, 24.0625, 24.1875, 24.5, 24.8125, 24.919643, 24.875, 24.75, 24.75, 25.260416, 25.391668, -10, -10, -10, -10, -10, -10, -10, -10, -10, -10, -10, -10, -10, -10, -10, -10, -10, -10, -10, -10, -10, -10, -10, -10, -10, -10, -10, -10, -10, -10, -10, -10, -10, -10, -10, -10, -10, -10, 60.625, 60.233334, 59.919643, 59.482143, 58.955357, 58.633926, 57.863098, 57.425594, 56.982143, 56.383926, 56.022324, 55.65625, 55.410713, 54.931549, 54.229164, 53.669643, 53.375, 53.125, 52.723213, 51.812504, 51.214287, 50.6875, 50.375, 50.0625, 49.6875, 49.25, 48.660713, 48.1875, 47.642857, 47.25, 46.75, 46.3125, 45.830357, 45.5, 45, 44.517857, 44, 43.5, 43, 42.5, 42, 41.5, 41.1875, 40.6875, 40.1875, 39.482143, 39.017857, 38.5625, 38.1875, 37.660713, 37.375, 36.9375, 36.5, 35.955357, 35.455357, 35.1875, 34.8125, 34.491074, 33.809525, 33.321426, 32.767857, 32.3125, 31.767857, 31.375, 30.875, 30.5, 30.0625, 29.5625, 29.0625, 28.383928, 27.928572, 27.464287, 26.785713, 26.392857, 26, 25.625, 25.3125, 24.8125, 24.4375, 23.9375, 23.5, 23.125, 22.553572, 22.017857, 21.625, 21, 20.535713, 20.0625, 19.5625, 19.25, 18.875, 18.8125, 18.8125, 18.75, 18.6875, 18.625, 18.625, 18.535713, 18.526787, 18.410713, 18.25, 18.348215, 18.174999, 18.553572, 18.6875, 19.0625, 19.3125, 19.4375, 19.625, 19.75, 19.875, 20, 20.0625, 20.1875, 20.46875, 20.6875, 20.6875, 20.839287, 21.151787, 21.450893, 21.78125, 21.84375, 21.9375, 22.0625, 22.1875, 22.375, 22.4375, 22.375, 22.4375, 22.607143, 22.803572, 23, 23.125, 23.375, 23.544643, 23.482143, 23.3125, 23.508928, 23.833334, 23.96875, 24.1875, 24.09375, 24.325893, 24.5, 24.59375, 24.53125, 24.21875, 23.96875, 23.651787, 23.178572, 22.755953, 22.642857, 22.6875, 22.875, 23, 23, 23.0625, 23.0625, 23.0625, 23.0625, 23, 22.9375, 22.8125, 22.6875, 22.5625, 22.625, 22.75, 22.875, 23, 23, 23, 22.928572, 22.799999, 22.857143, 22.75, 22.875, 23, 23.0625, 23.125, 23.0625, 22.875, 22.875, 22.8125, 22.875, 22.9375, 22.875, 22.8125, 22.625, 22.5, 22.5, 22.5, 22.5625, 22.4375, 22.3125, 22.25, 22.125, 22.25, 22.3125, 22.375, 22.366072, 21.807821, 21.12755, 21.160715, 20.854166, 20.821428, 20.6875, 20.5625, 20.375, 20.125, 19.660713, 19.3125, 18.9375, 18.6875, 18.53125, 18.375, 18.3125, 18.160713, 17.995537, 18, 17.9375, 18.1875, 18.25, 18.375, 18.4375, 18.4375, 18.258928, 17.629251, 14.466667, 12.285714, 10.916667, 10.9375, 10.9375, 10.6875, 10.4375, 10.25, 10.0625, 10.0625, 10.0625, 10, 10, 10, 10, 10, 10, 10, 9.9375, 9.9375, 9.9375, 9.9375, 9.9375, 9.9375, 9.9375, 9.9375, 10, 10, 10, 10, 9.875, 9.8125, 9.625, 9.5625, 9.6875, 9.6875, 9.8125, 9.8125, 9.8125, 9.8125, 9.8125, 9.75, 9.75, 9.75, -10, -10, -10, -10, -10, -10, -10, 23.333334, 23.333332, 23.520834, 23.6875, 23.75, 23.625, 23.4375, 23.3125, 23.1875, 23.1875, 23.125, 22.9375, 22.8125, 22.5625, 22.3125, 22.125, 22, 21.973213, 21.767857, 21.758928, 21.642857, 21.285713, 21.142857, 20.90625, 20.772322, 20.518749, 20.584822, 20.75, 20.90625, 21.03125, 21.15625
-10, -10, -10, -10, -10, -10, -10, -10, 60.625, 60.316666, 60.026787, 59.544643, 59.044643, 58.696426, 57.925598, 57.452381, 56.982143, 56.455357, 56.09375, 55.71875, 55.473213, 54.931549, 54.166664, 53.607143, 53.25, 52.9375, 52.544643, 51.770836, 51.276787, 50.75, 50.4375, 50.0625, 49.625, 49.1875, 48.642857, 48.1875, 47.642857, 47.3125, 46.8125, 46.3125, 45.785713, 45.4375, 44.9375, 44.517857, 44, 43.5, 43, 42.5, 42, 41.5, 41.1875, 40.6875, 40.1875, 39.482143, 39.017857, 38.5625, 38.125, 37.598213, 37.3125, 36.9375, 36.5625, 36.017857, 35.473213, 35.125, 34.75, 34.366074, 33.747025, 33.30357, 32.660713, 32.321426, 31.8125, 31.4375, 30.9375, 30.5, 30.0625, 29.5625, 29.125, 28.446428, 27.991072, 27.410715, 26.67857, 26.330357, 25.875, 25.5625, 25.1875, 24.6875, 24.3125, 23.8125, 23.4375, 23.0625, 22.616072, 22.125, 21.625, 20.955357, 20.473213, 19.9375, 19.5, 19.1875, 18.75, 18.6875, 18.625, 18.5, 18.4375, 18.375, 18.3125, 18.25, 18.3125, 18.160713, 18.0625, 18.169643, 18.125, 18.375, 18.4375, 18.6875, 18.875, 19, 19.25, 19.4375, 19.6875, 19.875, 19.9375, 20.0625, 20.34375, 20.5625, 20.6875, 20.8125, 21.00893, 21.379465, 21.709822, 21.78125, 21.8125, 21.875, 21.9375, 22.125, 22.1875, 22.1875, 22.3125, 22.464287, 22.553572, 22.8125, 23.041666, 23.666666, 23.973215, 24.053572, 23.809525, 24.227678, 24.489584, 24.40625, 24.4375, 24.15625, 24.200893, 24.15625, 24.120537, 24.129463, 23.84375, 23.71875, 23.339287, 22.866072, 22.443453, 22.330357, 22.4375, 22.625, 22.75, 22.8125, 22.875, 22.9375, 23, 22.9375, 22.875, 22.75, 22.5625, 22.4375, 22.3125, 22.4375, 22.5625, 22.75, 22.9375, 22.9375, 22.9375, 22.741072, 22.514286, 22.544643, 22.4375, 22.5625, 22.625, 22.6875, 22.75, 22.75, 22.625, 22.625, 22.625, 22.75, 22.8125, 22.75, 22.5, 22.25, 22.0625, 22, 22.125, 22.1875, 22.1875, 22.125, 22.125, 22.0625, 22.125, 22.1875, 22.1875, 22.178572, 21.738094, 21.080357, 20.928572, 20.75, 20.75, 20.6875, 20.5625, 20.34375, 20.03125, 19.566963, 19.15625, 18.75, 18.5, 18.28125, 18.1875, 18.125, 17.973213, 17.745537, 17.714287, 17.794643, 18.053572, 18.125, 18.1875, 18.25, 18.3125, 18.175594, 14.740476, 12.828572, 11.125, 10.916667, 10.9375, 10.9375, 10.6875, 10.4375, 10.1875, 10, 10, 10, 10, 10, 10, 10, 10, 10, 10, 9.9375, 9.9375, 9.9375, 9.9375, 9.9375, 9.9375, 9.9375, 9.9375, 10, 10, 10, 10, 9.875, 9.8125, 9.625, 9.625, 9.75, 9.75, 9.875, 9.8125, 9.8125, 9.875, 9.9375, 9.875, 9.875, 9.833334, -10, -10, -10, -10, -10, -10, -10, -10, 23.333332, 23.541668, 23.6875, 23.8125, 23.75, 23.5625, 23.4375, 23.25, 23.1875, 23.125, 23, 22.9375, 22.6875, 22.4375, 22.1875, 21.9375, 21.910713, 21.705357, 21.571428, 21.482143, 21.205357, 21.071428, 20.90625, 20.772322, 20.518749, 20.647322, 20.875, 21.09375, 21.28125, 21.28125, 21.15625, 21.321428, 21.625, 21.8125, 22.0625, 22, 22, 22.125, 22.25, 22.625, 23, 23.450893, 23.78125, 23.90625, 24.03125, 23.9375, 23.9375, 23.9375, 24.008928, 24.458334, 24.8125, 25.232143, 25.5, 25.482143, 25.1875, 24.9375, 24.9375, 25.291666, 25.433334, -10, -10, -10, -10, -10, -10, -10, -10, -10, -10, -10, -10, -10, -10, -10, -10, -10, -10, -10, -10, -10, -10, -10, -10, -10, -10, -10, -10, -10, -10, -10, -10, -10, -10, -10, -10, -10, -10, 60.625, 60.399998, 60.0625, 59.5625, 59.151787, 58.75, 58.050598, 57.514881, 57.044643, 56.473213, 56.0625, 55.479168, 55.258926, 54.910713, 54.104164, 53.607143, 53.1875, 52.8125, 52.491074, 51.854168, 51.339287, 50.767857, 50.4375, 50, 49.5625, 49.0625, 48.517857, 48.125, 47.625, 47.375, 46.875, 46.375, 45.785713, 45.375, 44.875, 44.5, 44, 43.4375, 42.892857, 42.4375, 41.9375, 41.5, 41.125, 40.625, 40.1875, 39.598213, 39.1875, 38.642857, 38.125, 37.535713, 37.25, 36.875, 36.625, 36.125, 35.535713, 35.1875, 34.75, 34.366074, 33.747025, 33.24107, 32.598213, 32.258926, 31.75, 31.4375, 30.9375, 30.5, 30, 29.5, 29.125, 28.5625, 28.151787, 27.553572, 26.702381, 26.258928, 25.8125, 25.5, 25.1875, 24.741072, 24.166666, 23.696428, 23.3125, 23, 22.616072, 22.1875, 21.6875, 21.017857, 20.419643, 19.830357, 19.4375, 19.0625, 18.625, 18.5, 18.375, 18.3125, 18.3125, 18.3125, 18.1875, 18.0625, 18.0625, 17.910713, 17.9375, 18.107143, 18.125, 18.3125, 18.3125, 18.5, 18.5625, 18.625, 18.875, 19.0625, 19.375, 19.625, 19.6875, 19.875, 20.200893, 20.4375, 20.6875, 20.8125, 20.964287, 21.325893, 21.647322, 21.71875, 21.6875, 21.625, 21.625, 21.875, 22.035713, 22.25, 22.5, 22.607143, 22.6875, 22.9375, 23.291666, 24.095238, 24.651787, 24.910715, 25.430555, 25.295918, 25.416668, 24.96875, 24.875, 24.40625, 24.15625, 23.790178, 23.616074, 23.660713, 23.4375, 23.375, 22.964287, 22.5, 22.276787, 22.1875, 22.3125, 22.4375, 22.5, 22.625, 22.75, 22.8125, 22.875, 22.75, 22.625, 22.5, 22.3125, 22.1875, 22.0625, 22.1875, 22.3125, 22.5, 22.6875, 22.6875, 22.6875, 22.491072, 22.264286, 22.294643, 22.1875, 22.3125, 22.3125, 22.375, 22.4375, 22.4375, 22.375, 22.375, 22.375, 22.5, 22.5625, 22.4375, 22.1875, 22, 21.875, 21.875, 22, 22, 22, 22.0625, 22.098213, 21.955357, 21.955357, 21.9375, 21.9375, 21.928572, 21.595238, 21.267857, 21.125, 20.875, 20.75, 20.5625, 20.375, 20.111607, 19.78125, 19.379463, 18.96875, 18.5625, 18.3125, 18.0625, 17.9375, 17.875, 17.723213, 17.526787, 17.589287, 17.732143, 17.991072, 18.0625, 18.125, 18.1875, 18, 17.391157, 12.769841, 11.6, 11.25, 11, 11, 10.875, 10.625, 10.375, 10.125, 10, 10, 10, 10, 10, 10, 10, 10, 10, 10, 10, 10, 10, 10, 9.9375, 9.9375, 9.9375, 9.9375, 10, 10, 10, 10, 9.875, 9.8125, 9.625, 9.625, 9.75, 9.75, 9.9375, 9.875, 9.875, 9.9375, 9.875, 9.875, 9.875, 9.833334, -10, -10, -10, -10, -10, -10, -10, -10, 23.291666, 23.520834, 23.625, 23.84375, 23.84375, 23.71875, 23.65625, 23.4375, 23.3125, 23.1875, 22.9375, 22.875, 22.625, 22.375, 22.1875, 21.9375, 21.848213, 21.642857, 21.446428, 21.375, 21.25, 21.125, 20.96875, 20.772322, 20.581249, 20.709822, 20.9375, 21.15625, 21.28125, 21.34375
-10, -10, -10, -10, -10, -10, -10, -10, 60.5, 60.333332, 60.0625, 59.5, 59.089287, 58.625, 58.196426, 57.630955, 57.232143, 56.598213, 56.071426, 55.1875, 54.901787, 54.544643, 54.083332, 53.678574, 53.1875, 52.705357, 52.375, 51.9375, 51.455357, 50.892857, 50.383926, 49.830357, 49.4375, 49, 48.5625, 48.125, 47.580357, 47.3125, 46.8125, 46.375, 45.785713, 45.375, 44.875, 44.5, 44, 43.375, 42.785713, 42.375, 41.875, 41.5, 41.125, 40.625, 40.25, 39.705357, 39.1875, 38.598213, 38.0625, 37.517857, 37.1875, 36.8125, 36.5625, 36.0625, 35.535713, 35.125, 34.625, 34.25, 33.767857, 33.294643, 32.660713, 32.258926, 31.75, 31.4375, 30.9375, 30.5, 30, 29.5, 29.125, 28.625, 28.1875, 27.508928, 26.702381, 26.1875, 25.75, 25.4375, 25.0625, 24.678572, 24.041666, 23.571428, 23.25, 22.875, 22.5625, 22.1875, 21.625, 21.080357, 20.455357, 19.747025, 19.383928, 18.9375, 18.5625, 18.375, 18.1875, 18.125, 18.125, 18.0625, 17.9375, 17.8125, 17.75, 17.660713, 17.6875, 17.919643, 17.9375, 18.125, 18.125, 18.1875, 18.25, 18.375, 18.625, 18.875, 19.1875, 19.375, 19.5625, 19.875, 20.339287, 20.5625, 20.75, 20.875, 21.07143, 21.419643, 21.678572, 21.6875, 21.625, 21.5, 21.571428, 22.020834, 22.142857, 22.375, 22.5625, 22.669643, 22.857143, 23.0625, 23.479166, 24.345238, 25.142857, 25.816326, 26.119047, 26.219389, 26.052084, 25.709822, 25.270834, 24.638393, 24.140625, 23.587053, 23.241074, 23.223213, 23, 22.9375, 22.589287, 22.1875, 22.0625, 22, 22.125, 22.1875, 22.25, 22.375, 22.5, 22.5625, 22.625, 22.5, 22.375, 22.25, 22.125, 21.991072, 21.799999, 22.053572, 22.116072, 22.3125, 22.4375, 22.4375, 22.4375, 22.241072, 22.014286, 22.044643, 21.9375, 22.0625, 22.0625, 22.125, 22.1875, 22.1875, 22.0625, 22.0625, 22.0625, 22.1875, 22.25, 22.0625, 21.8125, 21.625, 21.5625, 21.6875, 21.875, 21.9375, 22, 22, 21.973213, 21.767857, 21.705357, 21.75, 21.75, 21.875, 21.803572, 21.4375, 21.3125, 20.9375, 20.8125, 20.625, 20.366072, 19.861607, 19.433037, 19.080357, 18.6875, 18.375, 18.1875, 18, 17.875, 17.75, 17.535713, 17.276787, 17.339287, 17.482143, 17.741072, 17.875, 18, 17.910713, 17.357143, 14.65873, 11.75, 11.071428, 10.8125, 10.875, 10.9375, 10.875, 10.6875, 10.4375, 10.25, 10.125, 10.0625, 10.0625, 10, 10, 10, 10, 10, 10, 10, 10, 10, 10, 10, 10, 10, 10, 10, 10, 10, 10, 9.9375, 9.875, 9.8125, 9.6875, 9.75, 9.8125, 9.8125, 9.9375, 9.875, 9.875, 9.9375, 9.8125, 9.75, 9.75, 9.666667, -10, -10, -10, -10, -10, -10, -10, -10, 23.375, 23.583334, 23.6875, 23.875, 23.9375, 23.875, 23.8125, 23.5625, 23.375, 23.1875, 22.875, 22.75, 22.5, 22.25, 22.1875, 22.125, 22.098213, 21.955357, 21.758928, 21.625, 21.5, 21.3125, 21.09375, 20.834822, 20.643749, 20.834822, 21.0625, 21.28125, 21.34375, 21.40625, 21.40625, 21.5625, 21.75, 21.875, 22, 22, 22, 22.125, 22.25, 22.5625, 22.9375, 23.200893, 23.53125, 23.71875, 23.84375, 23.9375, 24, 24.125, 24.550594, 25.069941, 25.5, 25.794643, 25.916668, -10, 25.645832, 25.520832, 25.767857, 26.107143, 26.257143, -10, -10, -10, -10, -10, -10, -10, -10, -10, -10, -10, -10, -10, -10, -10, -10, -10, -10, -10, -10, -10, -10, -10, -10, -10, -10, -10, -10, -10, -10, -10, -10, -10, -10, -10, -10, -10, -10, 60.625, 60.399998, 59.916668, 59.383926, 58.901787, 58.5, 58.125, 57.714287, 57.294643, 56.535713, 56.071426, 55.125, 54.839287, 54.4375, 53.916668, 53.5, 53, 52.517857, 52.1875, 51.8125, 51.4375, 50.955357, 50.4375, 49.747025, 49.383926, 48.9375, 48.5625, 48.0625, 47.517857, 47.25, 46.75, 46.4375, 45.892857, 45.4375, 44.9375, 44.5, 44, 43.3125, 42.678574, 42.25, 41.75, 41.4375, 41.0625, 40.625, 40.25, 39.705357, 39.1875, 38.598213, 38.125, 37.625, 37.21875, 36.78125, 36.46875, 35.96875, 35.517857, 35.0625, 34.5625, 34.125, 33.642857, 33.294643, 32.705357, 32.321426, 31.767857, 31.375, 30.875, 30.4375, 29.9375, 29.5, 29.125, 28.625, 28.1875, 27.508928, 26.764881, 26.241072, 25.604166, 25.321428, 24.875, 24.491072, 23.809523, 23.383928, 23.0625, 22.6875, 22.4375, 22, 21.5, 21.017857, 20.229166, 19.568453, 19.258928, 18.875, 18.5625, 18.3125, 18, 17.875, 17.8125, 17.6875, 17.625, 17.5, 17.375, 17.375, 17.4375, 17.5625, 17.6875, 17.75, 17.6875, 17.6875, 17.75, 18.053572, 18.348213, 18.625, 18.9375, 19.125, 19.4375, 19.8125, 20.276787, 20.4375, 20.625, 20.75, 21.07143, 21.526787, 21.678572, 21.625, 21.375, 21.125, 21.165178, 21.773809, 21.767857, 22, 22.21875, 22.419643, 22.669643, 23.0625, 23.657738, 24.514881, 25.285715, 25.973215, 26.461309, 26.59375, 26.522322, 25.907738, 25.306549, 24.700893, 24.078125, 23.430803, 23.053574, 22.910713, 22.75, 22.6875, 22.375, 22.125, 21.9375, 21.8125, 21.75, 21.75, 21.75, 21.9375, 22.125, 22.25, 22.375, 22.25, 22.0625, 21.875, 21.642857, 21.491072, 21.371429, 21.824406, 21.919643, 22.125, 22.125, 22.125, 22.125, 21.9375, 21.839287, 21.8125, 21.8125, 21.875, 21.875, 21.8125, 21.75, 21.75, 21.6875, 21.6875, 21.75, 21.8125, 21.8125, 21.6875, 21.4375, 21.3125, 21.3125, 21.5, 21.75, 21.875, 22, 21.9375, 21.848213, 21.580357, 21.455357, 21.5, 21.5, 21.625, 21.625, 21.4375, 21.3125, 21.0625, 20.9375, 20.75, 20.339287, 19.340773, 18.861607, 18.5625, 18.375, 18.25, 18.0625, 17.875, 17.6875, 17.4375, 17.3125, 17.125, 17.151787, 17.357143, 17.553572, 17.75, 17.616072, 17.159864, 15.1, 13.238095, 11.104167, 10.696428, 10.625, 10.625, 10.6875, 10.6875, 10.625, 10.5, 10.4375, 10.375, 10.25, 10.1875, 10.0625, 10, 10, 10, 10, 10, 10, 10, 10, 10, 10, 10, 10, 10, 10, 10, 10, 10, 9.9375, 9.9375, 9.9375, 9.875, 9.9375, 9.875, 9.8125, 9.875, 9.8125, 9.8125, 9.8125, 9.6875, 9.5625, 9.625, 9.583334, -10, -10, -10, -10, -10, -10, -10, -10, 23.541666, 23.6875, 23.8125, 23.9375, 24, 24, 23.9375, 23.6875, 23.4375, 23.1875, 22.8125, 22.625, 22.375, 22.125, 22.1875, 22.125, 22.125, 22.125, 21.9375, 21.875, 21.75, 21.5625, 21.3125, 21.0625, 20.9375, 21, 21.125, 21.25, 21.3125, 21.375
-10, -10, -10, -10, -10, -10, -10, -10, 60.5, 60.233334, 59.791668, 59.321426, 58.8125, 58.4375, 58.0625, 57.625, 57.25, 56.580357, 56.196426, 55.25, 54.875, 54.1875, 53.666668, 53.3125, 52.9375, 52.517857, 52.25, 51.875, 51.5, 51.080357, 50.491074, 49.663692, 49.330353, 48.9375, 48.625, 48.125, 47.535713, 47.25, 46.75, 46.4375, 45.892857, 45.4375, 44.9375, 44.5, 44, 43.25, 42.57143, 42.1875, 41.6875, 41.4375, 41.0625, 40.625, 40.3125, 39.767857, 39.25, 38.616074, 38.1875, 37.75, 37.34375, 36.84375, 36.424107, 35.90625, 35.5, 35.0625, 34.625, 34.232143, 33.598213, 33.258926, 32.75, 32.3125, 31.723213, 31.25, 30.75, 30.3125, 29.8125, 29.4375, 29, 28.5625, 28.1875, 27.625, 26.997025, 26.491072, 25.845238, 25.363094, 24.910713, 24.522322, 23.840773, 23.415178, 23, 22.625, 22.375, 21.9375, 21.5625, 21.1875, 20.345238, 19.547619, 19.205357, 18.75, 18.5, 18.25, 17.875, 17.75, 17.625, 17.4375, 17.375, 17.25, 17.125, 17.125, 17.1875, 17.3125, 17.4375, 17.5, 17.375, 17.375, 17.4375, 17.741072, 18.098213, 18.40625, 18.71875, 18.96875, 19.34375, 19.75, 20.276787, 20.4375, 20.5625, 20.75, 21.107143, 21.526787, 21.6875, 21.6875, 21.4375, 21.1875, 21.165178, 21.333334, 21.580357, 21.6875, 21.90625, 22.1875, 22.607143, 23.0625, 23.678572, 24.330359, 25.107143, 25.839287, 26.241072, 26.40625, 26.334822, 25.813988, 25.244049, 24.700893, 23.962053, 23.363838, 22.964287, 22.6875, 22.5625, 22.3125, 22.0625, 21.8125, 21.625, 21.5625, 21.5, 21.5, 21.5, 21.625, 21.8125, 21.9375, 22.0625, 22.0625, 21.875, 21.6875, 21.392857, 21.116072, 20.996429, 21.386906, 21.544643, 21.75, 21.6875, 21.75, 21.8125, 21.75, 21.75, 21.6875, 21.625, 21.625, 21.625, 21.5625, 21.5, 21.5, 21.4375, 21.4375, 21.5, 21.5, 21.5, 21.375, 21.1875, 21.125, 21.125, 21.3125, 21.5625, 21.6875, 21.8125, 21.75, 21.535713, 21.267857, 21.142857, 21.1875, 21.25, 21.375, 21.375, 21.25, 21.1875, 21, 20.875, 20.6875, 20.178572, 18.809523, 18.383928, 18.09375, 18.09375, 18.1875, 18.035713, 17.767857, 17.508928, 17.25, 17.25, 17.25, 17.375, 17.5, 17.5625, 17.625, 17.223215, 14.634921, 13.119048, 11.809525, 11.104167, 10.633928, 10.5, 10.4375, 10.4375, 10.5625, 10.625, 10.625, 10.625, 10.5, 10.3125, 10.1875, 10.0625, 10, 10, 10.0625, 10.0625, 10.0625, 10.0625, 10, 10, 10, 10, 10, 10, 10, 10, 10, 10, 10, 9.9375, 9.9375, 9.9375, 9.9375, 10, 9.9375, 9.9375, 9.9375, 9.8125, 9.75, 9.625, 9.5, 9.5, 9.625, 9.666667, -10, -10, -10, -10, -10, -10, -10, 23.75, 23.791666, 23.854166, 23.9375, 24, 24, 24, 24, 23.75, 23.5, 23.1875, 22.6875, 22.4375, 22.1875, 22, 22.125, 22.1875, 22.1875, 22.125, 21.9375, 21.875, 21.75, 21.625, 21.375, 21.0625, 20.9375, 21, 21.125, 21.25, 21.3125, 21.4375, 21.625, 21.8125, 22, 22.0625, 22.125, 22.1875, 22.3125, 22.5, 22.75, 23.0625, 23.375, 23.4375, 23.625, 23.75, 23.8125, 23.9375, -10, -10, 24.979166, 25.474106, 25.928572, 26.367346, 27.047621, -10, 26.638094, 26.788095, 29.164682, 30.219387, 30.75238, -10, -10, -10, -10, -10, -10, -10, -10, -10, -10, -10, -10, -10, -10, -10, -10, -10, -10, -10, -10, -10, -10, -10, -10, -10, -10, -10, -10, -10, -10, -10, -10, -10, -10, -10, -10, -10, -10, 60.375, 60.066669, 59.666668, 59.196426, 58.6875, 58.375, 58, 57.616074, 57.1875, 56.625, 56.258926, 55.583332, 55.17857, 54.4375, 53.854168, 53.4375, 53, 52.580357, 52.1875, 51.767857, 51.4375, 51.0625, 50.428574, 49.601192, 49.267853, 48.9375, 48.6875, 48.1875, 47.55357, 47.25, 46.75, 46.375, 45.785713, 45.375, 44.875, 44.5, 44.0625, 43.375, 42.74107, 42.267857, 41.8125, 41.491074, 40.979168, 40.571426, 40.25, 39.767857, 39.3125, 38.723213, 38.3125, 37.9375, 37.53125, 37.049107, 36.299107, 35.763393, 35.375, 34.9375, 34.5625, 34.169643, 33.580357, 33.321426, 32.8125, 32.3125, 31.67857, 31.1875, 30.6875, 30.25, 29.705357, 29.375, 28.875, 28.5, 28.125, 27.5625, 27.205357, 26.803572, 26.157738, 25.644344, 25.129463, 24.6875, 24.138393, 23.510416, 23, 22.5625, 22.3125, 21.8125, 21.5, 21.1875, 20.452381, 19.571428, 19.214287, 18.75, 18.5, 18.25, 17.8125, 17.625, 17.4375, 17.1875, 17.1875, 17.125, 17.0625, 17.0625, 17.0625, 17.125, 17.1875, 17.25, 17.125, 17.125, 17.1875, 17.491072, 17.785713, 18.03125, 18.28125, 18.575893, 19.28125, 19.705357, 20.169643, 20.3125, 20.4375, 20.75, 21.169643, 21.589287, 21.75, 21.678572, 21.3125, 21.1875, 21.28125, 21.627975, 21.651787, 21.479166, 21.540178, 21.6875, 22.075893, 22.53125, 23.147322, 23.808037, 24.607143, 25.410713, 25.973215, 26.15625, 26.147322, 25.626488, 24.919048, 24.492559, 23.649553, 23.292412, 22.875, 22.5625, 22.267857, 21.9375, 21.6875, 21.5, 21.375, 21.3125, 21.25, 21.25, 21.25, 21.3125, 21.4375, 21.5625, 21.75, 21.8125, 21.6875, 21.5, 21.205357, 20.928572, 20.808929, 21.199406, 21.294643, 21.5, 21.4375, 21.5, 21.5625, 21.5, 21.5, 21.4375, 21.375, 21.375, 21.375, 21.3125, 21.3125, 21.375, 21.3125, 21.3125, 21.3125, 21.25, 21.25, 21.1875, 21.0625, 21, 21, 21.125, 21.3125, 21.4375, 21.5, 21.375, 21.1875, 21.0625, 21, 21.0625, 21.0625, 21.125, 21.125, 21.0625, 21.0625, 20.9375, 20.8125, 20.625, 20.071428, 18.5, 18.071428, 17.75, 17.8125, 17.90625, 17.754463, 17.517857, 17.321428, 17.1875, 17.25, 17.25, 17.375, 17.375, 17.375, 17.4375, 16.758928, 13.687075, 12.204082, 11.416667, 10.791667, 10.508928, 10.3125, 10.1875, 10.1875, 10.375, 10.5625, 10.6875, 10.75, 10.625, 10.375, 10.1875, 10.0625, 10, 10, 10.125, 10.1875, 10.25, 10.25, 10.125, 10.0625, 10, 10, 10, 10, 10, 10, 10, 10, 10, 9.9375, 9.9375, 9.9375, 9.9375, 10, 9.875, 9.875, 9.875, 9.8125, 9.8125, 9.625, 9.5625, 9.5, 9.625, 9.75, -10, -10, -10, -10, -10, -10, -10, 23.75, 23.916666, 23.9375, 24, 24, 24, 24, 23.9375, 23.6875, 23.4375, 23.0625, 22.625, 22.375, 22.125, 22.0625, 22.25, 22.3125, 22.3125, 22.125, 21.875, 21.8125, 21.6875, 21.5625, 21.267857, 21, 20.9375, 21.169643, 21.3125, 21.5, 21.5, 21.5625
