-10, -10, 54.25, 54.249996, 54.0625, 53.8125, 53.625, 53.3125, 53.1875, 53, 52.75, 52.428574, 52.026787, 51.9375, 51.8125, 51.8125, 51.553574, 51.1875, 51.0625, 50.9375, 51, 50.8125, 50.5625, 50.3125, 50.1875, 50.25, 50.25, 50.125, 49.767857, 49.241074, 48.559525, 48.098213, 47.395832, 47.25, 47.125, 47.107143, 46.979168, 46.821426, 46.5625, 46.375, 46.1875, 46.125, 46.125, 46.1875, 46.25, 46.1875, 46.1875, 46.125, 45.8125, 45.580357, 45.339287, 45.125, 45, 44.8125, 44.616074, 44.4375, 44.410713, 44.142857, 43.883926, 43.473213, 43.25, 42.9375, 42.642857, 42.375, 42.125, 41.875, 41.741074, 41.5, 41.267857, 40.75, 40.601189, 40.5625, 40.5, 40.5, 40.276787, 40.25, 40.25, 40.25, 40.098213, 39.520836, 39.330357, 39.035713, 38.767857, 38.464287, 38.25, 38.125, 38.0625, 38, 37.6875, 37.4375, 37.1875, 37, 36.8125, 36.5625, 36.3125, 36.0625, 35.8125, 35.59375, 35.40625, 35.21875, 35.15625, 35.125, 35.0625, 34.9375, 34.875, 34.6875, 34.4375, 34.25, 34.0625, 33.75, 33.5, 33.1875, 32.9375, 32.9375, 32.875, 32.75, 32.5625, 32.4375, 32.089287, 31.684523, 31.455357, 31.1875, 31.1875, 31.0625, 30.9375, 30.9375, 30.6875, 30.4375, 30.1875, 29.875, 29.8125, 29.6875, 29.5, 29.375, 29.25, 29.044643, 28.666666, 28.446428, 28.1875, 28.0625, 28.0625, 28, 27.875, 27.6875, 27.5, 27.3125, 27.223213, 26.875, 26.235119, 25.803572, 25.625, 25.625, 25.5625, 25.5, 25.125, 24.776787, 24.5625, 24.3125, 24.1875, 23.892857, 23.6875, 23.5, 23.375, 23.25, 23.25, 23.1875, 23.0625, 22.955357, 22.6875, 22.5625, 22.4375, 22.25, 22.1875, 22, 21.6875, 21.4375, 21.1875, 21, 21, 20.9375, 20.6875, 20.4375, 20.1875, 20, 19.8125, 19.625, 19.4375, 19.160713, 18.955357, 18.821428, 18.625, 18.428572, 18.041666, 17.758928, 17.5625, 17.5625, 17.4375, 17.3125, 17.25, 17.0625, 17, 17, 16.8125, 16.5625, 16.3125, 16, 15.75, 15.553572, 15.080357, 14.9375, 14.651786, 14.4375, 14.25, 14.0625, 14, 13.9375, 13.8125, 13.5625, 13.3125, 13.125, 13, 13, 12.75, 12.5, 12.25, 12, 11.875, 11.6875, 11.4375, 11.1875, 11.0625, 11, 10.9375, 10.75, 10.5, 10.1875, 9.8125, 9.4910717, 9.28125, 9.09375, 8.96875, 8.6875, 8.4375, 8.25, 8.125, 8.375, 8.625, 8.8125, 9, 9, 9, 9, 9, 9, 9, 9.0625, 9.0625, 9.25, 9.333333, -10, -10, -10, -10, -10, -10, -10, -10, 25, 25, 25, 25, 24.96875, 25.183037, 25.513393, 25.772322, 26, 26, 26, -10, -10, -10, -10, -10, -10, -10, -10, -10, -10, -10, -10, 28, 28.25, 28.5625, 28.877975, 29.232143, 29.625, 29.890625, 30.234375, 30.546875, 30.796875, 30.96875, 31.15625, 31.40625, 31.65625, 31.71875, 31.625, 31.580357, 31.49375, 31.209822, 31.075893, 30.84375, 30.8125, 30.90625, 30.78125, 30.59375, 30.299107, 30, 29.541666, 29.330357, 29.0625, 28.666666, 28.455357, 28.3125, 28.294643, 28.09375, 28.046875, 27.875, 27.6875, 27.59375, 27.453125, 27.375, 27.25, 27.1875, 27.1875, 27.3125, 27.5625, 27.75, 27.875, 27.9375, 27.875, 27.875, 27.946428, 28.083334, -10, -10, -10, -10, -10, -10, -10, -10, -10, -10, -10, -10, -10, -10, -10, -10, -10, -10, -10, -10, -10, -10, -10, -10, -10, -10, -10, -10, -10, -10, -10, -10, -10, -10, -10, 53.84375, 54.010414, 54.0625, 54.125, 53.979168, 53.354168, 53.151787, 52.875, 52.6875, 52.428574, 52.026787, 52, 51.875, 51.767857, 51.4375, 51.0625, 51, 50.875, 51, 50.75, 50.5, 50.25, 50.0625, 50.125, 50.125, 50.0625, 49.8125, 49.303574, 48.648811, 48.241074, 47.705357, 47.571426, 47.4375, 47.357143, 47.166668, 46.883926, 46.5625, 46.3125, 46.125, 46.0625, 46.0625, 46.0625, 46.1875, 46.1875, 46.1875, 46.1875, 45.9375, 45.67857, 45.357143, 45.133926, 44.875, 44.6875, 44.5, 44.4375, 44.348213, 44.080357, 43.758926, 43.285713, 43.0625, 42.8125, 42.5, 42.25, 42.0625, 41.75, 41.6875, 41.5625, 41.267857, 40.8125, 40.601189, 40.5625, 40.5625, 40.625, 40.401787, 40.3125, 40.1875, 40, 39.794643, 39.416668, 39.258926, 39.035713, 38.705357, 38.464287, 38.3125, 38.1875, 38.1875, 38.0625, 37.75, 37.5, 37.25, 37.0625, 36.803574, 36.4375, 36.25, 36, 35.875, 35.647324, 35.28125, 35.09375, 34.96875, 35.0625, 35.0625, 35, 34.9375, 34.75, 34.5, 34.3125, 34.0625, 33.6875, 33.4375, 33.125, 32.9375, 32.866074, 32.625, 32.5, 32.25, 32.1875, 31.910713, 31.767857, 31.633928, 31.375, 31.3125, 31.125, 30.9375, 30.9375, 30.6875, 30.4375, 30.1875, 29.875, 29.8125, 29.6875, 29.5, 29.375, 29.25, 29.044643, 28.666666, 28.383928, 28.0625, 27.875, 27.75, 27.6875, 27.5625, 27.375, 27.25, 27.125, 26.973213, 26.642857, 26.154762, 25.794643, 25.6875, 25.6875, 25.625, 25.5, 25.0625, 24.607143, 24.375, 24.1875, 24.160713, 23.892857, 23.767857, 23.625, 23.5625, 23.4375, 23.375, 23.25, 23.125, 23.125, 22.8125, 22.625, 22.375, 22.125, 22.0625, 22, 21.75, 21.5, 21.25, 21, 21, 20.9375, 20.6875, 20.4375, 20.1875, 20, 19.875, 19.75, 19.5, 19.25, 19.125, 19, 18.875, 18.607143, 18.041666, 17.696428, 17.4375, 17.4375, 17.3125, 17.25, 17.1875, 17.0625, 17, 16.9375, 16.75, 16.5, 16.25, 16, 15.75, 15.491072, 15.017857, 14.9375, 14.6875, 14.5, 14.3125, 14.0625, 13.9375, 13.8125, 13.6875, 13.5, 13.375, 13.25, 13.125, 13.0625, 12.75, 12.5, 12.25, 12, 11.9375, 11.8125, 11.5625, 11.3125, 11.1875, 11.0625, 11, 10.875, 10.5625, 10.25, 9.875, 9.4910717, 9.28125, 9.09375, 8.96875, 8.6875, 8.4375, 8.25, 8.0625, 8.3125, 8.5625, 8.75, 9, 9, 9, 9, 9, 9, 9, 9.125, 9.125, 9.25, 9.333333, -10, -10, -10, -10, -10, -10, -10, -10, 25, 25, 24.875, 24.8125, 24.71875, 24.879465, 25.471727, 25.763393, 26, 26, 26, -10, -10, -10, -10, -10, -10, -10, -10, -10, -10, -10, -10, -10, 28.25, 28.583334, 28.948412, 29.513393, 29.78125, 30.015625, 30.265625, 30.546875, 30.796875, 30.875, 31.058037, 31.388393, 31.683037, 31.875, 31.821428, 31.767857, 31.68125, 31.334822, 31.183037, 30.808037, 30.8125, 30.78125, 30.71875, 30.59375, 30.34375, 30.125, 30, 29.8125, 29.544643, 28.829166, 28.267857, 28.104166, 28.315477, 28.334822, 28.390625, 28.25
52.375, 52.583336, 53.40625, 53.739582, 53.9375, 54.125, 54.041668, 53.416668, 53.151787, 52.8125, 52.625, 52.303574, 51.901787, 51.9375, 51.741074, 51.517857, 51.25, 50.875, 50.9375, 50.8125, 50.875, 50.5625, 50.3125, 50.125, 49.9375, 50, 50, 49.9375, 49.6875, 49.3125, 48.767857, 48.119644, 47.622025, 47.258926, 47.125, 47, 46.9375, 46.6875, 46.4375, 46.1875, 46.0625, 46.0625, 46.0625, 46.0625, 46.25, 46.3125, 46.4375, 46.428574, 45.979168, 45.75, 45.392857, 45.196426, 44.875, 44.5625, 44.375, 44.25, 44.098213, 43.830357, 43.508926, 43.205357, 43.035713, 42.767857, 42.375, 42.125, 42, 41.8125, 41.875, 41.732143, 41.309525, 40.821426, 40.708332, 40.625, 40.6875, 40.8125, 40.5625, 40.5, 40.25, 39.875, 39.6875, 39.4375, 39.3125, 39.160713, 38.830357, 38.651787, 38.5, 38.3125, 38.1875, 37.964287, 37.6875, 37.4375, 37.25, 37.0625, 36.803574, 36.46875, 36.34375, 36.09375, 36.03125, 35.772324, 35.34375, 35.15625, 34.96875, 35.0625, 35.0625, 35, 34.9375, 34.8125, 34.5625, 34.375, 34.0625, 33.5625, 33.276787, 33.0625, 32.9375, 32.928574, 32.616074, 32.3125, 32.125, 32, 31.8125, 31.75, 31.625, 31.375, 31.3125, 31.125, 30.9375, 30.9375, 30.6875, 30.4375, 30.25, 30, 30.0625, 29.9375, 29.75, 29.5, 29.1875, 28.9375, 28.625, 28.375, 28.0625, 27.8125, 27.625, 27.5, 27.3125, 27.1875, 27.125, 27.0625, 26.910713, 26.642857, 26.446428, 26.1875, 26.125, 26, 25.75, 25.526787, 25.1875, 24.767857, 24.5625, 24.375, 24.214285, 23.809523, 23.785713, 23.6875, 23.6875, 23.5625, 23.375, 23.25, 23.125, 23.125, 22.875, 22.5625, 22.3125, 22.0625, 22, 22, 21.8125, 21.5625, 21.3125, 21.0625, 21, 20.875, 20.625, 20.375, 20.125, 20, 19.8125, 19.6875, 19.4375, 19.1875, 19.125, 19, 18.9375, 18.669643, 18.104166, 17.758928, 17.4375, 17.4375, 17.3125, 17.25, 17.1875, 17.0625, 17, 16.9375, 16.6875, 16.4375, 16.1875, 15.9375, 15.75, 15.428572, 15.017857, 15, 14.8125, 14.75, 14.5, 14.1875, 14, 13.75, 13.5625, 13.375, 13.25, 13.125, 13.0625, 12.9375, 12.625, 12.4375, 12.1875, 12, 12, 11.9375, 11.6875, 11.4375, 11.1875, 11, 10.9375, 10.875, 10.625, 10.375, 10.125, 9.8125, 9.5625, 9.3125, 9.0625, 8.6875, 8.4375, 8.25, 8.0625, 8.3125, 8.5, 8.625, 8.875, 8.875, 8.9375, 9, 9, 8.9375, 8.875, 9.0178566, 9.125, 9.1875, 9.333333, -10, -10, -10, -10, -10, -10, -10, -10, 25, 25, 24.9375, 24.875, 24.71875, 24.84375, 25.453871, 25.754465, 26, 26, -10, -10, -10, -10, -10, -10, -10, -10, -10, -10, -10, -10, -10, -10, -10, -10, -10, 29.726191, 29.916666, 30.125, 30.291666, 30.5625, 30.739584, 30.734375, 30.933037, 31.263393, 31.705359, 31.941963, 31.883928, 31.830357, 31.68125, 31.397322, 31.370537, 31.03125, 30.883928, 30.8125, 30.75, 30.6875, 30.5, 30.25, 30.0625, 29.9375, 29.705357, 28.909523, 28.473213, 28.354166, 28.627977, 28.709822, 28.703125, 28.491072, 28.1875, 28, 27.765625, 27.71875, 27.5625, 27.53125, 27.53125, 27.59375, 27.75, 27.9375, 28.125, 28.25, 28.375, 28.5, 28.758928, 29.000002, -10, -10, -10, -10, -10, -10, -10, -10, -10, -10, -10, -10, -10, -10, -10, -10, -10, -10, -10, -10, -10, -10, -10, -10, -10, -10, -10, -10, -10, -10, -10, -10, -10, 52.375, 52.972225, 53.364582, 53.5625, 53.8125, 53.9375, 53.791668, 53.291668, 53.026787, 52.75, 52.5625, 52.25, 51.964287, 51.9375, 51.803574, 51.455357, 51.196426, 50.9375, 51, 51, 50.982143, 50.541668, 50.258926, 50.0625, 49.9375, 50, 50, 50, 49.741074, 49.362499, 48.934525, 48.057144, 47.684525, 47.258926, 47.1875, 47.0625, 47, 46.785713, 46.455357, 46.267857, 46.098213, 46.0625, 46.241074, 46.169643, 46.375, 46.4375, 46.5, 46.428574, 45.872025, 45.5625, 45.205357, 45.071426, 44.75, 44.5, 44.25, 44.0625, 43.848213, 43.517857, 43.321426, 43.1875, 43.080357, 42.684525, 42.258926, 42, 41.9375, 41.8125, 41.875, 41.669643, 41.291668, 41.133926, 41, 40.875, 40.875, 40.875, 40.625, 40.5, 40.25, 39.9375, 39.75, 39.5, 39.3125, 39.0625, 38.875, 38.767857, 38.6875, 38.5, 38.25, 37.991074, 37.6875, 37.375, 37.214287, 37, 36.741074, 36.53125, 36.46875, 36.21875, 36.15625, 35.790176, 35.34375, 35.21875, 35.09375, 35.1875, 35.1875, 35.125, 35.0625, 35, 34.8125, 34.5625, 34.1875, 33.6875, 33.339287, 33.125, 33, 32.928574, 32.678574, 32.4375, 32.3125, 32.25, 32.0625, 31.875, 31.580357, 31.3125, 31.1875, 31.0625, 31, 31, 30.75, 30.5, 30.25, 30, 30.0625, 30, 29.8125, 29.5625, 29.25, 29, 28.6875, 28.4375, 28.125, 27.8125, 27.6875, 27.535713, 27.267857, 27.133928, 27.0625, 27, 26.875, 26.75, 26.5625, 26.375, 26.375, 26.25, 26, 25.669643, 25.375, 25.017857, 24.875, 24.75, 24.589285, 24.122023, 24.035713, 23.892857, 23.8125, 23.6875, 23.5625, 23.357143, 23.125, 23.125, 22.8125, 22.5625, 22.3125, 22.0625, 22, 22, 21.8125, 21.5625, 21.3125, 21.0625, 21, 20.875, 20.625, 20.375, 20.125, 20, 19.8125, 19.6875, 19.4375, 19.1875, 19.0625, 18.875, 18.8125, 18.544643, 18.041666, 17.821428, 17.5625, 17.5625, 17.375, 17.25, 17.125, 17, 17.0625, 17, 16.8125, 16.5625, 16.25, 15.9375, 15.6875, 15.428572, 15.125, 15.125, 15, 14.9375, 14.6875, 14.375, 14.125, 13.8125, 13.5, 13.3125, 13.1875, 13, 12.9375, 12.75, 12.5, 12.375, 12.1875, 12, 11.9375, 11.9375, 11.6875, 11.5, 11.25, 11, 11, 10.9375, 10.6875, 10.4375, 10.1875, 9.9375, 9.75, 9.5625, 9.25, 8.8125, 8.4553566, 8.25, 8.0625, 8.3125, 8.4107141, 8.4017859, 8.6875, 8.7321434, 8.8125, 8.9375, 8.9375, 8.8125, 8.75, 8.9107141, 9.125, 9.125, 9.333333, -10, -10, -10, -10, -10, -10, -10, -10, 25, 25, 24.866072, 24.674999, 24.709822, 24.879463, 25.596727, 25.767859, 26, -10, -10, -10, -10, -10, -10, -10, -10, -10, -10, -10, -10, -10, -10, -10, -10, -10, -10, -10, -10, -10, -10, 30.4375, 30.583334, 30.59375, 30.823662, 31.216518, 31.736609, 32.098213, 32.118301, 32.127232, 31.9625, 31.616072, 31.651787, 31.571428, 31.241072, 30.979166, 30.883928, 30.8125, 30.6875, 30.5, 30.3125, 30.21875, 30.049107, 29.253273, 28.994898, 28.622023, 28.877977, 28.959822, 28.953125, 28.803572
-10, 53.166668, 53.322914, 53.53125, 53.75, 53.8125, 53.666668, 53.104168, 52.901787, 52.6875, 52.5, 52.3125, 52.0625, 52, 51.866074, 51.455357, 51.258926, 51, 51.0625, 51.0625, 50.910713, 50.354168, 50.133926, 49.9375, 50, 50.0625, 50.0625, 50, 49.553574, 49.299999, 48.916668, 48.182144, 47.872025, 47.446426, 47.375, 47.1875, 47.125, 46.910713, 46.642857, 46.517857, 46.223213, 46.125, 46.241074, 46.107143, 46.3125, 46.375, 46.375, 46.241074, 45.747025, 45.41964, 45.017857, 44.883926, 44.5625, 44.375, 44.1875, 44, 43.75, 43.5, 43.3125, 43.1875, 43.017857, 42.559525, 42.133926, 41.875, 41.875, 41.875, 42, 41.857143, 41.479168, 41.258926, 41.0625, 40.9375, 40.9375, 41, 40.785713, 40.517857, 40.258926, 39.875, 39.6875, 39.4375, 39.1875, 38.9375, 38.75, 38.6875, 38.625, 38.5, 38.1875, 37.928574, 37.625, 37.375, 37.276787, 37.0625, 36.866074, 36.65625, 36.65625, 36.40625, 36.21875, 35.714287, 35.3125, 35.1875, 35.1875, 35.375, 35.375, 35.3125, 35.1875, 35.0625, 34.803574, 34.4375, 34.125, 33.6875, 33.464287, 33.25, 33.125, 32.991074, 32.678574, 32.5, 32.375, 32.3125, 32.1875, 31.9375, 31.705357, 31.428572, 31.125, 31.0625, 30.9375, 31, 30.75, 30.5, 30.25, 30, 30.0625, 30, 29.8125, 29.5625, 29.25, 29, 28.6875, 28.4375, 28.0625, 27.75, 27.6875, 27.535713, 27.223213, 27.080357, 27, 27, 26.9375, 26.875, 26.6875, 26.5625, 26.5, 26.25, 26, 25.607143, 25.3125, 25.107143, 25.169643, 25.107143, 24.964285, 24.434523, 24.214285, 23.892857, 23.8125, 23.6875, 23.625, 23.357143, 23.017857, 23, 22.6875, 22.5, 22.3125, 22.0625, 22, 22, 21.8125, 21.5625, 21.3125, 21.0625, 21, 20.875, 20.625, 20.375, 20.125, 20, 19.875, 19.6875, 19.4375, 19.1875, 18.9375, 18.75, 18.625, 18.366072, 18.125, 18, 17.75, 17.6875, 17.4375, 17.25, 17.125, 16.9375, 16.9375, 16.8125, 16.6875, 16.5, 16.25, 15.9375, 15.5625, 15.375, 15.1875, 15.125, 15.017857, 14.875, 14.625, 14.375, 14.125, 13.875, 13.625, 13.5, 13.375, 13.125, 13, 12.6875, 12.5, 12.375, 12.1875, 12, 11.8125, 11.75, 11.5, 11.375, 11.1875, 11, 11, 10.875, 10.625, 10.375, 10.0625, 9.875, 9.6875, 9.5, 9.3125, 8.9375, 8.5803566, 8.3125, 8.0625, 8.25, 8.3482141, 8.4017859, 8.6875, 8.7321434, 8.75, 8.8125, 8.8125, 8.6875, 8.625, 8.8125, 9.1696434, 9.1696434, 9.416666, -10, -10, -10, -10, -10, -10, -10, -10, 25, 25, 24.794643, 24.475, 24.642857, 24.82143, 25.565477, -10, -10, -10, -10, -10, -10, -10, -10, -10, -10, -10, -10, -10, -10, -10, -10, -10, -10, -10, -10, -10, -10, -10, -10, 30.3125, 30.3125, 30.339287, 30.685268, 31.158482, 31.767859, 32.254463, 32.337051, 32.265625, 31.955357, 31.8125, 31.919643, 31.8125, 31.678572, 31.354166, 31.258928, 31.125, 31, 30.8125, 30.625, 30.59375, 30.549107, 30.015179, 29.62755, 29.122023, 29.083334, 29.116072, 29.03125, 28.991072, 28.75, 28.59375, 28.267857, 28.09375, 27.9375, 27.90625, 27.96875, 28.09375, 28.25, 28.4375, 28.625, 28.5625, 28.5625, 28.5625, 28.857143, 29.066668, -10, -10, -10, -10, -10, -10, -10, -10, -10, -10, -10, -10, -10, -10, -10, -10, -10, -10, -10, -10, -10, -10, -10, -10, -10, -10, -10, -10, -10, -10, -10, -10, -10, -10, 53.541668, 53.604164, 53.6875, 53.75, 53.553574, 53.25, 53.0625, 52.8125, 52.8125, 52.5625, 52.375, 52.1875, 52, 51.866074, 51.5, 51.3125, 51.0625, 51.0625, 51.0625, 50.839287, 50.166668, 50.008926, 49.8125, 50.0625, 50.1875, 50.169643, 49.833332, 49.294643, 49.130356, 48.952381, 48.262501, 48.050594, 47.517857, 47.4375, 47.1875, 47.125, 46.973213, 46.705357, 46.580357, 46.285713, 46.125, 46.241074, 46.107143, 46.25, 46.3125, 46.25, 46.053574, 45.497025, 45.071426, 44.8125, 44.6875, 44.4375, 44.3125, 44.125, 44, 43.8125, 43.5625, 43.375, 43.25, 43.080357, 42.684525, 42.383926, 42.125, 42.0625, 42.0625, 42.125, 42.044643, 41.666668, 41.383926, 41.1875, 40.973213, 40.901787, 41, 40.723213, 40.517857, 40.258926, 39.875, 39.6875, 39.4375, 39.1875, 38.875, 38.6875, 38.5625, 38.4375, 38.375, 38.0625, 37.866074, 37.5625, 37.375, 37.276787, 37.0625, 37, 36.90625, 36.90625, 36.65625, 36.34375, 35.848213, 35.5625, 35.375, 35.4375, 35.5, 35.5, 35.4375, 35.25, 35.1875, 34.866074, 34.270832, 34.053574, 33.6875, 33.526787, 33.375, 33.1875, 33.0625, 32.866074, 32.6875, 32.5625, 32.375, 32.25, 31.9375, 31.705357, 31.428572, 31.125, 31.125, 31, 31.0625, 30.875, 30.5625, 30.3125, 30.0625, 30.0625, 29.9375, 29.75, 29.5, 29.125, 28.875, 28.5625, 28.3125, 28.0625, 27.875, 27.875, 27.723213, 27.348213, 27.142857, 27, 27, 26.9375, 26.875, 26.6875, 26.5, 26.375, 26.0625, 25.75, 25.419643, 25.25, 25.214287, 25.357143, 25.232143, 25.116072, 24.729166, 24.508928, 24.205357, 24, 23.75, 23.5625, 23.294643, 22.955357, 22.9375, 22.6875, 22.5, 22.3125, 22.0625, 22, 22, 21.8125, 21.5625, 21.3125, 21.0625, 20.9375, 20.75, 20.5, 20.25, 20.0625, 20, 19.875, 19.625, 19.375, 19.125, 18.8125, 18.625, 18.5, 18.25, 18.1875, 18.125, 17.875, 17.75, 17.5, 17.25, 17.125, 16.875, 16.8125, 16.6875, 16.5625, 16.4375, 16.25, 15.9375, 15.625, 15.5, 15.303572, 15.041667, 14.839286, 14.6875, 14.5, 14.3125, 14.1875, 14, 13.8125, 13.6875, 13.4375, 13.125, 12.9375, 12.5625, 12.4375, 12.3125, 12.125, 12, 11.8125, 11.75, 11.5, 11.375, 11.1875, 11, 10.9375, 10.75, 10.5, 10.25, 9.9375, 9.75, 9.5625, 9.375, 9.25, 9, 8.7053566, 8.5, 8.3125, 8.4375, 8.4732141, 8.4642859, 8.6875, 8.7321434, 8.6875, 8.6875, 8.6875, 8.5625, 8.625, 8.875, 9.2321434, 9.2946434, 9.5, -10, -10, -10, -10, -10, -10, -10, -10, 25, 25, 24.794643, 24.475, 24.642857, 24.82143, 25.482143, -10, -10, -10, -10, -10, -10, -10, -10, -10, -10, -10, -10, -10, -10, -10, -10, -10, -10, -10, -10, -10, -10, -10, -10, 30.1875, 30.166666, 30.276787, 30.689732, 31.145088, 31.741072, 32.160713, 32.265625, 32.265625, 31.955357, 31.875, 32, 32.035713, 31.857143, 31.466667, 31.366072, 31.125, 31.125, 30.9375, 30.75, 30.71875, 30.691963, 30.34375, 29.924107, 29.705357, 29.375, 29.3125, 29.125, 29.116072
-10, 54, 54.083332, 54, 54, 53.678574, 53.25, 53.0625, 52.75, 52.8125, 52.544643, 52.205357, 52.008926, 51.75, 51.6875, 51.5, 51.3125, 51.125, 51.0625, 51.0625, 50.839287, 50.166668, 50.008926, 49.8125, 50.0625, 50.1875, 50.107143, 49.739582, 49.263393, 49.036606, 49.010418, 48.625, 48.3125, 47.684525, 47.446426, 47.1875, 47.1875, 47.098213, 46.830357, 46.705357, 46.348213, 46.125, 46.241074, 46.107143, 46.1875, 46.1875, 46.0625, 45.8125, 45.455357, 45.0625, 44.8125, 44.625, 44.375, 44.25, 44.0625, 44, 43.875, 43.6875, 43.5625, 43.375, 43.107143, 42.684525, 42.508926, 42.25, 42.1875, 42.125, 42, 41.9375, 41.75, 41.5, 41.3125, 41.098213, 40.964287, 41.0625, 40.848213, 40.580357, 40.321426, 39.875, 39.5625, 39.3125, 39.0625, 38.75, 38.625, 38.5, 38.3125, 38.3125, 38.0625, 37.901787, 37.6875, 37.5, 37.339287, 37.125, 37.0625, 37, 37, 36.8125, 36.4375, 35.973213, 35.75, 35.5625, 35.6875, 35.75, 35.75, 35.6875, 35.4375, 35.3125, 34.928574, 34.270832, 34.116074, 33.875, 33.75, 33.5, 33.142857, 32.875, 32.6875, 32.6875, 32.5625, 32.4375, 32.3125, 31.991072, 31.692856, 31.535715, 31.125, 31.1875, 31, 31, 30.8125, 30.5, 30.25, 30.0625, 29.9375, 29.75, 29.5, 29.25, 29, 28.875, 28.6875, 28.4375, 28.25, 28.044643, 27.892857, 27.80357, 27.473213, 27.330357, 27.1875, 27.125, 27, 26.8125, 26.5625, 26.3125, 26.125, 25.875, 25.625, 25.330357, 25.125, 25.089287, 25.169643, 25.044643, 25, 24.8125, 24.678572, 24.392857, 24.125, 23.767857, 23.5625, 23.232143, 22.892857, 22.875, 22.625, 22.5625, 22.375, 22.125, 22.0625, 21.9375, 21.6875, 21.4375, 21.1875, 21, 20.9375, 20.75, 20.5, 20.25, 20.125, 20.035713, 19.901787, 19.6875, 19.375, 19.125, 18.75, 18.5625, 18.4375, 18.25, 18.1875, 18.125, 17.8125, 17.625, 17.375, 17.125, 17.0625, 16.875, 16.75, 16.5625, 16.4375, 16.3125, 16.1875, 15.9375, 15.625, 15.5, 15.241072, 14.916667, 14.651786, 14.4375, 14.3125, 14.1875, 14.125, 14.0625, 13.875, 13.75, 13.5, 13.1875, 13, 12.6875, 12.5625, 12.375, 12.1875, 12, 11.8125, 11.75, 11.5, 11.375, 11.1875, 11, 10.875, 10.625, 10.375, 10.125, 9.8125, 9.625, 9.4375, 9.25, 9.1875, 9.0625, 8.7678566, 8.625, 8.5, 8.5625, 8.6607141, 8.6517859, 8.75, 8.7321434, 8.5625, 8.4375, 8.4375, 8.4375, 8.5625, 8.8571424, 9.2321434, 9.3303576, 9.5, -10, -10, -10, -10, -10, -10, -10, -10, 25, 25, 24.711309, 24.35, 24.517857, 24.678572, 25.375, -10, -10, -10, -10, -10, -10, -10, -10, -10, -10, -10, -10, -10, -10, -10, -10, -10, -10, -10, -10, -10, -10, -10, -10, 30.041666, 30.027777, 30.386162, 30.762648, 31.160713, 31.633928, 32.125, 32.203125, 32.296875, 32.049107, 32.03125, 32.09375, 32.125, 32.035713, 31.654167, 31.616072, 31.294643, 31.1875, 31.0625, 30.875, 30.90625, 30.84375, 30.513393, 29.995537, 29.767857, 29.4375, 29.375, 29.1875, 29.21875, 29.066963, 28.933037, 28.736607, 28.5, 28.5, 28.5, 28.625, 28.6875, 28.75, 28.8125, 28.9375, 28.9375, 29, 29.0625, 29.339287, 29.483332, -10, -10, -10, -10, -10, -10, -10, -10, -10, -10, -10, -10, -10, -10, -10, -10, -10, -10, -10, -10, -10, -10, -10, -10, -10, -10, -10, -10, -10, -10, -10, -10, -10, -10, 54.0625, 54.125, 54.09375, 54.0625, 53.741074, 53.3125, 53.0625, 52.75, 52.8125, 52.535717, 51.997025, 51.767853, 51.5, 51.4375, 51.375, 51.3125, 51.25, 51.1875, 51, 50.625, 50.0625, 49.9375, 49.8125, 50.0625, 50.1875, 50.169643, 49.864582, 49.459824, 49.361607, 49.21875, 49, 48.5625, 47.934525, 47.633926, 47.375, 47.3125, 47.1875, 46.9375, 46.6875, 46.375, 46.125, 46.125, 46.0625, 46.0625, 46.0625, 45.875, 45.625, 45.375, 45, 44.8125, 44.5625, 44.3125, 44.1875, 44, 44, 43.875, 43.6875, 43.5, 43.1875, 42.875, 42.580357, 42.4375, 42.25, 42.1875, 42.125, 42, 42, 41.875, 41.625, 41.4375, 41.160713, 40.964287, 41.0625, 40.910713, 40.705357, 40.446426, 40, 39.625, 39.375, 39.107143, 38.705357, 38.580357, 38.4375, 38.25, 38.3125, 38.107143, 37.830357, 37.633926, 37.5, 37.375, 37.258926, 37.375, 37.178574, 37.041668, 36.8125, 36.4375, 36.142857, 35.9375, 35.75, 35.8125, 35.8125, 35.8125, 35.75, 35.5, 35.375, 34.928574, 34.333332, 34.178574, 33.9375, 33.875, 33.5625, 33.205357, 32.9375, 32.625, 32.5625, 32.375, 32.1875, 32.0625, 31.803572, 31.612499, 31.473215, 31.125, 31.1875, 31, 31, 30.8125, 30.5, 30.25, 30.0625, 29.875, 29.625, 29.375, 29.125, 28.9375, 28.875, 28.75, 28.5, 28.375, 28.232143, 27.9375, 27.767857, 27.580357, 27.446428, 27.375, 27.25, 27, 26.6875, 26.4375, 26.1875, 26, 25.75, 25.5, 25.25, 25, 24.964287, 24.982143, 24.794643, 24.6875, 24.5, 24.428572, 24.25, 24.0625, 23.705357, 23.4375, 23.125, 22.892857, 22.875, 22.75, 22.625, 22.4375, 22.1875, 22.0625, 21.875, 21.625, 21.375, 21.125, 21, 20.9375, 20.8125, 20.5625, 20.3125, 20.25, 20.071428, 19.857143, 19.633928, 19.3125, 19.0625, 18.75, 18.625, 18.5625, 18.4375, 18.3125, 18.1875, 17.8125, 17.5625, 17.3125, 17.0625, 17, 16.875, 16.625, 16.375, 16.1875, 16.0625, 16.0625, 15.875, 15.6875, 15.5625, 15.303572, 14.916667, 14.526786, 14.3125, 14.125, 14.0625, 14.0625, 13.9375, 13.8125, 13.6875, 13.4375, 13.25, 13.125, 12.875, 12.6875, 12.4375, 12.1875, 12, 11.875, 11.75, 11.5, 11.3125, 11.125, 11, 10.8125, 10.5625, 10.3125, 10.0625, 9.75, 9.5, 9.25, 9, 9, 8.9375, 8.75, 8.6875, 8.625, 8.6875, 8.875, 8.9375, 8.875, 8.75, 8.5625, 8.375, 8.4375, 8.4910717, 8.354166, 8.6726189, 9.2321434, 9.4732141, 9.666667, -10, -10, -10, -10, -10, -10, -10, -10, -10, 25, 24.699404, 24.424999, 24.401787, 24.491072, 24.958334, -10, -10, -10, -10, -10, -10, -10, -10, -10, -10, -10, -10, -10, -10, -10, -10, -10, -10, -10, -10, -10, -10, -10, -10, -10, -10, 30.526787, 30.924107, 31.176338, 31.571428, 32, 32.0625, 32.1875, 32.049107, 32.09375, 32.125, 32.125, 31.991072, 31.799999, 31.794643, 31.607143, 31.473213, 31.205357, 31.008928, 31, 30.9375, 30.598213, 29.964287, 29.875, 29.5625, 29.625, 29.4375, 29.375
-10, 54.125, 54.166668, 54.125, 54.125, 53.803574, 53.375, 53.1875, 52.8125, 52.875, 52.598217, 51.997025, 51.830353, 51.5625, 51.5, 51.428574, 51.40625, 51.34375, 51.28125, 51, 50.571426, 50.125, 50, 49.9375, 50.0625, 50.1875, 50.169643, 49.989582, 49.834824, 49.736607, 49.59375, 49.25, 48.75, 48.059525, 47.758926, 47.4375, 47.3125, 47.1875, 46.8125, 46.5, 46.3125, 46.125, 46.25, 46.25, 46.1875, 46.0625, 45.541668, 45.258926, 45.0625, 44.875, 44.875, 44.6875, 44.4375, 44.1875, 43.875, 43.75, 43.625, 43.5, 43.375, 43.125, 42.8125, 42.517857, 42.375, 42.25, 42.1875, 42.125, 42.0625, 42.035713, 41.830357, 41.571426, 41.375, 41.160713, 40.964287, 40.9375, 40.8125, 40.6875, 40.5, 40.25, 39.857143, 39.479168, 39.17857, 38.705357, 38.580357, 38.4375, 38.25, 38.3125, 38.169643, 37.892857, 37.696426, 37.5, 37.3125, 37.196426, 37.25, 37.053574, 36.854168, 36.625, 36.375, 36.25, 36.0625, 35.9375, 35.9375, 35.8125, 35.75, 35.625, 35.3125, 35.1875, 34.8125, 34.333332, 34.178574, 34, 33.875, 33.5625, 33.205357, 32.9375, 32.5625, 32.4375, 32.25, 32.0625, 32, 31.803572, 31.612499, 31.482143, 31.25, 31.25, 31, 30.875, 30.6875, 30.375, 30.1875, 30.0625, 29.875, 29.6875, 29.4375, 29.1875, 29, 28.875, 28.8125, 28.625, 28.625, 28.544643, 28.11607, 27.767857, 27.6875, 27.5, 27.5, 27.3125, 27, 26.616072, 26.25, 26.0625, 25.875, 25.8125, 25.5625, 25.3125, 25.125, 25, 24.875, 24.625, 24.4375, 24.25, 24.25, 24.25, 24.0625, 23.705357, 23.375, 23.125, 23, 23, 22.9375, 22.75, 22.5, 22.25, 22.0625, 21.8125, 21.5625, 21.3125, 21.0625, 21, 20.9375, 20.75, 20.5, 20.25, 20.125, 19.946428, 19.732143, 19.571428, 19.3125, 19.125, 18.875, 18.75, 18.6875, 18.5625, 18.375, 18.1875, 17.875, 17.6875, 17.4375, 17.1875, 17.0625, 16.9375, 16.75, 16.5, 16.25, 16.0625, 16, 15.875, 15.8125, 15.625, 15.366072, 14.979167, 14.571428, 14.375, 14.1875, 14.0625, 14.0625, 13.875, 13.6875, 13.5, 13.25, 13.125, 13.0625, 12.9375, 12.6875, 12.4375, 12.1875, 12, 12, 11.875, 11.625, 11.375, 11.125, 11, 10.8125, 10.5625, 10.3125, 10.0625, 9.75, 9.5, 9.25, 8.9375, 8.875, 8.75, 8.5625, 8.625, 8.6875, 8.8125, 9, 9, 8.875, 8.75, 8.625, 8.5, 8.5625, 8.5535717, 8.354166, 8.6011906, 9.125, 9.4285717, 9.6875, 9.833334, -10, -10, -10, -10, -10, -10, -10, -10, 25, 24.770832, 24.517857, 24.0875, 24.276785, 24.583334, -10, -10, -10, -10, -10, -10, -10, -10, -10, -10, -10, -10, -10, -10, -10, -10, -10, -10, -10, -10, -10, -10, -10, -10, -10, -10, 30.8125, 31.114584, 31.265625, 31.571428, 31.9375, 32, 32.21875, 32.28125, 32.46875, 32.65625, 32.6875, 32.3125, 31.978573, 31.857143, 31.669643, 31.598213, 31.330357, 31.133928, 31.125, 31, 30.669643, 30.107143, 30, 29.75, 29.8125, 29.6875, 29.5, 29.223213, 29.058037, 28.96875, 28.96875, 29.15625, 29.125, 29.125, 29.125, 29.0625, 29.125, 29.354166, 29.645834, 29.9375, 30.1875, 30.357143, 30.499998, -10, -10, -10, -10, -10, -10, -10, -10, -10, -10, -10, -10, -10, -10, -10, -10, -10, -10, -10, -10, -10, -10, -10, -10, -10, -10, -10, -10, -10, -10, -10, -10, -10, -10, 54.125, 54.166668, 54.125, 54.125, 53.803574, 53.291668, 53.080357, 52.8125, 52.8125, 52.598217, 51.997025, 51.830353, 51.625, 51.5, 51.38393, 51.34375, 51.28125, 51.28125, 50.9375, 50.517857, 50.25, 50.125, 50.1875, 50.25, 50.3125, 50.3125, 50.40625, 50.40625, 50.272324, 49.760418, 49.3125, 48.803574, 48.229168, 47.946426, 47.625, 47.4375, 47.25, 46.8125, 46.5625, 46.375, 46.1875, 46.375, 46.3125, 46.3125, 46.169643, 45.497025, 45.205357, 45, 44.9375, 44.9375, 44.75, 44.5, 44.1875, 43.875, 43.6875, 43.5, 43.375, 43.25, 43.0625, 42.75, 42.392857, 42.25, 42.098213, 42.026787, 42.0625, 42, 42.035713, 41.892857, 41.633926, 41.375, 41.1875, 41, 40.875, 40.8125, 40.5625, 40.3125, 40.125, 39.732143, 39.416668, 39.17857, 38.705357, 38.580357, 38.4375, 38.25, 38.3125, 38.169643, 37.892857, 37.758926, 37.5, 37.3125, 37.196426, 37.125, 36.928574, 36.729168, 36.5625, 36.4375, 36.375, 36.1875, 36.0625, 36, 35.875, 35.75, 35.5625, 35.25, 35.0625, 34.75, 34.5, 34.3125, 34.125, 34, 33.625, 33.267857, 33, 32.625, 32.5, 32.3125, 32.125, 32, 31.803572, 31.612499, 31.482143, 31.25, 31.1875, 30.875, 30.6875, 30.4375, 30.1875, 30.0625, 30, 29.875, 29.6875, 29.4375, 29.1875, 29.0625, 28.9375, 28.875, 28.75, 28.6875, 28.607143, 28.24107, 27.892857, 27.875, 27.6875, 27.625, 27.375, 27.0625, 26.678572, 26.3125, 26.125, 25.9375, 25.9375, 25.6875, 25.4375, 25.1875, 25, 24.875, 24.625, 24.375, 24.125, 24.0625, 24, 23.875, 23.5625, 23.214287, 23.0625, 22.9375, 23, 23, 22.8125, 22.5625, 22.3125, 22.0625, 21.75, 21.5, 21.25, 21, 21, 20.9375, 20.75, 20.5, 20.25, 20.0625, 19.883928, 19.669643, 19.508928, 19.3125, 19.0625, 18.875, 18.8125, 18.75, 18.6875, 18.4375, 18.1875, 17.9375, 17.8125, 17.625, 17.375, 17.1875, 17.0625, 16.875, 16.625, 16.375, 16.125, 15.9375, 15.75, 15.6875, 15.4375, 15.25, 15.1875, 14.785714, 14.517857, 14.258928, 14.0625, 14.0625, 13.875, 13.625, 13.375, 13.125, 13, 13, 12.9375, 12.6875, 12.4375, 12.1875, 12, 11.9375, 11.75, 11.5, 11.25, 11.0625, 11, 10.875, 10.6875, 10.5, 10.241072, 9.729167, 9.4464283, 9.25, 9, 8.9375, 8.8125, 8.5625, 8.625, 8.6875, 8.8125, 8.9375, 8.875, 8.6875, 8.5, 8.5, 8.5, 8.625, 8.6785717, 8.354166, 8.4761906, 9, 9.3035717, 9.645833, 9.7777786, -10, -10, -10, -10, -10, -10, -10, -10, 25, 24.833332, 24.571428, 24.025, 24.205357, 24.333334, -10, -10, -10, -10, -10, -10, -10, -10, -10, -10, -10, -10, -10, -10, -10, -10, -10, -10, -10, -10, -10, -10, -10, -10, -10, -10, 31.03125, 31.270834, 31.328125, 31.602678, 31.9375, 32, 32.21875, 32.40625, 32.59375, 32.897324, 33.150002, 32.633926, 32.428574, 32.125, 31.982143, 31.785713, 31.642857, 31.419643, 31.375, 31.291668, 30.669643, 30.214287, 30, 29.875, 29.9375, 29.875, 29.6875
-10, 54.166668, 54.1875, 54, 53.928574, 53.553574, 53.059525, 52.892857, 52.75, 52.75, 52.553574, 52.104168, 52.04464, 51.875, 51.75, 51.50893, 51.40625, 51.28125, 51.28125, 50.9375, 50.580357, 50.4375, 50.375, 50.5, 50.5, 50.4375, 50.5, 50.5625, 50.625, 50.535717, 49.809525, 49.25, 48.75, 48.375, 48.1875, 47.9375, 47.6875, 47.464287, 47.0625, 46.8125, 46.625, 46.330357, 46.5, 46.375, 46.375, 46.169643, 45.372025, 45.080357, 44.875, 44.875, 44.9375, 44.75, 44.5, 44.1875, 43.875, 43.6875, 43.4375, 43.1875, 42.964287, 42.8125, 42.5625, 42.375, 42.25, 42.160713, 42.089287, 42.125, 42.0625, 42.004463, 41.799107, 41.540176, 41.28125, 41.125, 41, 40.8125, 40.6875, 40.4375, 40.116074, 39.875, 39.607143, 39.291668, 39.17857, 38.767857, 38.580357, 38.375, 38.25, 38.25, 38.169643, 37.955357, 37.758926, 37.5, 37.3125, 37.196426, 37.125, 36.866074, 36.604168, 36.4375, 36.375, 36.375, 36.25, 36.125, 36, 35.8125, 35.625, 35.375, 35.0625, 34.875, 34.625, 34.4375, 34.25, 34.125, 34.0625, 33.8125, 33.5625, 33.3125, 32.9375, 32.75, 32.5, 32.25, 32.0625, 31.875, 31.8125, 31.5625, 31.375, 31.1875, 30.8125, 30.625, 30.375, 30.125, 30.0625, 30, 29.866072, 29.5625, 29.375, 29.125, 29, 28.8125, 28.6875, 28.5625, 28.5, 28.5, 28.348213, 28, 28, 27.6875, 27.5625, 27.3125, 27, 26.741072, 26.375, 26.1875, 26, 25.9375, 25.6875, 25.4375, 25.1875, 25, 24.875, 24.625, 24.375, 24.125, 24, 23.875, 23.8125, 23.526787, 23.116074, 23.0625, 22.875, 23, 22.9375, 22.6875, 22.4375, 22.1875, 22, 21.8125, 21.5625, 21.3125, 21.0625, 21, 20.875, 20.6875, 20.4375, 20.25, 20.0625, 19.848213, 19.598213, 19.383928, 19.25, 19.0625, 18.9375, 18.875, 18.8125, 18.6875, 18.4375, 18.1875, 18, 17.9375, 17.75, 17.5, 17.25, 17.0625, 16.875, 16.625, 16.375, 16.125, 15.875, 15.6875, 15.625, 15.375, 15.25, 15.1875, 14.785714, 14.517857, 14.258928, 14.0625, 14.0625, 13.875, 13.625, 13.375, 13.125, 13, 13, 12.875, 12.5625, 12.276786, 12.0625, 11.9375, 11.9375, 11.6875, 11.4375, 11.1875, 11, 11, 10.9375, 10.8125, 10.6875, 10.428572, 9.916667, 9.6339283, 9.4375, 9.25, 9.125, 8.9375, 8.6875, 8.6875, 8.75, 8.875, 8.875, 8.75, 8.5625, 8.375, 8.5, 8.625, 8.8125, 8.8660717, 8.541666, 8.6011906, 8.9375, 9.2321424, 9.6696434, 9.7333336, -10, -10, -10, -10, -10, -10, -10, -10, 25, 24.916666, 24.625, 23.879166, 24.026785, 24.020834, 24.266666, -10, -10, -10, -10, -10, -10, -10, -10, -10, -10, -10, -10, -10, -10, -10, -10, -10, -10, -10, -10, -10, -10, -10, -10, -10, 31.0625, 31.388891, 31.458334, 31.78125, 31.958332, 32.078125, 32.265625, 32.515625, 32.625, 32.928574, 33.212502, 32.852676, 32.834824, 32.508926, 32.303574, 32.10714, 31.892857, 31.669643, 31.5, 31.416668, 30.794643, 30.375, 30.125, 29.9375, 30, 30.0625, 30.03125, 29.825893, 29.510416, 29.388393, 29.40625, 29.59375, 29.65625, 29.625, 29.6875, 29.821428, 30.125, 30.354166, 30.583334, 30.5, 30.5, 30.4375, 30.633331, -10, -10, -10, -10, -10, -10, -10, -10, -10, -10, -10, -10, -10, -10, -10, -10, -10, -10, -10, -10, -10, -10, -10, -10, -10, -10, -10, -10, -10, -10, -10, -10, -10, -10, 54.291668, 54.237499, 53.964287, 53.866074, 53.366074, 52.898811, 52.705357, 52.625, 52.625, 52.4375, 52.25, 52.223213, 52.125, 51.9375, 51.57143, 51.28125, 51.03125, 51.03125, 50.8125, 50.6875, 50.625, 50.5625, 50.625, 50.5625, 50.375, 50.375, 50.375, 50.4375, 50.410717, 49.809525, 49.3125, 48.875, 48.5625, 48.3125, 48.0625, 47.8125, 47.526787, 47.1875, 47, 46.75, 46.455357, 46.5, 46.375, 46.4375, 46.214287, 45.351192, 45.026787, 44.8125, 44.8125, 44.8125, 44.625, 44.375, 44.125, 43.875, 43.6875, 43.392857, 42.8125, 42.610119, 42.708332, 42.616074, 42.5, 42.4375, 42.348213, 42.214287, 42.25, 42.125, 41.933037, 41.549107, 41.352676, 41.09375, 41.0625, 41, 40.75, 40.5625, 40.3125, 40.053574, 39.857143, 39.523811, 39.175594, 39.071426, 38.875, 38.6875, 38.4375, 38.3125, 38.1875, 38.125, 38.125, 37.9375, 37.75, 37.5, 37.25, 36.9375, 36.6875, 36.5, 36.3125, 36.205357, 36.125, 36, 35.9375, 35.8125, 35.6875, 35.5, 35.25, 34.9375, 34.6875, 34.4375, 34.1875, 34, 33.9375, 33.9375, 33.8125, 33.6875, 33.4375, 33.125, 32.9375, 32.625, 32.375, 32.1875, 32, 31.9375, 31.6875, 31.4375, 31.1875, 30.75, 30.5, 30.25, 30.0625, 30.125, 30.125, 30, 29.395834, 29.205357, 29, 28.875, 28.6875, 28.5, 28.375, 28.3125, 28.3125, 28.178572, 27.875, 27.875, 27.5625, 27.4375, 27.25, 27, 26.866072, 26.5, 26.3125, 26.0625, 25.9375, 25.6875, 25.4375, 25.1875, 25, 24.875, 24.625, 24.375, 24.125, 24, 23.875, 23.875, 23.589287, 23.178574, 23.125, 22.875, 23, 22.875, 22.625, 22.4375, 22.1875, 22.0625, 21.9375, 21.6875, 21.4375, 21.1875, 21.0625, 20.875, 20.6875, 20.4375, 20.25, 20, 19.75, 19.580357, 19.375, 19.25, 19.125, 19, 18.9375, 18.8125, 18.625, 18.375, 18.125, 18, 18, 17.875, 17.625, 17.3125, 16.955357, 16.75, 16.5, 16.3125, 16.125, 15.8125, 15.625, 15.5, 15.25, 15.1875, 15.1875, 14.910714, 14.642857, 14.446428, 14.1875, 14.125, 14, 13.75, 13.5, 13.25, 13.0625, 13, 12.8125, 12.5, 12.214286, 12, 11.9375, 11.9375, 11.6875, 11.4375, 11.1875, 11, 11, 11, 10.875, 10.75, 10.491072, 9.979167, 9.7589283, 9.625, 9.5, 9.3125, 9.125, 8.875, 8.8125, 8.875, 8.875, 8.75, 8.625, 8.5, 8.4375, 8.625, 8.75, 8.875, 8.9375, 8.875, 8.8928566, 8.9375, 9.0892859, 9.4821434, 9.5666676, -10, -10, -10, -10, -10, -10, -10, -10, 25, 25, 24.678572, 23.733332, 23.857143, 23.8125, 24.17778, -10, -10, -10, -10, -10, -10, -10, -10, -10, -10, -10, -10, -10, -10, -10, -10, -10, -10, -10, -10, -10, -10, -10, -10, -10, 31.083334, -10, -10, 31.90625, 32.041664, 32.1875, 32.34375, 32.59375, 32.75, 33.022324, 33.337502, 33.102676, 33.147324, 32.883926, 32.553574, 32.214287, 32.0625, 31.848213, 31.75, 31.666668, 31.044643, 30.625, 30.375, 30.125, 30.125, 30.125, 30.0625
-10, 54.291668, 54.237499, 53.964287, 53.803574, 53.303574, 52.773811, 52.517857, 52.4375, 52.375, 52.25, 52.125, 52.098213, 52, 51.8125, 51.455357, 51.0625, 50.875, 50.875, 50.75, 50.875, 50.9375, 50.857143, 50.729168, 50.5, 50.1875, 50.125, 50.0625, 50.1875, 50.160717, 49.684525, 49.25, 48.875, 48.65625, 48.40625, 48.21875, 47.90625, 47.589287, 47.3125, 47.1875, 46.9375, 46.580357, 46.383926, 46.151787, 46.3125, 46.172619, 45.476192, 45.205357, 44.9375, 44.9375, 44.8125, 44.5625, 44.3125, 44.125, 44, 43.9375, 43.705357, 43.053574, 42.589287, 42.592262, 42.491074, 42.4375, 42.4375, 42.348213, 42.214287, 42.25, 42.0625, 41.834824, 41.53125, 41.34375, 41.09375, 41.0625, 41, 40.741074, 40.375, 40.25, 40.035713, 39.776787, 39.333336, 39.151787, 39.035713, 38.830357, 38.633926, 38.375, 38.3125, 38.1875, 38.125, 38.125, 38, 37.875, 37.625, 37.375, 37.0625, 36.8125, 36.625, 36.4375, 36.267857, 36.125, 35.9375, 35.8125, 35.6875, 35.625, 35.5, 35.3125, 35, 34.6875, 34.4375, 34.1875, 33.9375, 33.8125, 33.78125, 33.71875, 33.71875, 33.53125, 33.3125, 33.0625, 32.6875, 32.4375, 32.1875, 32, 31.875, 31.625, 31.375, 31.125, 30.75, 30.5, 30.25, 30.125, 30.25, 30.3125, 30.1875, 29.458334, 29.160713, 28.9375, 28.8125, 28.625, 28.375, 28.1875, 28.0625, 28, 27.875, 27.6875, 27.625, 27.4375, 27.3125, 27.1875, 27, 26.9375, 26.6875, 26.4375, 26.25, 25.9375, 25.541666, 25.3125, 25.0625, 25, 24.8125, 24.625, 24.375, 24.125, 24.0625, 23.8125, 23.75, 23.464287, 23.053574, 23.0625, 22.8125, 22.9375, 22.75, 22.5, 22.375, 22.125, 22.0625, 21.9375, 21.6875, 21.4375, 21.1875, 21.0625, 20.875, 20.75, 20.5, 20.3125, 20.125, 19.8125, 19.580357, 19.3125, 19.125, 19, 18.9375, 18.9375, 18.8125, 18.625, 18.375, 18.125, 18, 18, 17.875, 17.625, 17.25, 16.830357, 16.5625, 16.3125, 16.1875, 16.0625, 15.8125, 15.5625, 15.375, 15.125, 15.0625, 15.125, 14.973214, 14.767857, 14.633928, 14.375, 14.25, 14.125, 13.875, 13.625, 13.375, 13.125, 13, 12.8125, 12.5, 12.214286, 12, 11.9375, 11.9375, 11.75, 11.5, 11.25, 11.0625, 11, 11, 10.875, 10.75, 10.491072, 10.041667, 9.8839283, 9.75, 9.6875, 9.5, 9.3125, 9.125, 9, 8.9375, 8.8125, 8.5625, 8.4375, 8.375, 8.375, 8.625, 8.75, 8.875, 9, 9, 9, 8.9375, 9.0267859, 9.3571434, 9.4833336, -10, -10, -10, -10, -10, -10, -10, -10, 25, 25, 24.714285, 23.749998, 23.607143, 23.625, 24.039585, 24.083334, -10, -10, -10, -10, -10, -10, -10, -10, -10, -10, -10, -10, -10, -10, -10, -10, -10, -10, -10, -10, -10, -10, -10, -10, -10, -10, -10, 31.96875, 32.083332, 32.25, 32.4375, 32.6875, 32.75, 32.866074, 33.087502, 33.03125, 33.21875, 33.071426, 32.803574, 32.401787, 32.25, 32.035713, 31.875, 31.854168, 31.232143, 30.857143, 30.6875, 30.4375, 30.4375, 30.375, 30.25, 30.013393, 29.666666, 29.607143, 29.59375, 29.8125, 29.96875, 30, 30, 30.133928, 30.4375, 30.5625, 30.6875, 30.625, 30.5625, 30.5625, 30.716667, -10, -10, -10, -10, -10, -10, -10, -10, -10, -10, -10, -10, -10, -10, -10, -10, -10, -10, -10, -10, -10, -10, -10, -10, -10, -10, -10, -10, -10, -10, -10, -10, -10, -10, 54.291668, 54.237499, 53.964287, 53.741074, 53.25, 52.982143, 52.660713, 52.455357, 52.321426, 52.125, 52.0625, 52.035713, 51.9375, 51.8125, 51.5, 51.0625, 50.839287, 50.8125, 50.75, 51, 51, 50.857143, 50.604168, 50.25, 49.9375, 49.875, 49.8125, 49.875, 49.857143, 49.580357, 49.25, 49, 48.78125, 48.5625, 48.4375, 48.066963, 47.505955, 47.303574, 47.1875, 47.169643, 46.875, 46.425594, 46.160713, 46.1875, 45.994049, 45.25, 45.026787, 44.8125, 44.875, 44.8125, 44.625, 44.40625, 44.21875, 44.09375, 44.03125, 43.799107, 43.147324, 42.620537, 42.498512, 42.366074, 42.3125, 42.3125, 42.3125, 42.25, 42.25, 42.125, 41.772324, 41.34375, 41.049107, 40.78125, 40.8125, 40.875, 40.741074, 40.5, 40.4375, 40.223213, 39.857143, 39.395836, 39.214287, 39.160713, 39, 38.758926, 38.5625, 38.4375, 38.3125, 38.1875, 38.125, 38, 37.875, 37.625, 37.4375, 37.1875, 37, 36.8125, 36.5, 36.205357, 36, 35.8125, 35.75, 35.6875, 35.553574, 35.3125, 35.125, 34.75, 34.5, 34.25, 34.0625, 33.875, 33.75, 33.65625, 33.59375, 33.59375, 33.46875, 33.3125, 33, 32.625, 32.375, 32.125, 32, 31.875, 31.6875, 31.4375, 31.1875, 30.875, 30.5625, 30.3125, 30.1875, 30.25, 30.375, 30.223215, 29.413691, 29.107143, 28.875, 28.8125, 28.625, 28.375, 28.125, 28, 28.008928, 28.0625, 27.866072, 27.583334, 27.321428, 27.1875, 27.125, 27, 27, 26.75, 26.5, 26.3125, 25.9375, 25.541666, 25.3125, 25.0625, 25, 24.8125, 24.6875, 24.5, 24.25, 24.1875, 23.9375, 23.75, 23.482143, 23.151787, 23.0625, 22.875, 22.9375, 22.75, 22.5, 22.375, 22.125, 22.0625, 21.928572, 21.479166, 21.267857, 21.0625, 21, 20.875, 20.75, 20.5, 20.3125, 20.1875, 19.875, 19.580357, 19.3125, 19.0625, 19, 19, 19, 18.8125, 18.5625, 18.3125, 18, 17.9375, 17.875, 17.6875, 17.5, 17.0625, 16.642857, 16.375, 16.1875, 16.1875, 16.125, 16, 15.6875, 15.375, 15.125, 15, 15, 14.9375, 14.875, 14.75, 14.5, 14.3125, 14.125, 13.9375, 13.6875, 13.4375, 13.1875, 13, 12.875, 12.5625, 12.276786, 12.0625, 11.9375, 12, 11.875, 11.65625, 11.40625, 11.15625, 11.03125, 10.9375, 10.75, 10.5625, 10.3125, 10.125, 10.0625, 9.875, 9.75, 9.5, 9.25, 9.125, 8.96875, 8.84375, 8.65625, 8.40625, 8.3125, 8.375, 8.5, 8.75, 8.875, 8.9375, 9, 9, 9, 8.9375, 8.9642859, 9.2946434, 9.3999996, -10, -10, -10, -10, -10, -10, -10, -10, 25, 25, 24.723215, 23.812498, 23.5, 23.5, 23.831249, 23.944445, -10, -10, -10, -10, -10, -10, -10, -10, -10, -10, -10, -10, -10, -10, -10, -10, -10, -10, -10, -10, -10, -10, -10, -10, -10, -10, -10, 32, 32, 32.1875, 32.4375, 32.732143, 32.875, 32.9375, 32.875, 32.90625, 33.0625, 33.040176, 32.897324, 32.620537, 32.375, 32.1875, 32.125, 32.098213, 31.767857, 31.200001, 31.1875, 30.794643, 30.8125, 30.6875, 30.4375
-10, 54.125, 54.049999, 53.964287, 53.75, 53.3125, 52.982143, 52.598213, 52.299107, 52.102676, 51.90625, 51.90625, 51.875, 51.875, 51.741074, 51.291668, 50.892857, 50.714287, 50.75, 50.8125, 51, 50.9375, 50.732143, 50.354168, 50.0625, 49.78125, 49.65625, 49.65625, 49.59375, 49.5625, 49.5, 49.25, 49.125, 48.96875, 48.6875, 48.5625, 48.13839, 47.25, 47.044647, 47, 47.107143, 46.875, 46.372025, 46.098213, 46.0625, 45.869049, 45.125, 44.839287, 44.6875, 44.6875, 44.6875, 44.625, 44.46875, 44.375, 44.25, 44.09375, 43.799107, 43.178574, 42.625, 42.498512, 42.428574, 42.3125, 42.3125, 42.25, 42.125, 42.125, 42.0625, 41.741074, 41.25, 40.848213, 40.625, 40.75, 40.875, 40.767857, 40.625, 40.5, 40.357143, 40, 39.520836, 39.401787, 39.348213, 39.1875, 38.946426, 38.75, 38.5625, 38.4375, 38.25, 38.125, 38, 37.875, 37.6875, 37.5, 37.25, 37.125, 36.9375, 36.5625, 36.205357, 35.9375, 35.6875, 35.625, 35.5625, 35.491074, 35.223213, 34.955357, 34.571426, 34.3125, 34.125, 34, 33.875, 33.6875, 33.53125, 33.40625, 33.40625, 33.34375, 33.1875, 32.875, 32.5, 32.25, 32.0625, 32, 31.875, 31.75, 31.5, 31.25, 31, 30.625, 30.375, 30.25, 30.25, 30.375, 30.232143, 29.538691, 29.169643, 28.9375, 28.875, 28.6875, 28.4375, 28.1875, 28, 28.008928, 28.0625, 27.866072, 27.520834, 27.258928, 27.125, 27.0625, 27, 27, 26.8125, 26.5625, 26.375, 26, 25.541666, 25.3125, 25.0625, 25, 24.875, 24.8125, 24.6875, 24.4375, 24.375, 24.125, 23.875, 23.625, 23.3125, 23.125, 23, 23, 22.8125, 22.517857, 22.375, 22.125, 22.0625, 21.866072, 21.416666, 21.205357, 21, 21, 20.875, 20.75, 20.5, 20.25, 20.125, 19.875, 19.625, 19.375, 19.125, 19, 19, 19, 18.75, 18.5, 18.25, 17.9375, 17.9375, 17.8125, 17.625, 17.4375, 16.9375, 16.517857, 16.25, 16.0625, 16.0625, 16, 15.875, 15.5625, 15.3125, 15.125, 15, 15, 15, 14.9375, 14.8125, 14.5625, 14.3125, 14.125, 14, 13.75, 13.5, 13.25, 13, 12.9375, 12.6875, 12.4375, 12.1875, 12, 12, 11.9375, 11.78125, 11.53125, 11.28125, 11.03125, 10.8125, 10.5625, 10.3125, 10.125, 10, 10, 9.8125, 9.625, 9.375, 9.125, 9.0625, 8.96875, 8.84375, 8.65625, 8.46875, 8.375, 8.5, 8.6875, 8.875, 9, 9, 9, 9, 9, 9, 9, 9.25, 9.333333, -10, -10, -10, -10, -10, -10, -10, -10, 25.125, 25.083334, 24.794643, 23.812498, 23.428572, 23.3125, 23.59375, 23.895834, -10, -10, -10, -10, -10, -10, -10, -10, -10, -10, -10, -10, -10, -10, -10, -10, -10, -10, -10, -10, -10, -10, -10, -10, -10, -10, -10, 32, 31.979166, 32.109375, 32.359375, 32.654018, 32.875, 33, 32.9375, 32.9375, 32.96875, 33.03125, 33.03125, 32.861607, 32.6875, 32.5, 32.53125, 32.629463, 32.455357, 31.950001, 31.875, 31.219643, 31.241072, 30.875, 30.625, 30.34375, 30.09375, 29.96875, 29.90625, 29.9375, 30, 30.0625, 30.1875, 30.285713, 30.375, 30.5, 30.5, 30.6875, 30.8125, 30.9375, 31.083334, -10, -10, -10, -10, -10, -10, -10, -10, -10, -10, -10, -10, -10, -10, -10, -10, -10, -10, -10, -10, -10, -10, -10, -10, -10, -10, -10, -10, -10, -10, -10, -10, -10, -10, 54, 54, 54, 53.75, 53.375, 52.910713, 52.61607, 52.324108, 51.90625, 51.802082, 51.84375, 51.875, 51.9375, 51.803574, 51.416668, 51.07143, 50.776787, 50.8125, 50.8125, 50.9375, 50.8125, 50.607143, 50.229168, 50, 49.78125, 49.59375, 49.53125, 49.40625, 49.3125, 49.25, 49.03125, 48.9375, 48.78125, 48.5625, 48.46875, 47.96875, 46.962498, 46.919647, 46.866074, 47.107143, 46.875, 46.372025, 46.035713, 45.866074, 45.511902, 44.958336, 44.705357, 44.6875, 44.6875, 44.75, 44.75, 44.65625, 44.625, 44.5, 44.272324, 43.90625, 43.678574, 43.104168, 42.852676, 42.625, 42.375, 42.25, 42.125, 42, 42, 42.0625, 41.848213, 41.392857, 40.99107, 40.8125, 40.9375, 41.053574, 40.747025, 40.5, 40.3125, 40.169643, 39.767857, 39.479168, 39.392857, 39.348213, 39.1875, 38.883926, 38.75, 38.5, 38.4375, 38.3125, 38.125, 38, 37.75, 37.5625, 37.375, 37.1875, 37.125, 36.9375, 36.625, 36.375, 36.125, 35.875, 35.6875, 35.5625, 35.428574, 35.098213, 34.830357, 34.446426, 34.1875, 34.0625, 34, 33.9375, 33.75, 33.59375, 33.46875, 33.34375, 33.28125, 33.125, 32.8125, 32.5, 32.25, 32.0625, 32, 31.9375, 31.875, 31.6875, 31.4375, 31.125, 30.642857, 30.3125, 30.125, 30.125, 30.285713, 30.223213, 29.892857, 29.464285, 29.1875, 29.0625, 28.875, 28.625, 28.229166, 28, 27.946428, 28.0625, 27.866072, 27.395834, 27.133928, 27, 26.9375, 27, 27, 26.8125, 26.5625, 26.375, 26.0625, 25.666666, 25.5, 25.25, 25.125, 25, 24.9375, 24.8125, 24.5625, 24.4375, 24.125, 23.875, 23.6875, 23.375, 23.1875, 23.125, 23.125, 22.982143, 22.559523, 22.321428, 22.0625, 22, 21.741072, 21.291666, 21.080357, 20.875, 20.9375, 20.875, 20.75, 20.5, 20.1875, 20.026787, 19.8125, 19.5625, 19.375, 19.125, 19, 19, 18.9375, 18.6875, 18.4375, 18.1875, 17.9375, 17.9375, 17.75, 17.5, 17.3125, 16.8125, 16.5625, 16.375, 16.1875, 16.1875, 16.0625, 15.875, 15.5625, 15.375, 15.1875, 15.0625, 15.0625, 15, 14.875, 14.6875, 14.4375, 14.1875, 14.0625, 14, 13.75, 13.5, 13.25, 13, 13, 12.8125, 12.625, 12.375, 12.125, 12.0625, 12, 11.90625, 11.65625, 11.40625, 11.03125, 10.6875, 10.4375, 10.1875, 10.0625, 10, 10, 9.75, 9.5, 9.25, 8.9375, 8.9375, 8.90625, 8.71875, 8.65625, 8.53125, 8.375, 8.5625, 8.6875, 8.8125, 9, 9, 9, 9, 9, 9, 9, 9.1875, 9.3214283, -10, -10, -10, -10, -10, -10, -10, -10, 25.125, 25.083334, 24.794643, 23.812498, 23.285713, 23.125, 23.3125, 23.59375, 24.0375, -10, -10, -10, -10, -10, -10, -10, -10, -10, -10, -10, -10, -10, -10, -10, -10, -10, -10, -10, -10, -10, -10, -10, -10, -10, -10, 32, 31.958334, 32.046875, 32.296875, 32.591518, 32.828125, 33.0625, 33, 32.9375, 32.90625, 32.90625, 32.96875, 32.96875, 32.875, 32.75, 32.78125, 32.879463, 32.776787, 32.585716, 32.267857, 31.427979, 31.366072, 31, 30.875
-10, 54, 54, 53.9375, 53.6875, 53.3125, 52.848213, 52.67857, 52.368748, 51.870537, 51.802082, 51.78125, 51.875, 52, 51.928574, 51.666668, 51.419643, 50.982143, 50.946426, 50.8125, 50.75, 50.5, 50.25, 50.125, 50.0625, 49.90625, 49.674107, 49.53125, 49.28125, 49.1875, 49.125, 48.96875, 48.9375, 48.75, 48.53125, 48.4375, 47.9375, 46.962498, 46.919647, 46.803574, 47.044643, 46.80357, 46.258926, 46.040176, 45.6875, 45.232143, 44.809525, 44.580357, 44.6875, 44.625, 44.6875, 44.75, 44.71875, 44.8125, 44.75, 44.450893, 43.90625, 43.75, 43.375, 43.21875, 43, 42.625, 42.375, 42.1875, 42, 41.9375, 42.026787, 41.910713, 41.339287, 41, 40.8125, 40.9375, 41.116074, 40.818455, 40.458332, 40.178574, 39.9375, 39.598213, 39.5625, 39.4375, 39.4375, 39.357143, 39.0625, 38.9375, 38.625, 38.5, 38.3125, 38.053574, 37.75, 37.5, 37.375, 37.3125, 37.1875, 37.1875, 36.9375, 36.625, 36.375, 36.125, 35.9375, 35.75, 35.5625, 35.366074, 34.910713, 34.517857, 34.160713, 34, 33.9375, 33.9375, 33.9375, 33.8125, 33.6875, 33.625, 33.375, 33.25, 33.0625, 32.8125, 32.5625, 32.3125, 32.125, 32, 32, 32, 31.8125, 31.5625, 31.1875, 30.642857, 30.3125, 30.125, 30.0625, 30.160713, 30.035713, 29.705357, 29.383928, 29.1875, 29.1875, 29.125, 28.9375, 28.541666, 28.25, 28.133928, 28.25, 28.053572, 27.574406, 27.133928, 27, 26.875, 27, 27, 26.803572, 26.4375, 26.25, 26, 25.875, 25.75, 25.5, 25.25, 25.125, 25, 24.875, 24.625, 24.4375, 24.1875, 24, 23.8125, 23.5, 23.25, 23.1875, 23.116072, 22.773809, 22.413689, 22.258928, 22.0625, 22.0625, 21.741072, 21.291666, 21.080357, 20.875, 20.9375, 20.875, 20.75, 20.5, 20.125, 19.928572, 19.8125, 19.5625, 19.4375, 19.1875, 19, 19, 18.9375, 18.75, 18.5, 18.25, 18, 17.9375, 17.6875, 17.4375, 17.25, 16.8125, 16.6875, 16.5625, 16.375, 16.3125, 16.125, 15.875, 15.625, 15.5, 15.3125, 15.1875, 15.125, 15, 14.8125, 14.5625, 14.3125, 14.0625, 14, 14, 13.75, 13.5, 13.25, 13, 13, 12.875, 12.6875, 12.4375, 12.125, 12, 11.9375, 11.84375, 11.65625, 11.40625, 11.03125, 10.6875, 10.5, 10.3125, 10.1875, 10.125, 10.0625, 9.8125, 9.5535717, 9.1875, 8.9375, 8.875, 8.84375, 8.71875, 8.71875, 8.65625, 8.5625, 8.6875, 8.75, 8.8125, 9, 9, 9, 9, 9, 9, 9, 9.125, 9.3095236, 10, -10, -10, -10, -10, -10, -10, -10, 25.125, 25.083334, 24.794643, 23.812498, 23.214285, 22.9375, 23.049107, 23.46875, 23.929764, 24.083332, -10, -10, -10, -10, -10, -10, -10, -10, -10, -10, -10, -10, -10, -10, -10, -10, -10, -10, -10, -10, -10, -10, -10, -10, -10, 31.875, 31.854166, 31.984375, 32.234375, 32.529018, 32.828125, 33.15625, 33.15625, 33.15625, 33.09375, 33.03125, 32.96875, 32.96875, 32.9375, 32.875, 32.96875, 33.066963, 33.026787, 32.700001, 32.517857, 31.615479, 31.428572, 31.0625, 31, 30.8125, 30.625, 30.53125, 30.5, 30.5, 30.5625, 30.71875, 30.8125, 30.910713, 30.9375, 30.875, 30.8125, 30.9375, 31.125, 31.4375, 31.716667, -10, -10, -10, -10, -10, -10, -10, -10, -10, -10, -10, -10, -10, -10, -10, -10, -10, -10, -10, -10, -10, -10, -10, -10, -10, -10, -10, -10, -10, -10, -10, -10, -10, -10, 54, 54, 53.875, 53.625, 53.25, 52.723213, 52.642857, 52.404465, 51.799107, 51.802082, 51.71875, 51.875, 52, 51.928574, 51.666668, 51.419643, 50.982143, 50.946426, 50.75, 50.625, 50.375, 50.1875, 50.1875, 50.1875, 49.977676, 49.465775, 49.28125, 49.03125, 49.0625, 49.0625, 48.90625, 48.8125, 48.5625, 48.3125, 48.21875, 47.839287, 47.170834, 47.116074, 46.928574, 46.9375, 46.69643, 46.342262, 46.15625, 45.8125, 45.303574, 45.080357, 44.875, 45, 44.866074, 44.604168, 44.642857, 44.5625, 44.71875, 44.71875, 44.357143, 43.8125, 43.71875, 43.379463, 43.205357, 43.080357, 42.660713, 42.339287, 42.1875, 41.9375, 41.875, 41.991074, 41.973213, 41.348213, 41.178574, 41, 41.125, 41.303574, 40.880955, 40.25, 39.991074, 39.75, 39.642857, 39.625, 39.375, 39.276787, 39.25, 39.098213, 38.9375, 38.642857, 38.4375, 38.25, 38.116074, 37.785713, 37.455357, 37.392857, 37.25, 37.1875, 37.1875, 36.8125, 36.5625, 36.3125, 36.0625, 35.9375, 35.75, 35.5625, 35.375, 34.973213, 34.473213, 34.160713, 33.9375, 33.9375, 33.9375, 33.9375, 33.8125, 33.6875, 33.6875, 33.4375, 33.3125, 33.125, 32.875, 32.625, 32.375, 32.1875, 32, 32, 31.9375, 31.75, 31.5, 31.0625, 30.580357, 30.25, 30, 29.9375, 29.910713, 29.75, 29.5625, 29.3125, 29.1875, 29.25, 29.25, 29.125, 28.791666, 28.5, 28.241072, 28, 27.875, 27.553572, 27.25, 27.125, 26.9375, 27, 27, 26.803572, 26.4375, 26.25, 26, 25.9375, 25.8125, 25.5625, 25.3125, 25.125, 25.0625, 24.910713, 24.580357, 24.383928, 24.125, 24.0625, 23.875, 23.5625, 23.3125, 23.1875, 23.053572, 22.648809, 22.288689, 22.071428, 21.9375, 21.9375, 21.625, 21.4375, 21.1875, 21, 21, 20.9375, 20.8125, 20.5625, 20.1875, 19.928572, 19.8125, 19.625, 19.5, 19.25, 19.0625, 19, 18.9375, 18.75, 18.5, 18.3125, 18.125, 18, 17.705357, 17.5, 17.3125, 17, 16.9375, 16.8125, 16.5, 16.3125, 16.0625, 15.75, 15.5625, 15.5, 15.3125, 15.1875, 15.125, 15, 14.75, 14.5, 14.25, 14, 14, 14, 13.75, 13.5, 13.25, 13, 12.9375, 12.8125, 12.625, 12.375, 12.125, 11.9375, 11.8125, 11.6875, 11.5, 11.3125, 11, 10.75, 10.625, 10.4375, 10.3125, 10.1875, 10.0625, 9.8125, 9.5535717, 9.1875, 8.9375, 8.875, 8.8125, 8.6875, 8.6875, 8.6875, 8.6875, 8.8125, 8.875, 8.875, 9, 9, 9, 9, 9, 9, 9, 9.0625, 9.2976189, 10, -10, -10, -10, -10, -10, -10, -10, 25.125, 25.083334, 24.785713, 23.666666, 23.214285, 22.848213, 22.888393, 23.302084, 23.697323, 23.833334, -10, -10, -10, -10, -10, -10, -10, -10, -10, -10, -10, -10, -10, -10, -10, -10, -10, -10, -10, -10, -10, -10, -10, 31, 31.166668, 31.625, 31.916666, 32.0625, 32.3125, 32.671875, 32.932293, 33.25, 33.375, 33.5, 33.428574, 33.237499, 33.145832, 32.892857, 33, 32.875, 32.96875, 33.03125, 33, 32.875, 32.580357, 31.758335, 31.491072, 31.125, 31.1875
-10, 54, 54, 53.8125, 53.5625, 53.1875, 52.767857, 52.767857, 52.542858, 51.892857, 51.958332, 51.8125, 51.9375, 51.9375, 51.8125, 51.75, 51.526787, 51.107143, 51.008926, 50.75, 50.6875, 50.4375, 50.25, 50.3125, 50.25, 50.008926, 49.452381, 49.1875, 48.875, 48.9375, 48.9375, 48.78125, 48.6875, 48.3125, 48.0625, 47.96875, 47.705357, 47.462502, 47.4375, 47.241074, 47.125, 46.866074, 46.413689, 46.21875, 45.875, 45.366074, 45.205357, 45.0625, 45.125, 44.991074, 44.604168, 44.580357, 44.4375, 44.5625, 44.5625, 44.169643, 43.6875, 43.6875, 43.446426, 43.160713, 42.92857, 42.441963, 42.120537, 42.03125, 41.875, 41.875, 42.053574, 42.098213, 41.598213, 41.535713, 41.125, 41.1875, 41.303574, 40.880955, 39.791668, 39.616074, 39.4375, 39.5, 39.5625, 39.1875, 39.026787, 39.0625, 39.008926, 38.875, 38.535713, 38.3125, 38.125, 38.053574, 37.723213, 37.392857, 37.330357, 37.1875, 37.1875, 37.1875, 36.75, 36.5, 36.25, 36, 35.9375, 35.75, 35.5625, 35.3125, 34.875, 34.455357, 34.151787, 33.9375, 33.875, 33.8125, 33.75, 33.5625, 33.526787, 33.732143, 33.544643, 33.4375, 33.25, 33, 32.75, 32.5, 32.25, 32, 32, 31.875, 31.75, 31.5, 31, 30.464285, 30.017857, 29.8125, 29.8125, 29.785713, 29.6875, 29.5, 29.25, 29.1875, 29.3125, 29.375, 29.3125, 28.979166, 28.6875, 28.366072, 28.0625, 27.9375, 27.553572, 27.25, 27.125, 26.9375, 27, 27, 26.741072, 26.375, 26.1875, 25.9375, 26, 25.9375, 25.6875, 25.4375, 25.25, 25.1875, 25.017857, 24.559523, 24.196428, 23.875, 23.8125, 23.625, 23.508928, 23.5, 23.3125, 23.0625, 22.541666, 22.208332, 22.071428, 22, 21.9375, 21.580357, 21.375, 21.125, 21, 21, 20.9375, 20.8125, 20.5625, 20.1875, 19.928572, 19.875, 19.6875, 19.333334, 19.116072, 18.9375, 18.9375, 18.9375, 18.8125, 18.625, 18.5, 18.375, 18.25, 17.955357, 17.75, 17.5625, 17.3125, 17.25, 17.125, 16.75, 16.5, 16.25, 15.9375, 15.75, 15.625, 15.375, 15.1875, 15.125, 15, 14.75, 14.5, 14.25, 14, 14, 14, 13.75, 13.5, 13.25, 13, 12.875, 12.75, 12.5625, 12.3125, 12.125, 11.9375, 11.75, 11.5625, 11.375, 11.1875, 11, 10.875, 10.75, 10.5625, 10.375, 10.1875, 10.0625, 9.8125, 9.5535717, 9.1875, 8.9375, 8.8125, 8.6875, 8.5, 8.4375, 8.5, 8.625, 8.8125, 8.875, 8.875, 8.9375, 8.9375, 9, 9, 9, 9, 9, 9.0625, 9.4017859, 10.05, -10, -10, -10, -10, -10, -10, -10, 25, 25, 24.714285, 23.666666, 23.214285, 22.785713, 22.700893, 22.927084, 23.147322, 23.375, -10, -10, -10, -10, -10, -10, -10, -10, -10, -10, -10, -10, -10, -10, -10, -10, -10, -10, -10, -10, -10, -10, -10, -10, 31.111113, 31.375, -10, -10, -10, 32.796875, 33.036461, 33.34375, 33.53125, 33.71875, 33.741074, 33.487499, 33.395832, 33.080357, 33.0625, 32.9375, 32.9375, 32.9375, 32.8125, 32.625, 32.392857, 31.833334, 31.5625, 31.3125, 31.25, 31.0625, 30.9375, 31.03125, 31, 31.0625, 31.125, 31.15625, 31.125, 31.1875, 31.3125, 31.375, 31.5, 31.625, 31.6875, 31.875, 32.049999, -10, -10, -10, -10, -10, -10, -10, -10, -10, -10, -10, -10, -10, -10, -10, -10, -10, -10, -10, -10, -10, -10, -10, -10, -10, -10, -10, -10, -10, -10, -10, -10, -10, -10, 54, 54, 53.8125, 53.625, 53.375, 53.0625, 52.9375, 52.535717, 52.026787, 52, 51.875, 51.973213, 51.696426, 51.5625, 51.4375, 51.285713, 51.107143, 51.008926, 50.8125, 50.75, 50.5, 50.3125, 50.4375, 50.3125, 50.071426, 49.470238, 49.25, 48.9375, 48.9375, 48.830357, 48.625, 48.5, 48.116074, 47.799999, 47.866074, 47.741074, 47.75, 47.5, 47.241074, 47.09375, 46.834824, 46.444939, 46.28125, 45.946426, 45.553574, 45.330357, 45.1875, 45.125, 45.053574, 44.666668, 44.580357, 44.375, 44.375, 44.25, 43.866074, 43.5625, 43.5625, 43.383926, 43.035713, 42.696426, 42.254463, 41.995537, 41.96875, 41.875, 41.875, 41.991074, 42.0625, 41.705357, 41.580357, 41.125, 41.0625, 41.125, 40.901787, 39.916668, 39.741074, 39.5, 39.625, 39.625, 39.1875, 38.919643, 38.875, 38.883926, 38.8125, 38.598213, 38.375, 38.125, 38.053574, 37.660713, 37.455357, 37.392857, 37.25, 37.25, 37.1875, 36.75, 36.5, 36.25, 36, 35.9375, 35.6875, 35.464287, 35.25, 34.875, 34.580357, 34.276787, 34.125, 34, 33.8125, 33.642857, 33.375, 33.339287, 33.607143, 33.482143, 33.4375, 33.25, 33, 32.75, 32.5, 32.25, 32, 32, 31.8125, 31.6875, 31.5, 31.125, 30.714285, 30.101191, 29.875, 29.75, 29.6875, 29.5, 29.25, 29.0625, 29.0625, 29.3125, 29.348213, 29.276787, 29.125, 28.75, 28.491072, 28.125, 28.0625, 27.741072, 27.4375, 27.25, 27, 27, 26.9375, 26.678572, 26.3125, 26.125, 25.9375, 26, 25.875, 25.625, 25.375, 25.1875, 25.25, 25.205357, 24.755951, 24.217262, 23.875, 23.75, 23.5625, 23.535715, 23.732143, 23.4375, 22.854166, 22.220238, 21.979166, 22.0625, 22.0625, 21.9375, 21.535713, 21.3125, 21.0625, 21, 21, 20.875, 20.75, 20.482143, 20.089287, 19.964287, 19.9375, 19.8125, 19.395834, 19.178572, 18.9375, 18.9375, 18.9375, 18.8125, 18.625, 18.5, 18.375, 18.25, 18.017857, 17.875, 17.75, 17.625, 17.5, 17.25, 16.767857, 16.4375, 16.1875, 16, 15.8125, 15.6875, 15.5, 15.25, 15.1875, 15.0625, 14.75, 14.5, 14.25, 14, 14, 14, 13.75, 13.5, 13.25, 13, 12.8125, 12.625, 12.4375, 12.1875, 12.0625, 11.9375, 11.75, 11.5, 11.3125, 11.125, 11, 11, 10.875, 10.6875, 10.375, 10.0625, 9.875, 9.625, 9.4285717, 9.125, 9, 8.8125, 8.625, 8.4375, 8.3125, 8.4375, 8.6875, 8.875, 8.9375, 8.875, 8.8125, 8.8125, 8.875, 9, 9.0625, 9.0625, 9.0625, 9.125, 9.4136906, 10.066667, -10, -10, -10, -10, -10, -10, -10, 25, 25, 24.635714, 23.583332, 23.142857, 22.660713, 22.544643, 22.645834, 22.678572, 22.666668, -10, -10, -10, -10, -10, -10, -10, -10, -10, -10, -10, -10, -10, -10, -10, -10, -10, -10, -10, -10, -10, -10, -10, -10, 31.111113, 31.166666, -10, -10, -10, 32.875, 33.083336, 33.364582, 33.65625, 33.90625, 33.89286, 33.737499, 33.583332, 33.330357, 33.3125, 33.125, 33.0625, 33, 32.8125, 32.5625, 32.375, 32.0625, 31.75, 31.5, 31.3125
-10, 54, 54, 53.875, 53.6875, 53.4375, 53.1875, 52.9375, 52.55357, 52.1875, 52.09375, 52.03125, 52.008926, 51.383926, 51.133926, 50.875, 50.8125, 50.776787, 50.75, 50.6875, 50.625, 50.366074, 49.979168, 50.204082, 49.84375, 49.665176, 49.233631, 49.125, 48.875, 48.875, 48.705357, 48.4375, 48.1875, 47.741074, 47.389286, 47.491074, 47.491074, 47.5625, 47.3125, 47.084824, 46.9375, 46.727676, 46.486607, 46.3125, 46.0625, 45.8125, 45.5625, 45.3125, 45.125, 45.053574, 44.666668, 44.642857, 44.375, 44.1875, 43.892857, 43.5625, 43.375, 43.375, 43.258926, 42.910713, 42.633926, 42.254463, 42.013393, 41.96875, 41.8125, 41.875, 41.964287, 41.9375, 41.758926, 41.571426, 41.125, 41.0625, 41.0625, 40.839287, 40.145836, 39.9375, 39.6875, 39.75, 39.5625, 39.125, 38.857143, 38.8125, 38.883926, 38.8125, 38.660713, 38.5, 38.25, 38.25, 37.973213, 37.642857, 37.517857, 37.3125, 37.25, 37.1875, 36.875, 36.625, 36.375, 36.125, 36, 35.6875, 35.464287, 35.25, 34.875, 34.642857, 34.4375, 34.3125, 34.25, 34.0625, 33.830357, 33.4375, 33.339287, 33.544643, 33.419643, 33.4375, 33.25, 33, 32.75, 32.5, 32.25, 32, 31.9375, 31.6875, 31.5625, 31.4375, 31.25, 30.946428, 30.205357, 29.883928, 29.6875, 29.625, 29.5, 29.3125, 29.125, 29.0625, 29.1875, 29.160713, 29.026787, 28.875, 28.5625, 28.366072, 28.0625, 28.0625, 27.75, 27.5625, 27.3125, 27.0625, 27, 26.9375, 26.6875, 26.4375, 26.1875, 26, 25.9375, 25.75, 25.5, 25.25, 25.125, 25.25, 25.267857, 24.818451, 24.279762, 23.9375, 23.6875, 23.5, 23.473215, 23.732143, 23.4375, 22.71726, 22.30357, 22, 22.125, 22.125, 21.875, 21.49107, 21.3125, 21.125, 21.125, 21.125, 20.875, 20.5625, 20.258928, 19.964287, 19.9375, 20, 19.875, 19.395834, 19.178572, 18.9375, 18.9375, 18.875, 18.6875, 18.5, 18.375, 18.3125, 18.1875, 18.017857, 17.9375, 17.875, 17.875, 17.6875, 17.4375, 16.9375, 16.455357, 16.196428, 16, 15.8125, 15.6875, 15.5625, 15.3125, 15.25, 15.125, 14.8125, 14.5625, 14.3125, 14.0625, 14, 14, 13.75, 13.5, 13.25, 13, 12.75, 12.5, 12.3125, 12.0625, 12.0625, 11.9375, 11.6875, 11.4375, 11.1875, 11.0625, 11, 11, 10.8125, 10.5625, 10.25, 9.9375, 9.8125, 9.625, 9.5, 9.3125, 9.125, 8.875, 8.5625, 8.375, 8.25, 8.4375, 8.6875, 8.875, 8.9375, 8.875, 8.8125, 8.8125, 8.875, 9.0625, 9.125, 9.0625, 8.9553566, 9.03125, 9.2172613, -10, -10, -10, -10, -10, -10, -10, -10, -10, 25, 24.557142, 23.416666, 23, 22.535713, 22.339287, 22.25, 22.1875, 22.25, -10, -10, -10, -10, -10, -10, -10, -10, -10, -10, -10, -10, -10, -10, -10, -10, -10, -10, -10, -10, -10, -10, -10, -10, -10, -10, -10, -10, -10, -10, 32.958336, 33.270832, 33.571426, 33.78125, 33.86161, 33.768749, 33.770832, 33.642857, 33.625, 33.4375, 33.3125, 33.1875, 32.9375, 32.625, 32.375, 32.0625, 31.75, 31.5, 31.375, 31.3125, 31.3125, 31.267857, 31.133928, 31.133928, 31.354168, 31.3125, 31.4375, 31.5, 31.65625, 31.875, 32, 32.1875, 32.330357, 32.34375, 32.458336, -10, -10, -10, -10, -10, -10, -10, -10, -10, -10, -10, -10, -10, -10, -10, -10, -10, -10, -10, -10, -10, -10, -10, -10, -10, -10, -10, -10, -10, -10, -10, -10, -10, -10, 54, 54, 53.9375, 53.8125, 53.5625, 53.25, 52.830357, 52.4375, 52.1875, 52.09375, 52.09375, 52.008926, 51.446426, 51.081631, 50.846943, 50.833332, 50.741074, 50.625, 50.5625, 50.5, 50.241074, 49.776043, 49.392857, 49.5, 49.375, 49.238838, 49.15625, 48.9375, 48.875, 48.705357, 48.5, 48.25, 47.866074, 47.451786, 47.428574, 47.366074, 47.375, 47.125, 46.834824, 46.580357, 46.352676, 46.111607, 46.0625, 45.9375, 45.8125, 45.5625, 45.1875, 44.9375, 44.875, 44.571426, 44.642857, 44.375, 44.15625, 43.799107, 43.53125, 43.34375, 43.3125, 43.285713, 43.017857, 42.74107, 42.40625, 42.174107, 42.03125, 41.875, 41.9375, 42, 41.875, 41.875, 41.625, 41.1875, 41.125, 40.9375, 40.714287, 40.229168, 40.0625, 39.9375, 39.9375, 39.6875, 39.25, 38.955357, 38.78125, 38.754463, 38.65625, 38.549107, 38.5, 38.3125, 38.25, 37.9375, 37.625, 37.4375, 37.3125, 37.25, 37.1875, 37, 36.75, 36.5, 36.1875, 35.892857, 35.5, 35.214287, 35.125, 34.848213, 34.642857, 34.446426, 34.375, 34.3125, 34.125, 33.892857, 33.4375, 33.339287, 33.482143, 33.357143, 33.375, 33.1875, 33, 32.75, 32.5, 32.25, 32, 31.875, 31.625, 31.5, 31.375, 31.3125, 31.071428, 30.330357, 30.071428, 29.875, 29.8125, 29.6875, 29.4375, 29.1875, 29.0625, 29.125, 29.098213, 28.901787, 28.6875, 28.375, 28.1875, 28.0625, 28.0625, 27.8125, 27.5625, 27.375, 27.125, 27.0625, 27, 26.678572, 26.3125, 26.125, 25.9375, 25.9375, 25.75, 25.5, 25.25, 25.125, 25.1875, 25.169643, 24.800594, 24.333334, 24, 23.75, 23.5625, 23.473215, 23.732143, 23.375, 22.65476, 22.24107, 21.9375, 22.1875, 22.1875, 22, 21.61607, 21.4375, 21.3125, 21.25, 21.25, 20.9375, 20.625, 20.321428, 20.026787, 20, 20, 19.8125, 19.333334, 19.116072, 18.875, 18.875, 18.75, 18.5625, 18.375, 18.25, 18.1875, 18.0625, 18, 17.9375, 17.875, 17.875, 17.625, 17.3125, 16.9375, 16.455357, 16.196428, 16.0625, 15.875, 15.8125, 15.75, 15.5, 15.375, 15.1875, 14.875, 14.6875, 14.4375, 14.1875, 14.0625, 14, 13.75, 13.5, 13.25, 13, 12.75, 12.5, 12.3125, 12.0625, 12.0625, 11.9375, 11.6875, 11.4375, 11.1875, 11.0625, 11, 11, 10.75, 10.5, 10.1875, 9.8125, 9.75, 9.625, 9.5625, 9.4375, 9.25, 8.875, 8.5, 8.375, 8.3125, 8.5625, 8.875, 9, 9, 8.9375, 8.8125, 8.8125, 8.875, 9.125, 9.1875, 9.125, 9.0178566, 9.03125, 9.145833, -10, -10, -10, -10, -10, -10, -10, -10, -10, 25, 24.478571, 23.25, 22.714285, 22.25, 22.0625, 21.9375, 21.875, 21.854166, -10, -10, -10, -10, -10, -10, -10, -10, -10, -10, -10, -10, -10, -10, -10, -10, -10, -10, -10, -10, -10, -10, -10, -10, -10, -10, -10, -10, -10, -10, 32.854168, 33.135414, 33.383926, 33.5625, 33.745537, 33.84375, 33.875, 34, 33.875, 33.75, 33.5, 33.3125, 33.0625, 32.75, 32.5, 32.1875, 31.875, 31.625, 31.5
-10, 54, 54, 54, 53.9375, 53.75, 53.383926, 52.601189, 52.151787, 52, 51.96875, 52.15625, 52.196426, 51.696426, 51.7551, 51.551022, 51.083332, 50.919647, 50.541668, 50.383926, 50.1875, 49.928574, 49.494793, 49.388393, 49.34375, 49.28125, 49.220982, 49.15625, 49, 48.9375, 48.767857, 48.625, 48.375, 48.178574, 47.764286, 47.449406, 47.285717, 47.125, 46.875, 46.584824, 46.321426, 45.956844, 45.861607, 45.875, 45.875, 45.84375, 45.59375, 45.28125, 45.09375, 45.044643, 44.613094, 44.660713, 44.348213, 43.986607, 43.620537, 43.40625, 43.28125, 43.25, 43.25, 43.125, 42.955357, 42.6875, 42.392857, 42.1875, 41.9375, 41.875, 41.901787, 41.8125, 41.705357, 41.5625, 41.25, 41.125, 40.8125, 40.5625, 40.4375, 40.3125, 40.25, 40.25, 39.9375, 39.625, 39.267857, 38.959824, 38.71875, 38.584824, 38.370537, 38.4375, 38.25, 38.25, 37.9375, 37.625, 37.375, 37.25, 37.1875, 37.125, 37, 36.75, 36.5625, 36.3125, 36.017857, 35.625, 35.232143, 35.125, 34.910713, 34.705357, 34.508926, 34.4375, 34.375, 34.1875, 33.955357, 33.5625, 33.375, 33.375, 33.25, 33.25, 33.125, 33, 32.75, 32.5, 32.25, 31.9375, 31.75, 31.5, 31.3125, 31.25, 31.3125, 31.25, 30.625, 30.321428, 30.0625, 29.875, 29.6875, 29.4375, 29.1875, 29.0625, 29.0625, 29.035713, 28.776787, 28.5625, 28.25, 28.0625, 28, 28, 27.875, 27.625, 27.4375, 27.1875, 27.0625, 26.9375, 26.616072, 26.25, 26.0625, 25.9375, 25.9375, 25.6875, 25.4375, 25.1875, 25, 25.0625, 25.0625, 24.821428, 24.458334, 24.1875, 23.9375, 23.75, 23.526787, 23.482143, 23.125, 22.520832, 22.223213, 22, 22.1875, 22.125, 22, 21.660713, 21.5, 21.375, 21.25, 21.25, 21, 20.75, 20.4375, 20.026787, 20, 19.875, 19.75, 19.5, 19.25, 18.9375, 18.875, 18.6875, 18.5, 18.375, 18.1875, 18, 17.705357, 17.6875, 17.625, 17.625, 17.6875, 17.4375, 17.1875, 16.9375, 16.580357, 16.321428, 16.125, 15.830357, 15.8125, 15.8125, 15.625, 15.5, 15.25, 14.875, 14.6875, 14.4375, 14.1875, 14.0625, 14, 13.75, 13.5, 13.25, 13, 12.8125, 12.5625, 12.375, 12.125, 12.0625, 11.9375, 11.6875, 11.4375, 11.1875, 11.0625, 11, 11, 10.75, 10.5, 10.1875, 9.8125, 9.75, 9.6875, 9.6875, 9.5625, 9.375, 9.0625, 8.8125, 8.9196434, 8.75, 9, 9.5, 9.5625, 9.3928576, 9.5357141, 9.2678566, 9.1964283, 9.125, 9.375, 9.4375, 9.375, 9.2678566, 9.15625, 9.125, -10, -10, -10, -10, -10, -10, -10, -10, -10, 25, 24.449999, 23.166668, 22.571428, 22.125, 21.875, 21.75, 21.75, 21.791666, 22.214287, -10, -10, -10, -10, -10, -10, -10, -10, -10, -10, -10, -10, -10, -10, -10, -10, -10, -10, -10, -10, -10, -10, -10, -10, -10, -10, -10, -10, -10, 32.8125, 33.083332, 33.321426, 33.5, 33.651787, 33.78125, 33.8125, 34, 34, 33.9375, 33.75, 33.491074, 33.125, 32.875, 32.5625, 32.3125, 31.9375, 31.625, 31.5625, 31.6875, 31.875, 31.830357, 31.758928, 31.696428, 31.729168, 31.75, 31.9375, 31.973213, 32.09375, 32.25, 32.3125, 32.5625, 32.830357, 32.90625, 33.041668, -10, -10, -10, -10, -10, -10, -10, -10, -10, -10, -10, -10, -10, -10, -10, -10, -10, -10, -10, -10, -10, -10, -10, -10, -10, -10, -10, -10, -10, -10, -10, -10, -10, -10, 54, 53.916668, 53.875, 53.75, 53.5, 53.133926, 52.351189, 51.901787, 51.8125, 51.84375, 52.09375, 52.285713, 52, 52.183674, 51.908165, 51.208332, 50.8125, 50.354168, 50.133926, 49.9375, 49.678574, 49.307293, 49.200893, 49.21875, 49.21875, 49.203125, 49.09375, 48.9375, 48.9375, 48.875, 48.75, 48.5625, 48.535713, 48.193878, 47.583332, 47.294643, 47.0625, 46.9375, 46.71875, 46.477676, 46.113094, 45.892857, 45.875, 45.875, 45.90625, 45.65625, 45.40625, 45.200893, 44.9375, 44.434525, 44.473213, 44.223213, 43.861607, 43.558037, 43.34375, 43.15625, 43.125, 43.125, 43.0625, 43.0625, 42.875, 42.580357, 42.3125, 42.0625, 42, 42.089287, 41.991074, 41.622025, 41.446426, 41.125, 41, 40.6875, 40.4375, 40.3125, 40.25, 40.25, 40.25, 40, 39.75, 39.5625, 39.334824, 39.09375, 38.897324, 38.495537, 38.392857, 38.1875, 38.1875, 37.9375, 37.5625, 37.3125, 37.1875, 37.125, 37.125, 37, 36.75, 36.625, 36.4375, 36.205357, 35.9375, 35.517857, 35.3125, 35.035713, 34.642857, 34.508926, 34.375, 34.3125, 34.1875, 33.9375, 33.5625, 33.3125, 33.25, 33.125, 33.125, 33.0625, 33, 32.75, 32.5, 32.25, 31.9375, 31.6875, 31.4375, 31.1875, 31.0625, 31.125, 31.107143, 30.729166, 30.446428, 30.1875, 29.9375, 29.75, 29.5, 29.25, 29.0625, 29, 29, 28.8125, 28.5625, 28.3125, 28.0625, 28, 28, 27.9375, 27.6875, 27.5, 27.25, 27, 26.875, 26.553572, 26.1875, 26.0625, 25.9375, 25.875, 25.625, 25.375, 25.125, 25, 25, 24.9375, 24.6875, 24.5, 24.25, 24, 23.75, 23.4375, 23.1875, 22.875, 22.604166, 22.375, 22.25, 22.25, 22.125, 22.0625, 21.705357, 21.5625, 21.4375, 21.25, 21.25, 21.0625, 20.8125, 20.517857, 20.25, 20.125, 20, 19.8125, 19.5, 19.25, 18.9375, 18.875, 18.6875, 18.5625, 18.5, 18.3125, 18.125, 17.705357, 17.5625, 17.4375, 17.375, 17.4375, 17.25, 17.0625, 16.919643, 16.580357, 16.321428, 16.0625, 15.767857, 15.6875, 15.6875, 15.5625, 15.4375, 15.1875, 14.8125, 14.625, 14.4375, 14.25, 14.125, 14.0625, 13.8125, 13.5625, 13.3125, 13.0625, 12.875, 12.6875, 12.5, 12.25, 12.125, 11.9375, 11.625, 11.375, 11.125, 11, 11, 11, 10.75, 10.5, 10.3125, 10.03125, 10.03125, 10.09375, 10.09375, 10, 9.875, 9.625, 9.5, 9.6696434, 10.166667, 10.333333, 10.214286, 10.214286, 10.541667, 10.32653, 9.9553566, 9.8839283, 9.8125, 9.9375, 9.9375, 9.875, 9.7053566, 9.59375, 9.541667, -10, -10, -10, -10, -10, -10, -10, -10, -10, 25, 24.6, 23.520834, 22.955359, 22.383928, 21.883928, 21.642857, 21.625, 21.729166, 22.285715, 22.666666, -10, -10, -10, -10, -10, -10, -10, -10, -10, -10, -10, -10, -10, -10, -10, -10, -10, -10, -10, -10, -10, -10, -10, -10, -10, -10, -10, -10, 32.5625, 32.833332, 33.071426, 33.285713, 33.5, 33.65625, 33.6875, 33.875, 33.9375, 33.9375, 33.875, 33.678574, 33.34375, 33.09375, 32.78125, 32.53125, 32.25, 31.928572, 31.75
-10, 53.875, 53.75, 53.6875, 53.5625, 53.375, 53.008926, 52.288689, 51.839287, 51.6875, 51.75, 52, 52.25, 52.3125, 52.4375, 52.205357, 51.538689, 51.071434, 50.479168, 50.196426, 50, 49.75, 49.640625, 49.59375, 49.625, 49.5625, 49.421875, 49.21875, 49, 49, 49, 48.875, 48.75, 48.625, 48.375, 47.958332, 47.607143, 47.166668, 47.125, 46.982143, 46.821426, 46.470242, 46.059525, 45.946426, 45.9375, 45.96875, 45.71875, 45.46875, 45.227676, 44.875, 44.372025, 44.348213, 44.098213, 43.861607, 43.602676, 43.34375, 43.15625, 43.0625, 43.0625, 43, 43, 42.875, 42.6875, 42.4375, 42.3125, 42.25, 42.25893, 41.949406, 41.425594, 41.196426, 40.9375, 40.875, 40.5625, 40.375, 40.1875, 40.125, 40.1875, 40.1875, 40, 39.75, 39.5625, 39.272324, 38.96875, 38.834824, 38.433037, 38.330357, 38.1875, 38.125, 37.875, 37.5625, 37.375, 37.1875, 37.1875, 37.1875, 36.9375, 36.642857, 36.5625, 36.375, 36.205357, 36.0625, 35.580357, 35.375, 35.160713, 34.830357, 34.696426, 34.5, 34.267857, 34.0625, 33.75, 33.5, 33.3125, 33.169643, 32.916668, 32.892857, 32.875, 32.9375, 32.75, 32.5, 32.25, 31.9375, 31.6875, 31.4375, 31.1875, 31, 31, 31, 30.75, 30.5, 30.25, 29.875, 29.625, 29.375, 29.125, 29, 29, 28.9375, 28.8125, 28.5625, 28.3125, 28.125, 28, 28, 27.9375, 27.6875, 27.5, 27.1875, 26.875, 26.6875, 26.366072, 26.0625, 26, 25.875, 25.8125, 25.5625, 25.3125, 25.125, 25, 25, 24.9375, 24.75, 24.5625, 24.3125, 24.125, 23.875, 23.625, 23.3125, 23, 22.8125, 22.5, 22.4375, 22.3125, 22.1875, 22.1875, 21.875, 21.625, 21.4375, 21.1875, 21.125, 21.0625, 21, 20.741072, 20.4375, 20.25, 20, 19.875, 19.5625, 19.3125, 19, 18.875, 18.6875, 18.625, 18.625, 18.4375, 18.25, 17.830357, 17.5625, 17.375, 17.25, 17.1875, 17.0625, 16.875, 16.75, 16.5625, 16.3125, 16.0625, 15.705357, 15.5625, 15.5, 15.375, 15.3125, 15.125, 14.75, 14.625, 14.5, 14.3125, 14.25, 14.0625, 13.75, 13.5, 13.25, 13, 12.875, 12.75, 12.625, 12.4375, 12.25, 12.0625, 11.75, 11.5, 11.25, 11.0625, 11, 11, 10.8125, 10.6875, 10.6875, 10.53125, 10.424107, 10.415178, 10.34375, 10.3125, 10.3125, 10.428572, 10.571428, 10.918367, 11.214286, 11.321428, 10.785714, 10.9375, 11.25, 11.147959, 10.948979, 10.867347, 10.785714, 10.892858, 10.964286, 11.035714, 10.5, 10.857142, 10.690476, 11.553572, 11.5, -10, -10, -10, -10, -10, -10, -10, 25, 24.75, 23.958334, 23.410715, 22.705357, 22.017857, 21.598213, 21.4375, 21.5625, 22.255953, 22.577776, -10, -10, -10, -10, -10, -10, -10, -10, -10, -10, -10, -10, -10, -10, -10, -10, -10, -10, -10, -10, -10, -10, -10, -10, -10, -10, -10, -10, 32.4375, 32.625, 32.84375, 33.129463, 33.40625, 33.65625, 33.71875, 33.875, 33.9375, 33.9375, 33.875, 33.741074, 33.46875, 33.28125, 33.03125, 32.84375, 32.6875, 32.491074, 32.258926, 32.083332, 32, 31.96875, 32, 31.9375, 31.848213, 31.96875, 32.32143, 32.55714, 32.611607, 32.772324, 32.495537, 32.6875, 32.794643, 32.875, 33, -10, -10, -10, -10, -10, -10, -10, -10, -10, -10, -10, -10, -10, -10, -10, -10, -10, -10, -10, -10, -10, -10, -10, -10, -10, -10, -10, -10, -10, -10, -10, -10, -10, -10, 53.875, 53.75, 53.625, 53.4375, 53.1875, 52.821426, 52.177082, 51.683037, 51.5625, 51.625, 51.90625, 52.21875, 52.25, 52.3125, 52.035713, 51.517857, 51.035713, 50.479168, 50.196426, 50, 49.875, 49.84375, 49.84375, 49.90625, 49.71875, 49.5, 49.25, 49, 49, 49, 48.8125, 48.6875, 48.5625, 48.4375, 48.145832, 47.794643, 47.309525, 47.25, 47.232143, 47.303574, 47.192177, 46.590775, 46.294643, 45.875, 45.790176, 45.59375, 45.441963, 45.191963, 44.8125, 44.363094, 44.267857, 44.035713, 43.830357, 43.571426, 43.3125, 43.125, 43, 43, 42.9375, 42.875, 42.75, 42.5625, 42.4375, 42.4375, 42.4375, 42.4375, 41.845238, 41.166668, 40.946426, 40.75, 40.75, 40.625, 40.428574, 40.0625, 40.0625, 40.098213, 40.125, 40, 39.75, 39.5625, 39.241074, 39, 38.928574, 38.589287, 38.455357, 38.25, 38.125, 37.8125, 37.5625, 37.375, 37.125, 37.125, 37.125, 36.875, 36.580357, 36.5, 36.375, 36.3125, 36.25, 35.830357, 35.5, 35.25, 35.0625, 35, 34.8125, 34.517857, 34.142857, 33.6875, 33.4375, 33.3125, 33.169643, 32.916668, 32.857143, 32.8125, 32.875, 32.75, 32.5, 32.25, 31.9375, 31.6875, 31.5, 31.3125, 31.125, 31.125, 31.0625, 30.8125, 30.5625, 30.3125, 29.9375, 29.625, 29.375, 29.125, 29, 29, 28.875, 28.75, 28.5, 28.25, 28.125, 28, 28, 27.875, 27.625, 27.375, 27, 26.6875, 26.4375, 26.25, 26.125, 26.0625, 26, 25.75, 25.5, 25.25, 25.0625, 25, 25, 25, 24.8125, 24.5625, 24.25, 24, 23.8125, 23.6875, 23.4375, 23.1875, 23, 22.6875, 22.6875, 22.5, 22.3125, 22.25, 21.9375, 21.6875, 21.4375, 21.1875, 21.0625, 20.9375, 20.875, 20.616072, 20.3125, 20.1875, 20, 19.9375, 19.625, 19.375, 19.0625, 18.9375, 18.75, 18.6875, 18.6875, 18.4375, 18.3125, 18.017857, 17.723213, 17.392857, 17.196428, 17.0625, 17, 16.9375, 16.8125, 16.625, 16.375, 16, 15.580357, 15.375, 15.25, 15.1875, 15.1875, 15.0625, 14.75, 14.625, 14.5, 14.3125, 14.25, 14, 13.6875, 13.4375, 13.25, 13.0625, 13, 12.9375, 12.8125, 12.6875, 12.4375, 12.25, 12, 11.8125, 11.6875, 11.5625, 11.285714, 11.285714, 11.142858, 11.3125, 11.375, 11.535714, 11.174107, 11.165178, 11.09375, 11.0625, 11.1875, 11.571428, 11.821428, 11.928572, 12.392858, 12.428572, 12.583333, 12.0625, 12.1875, 12.035714, 11.830357, 11.696428, 11.785714, 11.857142, 11.928572, 12, 12.166667, 11.892858, 11.738095, 12.035714, 12, -10, -10, -10, -10, -10, -10, -10, 25.25, 25.066666, 24.520834, 23.875, 23.098215, 22.330357, 21.723213, 21.392857, 21.5, 22.130953, 22.433332, -10, -10, -10, -10, -10, -10, -10, -10, -10, -10, -10, -10, -10, -10, -10, -10, -10, -10, -10, -10, -10, -10, -10, -10, -10, -10, -10, -10, 32.333332, 32.555557, 32.833332, 33.316963, 33.552082, 33.75, 33.78125, 33.875, 33.9375, 33.9375, 33.9375, 33.866074, 33.65625, 33.46875, 33.21875, 33.09375, 33, 32.928574, 32.696426
-10, 53.875, 53.666668, 53.5, 53.25, 52.9375, 52.625, 52.28125, 51.861607, 51.8125, 51.875, 52.09375, 52.28125, 52.25, 52.25, 51.910713, 51.361607, 50.825893, 50.40625, 50.15625, 50.0625, 50, 50, 50, 50, 49.75, 49.5, 49.25, 49, 49, 49, 48.8125, 48.625, 48.375, 48.25, 48.25, 47.973213, 47.452381, 47.321426, 47.294643, 47.5, 47.522324, 47.135418, 46.741074, 45.979168, 45.821426, 45.625, 45.473213, 45.160713, 44.705357, 44.321426, 44.1875, 44.0625, 43.9375, 43.541668, 43.3125, 43.0625, 43, 43, 42.9375, 42.8125, 42.6875, 42.5, 42.375, 42.4375, 42.5625, 42.50893, 41.738094, 41.095238, 40.758926, 40.6875, 40.75, 40.6875, 40.428574, 39.955357, 39.875, 39.848213, 39.9375, 39.875, 39.625, 39.4375, 39.1875, 39.0625, 39.0625, 38.9375, 38.705357, 38.5, 38.25, 37.875, 37.625, 37.4375, 37.1875, 37.1875, 37.125, 36.9375, 36.642857, 36.4375, 36.25, 36.294643, 36.294643, 36, 35.580357, 35.375, 35.25, 35.25, 35.125, 34.767857, 34.330357, 33.875, 33.625, 33.5625, 33.357143, 33.041668, 32.919643, 32.8125, 32.875, 32.75, 32.5, 32.25, 32, 31.8125, 31.625, 31.5, 31.25, 31.1875, 31.125, 30.875, 30.625, 30.375, 30.0625, 29.6875, 29.4375, 29.1875, 29.0625, 29.0625, 28.9375, 28.875, 28.625, 28.4375, 28.3125, 28.125, 28.0625, 27.875, 27.625, 27.375, 26.9375, 26.5625, 26.3125, 26.125, 26.0625, 26.0625, 26, 25.6875, 25.4375, 25.25, 25.035713, 24.892857, 24.892857, 24.875, 24.75, 24.5625, 24.3125, 24.035713, 23.767857, 23.633928, 23.4375, 23.25, 23.0625, 22.8125, 22.75, 22.5625, 22.375, 22.25, 22, 21.8125, 21.5625, 21.3125, 21.125, 20.9375, 20.8125, 20.5625, 20.375, 20.1875, 20.0625, 20, 19.6875, 19.4375, 19.1875, 19, 18.75, 18.625, 18.5, 18.25, 18.25, 18.125, 17.785713, 17.455357, 17.196428, 17, 17, 16.875, 16.6875, 16.4375, 16.1875, 15.875, 15.5625, 15.375, 15.25, 15.1875, 15.1875, 15.0625, 14.8125, 14.6875, 14.5625, 14.375, 14.25, 13.9375, 13.625, 13.375, 13.25, 13.1875, 13.25, 13.375, 13.294643, 13.125, 13, 12.785714, 12.5625, 12.229167, 12.125, 12.142858, 12.333333, 12.416667, 12.458333, 12.357142, 12.571428, 12.625, 12.431122, 12.385203, 12.303572, 12.321428, 12.571428, 12.785714, 13.035714, 13.260203, 13.392858, 13.321428, 13.214286, 13.071428, 13.107142, 12.964286, 12.964286, 12.892858, 12.625, 12.6875, 12.6875, 12.8125, 13.142858, 13.071428, 12.928572, 12.651786, 12.625, -10, -10, -10, -10, -10, -10, -10, 25.5, 25.333332, 25.008928, 24.154762, 23.285715, 22.392857, 21.785713, 21.330357, 21.375, 21.836309, 22.204166, 22.266666, -10, -10, -10, -10, -10, -10, -10, -10, -10, -10, -10, -10, -10, -10, -10, -10, -10, -10, -10, -10, -10, -10, -10, -10, -10, -10, -10, -10, -10, -10, 33.410713, 33.583332, 33.75, 33.78125, 33.875, 33.9375, 33.9375, 33.9375, 34, 33.96875, 33.78125, 33.65625, 33.397324, 33.104168, 33.0625, 32.821426, 32.520832, 32.142857, 32.03125, 32, 32.13393, 32.392857, 32.584824, 32.88393, 32.896427, 32.736607, 32.709824, 32.370537, 32.625, 32.839287, 33.026787, 33.299999, -10, -10, -10, -10, -10, -10, -10, -10, -10, -10, -10, -10, -10, -10, -10, -10, -10, -10, -10, -10, -10, -10, -10, -10, -10, -10, -10, -10, -10, -10, -10, -10, -10, -10, 53.625, 53.5, 53.375, 53.1875, 52.875, 52.5625, 52.28125, 52.03125, 52.0625, 52.1875, 52.34375, 52.34375, 52.25, 52.1875, 51.848213, 51.361607, 50.825893, 50.46875, 50.191963, 50.026787, 50.0625, 50.0625, 50.1875, 50.1875, 49.875, 49.517857, 49.25, 49.0625, 49.0625, 49.0625, 48.9375, 48.625, 48.375, 48.25, 48.1875, 48.035713, 47.514881, 47.321426, 47.357143, 47.5625, 47.647324, 47.322918, 46.821426, 46.041668, 45.883926, 45.723213, 45.42857, 45.125, 44.875, 44.5625, 44.5, 44.276787, 43.75, 43.345242, 43.125, 43, 43, 43, 42.875, 42.6875, 42.5, 42.3125, 42.25, 42.3125, 42.4375, 42.25, 41.226189, 40.82143, 40.625, 40.723213, 40.8125, 40.705357, 40.428574, 39.892857, 39.75, 39.723213, 39.8125, 39.75, 39.5625, 39.3125, 39.0625, 39, 38.946426, 38.775002, 38.8125, 38.544643, 38.375, 38, 37.6875, 37.5, 37.3125, 37.223213, 37.089287, 37, 36.642857, 36.4375, 36.1875, 36.169643, 36.107143, 35.875, 35.517857, 35.375, 35.348213, 35.205357, 35.071426, 34.705357, 34.330357, 34, 33.75, 33.6875, 33.482143, 33.104168, 32.982143, 32.875, 32.8125, 32.6875, 32.4375, 32.1875, 32, 31.8125, 31.625, 31.5625, 31.375, 31.3125, 31.25, 31, 30.6875, 30.5, 30.1875, 29.75, 29.455357, 29.1875, 29.0625, 29.0625, 28.9375, 28.8125, 28.5625, 28.375, 28.1875, 28.0625, 27.9375, 27.75, 27.544643, 27.142857, 26.696428, 26.4375, 26.25, 26.125, 26.125, 26.0625, 26, 25.75, 25.5625, 25.4375, 25.214287, 24.892857, 24.892857, 24.8125, 24.75, 24.5625, 24.3125, 24.035713, 23.830357, 23.696428, 23.5, 23.3125, 23.0625, 22.8125, 22.6875, 22.5, 22.3125, 22.1875, 22.0625, 21.9375, 21.6875, 21.4375, 21.1875, 20.9375, 20.8125, 20.5625, 20.3125, 20.125, 20, 20, 19.75, 19.5, 19.25, 19, 18.75, 18.5625, 18.4375, 18.25, 18.3125, 18.3125, 17.973213, 17.535713, 17.258928, 17, 17, 16.875, 16.6875, 16.4375, 16.1875, 15.9375, 15.6875, 15.5625, 15.4375, 15.375, 15.3125, 15.1875, 15, 14.8125, 14.625, 14.375, 14.1875, 13.9375, 13.75, 13.625, 13.625, 13.625, 13.75, 13.875, 13.794643, 13.6875, 13.625, 13.535714, 13.714286, 12.904762, 12.857142, 12.75, 13, 13.357142, 13.428572, 13.535714, 13.678572, 13.714286, 13.510203, 13.469388, 13.428572, 13.428572, 13.678572, 13.857142, 14.035714, 14.183673, 14.0625, 14.0625, 14, 13.9375, 13.9375, 14, 14, 13.857142, 13.785714, 13.821428, 13.625, 13.75, 13.9375, 13.875, 13.964286, 13.908164, 13.880953, 15.375, 16.1, -10, -10, -10, -10, -10, 25.625, 25.416666, 25.071428, 24.008928, 23.285715, 22.5, 21.809525, 21.276785, 21.1875, 21.541666, 21.94375, 22.122223, -10, -10, -10, -10, -10, -10, -10, -10, -10, -10, -10, -10, -10, -10, -10, -10, -10, -10, -10, -10, -10, -10, -10, -10, -10, -10, -10, -10, -10, -10, 33.625, 33.729164, 33.84375, 33.9375, 34.03125, 34.125, 34.1875, 34.1875, 34.1875, 34.125, 33.9375, 33.8125, 33.616074, 33.354168, 33.321426, 33.196426
-10, 53.625, 53.5, 53.375, 53.1875, 52.8125, 52.5625, 52.40625, 52.325893, 52.419643, 52.354168, 52.415176, 52.34375, 52.25, 52.0625, 51.6875, 51.28125, 50.754463, 50.53125, 50.245537, 49.880951, 49.955357, 50, 50.294643, 50.3125, 50, 49.535713, 49.3125, 49.1875, 49.1875, 49.1875, 49, 48.625, 48.375, 48.1875, 48.125, 48.035713, 47.660713, 47.383926, 47.3125, 47.375, 47.46875, 47.40625, 46.9375, 46.166668, 45.946426, 45.785713, 45.55357, 45.285713, 45.125, 44.875, 44.794643, 44.443451, 43.785713, 43.345242, 43.125, 43, 43.03125, 43, 42.8125, 42.5625, 42.3125, 42.0625, 42.125, 42.1875, 42.375, 42.214287, 41.184525, 40.892857, 40.8125, 40.973213, 40.9375, 40.723213, 40.366074, 39.830357, 39.75, 39.723213, 39.75, 39.75, 39.5625, 39.3125, 39.25, 39.1875, 39.071426, 38.792858, 38.75, 38.419643, 38.3125, 37.9375, 37.6875, 37.5, 37.3125, 37.223213, 37.026787, 37, 36.6875, 36.4375, 36.1875, 36.107143, 36.044643, 35.875, 35.517857, 35.375, 35.285713, 35.080357, 34.946426, 34.625, 34.267857, 34.0625, 33.75, 33.625, 33.4375, 33.1875, 33.151787, 33.0625, 32.875, 32.642857, 32.375, 32.0625, 31.875, 31.6875, 31.5, 31.5625, 31.5, 31.5, 31.4375, 31.1875, 30.8125, 30.5625, 30.3125, 29.8125, 29.517857, 29.25, 29.0625, 29.0625, 29, 28.875, 28.625, 28.5, 28.232143, 28.026787, 27.9375, 27.6875, 27.544643, 27.080357, 26.633928, 26.4375, 26.3125, 26.25, 26.25, 26.125, 26.0625, 25.875, 25.6875, 25.5625, 25.276787, 24.892857, 24.892857, 24.8125, 24.6875, 24.5625, 24.3125, 24.035713, 23.892857, 23.633928, 23.4375, 23.25, 23.0625, 22.875, 22.6875, 22.4375, 22.1875, 22, 21.875, 21.8125, 21.5625, 21.375, 21.1875, 20.9375, 20.8125, 20.625, 20.375, 20.1875, 20.0625, 19.9375, 19.6875, 19.4375, 19.1875, 18.9375, 18.6875, 18.4375, 18.3125, 18.25, 18.375, 18.4375, 18.160713, 17.660713, 17.321428, 17.0625, 17, 16.875, 16.6875, 16.5, 16.3125, 16.0625, 15.875, 15.75, 15.625, 15.625, 15.5, 15.3125, 15.1875, 15, 14.875, 14.75, 14.357142, 14.4375, 14.375, 14.3125, 14.375, 14.4375, 14.5625, 14.6875, 14.836736, 14.714286, 14.678572, 14.683673, 14.714286, 14.694444, 14.708333, 14.625, 14.583333, 14.428572, 14.571428, 14.642858, 14.714286, 14.714286, 14.607142, 14.678572, 14.5, 14.541667, 14.948979, 14.758928, 14.875, 14.9375, 14.9375, 14.9375, 14.8125, 14.875, 14.875, 14.75, 14.75, 14.625, 14.857142, 14.928572, 14.928572, 14.75, 15.142858, 15.071428, 15.071428, 15, 15, 15.75, 16.177778, -10, -10, -10, -10, -10, 25.75, 25.5, 25.133928, 23.779762, 23.142857, 22.491072, 21.854166, 21.464285, 21.375, 21.4375, 21.84375, 22.091667, -10, -10, -10, -10, -10, -10, -10, -10, -10, -10, -10, -10, -10, -10, -10, -10, -10, -10, -10, -10, -10, -10, -10, -10, -10, -10, -10, -10, -10, -10, 33.916668, 33.791664, 33.854168, 33.90625, 34.03125, 34.25, 34.375, 34.5, 34.5625, 34.473213, 34.205357, 33.9375, 33.741074, 33.479168, 33.321426, 33.25, 33.0625, 32.642857, 32.5, 32.4375, 32.63393, 32.955357, 33.178574, 33.1875, 32.9375, 32.875, 32.875, 33.044643, 33.303574, 33.357143, 33.526787, 33.683334, -10, -10, -10, -10, -10, -10, -10, -10, -10, -10, -10, -10, -10, -10, -10, -10, -10, -10, -10, -10, -10, -10, -10, -10, -10, -10, -10, -10, -10, -10, -10, -10, -10, -10, 53.625, 53.416668, 53.25, 52.955357, 52.6875, 52.625, 52.732143, 52.857143, 52.973213, 52.729168, 52.696426, 52.4375, 52.25, 52.026787, 51.75, 51.325893, 51.080357, 50.8125, 50.53125, 49.922619, 49.955357, 50.044643, 50.357143, 50.375, 50.0625, 49.535713, 49.375, 49.25, 49.25, 49.25, 49, 48.625, 48.375, 48.125, 48.0625, 48.035713, 47.705357, 47.383926, 47.214287, 47.1875, 47.25, 47.25, 46.839287, 46.354168, 46.1875, 45.973213, 45.767857, 45.633926, 45.473213, 45.276787, 45.160713, 44.586311, 43.85714, 43.407742, 43.1875, 43.09375, 43.1875, 43.071426, 42.803574, 42.508926, 42.25, 42.0625, 42.125, 42.1875, 42.4375, 42.25, 41.226192, 41.071426, 41.044643, 41.223213, 41.0625, 40.616074, 40.25, 39.830357, 39.6875, 39.6875, 39.625, 39.6875, 39.5625, 39.3125, 39.375, 39.25, 39.071426, 38.730358, 38.625, 38.294643, 38.25, 38, 37.8125, 37.6875, 37.5, 37.348213, 37.089287, 37, 36.6875, 36.4375, 36.1875, 36.107143, 36.044643, 35.8125, 35.392857, 35.214287, 35.098213, 34.892857, 34.758926, 34.4375, 34.1875, 34.0625, 33.875, 33.6875, 33.5, 33.3125, 33.3125, 33.25, 33.0625, 32.705357, 32.375, 32, 31.75, 31.5625, 31.3125, 31.375, 31.4375, 31.5, 31.482143, 31.104166, 30.696428, 30.4375, 30.25, 29.875, 29.580357, 29.3125, 29.125, 29.0625, 29, 28.9375, 28.75, 28.625, 28.294643, 27.991072, 27.875, 27.6875, 27.669643, 27.196428, 26.696428, 26.5625, 26.4375, 26.375, 26.25, 26.026787, 25.9375, 25.8125, 25.6875, 25.5625, 25.276787, 24.892857, 24.892857, 24.8125, 24.75, 24.625, 24.4375, 24.160713, 23.955357, 23.633928, 23.375, 23.1875, 23, 22.8125, 22.5625, 22.3125, 22.0625, 21.875, 21.75, 21.625, 21.375, 21.25, 21.125, 21, 20.9375, 20.8125, 20.5625, 20.3125, 20.125, 19.9375, 19.6875, 19.4375, 19.1875, 18.875, 18.625, 18.4375, 18.375, 18.4375, 18.5625, 18.5, 18.1875, 17.705357, 17.375, 17.125, 17, 16.875, 16.625, 16.5, 16.375, 16.25, 16.25, 16.125, 16, 15.9375, 15.75, 15.5625, 15.4375, 15.25, 15.258928, 15.458334, 15.904762, 15.375, 15.714286, 15.75, 15.821428, 15.785714, 15.785714, 15.517857, 15.419643, 15.5, 15.375, 15.535714, 15.6875, 15.845238, 15.821428, 15.571428, 15.464286, 15.464286, 15.571428, 15.75, 15.785714, 15.785714, 15.714286, 15.714286, 16.041666, 16.208334, 15.984694, 15.758928, 15.8125, 15.75, 15.928572, 15.964286, 15.857142, 15.928572, 15.857142, 15.785714, 15.625, 15.5625, 15.821428, 15.892858, 15.928572, 16.208334, 16.142857, 16.071428, 16.071428, 15.8125, 15.8125, 16.1875, 16.633333, -10, -10, -10, -10, -10, 25.5, 25.333334, 24.964285, 23.458334, 22.857143, 22.241072, 21.791666, 21.633928, 21.535713, 21.455357, 21.665178, 21.820835, 22, 22.589287, 22.964287, 23.166666, -10, -10, -10, -10, -10, -10, -10, -10, -10, -10, -10, -10, -10, -10, -10, -10, -10, -10, -10, -10, -10, -10, -10, -10, -10, -10, -10, 33.708332, 33.802086, 33.90625, 34.138393, 34.375, 34.5625, 34.6875, 34.6875, 34.598213, 34.330357, 34.0625, 33.866074, 33.604168, 33.321426, 33.1875
-10, 53.5, 53.333332, 53.1875, 52.892857, 52.75, 52.75, 52.982143, 53.169643, 53.223213, 52.916668, 52.696426, 52.375, 52.1875, 52.026787, 51.875, 51.544643, 51.424107, 51.21875, 50.892857, 50.005951, 49.955357, 49.982143, 50.357143, 50.375, 50.0625, 49.473213, 49.205357, 49.125, 49.125, 49.1875, 48.9375, 48.5625, 48.3125, 48.0625, 48, 48, 47.75, 47.375, 46.973213, 46.8125, 46.919643, 46.991074, 46.696426, 46.229168, 46.080357, 45.910713, 45.767857, 45.758926, 45.723213, 45.589287, 45.473213, 44.773811, 43.85714, 43.553574, 43.21875, 43.15625, 43.0625, 42.883926, 42.647324, 42.383926, 42.1875, 42.125, 42.1875, 42.25, 42.4375, 42.14286, 41.083336, 41, 40.982143, 41.223213, 41, 40.553574, 40.25, 39.9375, 39.875, 39.875, 39.75, 39.6875, 39.5, 39.25, 39.25, 39.125, 38.883926, 38.480358, 38.375, 38.107143, 38.125, 38, 37.875, 37.75, 37.5625, 37.348213, 37.089287, 37, 36.6875, 36.5, 36.25, 36, 35.875, 35.625, 35.3125, 35.089287, 34.973213, 34.705357, 34.508926, 34.25, 34.0625, 34, 33.875, 33.625, 33.4375, 33.25, 33.3125, 33.3125, 33.125, 32.767857, 32.4375, 32.008926, 31.458334, 31.241072, 31, 31.125, 31.3125, 31.4375, 31.357143, 30.979166, 30.571428, 30.3125, 30.1875, 29.9375, 29.705357, 29.4375, 29.25, 29.125, 28.9375, 28.839287, 28.75, 28.803572, 28.523809, 27.991072, 27.776787, 27.5625, 27.607143, 27.133928, 26.696428, 26.625, 26.5625, 26.5625, 26.5, 26.214287, 26.0625, 25.875, 25.6875, 25.5, 25.241072, 25, 25, 24.9375, 24.875, 24.6875, 24.4375, 24.1875, 24.125, 23.8125, 23.416666, 23.1875, 22.9375, 22.75, 22.5, 22.3125, 22.0625, 21.9375, 21.8125, 21.5625, 21.3125, 21.1875, 21.0625, 21, 21, 20.875, 20.6875, 20.4375, 20.1875, 20, 19.75, 19.5, 19.25, 18.9375, 18.6875, 18.5625, 18.5, 18.5625, 18.625, 18.5, 18.3125, 17.86607, 17.455357, 17.196428, 17, 16.9375, 16.8125, 16.8125, 16.8125, 16.8125, 16.8125, 16.6875, 16.5625, 16.5, 16.142857, 16, 15.928572, 15.821428, 15.938775, 16.84524, 16.918367, 17.125, 16.857143, 16.892857, 16.928572, 16.857143, 16.785715, 16.392857, 16.3125, 16.3125, 16.3125, 16.5, 16.857143, 16.892857, 16.892857, 16.59375, 16.441963, 16.339287, 16.4375, 16.714285, 16.785715, 16.785715, 16.75, 16.75, 16.892857, 17.035715, 16.948978, 16.867346, 16.857143, 16.857143, 17, 16.8125, 16.75, 16.75, 16.625, 16.5625, 16.5625, 16.785715, 16.857143, 16.928572, 16.928572, 16.928572, 16.964285, 16.892857, 16.964285, 16.964285, 17.035715, 17.125, 17.383333, 19.017857, 19.766666, -10, -10, -10, 24.916666, 25.023811, 24.785713, 23.333334, 22.785715, 22.303572, 21.916666, 21.883928, 21.848213, 21.892857, 22.040178, 22.020834, 22.190475, 22.559525, 22.880953, 23.361109, -10, -10, -10, -10, -10, -10, -10, -10, -10, -10, -10, -10, -10, -10, -10, -10, -10, -10, -10, -10, -10, -10, -10, -10, -10, -10, -10, 33.708332, 33.802086, 33.90625, 34.138393, 34.4375, 34.6875, 34.875, 34.875, 34.785713, 34.455357, 34.0625, 33.901787, 33.875, 33.75, 33.660713, 33.330357, 32.946426, 32.6875, 32.6875, 32.75, 32.973213, 33.3125, 33.3125, 33.375, 33.5625, 33.669643, 33.919643, 33.991074, 33.75, 33.75, 33.716667, -10, -10, -10, -10, -10, -10, -10, -10, -10, -10, -10, -10, -10, -10, -10, -10, -10, -10, -10, -10, -10, -10, -10, -10, -10, -10, -10, -10, -10, -10, -10, -10, -10, -10, 53.625, 53.5, 53.3125, 52.955357, 52.875, 52.875, 53.169643, 53.357143, 53.410713, 53.041668, 52.696426, 52.330357, 52.0625, 51.901787, 51.875, 51.669643, 51.78125, 51.59375, 51.25, 50.125, 49.955357, 49.919643, 50.232143, 50.25, 50, 49.50893, 49.059525, 48.955357, 48.9375, 49.0625, 48.875, 48.625, 48.375, 48.125, 48.125, 48.125, 47.919643, 47.416668, 46.848213, 46.487499, 46.723217, 46.928574, 46.803574, 46.125, 45.94643, 45.75, 45.8125, 45.9375, 45.910713, 45.776787, 45.598213, 44.872025, 44.178574, 43.767857, 43.40625, 43.21875, 43.0625, 42.821426, 42.67411, 42.616074, 42.553574, 42.5625, 42.5, 42.392857, 42.4375, 42.089287, 41.229168, 41.107143, 41.044643, 41.1875, 41, 40.598213, 40.375, 40.125, 40.0625, 40.0625, 39.875, 39.8125, 39.553574, 39.104168, 39.080357, 38.8125, 38.625, 38.392857, 38.125, 38, 38, 37.9375, 37.9375, 37.8125, 37.5625, 37.375, 37.125, 37, 36.75, 36.5, 36.25, 36, 35.875, 35.6875, 35.375, 35.089287, 35, 34.75, 34.5625, 34.3125, 34.0625, 34, 33.875, 33.625, 33.375, 33.1875, 33.3125, 33.375, 33.294643, 32.809525, 32.446426, 32.008926, 31.395834, 31.178572, 30.9375, 31, 31.1875, 31.25, 31.107143, 30.729166, 30.383928, 30.125, 30.0625, 29.875, 29.625, 29.339287, 29.1875, 29, 28.875, 28.75893, 28.517857, 28.744898, 28.491497, 27.846939, 27.526787, 27.3125, 27.4375, 27.241072, 26.8125, 26.6875, 26.625, 26.625, 26.625, 26.401787, 26.1875, 25.875, 25.5625, 25.3125, 25.0625, 25, 25, 25, 24.9375, 24.75, 24.5, 24.25, 24.053572, 23.674999, 23.398809, 23.125, 22.9375, 22.6875, 22.4375, 22.3125, 22.125, 22, 21.875, 21.5, 21.25, 21.125, 21, 21, 21, 20.875, 20.6875, 20.4375, 20.1875, 20, 19.8125, 19.5625, 19.3125, 19, 18.6875, 18.625, 18.5625, 18.625, 18.75, 18.6875, 18.6875, 18.473213, 17.87755, 17.617346, 17.392857, 17.392857, 17.321428, 17.392857, 17.6875, 17.5625, 17.5, 17.375, 17.25, 17.25, 17.625, 17.583334, 17.583334, 17.666666, 17.839285, 17.952381, 18.061224, 18, 17.785715, 17.714285, 17.714285, 17.714285, 17.714285, 17.663265, 17.571428, 17.571428, 17.678572, 17.75, 17.821428, 17.816326, 17.857143, 17.908163, 17.897959, 17.494047, 17.583334, 17.428572, 17.75, 17.75, 18, 17.6875, 17.75, 17.8125, 17.767857, 17.758928, 17.8125, 18.035715, 18.071428, 18, 17.892857, 17.821428, 17.714285, 17.714285, 17.714285, 17.785715, 17.821428, 17.6875, 17.75, 17.8125, 17.607143, 17.535715, 17.8125, 17.964285, 17.964285, 18.142857, 18.333334, 19.107141, 20.066668, 21, 21.375, 22, 24.541666, 24.833334, 24.714285, 23.333334, 22.785715, 22.375, 22.25, 22.3125, 22.348213, 22.330357, 22.446428, 22.4375, 22.580357, 22.919643, 23.160715, 23.583332, -10, -10, -10, -10, -10, -10, -10, -10, -10, -10, -10, -10, -10, -10, -10, -10, -10, -10, -10, -10, -10, -10, -10, -10, -10, -10, -10, 33.75, 33.833336, 33.9375, 34.138393, 34.375, 34.625, 34.8125, 34.90625, 34.910713, 34.642857, 34.241074, 33.901787, 33.875, 33.75, 33.723213
