-10, -10, -10, -10, -10, -10, -10, -10, -10, -10, -10, -10, -10, -10, -10, -10, -10, -10, -10, -10, -10, -10, -10, -10, -10, -10, -10, -10, -10, -10, -10, -10, -10, -10, -10, -10, -10, -10, -10, -10, -10, -10, -10, -10, -10, -10, -10, -10, -10, -10, -10, -10, -10, -10, -10, -10, -10, -10, -10, -10, -10, -10, -10, -10, -10, -10, -10, -10, -10, -10, -10, -10, -10, -10, -10, -10, -10, -10, -10, -10, -10, -10, -10, -10, -10, 69.458336, 69, 68.48214, 67.75, 66.428574, 65.363098, 64.607147, 63.830353, 63.080353, 62.25, 61.194939, 60.352676, 59.486603, 58.607143, 57.815475, 57.25, 56.830357, 56.5625, 56.25, 55.866074, 55.104168, 54.64286, 54.142857, 53.535713, 53, 52.104168, 51.57143, 51.169643, 50.526783, 49.797619, 48.991074, 48.139881, 47.517857, 46.779762, 45.934525, 45.625, 45.044643, 44.616669, -10, -10, -10, -10, -10, -10, -10, -10, -10, -10, -10, -10, -10, -10, -10, -10, -10, -10, -10, -10, -10, -10, 16.5, 16.875, 17.321428, 17.473213, 17.541666, 17.361113, 6, 6, 6, 6, 6, 5.8541665, 5.875, 5.7916665, 5.75, 5.833333, -10, -10, -10, -10, -10, 8.583333, 8.3444443, 7.6651783, 7.5, 7.5535717, 7.8303571, 7.9910717, 8.0625, 7.9375, 7.9375, 7.9375, 7.9375, 8, 8, 8, 8, 8, 7.875, 7.875, 7.875, 7.875, 8, 8, 8, 8, 8, 8, 8, 8, 8, 8, 8.125, 8.1875, 8.1875, 8.1875, 8.0625, 8, 8, 8, 8, 8, 8, 8.0625, 8.3125, 8.5625, 8.875, 9.375, 9.9196434, 10.642858, 11.232143, 11.75, 12.294643, 12.875, 13.669643, 14.464287, 15.1875, 15.866072, 16.526787, 17.044643, 17.53125, 18.053572, 19.0625, 19.723215, 20.294643, 21.020834, 21.598215, 22.169643, 22.6875, 23.348215, 24.127975, 24.866072, 25.660715, 26.392857, 27.044643, 27.803572, 28.660715, 29.32143, 29.9375, 30.544643, 30.982143, 31.455357, 32.229164, 32.875, 33.589287, 34.285713, 35.127975, 35.866074, 36.464287, 36.75, 37.25, 37.75, 38.714287, 39.559525, 40.470238, 41.306549, 41.928574, 42.419643, 42.75, 43.330353, 44.35714, 45, 45.71875, 46.424107, 47.075893, 47.78125, 48.58036, 49.214287, 49.625, 50.125, 50.625, 51.357147, 52.380951, 53, 53.75, 54.571426, 55.142857, 55.625, 56.241074, 56.839287, 57.535717, 58.315475, 58.9375, 59.732147, 60.755951, 61.535717, 62.315475, 62.678574, 63.0625, 63.508926, 64.235123, 64.785721, 65.375, 65.919647, 66.491074, 67.255104, 67.670067, 68.666664, 69.238098, 69.684525, 69.696426, 70.021431, 70.165176, 70.571426, 71.03125, 71.28125, 71.76786, 72.292519, 72.629463, 73.168373, 73.183037, 73.486603, 73.61161, 74.043159, 74.34375, 74.67411, 75.053574, 75.186226, 75.671875, 75.796875, 76.046875, 76.265625, 76.502235, 76.734375, 76.859375, 77.160713, 77.75, 78.333336, 78.848221, 79.133926, 79.678574, 79.89286, 80.071426, 80.125, 80.5625, 80.897324, 81.38839, 81.803574, 82.579086, 83.015305, 83.692459, 84.099998, -10, -10, -10, -10, -10, -10, -10, -10, -10, -10, -10, -10, -10, -10, -10, -10, -10, -10, -10, -10, -10, -10, -10, -10, -10, -10, -10, -10, -10, -10, -10, -10, -10, -10, -10, -10, -10, -10, -10, -10, -10, -10, -10, -10, -10, -10, -10, -10, -10, -10, -10, -10, -10, -10, -10, -10, -10, -10, -10, -10, -10, -10, -10, -10, -10, -10, -10, -10, -10, -10, -10, -10, -10, -10, -10, -10, -10, -10, -10, -10, -10, -10, -10, -10, -10, -10, -10, -10, -10, -10, -10, -10, -10, -10, -10, -10, -10, -10, -10, -10, -10, -10, -10, -10, -10, -10, -10, -10, -10, -10, -10, -10, -10, 69.5, 69.333336, 68.857147, 68.308037, 67.5, 65.913696, 65.178574, 64.4375, 63.705353, 62.839287, 62.071426, 61.123512, 60.126488, 59.308037, 58.464283, 57.857143, 57.4375, 57.017857, 56.75, 56.375, 55.9375, 55.25, 54.64286, 54.107143, 53.455357, 52.892857, 52.041668, 51.419643, 50.955357, 50.455357, 49.744045, 48.928574, 48.014881, 47.276783, 46.589287, 45.892857, 45.5625, 45.044643, 44.733334, -10, -10, -10, -10, -10, -10, -10, -10, -10, -10, -10, -10, -10, -10, -10, -10, -10, -10, -10, -10, -10, -10, 16.5, 17, 17.428572, 17.625, 17.729166, 6, 6, 6, 6, 6, 6, 5.84375, 5.84375, 5.78125, 5.7083335, 5.8888888, -10, -10, -10, -10, -10, -10, -10, 7.21875, 7.0833335, 7.2410717, 7.6428571, 7.8482141, 8, 7.875, 7.875, 7.875, 7.875, 8, 8, 8, 8, 8, 7.9375, 7.9375, 7.9375, 7.9375, 8, 8, 8, 8, 8, 8, 8, 8, 8, 8, 8.125, 8.1875, 8.1875, 8.1875, 8.0625, 8, 8.0625, 8.125, 8.1875, 8.25, 8.1875, 8.1875, 8.375, 8.5625, 8.875, 9.3125, 9.8035717, 10.547619, 11.125, 11.6875, 12.276786, 12.910714, 14.044643, 14.857143, 15.5, 16, 16.607143, 17.151787, 17.65625, 18.178572, 19.125, 19.741072, 20.294643, 20.875, 21.526787, 22.044643, 22.5, 23.098215, 24.127975, 24.892859, 25.741072, 26.5, 27.107143, 27.8125, 28.660715, 29.357143, 29.96875, 30.513393, 30.90625, 31.392857, 32.166664, 32.8125, 33.482143, 34.452381, 35.333332, 36.044643, 36.544643, 36.8125, 37.25, 37.6875, 38.535713, 39.476189, 40.178574, 41.065475, 41.857143, 42.464287, 42.8125, 43.401787, 44.35714, 45, 45.71875, 46.424107, 47.075893, 47.78125, 48.58036, 49.214287, 49.625, 50.125, 50.770832, 51.428574, 52.398808, 53, 53.6875, 54.464287, 55.080357, 55.616074, 56.169643, 56.732143, 57.410717, 58.190475, 58.875, 59.723213, 60.755951, 61.535717, 62.169643, 62.607143, 63.0625, 63.625, 64.33036, 64.964287, 65.5625, 66.169647, 66.866074, 67.598221, 68.223213, 68.928574, 69.535721, 69.950897, 70.28125, 70.46875, 70.65625, 71, 71.459824, 71.866074, 72.428574, 73.023804, 73.433037, 73.71875, 73.84375, 74.03125, 74.11161, 74.449409, 74.83036, 75.376488, 75.767853, 76.321426, 76.296875, 76.265625, 76.359375, 76.59375, 77.008934, 77.424103, 77.964287, 78.25, 78.75, 79.505959, 80.030617, 80.403061, 80.714287, 80.625, 80.821426, 80.90477, 81.275513, 81.596939, 82.29464, 82.888397, 83.495537, 83.879463, 84.308029, 85, -10
-10, -10, -10, -10, -10, -10, -10, -10, -10, -10, -10, -10, -10, -10, -10, -10, -10, -10, -10, -10, -10, -10, -10, -10, -10, -10, -10, -10, -10, -10, -10, -10, -10, -10, -10, -10, -10, -10, -10, -10, -10, -10, -10, -10, -10, -10, -10, -10, -10, -10, -10, -10, -10, -10, -10, -10, -10, -10, -10, -10, -10, -10, -10, -10, -10, -10, -10, -10, -10, -10, -10, -10, -10, -10, -10, -10, -10, -10, -10, -10, -10, -10, -10, -10, 69.666664, 69.279762, 68.660713, 68.07589, 67.35714, 65.614586, 64.928574, 64.15625, 63.455353, 62.589287, 61.821426, 60.873512, 59.876488, 59.058037, 58.285713, 57.794643, 57.5, 57.25, 56.9375, 56.4375, 55.892857, 55.1875, 54.553574, 54, 53.375, 52.785713, 51.979168, 51.348213, 50.684525, 50.25, 49.723213, 49, 48.139881, 47.446426, 46.76786, 45.976189, 45.553574, 45.107143, 44.783333, -10, -10, -10, -10, -10, -10, -10, -10, -10, -10, -10, -10, -10, -10, -10, -10, -10, -10, -10, -10, -10, -10, 16.5, 17, 17.428572, 17.625, 17.791666, 6.3333335, 6.1666665, 6.125, 6.0625, 6, 6, 5.75, 5.75, 5.6875, 5.6875, 5.9166665, -10, -10, -10, -10, -10, -10, -10, 6.6875, 6.5833335, 6.8035717, 7.3303571, 7.7053571, 7.9375, 7.875, 7.875, 7.875, 7.875, 8, 8, 8, 8, 8, 8.0625, 8.0625, 8.0625, 8.0625, 8, 8, 8, 8, 8, 8, 8, 8, 8, 8, 8.125, 8.1875, 8.1875, 8.1875, 8.0625, 8, 8.125, 8.25, 8.375, 8.5, 8.375, 8.3125, 8.40625, 8.5, 8.75, 9.125, 9.5401783, 10.297619, 10.875, 11.5, 12.380953, 13.116072, 14.223215, 15, 15.625, 16.0625, 16.625, 17.214287, 17.78125, 18.357143, 19.083334, 19.616072, 20.169643, 20.75, 21.375, 22.1875, 22.705357, 23.348215, 24.315475, 24.964287, 25.6875, 26.392857, 27.044643, 27.803572, 28.589287, 29.25, 30.052084, 30.566965, 30.96875, 31.424107, 32.197914, 32.84375, 33.53125, 34.559525, 35.25, 35.982143, 36.526787, 36.84375, 37.28125, 37.71875, 38.513393, 39.547615, 40.285713, 41.127975, 41.866074, 42.464287, 42.875, 43.517857, 44.452377, 45.107143, 45.8125, 46.517857, 47.107143, 47.75, 48.401787, 49.044643, 49.544643, 50.0625, 50.770832, 51.428574, 52.398808, 53, 53.625, 54.285713, 54.910713, 55.607147, 56.214287, 56.794643, 57.491074, 58.297619, 58.9375, 59.669643, 60.577381, 61.366074, 62.098213, 62.589287, 63.125, 63.75, 64.5, 65.107147, 65.75, 66.339287, 66.9375, 67.678574, 68.464287, 69.294647, 70.01786, 70.419647, 70.6875, 70.875, 71.09375, 71.4375, 71.928574, 72.366074, 73.116074, 73.764877, 74.151787, 74.34375, 74.34375, 74.5, 74.64286, 74.958336, 75.321426, 76.065475, 76.448975, 76.946426, 77.01786, 76.6875, 76.6875, 77.044647, 77.613098, 78.507439, 78.885414, 79.39286, 79.954086, 80.648811, 81.219383, 81.581627, 81.785713, 81.625, 81.803574, 82.827782, 82.851189, 83.309525, 83.413261, 83.994896, 84.650299, 84.924103, 85.370529, 85.791664, 86.599998, -10, -10, -10, -10, -10, -10, -10, -10, -10, -10, -10, -10, -10, -10, -10, -10, -10, -10, -10, -10, -10, -10, -10, -10, -10, -10, -10, -10, -10, -10, -10, -10, -10, -10, -10, -10, -10, -10, -10, -10, -10, -10, -10, -10, -10, -10, -10, -10, -10, -10, -10, -10, -10, -10, -10, -10, -10, -10, -10, -10, -10, -10, -10, -10, -10, -10, -10, -10, -10, -10, -10, -10, -10, -10, -10, -10, -10, -10, -10, -10, -10, -10, -10, -10, -10, -10, -10, -10, -10, -10, -10, -10, -10, -10, -10, -10, -10, -10, -10, -10, -10, -10, -10, -10, -10, -10, -10, -10, -10, -10, -10, 70.5, 69.75, 69.297615, 68.625, 67.683037, 66.928574, 65.427086, 64.714287, 63.924107, 63.205353, 62.276787, 61.392853, 60.611603, 59.590775, 58.95089, 58.339287, 57.964287, 57.6875, 57.375, 57, 56.375, 55.785713, 55.125, 54.535713, 54, 53.3125, 52.67857, 52.0625, 51.339287, 50.577381, 50, 49.392857, 48.892857, 48.166668, 47.633926, 47.089287, 46.083332, 45.598213, 45.169643, 44.866669, -10, -10, -10, -10, -10, -10, -10, -10, -10, -10, -10, -10, -10, -10, -10, -10, -10, -10, -10, -10, -10, -10, 16.541666, 17.15, 17.5, 17.75, 17.916666, 6.5, 6.4166665, 6.3125, 6.1875, 6.0625, 6, 5.6785717, 5.5500002, 5.6785717, 5.6785717, 5.9375, -10, -10, -10, -10, -10, -10, -10, 6.1875, 6.1458335, 6.3660717, 6.9732141, 7.5, 7.8125, 7.875, 7.875, 7.875, 7.875, 8, 8, 8, 8, 8, 8.0625, 8.0625, 8.0625, 8.0625, 8, 8, 8, 8, 8, 8, 8, 8, 8, 8, 8.0625, 8.0625, 8.0625, 8.0625, 8, 8, 8.125, 8.25, 8.375, 8.5625, 8.4375, 8.375, 8.46875, 8.5, 8.75, 9.0625, 9.4151783, 10.127976, 10.803572, 11.553572, 12.559524, 13.357143, 14.401787, 15.008928, 15.544643, 16, 16.607143, 17.214287, 17.875, 18.464287, 19, 19.5625, 20.107143, 20.6875, 21.267857, 22.270834, 22.830357, 23.473215, 24.232143, 25.047619, 25.75, 26.401787, 27.044643, 27.803572, 28.651787, 29.428572, 30.221727, 30.647322, 31.09375, 31.540178, 32.293156, 32.950893, 33.59375, 34.505955, 35.142857, 35.919643, 36.508926, 36.90625, 37.34375, 37.78125, 38.522324, 39.547615, 40.214287, 41.020832, 41.803574, 42.517857, 43.044643, 43.696426, 44.494049, 45.107143, 45.8125, 46.446426, 47, 47.6875, 48.321426, 48.9375, 49.482143, 50, 50.833332, 51.607147, 52.494049, 53.107143, 53.6875, 54.232143, 54.875, 55.669647, 56.32143, 56.9375, 57.678574, 58.32143, 58.9375, 59.616074, 60.285713, 61.053574, 61.83036, 62.401787, 63, 63.669643, 64.330353, 64.928574, 65.791664, 66.410721, 67, 67.6875, 68.464287, 69.294647, 70.226196, 70.732147, 71.0625, 71.3125, 71.625, 71.9375, 72.428574, 72.866074, 73.904076, 74.220238, 74.589287, 74.71875, 74.875, 75.09375, 75.39286, 75.770836, 76.165176, 76.666664, 77.017853, 77.540176, 77.71875, 77.321426, 77.214287, 77.469398, 78.231285, 79.732994, 80.221085, 80.739799, 81.362244, 81.452385, 82.581627, 82.897957, 83.035713, 83.071426, 83.239799, 83.959526, 83.64286, 84.295914, 84.267853, 84.709824, 85.715141, 86.223633, 86.513603, 86.771431, 87.266663
-10, -10, -10, -10, -10, -10, -10, -10, -10, -10, -10, -10, -10, -10, -10, -10, -10, -10, -10, -10, -10, -10, -10, -10, -10, -10, -10, -10, -10, -10, -10, -10, -10, -10, -10, -10, -10, -10, -10, -10, -10, -10, -10, -10, -10, -10, -10, -10, -10, -10, -10, -10, -10, -10, -10, -10, -10, -10, -10, -10, -10, -10, -10, -10, -10, -10, -10, -10, -10, -10, -10, -10, -10, -10, -10, -10, -10, -10, -10, -10, -10, -10, -10, 70.333336, 69.767853, 69.214287, 68.4375, 67.379463, 66.535713, 65.248512, 64.5, 63.683037, 62.955353, 62.0625, 61.254463, 60.424103, 59.465775, 58.91964, 58.51786, 58.1875, 57.875, 57.455357, 57, 56.3125, 55.67857, 55.0625, 54.455357, 53.892857, 53.25, 52.67857, 52.178574, 51.279762, 50.505955, 49.9375, 49.3125, 48.785713, 48.3125, 47.883926, 47.39286, 46.166664, 45.651787, 45.232143, 44.950001, -10, -10, -10, -10, -10, -10, -10, -10, -10, -10, -10, -10, -10, -10, -10, -10, -10, -10, -10, -10, -10, -10, 16.583332, 17.299999, 17.571428, 17.875, 18, 6.5, 6.4166665, 6.3125, 6.1875, 6.0625, 6, 5.6785717, 5.4875002, 5.6160717, 5.5535717, 5.75, 5.375, 5.375, 5.5, 5.5625, 5.5625, 5.4375, 5.4375, 5.875, 5.9583335, 6.1875, 6.6875, 7.4047618, 7.7410717, 7.9375, 7.9375, 7.9375, 7.9375, 8, 8, 8, 8, 8, 8.0625, 8.0625, 8.0625, 8.0625, 8, 8, 8, 8, 8, 8, 8, 8, 8, 8, 8, 8, 8, 8, 8, 8, 8.125, 8.25, 8.375, 8.5625, 8.4375, 8.375, 8.46875, 8.5, 8.75, 9, 9.2901783, 9.9494047, 10.928572, 11.6875, 12.702382, 13.482143, 14.464287, 14.955357, 15.4375, 15.9375, 16.526787, 17.107143, 17.8125, 18.446428, 19, 19.5625, 20.107143, 20.6875, 21.330357, 22.377975, 22.830357, 23.366072, 24.208334, 25.047619, 25.6875, 26.294643, 27.127975, 27.866072, 28.660715, 29.5, 30.328871, 30.709822, 31.21875, 31.59375, 32.209824, 33.034225, 33.65625, 34.586311, 35.25, 35.919643, 36.464287, 36.90625, 37.388393, 37.84375, 38.46875, 39.440475, 40.297619, 40.9375, 41.741074, 42.57143, 43.151787, 43.758926, 44.511902, 45.107143, 45.8125, 46.446426, 47, 47.625, 48.214287, 48.875, 49.464287, 50, 50.895832, 51.785713, 52.589287, 53.214287, 53.75, 54.25, 54.875, 55.669647, 56.32143, 56.9375, 57.607143, 58.214287, 58.8125, 59.428574, 60.190475, 60.875, 61.806549, 62.392857, 63, 63.607143, 64.223221, 64.866074, 65.711311, 66.241074, 66.821426, 67.729164, 68.535721, 69.357147, 70.235123, 70.803574, 71.232147, 71.5, 71.875, 72.428574, 72.803574, 73.428574, 74.291069, 74.678574, 75, 75.0625, 75.388397, 75.916664, 76.35714, 76.321426, 76.861603, 77.354164, 77.633926, 78.040176, 78.34375, 78.39286, 78.872025, 78.990479, 80.218254, 80.877556, 81.405617, 81.96003, 82.752556, 83.363098, 83.632652, 83.89286, 84.158165, 84.35714, 84.663261, 85.304764, 85.654762, 85.658165, 85.714287, 85.803574, 86.440475, 87.205772, 87.391159, 87.628578, 87.75238, -10, -10, -10, -10, -10, -10, -10, -10, -10, -10, -10, -10, -10, -10, -10, -10, -10, -10, -10, -10, -10, -10, -10, -10, -10, -10, -10, -10, -10, -10, -10, -10, -10, -10, -10, -10, -10, -10, -10, -10, -10, -10, -10, -10, -10, -10, -10, -10, -10, -10, -10, -10, -10, -10, -10, -10, -10, -10, -10, -10, -10, -10, -10, -10, -10, -10, -10, -10, -10, -10, -10, -10, -10, -10, -10, -10, -10, -10, -10, -10, -10, -10, -10, -10, -10, -10, -10, -10, -10, -10, -10, -10, -10, -10, -10, -10, -10, -10, -10, -10, -10, -10, -10, -10, -10, -10, -10, -10, -10, -10, 70.75, 70.321426, 69.714287, 69.035713, 68.151787, 67.053566, 66.285713, 65.290176, 64.464287, 63.566963, 62.714287, 61.8125, 60.933037, 60.066963, 59.361603, 58.848213, 58.526787, 58.25, 57.830357, 57.455357, 57, 56.366074, 55.595238, 55, 54.4375, 53.892857, 53.25, 52.67857, 52.178574, 51.279762, 50.505955, 49.9375, 49.3125, 48.848213, 48.5, 48.205357, 47.5, 46.202377, 45.589287, 45.1875, 45, -10, -10, -10, -10, -10, -10, -10, -10, -10, -10, -10, -10, -10, -10, -10, -10, -10, -10, -10, -10, -10, -10, 17.083332, 17.633333, 17.776785, 17.9375, 18, 6.5, 6.4166665, 6.3125, 6.1875, 6.0625, 6, 5.7723217, 5.5812502, 5.7098217, 5.5848217, 5.625, 5.3333335, 5.25, 5.25, 5.2916665, 5.375, 5.4345241, 5.5416665, 5.75, 5.875, 6.125, 6.625, 7.4047618, 7.7410717, 8, 8, 8, 8, 8, 8, 8, 8, 8, 8.0625, 8.0625, 8.0625, 8.0625, 8, 8, 8, 8, 8, 8, 8, 8, 8, 8, 8, 8, 8, 8, 8, 8, 8.0625, 8.125, 8.1875, 8.3125, 8.25, 8.1875, 8.34375, 8.4375, 8.6875, 9, 9.2901783, 10.032739, 11.071428, 11.857143, 12.845239, 13.571428, 14.214287, 14.75, 15.294643, 15.875, 16.464287, 17, 17.6875, 18.321428, 18.928572, 19.729166, 20.285715, 20.8125, 21.348213, 22.440475, 22.955357, 23.508928, 24.291668, 25.083334, 25.625, 26.1875, 27.211309, 27.928572, 28.607143, 29.357143, 30.380953, 30.732143, 31.25, 31.59375, 32.209824, 33.242558, 33.90625, 34.544643, 35.107143, 35.75, 36.455357, 37.013393, 37.513393, 38.03125, 38.65625, 39.464287, 40.297619, 40.9375, 41.741074, 42.57143, 43.214287, 43.875, 44.535713, 45.107143, 45.8125, 46.446426, 47, 47.625, 48.214287, 48.875, 49.526787, 50.107143, 50.8125, 51.723213, 52.57143, 53.214287, 53.8125, 54.357143, 54.875, 55.5625, 56.297619, 56.9375, 57.607143, 58.214287, 58.8125, 59.428574, 60.261902, 61.053574, 61.904762, 62.410717, 63, 63.526787, 64.044647, 64.696426, 65.568451, 66.116074, 66.758926, 67.720238, 68.464287, 69.178574, 70.211319, 70.866074, 71.357147, 71.8125, 72.3125, 72.75, 73.3125, 73.928574, 74.719643, 75.008926, 75.4375, 75.625, 76.180061, 77.273804, 77.704086, 78.166664, 78.035713, 78.25, 78.428574, 78.602676, 79.301025, 79.444443, 79.89286, 81.240082, 81.245041, 81.688774, 82.721085, 83.22789, 83.918373, 84.275513, 84.678574, 84.723213, 85.193886, 85.464287, 85.704086, 86.128578, 86.35714, 86.551018, 86.976189, 87.14286, 87.529762, 88.055054, 88.114586, 88.268753, 88.324997
-10, -10, -10, -10, -10, -10, -10, -10, -10, -10, -10, -10, -10, -10, -10, -10, -10, -10, -10, -10, -10, -10, -10, -10, -10, -10, -10, -10, -10, -10, -10, -10, -10, -10, -10, -10, -10, -10, -10, -10, -10, -10, -10, -10, -10, -10, -10, -10, -10, -10, -10, -10, -10, -10, -10, -10, -10, -10, -10, -10, -10, -10, -10, -10, -10, -10, -10, -10, -10, -10, -10, -10, -10, -10, -10, -10, -10, -10, -10, -10, -10, 71.5, 70.833336, 70.267853, 69.535713, 68.857147, 68.098213, 67, 65.898811, 65.053574, 64.151787, 63.348213, 62.535713, 61.741074, 60.694939, 59.92411, 59.352676, 59.026787, 58.75, 58.4375, 57.955357, 57.455357, 57.0625, 56.44643, 55.535713, 54.928574, 54.375, 53.892857, 53.25, 52.60714, 52.07143, 51.333332, 50.714287, 49.958332, 49.285713, 48.723213, 48.4375, 48.071426, 47.238098, 46.119045, 45.535713, 45.1875, 45, -10, -10, -10, -10, -10, -10, -10, -10, -10, -10, -10, -10, -10, -10, -10, -10, -10, -10, -10, -10, -10, -10, 17.125, 17.783333, 17.848213, 18, 18, 6.125, 6.1999998, 6.2232141, 6.125, 6.125, 6, 5.8660717, 5.6750002, 5.8035717, 5.6160717, 5.5, 5.3125, 5.1875, 5.1875, 5.28125, 5.34375, 5.4508929, 5.53125, 5.625, 5.875, 6.3541665, 6.8660717, 7.5476189, 7.8035717, 7.9375, 7.9375, 7.9375, 7.9375, 8, 8, 8, 8, 8, 8, 8, 8, 8, 8, 8, 8, 8, 8, 8, 8, 7.9375, 7.9375, 7.9375, 7.9375, 8, 8, 8, 8, 8, 8, 8, 8, 8.0625, 8.0625, 8.0625, 8.3125, 8.5, 8.75, 9.0625, 9.3839283, 10.21131, 11.303572, 12.107143, 12.803572, 13.428572, 14.044643, 14.607143, 15.169643, 15.75, 16.339287, 16.875, 17.5, 18.089287, 18.714287, 19.854166, 20.428572, 21, 21.4375, 22.190475, 22.75, 23.375, 24.34524, 25.190477, 25.6875, 26.28125, 27.242559, 27.964287, 28.65625, 29.464287, 30.297619, 30.741072, 31.294643, 31.625, 32.241074, 33.211308, 33.928574, 34.544643, 35.107143, 35.75, 36.526787, 37.151787, 37.669643, 38.1875, 38.75, 39.410713, 40.190475, 40.875, 41.732143, 42.57143, 43.214287, 43.875, 44.464287, 45, 45.6875, 46.321426, 46.9375, 47.678574, 48.32143, 48.9375, 49.607143, 50.285713, 50.982143, 51.732143, 52.526787, 53.151787, 53.866074, 54.464287, 54.9375, 55.571426, 56.369049, 57.044643, 57.669643, 58.232143, 58.8125, 59.636906, 60.511902, 61.241074, 61.913689, 62.366074, 62.9375, 63.44643, 63.9375, 64.571426, 65.380951, 65.946426, 66.6875, 67.639877, 68.285721, 68.9375, 70.032745, 70.857147, 71.464287, 72, 72.59375, 73.178574, 73.794647, 74.428574, 75.032143, 75.267853, 75.758926, 76.208336, 77.116501, 78.333328, 78.765312, 79.10714, 79.053574, 79.049103, 79.28125, 79.498512, 80.303574, 81.46627, 82.113098, 82.573128, 83.244049, 83.65873, 83.931969, 84.340141, 84.651787, 84.95536, 85.285713, 85.508926, 85.995544, 86.375, 86.598213, 86.705353, 86.979164, 87.244049, 88.047615, 88.214287, 88.479599, 88.822914, 88.802086, 88.956253, 89.025002, -10, -10, -10, -10, -10, -10, -10, -10, -10, -10, -10, -10, -10, -10, -10, -10, -10, -10, -10, -10, -10, -10, -10, -10, -10, -10, -10, -10, -10, -10, -10, -10, -10, -10, -10, -10, -10, -10, -10, -10, -10, -10, -10, -10, -10, -10, -10, -10, -10, -10, -10, -10, -10, -10, -10, -10, -10, -10, -10, -10, -10, -10, -10, -10, -10, -10, -10, -10, -10, -10, -10, -10, -10, -10, -10, -10, -10, -10, -10, -10, -10, -10, -10, -10, -10, -10, -10, -10, -10, -10, -10, -10, -10, -10, -10, -10, -10, -10, -10, -10, -10, -10, -10, -10, -10, -10, -10, -10, -10, 71.166664, 70.708336, 70.142853, 69.348213, 68.535706, 67.776787, 67, 65.696426, 64.848221, 63.901787, 63.098213, 62.285713, 61.491074, 60.516369, 59.915176, 59.46875, 59.1875, 58.875, 58.5, 57.955357, 57.392857, 57.026787, 56.49107, 55.535713, 54.928574, 54.3125, 53.785713, 53.1875, 52.526787, 51.964287, 51.270832, 50.63393, 49.851189, 49.223213, 48.705357, 48.4375, 47.964287, 46.928574, 46.047619, 45.428574, 45.151787, 44.916668, -10, -10, -10, -10, -10, -10, -10, -10, -10, -10, -10, -10, -10, -10, -10, -10, -10, -10, -10, -10, -10, -10, 17.333332, 17.799999, 17.857143, 18, 18, 6.125, 6.1999998, 6.2232141, 6.125, 6.125, 6, 5.9375, 5.875, 5.875, 5.625, 5.4375, 5.25, 5.125, 5.1875, 5.3125, 5.375, 5.4196429, 5.4375, 5.5625, 5.8125, 6.3541665, 7.020833, 7.6190476, 7.8660717, 7.9375, 7.9375, 7.9375, 7.9375, 8, 7.9375, 7.9375, 7.9375, 7.9375, 8, 8, 8, 8, 8, 8, 8, 8, 8, 8, 8, 7.9375, 7.9375, 7.9375, 7.9375, 8, 8, 8, 8, 8, 8, 8, 8, 8, 8, 8, 8.25, 8.5, 8.75, 9.125, 9.5089283, 10.452381, 11.482143, 12.178572, 12.75, 13.25, 13.8125, 14.419643, 14.982143, 15.5625, 16.169643, 16.791666, 17.645834, 18.267857, 18.933037, 20.072916, 20.616072, 21.1875, 21.625, 22.214287, 22.75, 23.4375, 24.452381, 25.107143, 25.625, 26.200893, 27.135418, 27.901787, 28.647322, 29.392857, 30.190477, 30.678572, 31.232143, 31.5625, 32.0625, 33.1875, 33.928574, 34.544643, 35.107143, 35.75, 36.526787, 37.151787, 37.669643, 38.1875, 38.75, 39.410713, 40.190475, 40.875, 41.732143, 42.5, 43.107143, 43.8125, 44.44643, 44.9375, 45.5625, 46.151787, 46.866074, 47.669647, 48.32143, 48.9375, 49.607143, 50.285713, 50.982143, 51.660713, 52.348213, 52.982143, 53.723213, 54.339287, 54.875, 55.5625, 56.369049, 57.044643, 57.607143, 58.09375, 58.65625, 59.476192, 60.657738, 61.375, 61.994045, 62.428574, 62.9375, 63.44643, 64, 64.625, 65.214287, 65.8125, 66.616074, 67.559525, 68.178574, 68.875, 69.877983, 70.785713, 71.446426, 72, 72.770836, 73.428574, 74.044647, 74.678574, 75.232147, 75.625, 76.196426, 76.886909, 77.630951, 78.791664, 79.23214, 79.625, 79.65625, 79.861603, 80.35714, 80.364586, 81.479591, 82.379257, 83.061226, 83.773804, 84.188774, 84.523804, 84.833336, 85.068031, 85.294647, 85.45536, 85.723213, 85.883926, 86.612251, 87.040817, 87.098213, 87.160706, 87.5625, 88.029762, 88.666664, 88.875, 89.080353, 89.34375, 89.34375, 89.59375, 89.625
-10, -10, -10, -10, -10, -10, -10, -10, -10, -10, -10, -10, -10, -10, -10, -10, -10, -10, -10, -10, -10, -10, -10, -10, -10, -10, -10, -10, -10, -10, -10, -10, -10, -10, -10, -10, -10, -10, -10, -10, -10, -10, -10, -10, -10, -10, -10, -10, -10, -10, -10, -10, -10, -10, -10, -10, -10, -10, -10, -10, -10, -10, -10, -10, -10, -10, -10, -10, -10, -10, -10, -10, -10, -10, -10, -10, -10, -10, -10, -10, -10, 71.074997, 70.375, 69.75, 69.017853, 68.285706, 67.422615, 66.714287, 65.4375, 64.598221, 63.651787, 62.848213, 62.035713, 61.276787, 60.360119, 59.946426, 59.598213, 59.267857, 58.875, 58.4375, 57.892857, 57.3125, 56.919643, 56.42857, 55.517857, 54.928574, 54.3125, 53.785713, 53.125, 52.348213, 51.577381, 51.125, 50.455357, 49.672619, 49.05357, 48.625, 48.3125, 47.776787, 46.642857, 45.964287, 45.375, 45.089287, 44.833336, -10, -10, -10, -10, -10, -10, -10, -10, -10, -10, -10, -10, -10, -10, -10, -10, -10, -10, -10, -10, -10, -10, 17.333332, 17.799999, 17.857143, 18, 18, 6.375, 6.4499998, 6.4107141, 6.25, 6.1875, 6, 6, 6, 5.96875, 5.71875, 5.46875, 5.21875, 5.0625, 5.125, 5.3125, 5.375, 5.4821429, 5.4375, 5.5, 5.75, 6.2916665, 6.8869047, 7.2232141, 7.6428571, 7.6160717, 7.7946429, 7.875, 7.9375, 8, 7.9375, 7.9375, 7.9375, 7.9375, 8, 8, 8, 8, 8, 8, 8, 8, 8, 8, 8, 7.9375, 7.9375, 7.9375, 7.9375, 8, 8, 8, 8, 8, 8, 8, 8, 8, 8, 8, 8.25, 8.5, 8.75, 9.1875, 9.6339283, 10.630953, 11.357143, 11.982143, 12.5, 13.0625, 13.741072, 14.4375, 15.013393, 15.53125, 16.09375, 16.729166, 17.636906, 18.267857, 18.933037, 20.010416, 20.508928, 21.270834, 21.6875, 22.232143, 22.8125, 23.699406, 24.619049, 25.232143, 25.75, 26.325893, 27.052084, 27.985119, 28.709822, 29.339287, 30.083334, 30.678572, 31.276787, 31.625, 32.125, 33.041664, 33.857143, 34.464287, 35, 35.75, 36.642857, 37.32143, 37.8125, 38.3125, 38.875, 39.598213, 40.214287, 40.8125, 41.607143, 42.25893, 42.928574, 43.669643, 44.32143, 44.875, 45.482143, 45.982143, 46.6875, 47.627975, 48.32143, 48.9375, 49.607143, 50.285713, 51.127975, 51.732143, 52.294643, 52.8125, 53.535713, 54.151787, 54.803574, 55.616074, 56.476189, 57.044643, 57.5625, 57.96875, 58.53125, 59.351192, 60.360119, 61.375, 61.80357, 62.321426, 62.958332, 63.5, 64.071426, 64.854164, 65.428574, 66.125, 66.919647, 67.580353, 68.169647, 68.8125, 69.797623, 70.607147, 71.276787, 71.928574, 72.752975, 73.428574, 74.107147, 74.785713, 75.357147, 75.8125, 76.5, 77.377975, 78.130951, 79.125, 79.566963, 79.96875, 80.25, 80.517853, 80.96875, 81.239586, 82.346939, 82.988098, 83.5625, 84.1875, 84.669647, 85.0625, 85.328125, 85.564728, 85.796875, 85.964287, 86.285713, 86.48214, 86.982147, 87.348213, 87.535713, 87.598206, 88, 88.529762, 89.229164, 89.5, 89.75, 89.96875, 90.09375, 90.34375, 90.458328, -10, -10, -10, -10, -10, -10, -10, -10, -10, -10, -10, -10, -10, -10, -10, -10, -10, -10, -10, -10, -10, -10, -10, -10, -10, -10, -10, -10, -10, -10, -10, -10, -10, -10, -10, -10, -10, -10, -10, -10, -10, -10, -10, -10, -10, -10, -10, -10, -10, -10, -10, -10, -10, -10, -10, -10, -10, -10, -10, -10, -10, -10, -10, -10, -10, -10, -10, -10, -10, -10, -10, -10, -10, -10, -10, -10, -10, -10, -10, -10, -10, -10, -10, -10, -10, -10, -10, -10, -10, -10, -10, -10, -10, -10, -10, -10, -10, -10, -10, -10, -10, -10, -10, -10, -10, -10, -10, -10, 71.5, 71.033333, 70.339287, 69.428574, 68.73214, 68.026779, 67.244049, 66.571426, 65.25, 64.357147, 63.401787, 62.598213, 61.785713, 61.098213, 60.351189, 60.116074, 59.821426, 59.410713, 58.9375, 58.5, 58, 57.3125, 56.8125, 56.25, 55.444939, 54.897324, 54.21875, 53.691963, 53.0625, 52.267853, 51.470238, 51.0625, 50.375, 49.494045, 48.821426, 48.4375, 48.098213, 47.467262, 46.392857, 45.75, 45.25, 44.95536, 44.583336, -10, -10, -10, -10, -10, -10, -10, -10, -10, -10, -10, -10, -10, -10, -10, -10, -10, -10, -10, -10, -10, -10, 17.108332, 17.645237, 17.794643, 18, 18, 6.75, 6.7833338, 6.6607141, 6.375, 6.25, 6, 5.96875, 5.90625, 5.8125, 5.5625, 5.40625, 5.21875, 5.125, 5.3125, 5.5, 5.5625, 5.5625, 5.4375, 5.4375, 5.75, 6.2916665, 6.7619047, 6.7755103, 6.6666665, 7.1875, 7.6279764, 7.8035717, 7.8660717, 7.75, 7.75, 7.7946429, 7.875, 7.9375, 8, 8, 8, 8, 8, 8, 8, 8, 8, 8, 8, 7.9375, 7.9375, 7.9375, 7.9375, 8, 8, 8, 8, 8, 8, 8, 8, 8, 8, 8, 8.25, 8.5, 8.8125, 9.3125, 9.8125, 10.589286, 11.214287, 11.75, 12.25, 12.866072, 13.782739, 14.464285, 15, 15.4375, 16, 16.666666, 17.619047, 18.267857, 18.941963, 19.885416, 20.622023, 21.386906, 21.875, 22.357143, 22.9375, 24.03274, 24.714287, 25.294643, 25.8125, 26.433037, 26.96875, 27.922619, 28.691965, 29.339287, 29.9375, 30.607143, 31.214287, 31.625, 32.125, 32.895832, 33.714287, 34.339287, 34.9375, 35.669643, 36.464287, 37.297619, 37.875, 38.375, 38.9375, 39.678574, 40.321426, 40.875, 41.616074, 42.25893, 42.928574, 43.607143, 44.151787, 44.625, 45.151787, 45.791668, 46.520832, 47.547623, 48.214287, 48.875, 49.526787, 50.178574, 51.065475, 51.723213, 52.294643, 52.75, 53.419647, 54.169643, 54.901787, 55.763393, 56.48661, 57.044643, 57.5625, 57.96875, 58.53125, 59.351192, 60.288689, 61.133926, 61.580357, 62.133926, 62.886902, 63.57143, 64.25, 65.023804, 65.571426, 66.3125, 67.089287, 67.651787, 68.1875, 68.8125, 69.589287, 70.294647, 71.008926, 71.928574, 72.770828, 73.491074, 74.107147, 74.714287, 75.1875, 75.696426, 76.604164, 77.547623, 78.245537, 79.052086, 79.602676, 80.385414, 80.834824, 81.174103, 81.669647, 82.1875, 83, 83.571426, 83.9375, 84.46875, 85.013397, 85.40625, 85.734375, 86.033478, 86.265625, 86.464287, 86.723213, 86.883926, 87.526794, 88.139877, 88.2313, 88.302719, 88.75, 89.291672, 89.854164, 90.178574, 90.3125, 90.5, 90.6875, 91, 91.25
-10, -10, -10, -10, -10, -10, -10, -10, -10, -10, -10, -10, -10, -10, -10, -10, -10, -10, -10, -10, -10, -10, -10, -10, -10, -10, -10, -10, -10, -10, -10, -10, -10, -10, -10, -10, -10, -10, -10, -10, -10, -10, -10, -10, -10, -10, -10, -10, -10, -10, -10, -10, -10, -10, -10, -10, -10, -10, -10, -10, -10, -10, -10, -10, -10, -10, -10, -10, -10, -10, -10, -10, -10, -10, -10, -10, -10, -10, -10, -10, 71.44445, 70.908333, 70.160713, 69.178574, 68.48214, 67.705353, 66.815475, 66.10714, 65.101196, 64.25, 63.276787, 62.35714, 61.464287, 60.8125, 60.392857, 60.25, 60.008926, 59.535713, 59, 58.5, 58, 57.25, 56.642857, 56.107143, 55.424107, 54.861607, 54.15625, 53.566963, 53, 52.267853, 51.369049, 50.875, 50.125, 49.42857, 48.785713, 48.383926, 47.827381, 47.217262, 46.119045, 45.571426, 45.125, 44.821434, 44.333336, -10, -10, -10, -10, -10, -10, -10, -10, -10, -10, -10, -10, -10, -10, -10, -10, -10, -10, -10, -10, -10, 16.583332, 17.191666, 17.703571, 17.866072, 18.0625, 18, 7, 7, 6.78125, 6.53125, 6.28125, 6.03125, 5.9375, 5.8125, 5.65625, 5.40625, 5.28125, 5.15625, 5.15625, 5.375, 5.5625, 5.6875, 5.65625, 5.625, 5.6875, 5.9375, 6.1875, 6.4583335, 6.4910717, 6.2857141, 6.8214283, 7.5238099, 7.7946434, 7.9285717, 7.6875, 7.625, 7.6875, 7.8249998, 7.8303571, 8, 7.9375, 8, 8, 8, 8, 8, 8, 8, 8, 8, 8, 8, 8, 8, 8, 8, 8, 7.9375, 7.875, 7.8928571, 8, 8, 8.0625, 8, 8.0625, 8.3125, 8.5625, 8.875, 9.3125, 9.75, 10.410714, 11.044643, 11.607143, 12.125, 12.794643, 13.928572, 14.642857, 15.15625, 15.59375, 16.125, 16.791666, 17.952381, 18.571428, 19.21875, 19.822916, 20.586309, 21.324406, 21.9375, 22.464287, 23, 24.187502, 24.714287, 25.25, 25.8125, 26.44643, 27, 27.895834, 28.642859, 29.232143, 29.875, 30.526787, 31.107143, 31.625, 32.169643, 32.958332, 33.660713, 34.232143, 34.875, 35.660713, 36.392857, 37.127975, 37.6875, 38.178574, 38.979168, 39.803574, 40.446426, 40.9375, 41.625, 42.25893, 42.866074, 43.482143, 43.982143, 44.553574, 45.20536, 45.898811, 46.583332, 47.556549, 48.214287, 48.875, 49.526787, 50.107143, 50.958332, 51.660713, 52.232143, 52.6875, 53.241074, 54.145832, 54.83036, 55.647324, 56.391369, 56.866074, 57.375, 57.78125, 58.447918, 59.309528, 60.217262, 61.008926, 61.455357, 62.008926, 62.806545, 63.401787, 64.10714, 65.065475, 65.642853, 66.375, 67.285721, 67.866074, 68.375, 68.9375, 69.535713, 70.116074, 70.83036, 71.970238, 72.761902, 73.383926, 74, 74.464287, 74.991074, 75.758926, 76.675598, 77.526787, 78.183037, 78.897324, 79.53125, 80.322914, 80.959824, 81.459824, 82.098213, 82.836304, 83.366074, 83.928574, 84.395836, 84.897324, 85.388397, 85.71875, 86.046875, 86.453125, 86.765625, 87, 87.1875, 87.3125, 87.741074, 88.663269, 89.361115, 89.706352, 89.395836, 89.851196, 90.4375, 90.794647, 91, 91.125, 91.419647, 91.979164, 92.25, -10, -10, -10, -10, -10, -10, -10, -10, -10, -10, -10, -10, -10, -10, -10, -10, -10, -10, -10, -10, -10, -10, -10, -10, -10, -10, -10, -10, -10, -10, -10, -10, -10, -10, -10, -10, -10, -10, -10, -10, -10, -10, -10, -10, -10, -10, -10, -10, -10, -10, -10, -10, -10, -10, -10, -10, -10, -10, -10, -10, -10, -10, -10, -10, -10, -10, -10, -10, -10, -10, -10, -10, -10, -10, -10, -10, -10, -10, -10, -10, -10, -10, -10, -10, -10, -10, -10, -10, -10, -10, -10, -10, -10, -10, -10, -10, -10, -10, -10, -10, -10, -10, -10, -10, -10, -10, -10, 71.5, 71.333336, 70.926193, 70.077377, 68.991074, 68.241066, 67.455353, 66.494049, 65.678574, 64.839279, 63.964287, 63.098213, 62.214287, 61.339287, 60.8125, 60.5, 60.375, 60.133926, 59.553574, 59, 58.4375, 57.892857, 57.1875, 56.55357, 56, 55.34375, 54.754463, 54.09375, 53.486607, 52.892857, 52.236603, 51.382442, 50.90625, 50.15625, 49.42857, 48.785713, 48.330353, 47.556549, 47.074402, 46.160713, 45.705353, 45.267857, 44.940475, 44.222225, -10, -10, -10, -10, -10, -10, -10, -10, -10, -10, -10, -10, -10, -10, -10, -10, -10, -10, -10, -10, -10, 16.555555, 17.066666, 17.745239, 17.928572, 18.125, 18, 6.875, 6.9166665, 6.71875, 6.53125, 6.28125, 6.03125, 5.875, 5.6875, 5.46875, 5.21875, 5.15625, 5.09375, 5.125, 5.3125, 5.5, 5.6875, 5.75, 5.875, 6, 6.25, 6.4375, 6.375, 6.25, 6.1875, 6.5714283, 7.3809524, 7.6696434, 7.8035717, 7.5625, 7.5625, 7.6875, 7.8874998, 7.8928571, 8, 7.9375, 8, 8, 8, 8, 8, 8, 8, 8, 8, 8, 8, 8, 8, 8, 8, 8, 7.9375, 7.9375, 8.0178576, 8.125, 8.1875, 8.1875, 8.0625, 8.1875, 8.375, 8.5625, 8.875, 9.25, 9.6696434, 10.232143, 10.875, 11.464287, 12, 12.723215, 14.095238, 14.892857, 15.40625, 15.84375, 16.3125, 16.875, 17.806549, 18.428572, 19.03125, 19.697916, 20.492559, 21.261906, 21.875, 22.357143, 22.9375, 24.107143, 24.607143, 25.333334, 25.875, 26.464287, 27, 27.895834, 28.57143, 29.125, 29.8125, 30.50893, 31.107143, 31.625, 32.169643, 32.8125, 33.517857, 34.107143, 34.8125, 35.651787, 36.392857, 37.065475, 37.633926, 38.345238, 39.113094, 39.875, 40.464287, 40.9375, 41.625, 42.25893, 42.803574, 43.357143, 43.8125, 44.532738, 45.434525, 46.139881, 46.717262, 47.565475, 48.214287, 48.875, 49.589287, 50.214287, 51.020832, 51.741074, 52.339287, 52.75, 53.258926, 54.145832, 54.83036, 55.57589, 56.284225, 56.741074, 57.1875, 57.633926, 58.520836, 59.416668, 60.071426, 60.875, 61.44643, 62.05357, 62.869045, 63.419643, 64.10714, 65.065475, 65.642853, 66.366074, 67.398804, 68.008926, 68.5, 69, 69.482147, 69.9375, 70.651787, 72.011902, 72.60714, 73.205353, 73.958336, 74.392853, 74.9375, 75.842262, 76.738098, 77.473221, 78.075897, 78.834824, 79.513397, 80.322914, 81.022324, 81.688988, 82.577377, 83.255951, 83.651787, 84.25, 84.788689, 85.316963, 85.71875, 86.09375, 86.484375, 86.988846, 87.473961, 87.8125, 88.0625, 88.1875, 88.553574, 89.258926, 89.895836, 90.217262, 90.348213, 90.663696, 91.25, 91.607147, 91.761909, 91.887756, 92.158165, 93.119041, 93.285713
-10, -10, -10, -10, -10, -10, -10, -10, -10, -10, -10, -10, -10, -10, -10, -10, -10, -10, -10, -10, -10, -10, -10, -10, -10, -10, -10, -10, -10, -10, -10, -10, -10, -10, -10, -10, -10, -10, -10, -10, -10, -10, -10, -10, -10, -10, -10, -10, -10, -10, -10, -10, -10, -10, -10, -10, -10, -10, -10, -10, -10, -10, -10, -10, -10, -10, -10, -10, -10, -10, -10, -10, -10, -10, -10, -10, -10, -10, -10, 71.5, 71.208336, 70.833336, 70.223213, 69.102676, 68.160713, 67.267853, 66.379463, 65.464287, 64.598213, 63.714287, 62.848213, 62.035713, 61.330353, 60.919643, 60.6875, 60.5, 60.160713, 59.553574, 59, 58.375, 57.785713, 57.15625, 56.566963, 56.03125, 55.3125, 54.64732, 54.0625, 53.5, 52.928574, 52.102676, 51.340775, 50.78125, 50.049107, 49.482143, 48.92857, 48.339287, 47.547619, 47.074402, 46.205357, 45.830353, 45.361607, 45.065475, -10, -10, -10, -10, -10, -10, -10, -10, -10, -10, -10, -10, -10, -10, -10, -10, -10, -10, -10, -10, -10, -10, 16.666666, 17.25, 17.84524, 18, 18.1875, 18, 6.75, 6.833333, 6.71875, 6.59375, 6.34375, 6.09375, 5.875, 5.625, 5.375, 5.125, 5.0625, 5.0625, 5.125, 5.3125, 5.5, 5.8125, 5.9375, 6.1875, 6.375, 6.5625, 6.75, 6.6875, 6.5625, 6.4375, 6.7053566, 7.3988099, 7.6071434, 7.7410717, 7.5, 7.5, 7.6875, 7.8874998, 7.8928571, 8, 7.9375, 8, 8, 8, 8, 8, 7.9375, 7.9375, 7.9375, 7.9375, 8, 8, 8, 8, 7.9375, 7.9375, 7.9375, 7.875, 7.9375, 8.0178576, 8.1875, 8.3125, 8.375, 8.3125, 8.4375, 8.5, 8.5625, 8.75, 9, 9.4196434, 10.053572, 10.803572, 11.446428, 11.96875, 12.566965, 13.809524, 14.770833, 15.339286, 15.875, 16.388393, 16.9375, 17.815477, 18.464285, 19.0625, 19.760416, 20.555059, 21.147322, 21.71875, 22.232143, 23.020834, 23.952381, 24.419643, 25.145834, 25.803572, 26.44643, 27, 27.75, 28.428572, 29, 29.895834, 30.5, 31.0625, 31.5625, 32.107143, 32.8125, 33.446426, 34, 34.75, 35.571426, 36.214287, 37.041664, 37.633926, 38.407738, 39.220238, 39.9375, 40.482143, 41, 41.6875, 42.32143, 42.75, 43.25, 43.75, 44.452385, 45.327385, 46.285717, 46.895832, 47.669643, 48.32143, 48.9375, 49.669643, 50.392857, 51.044643, 51.678574, 52.276787, 52.75, 53.303574, 54.208332, 54.985115, 55.647324, 56.302082, 56.803574, 57.25, 57.758926, 58.677086, 59.572918, 60.254463, 60.78125, 61.482143, 62.160713, 62.892857, 63.428574, 64.098213, 64.773811, 65.321426, 66.053574, 67.202377, 67.928574, 68.4375, 69, 69.553574, 70.044647, 70.651787, 71.940475, 72.666664, 73.276787, 74.020836, 74.494049, 75.008926, 76.011902, 76.809525, 77.419647, 77.96875, 78.772324, 79.535713, 80.398811, 81.053574, 81.782738, 82.684525, 83.318451, 83.723213, 84.541664, 85.172623, 85.723221, 86.1875, 86.575897, 87.03125, 87.629471, 88.221725, 88.75, 89.071426, 89.178574, 89.366074, 90.133926, 90.770836, 91.199409, 91.397957, 91.413696, 91.95536, 92.440483, 93.402779, 93.613098, 93.696434, 93.833328, 93.85714, -10, -10, -10, -10, -10, -10, -10, -10, -10, -10, -10, -10, -10, -10, -10, -10, -10, -10, -10, -10, -10, -10, -10, -10, -10, -10, -10, -10, -10, -10, -10, -10, -10, -10, -10, -10, -10, -10, -10, -10, -10, -10, -10, -10, -10, -10, -10, -10, -10, -10, -10, -10, -10, -10, -10, -10, -10, -10, -10, -10, -10, -10, -10, -10, -10, -10, -10, -10, -10, -10, -10, -10, -10, -10, -10, -10, -10, -10, -10, -10, -10, -10, -10, -10, -10, -10, -10, -10, -10, -10, -10, -10, -10, -10, -10, -10, -10, -10, -10, -10, -10, -10, -10, -10, -10, -10, -10, 71.5, 71.083336, 70.607147, 69.946426, 69.071426, 68.035713, 67.116066, 66.183029, 65.245537, 64.379463, 63.535713, 62.776787, 61.880951, 61.330353, 61.026787, 60.875, 60.625, 60.1875, 59.553574, 59, 58.166668, 57.607143, 57.03125, 56.549107, 56.03125, 55.28125, 54.57143, 54.0625, 53.5, 52.964287, 51.977676, 51.197918, 50.65625, 49.986607, 49.535713, 49.035713, 48.276787, 47.404762, 46.991074, 46.330357, 46.008926, 45.455357, 45.178574, -10, -10, -10, -10, -10, -10, -10, -10, -10, -10, -10, -10, -10, -10, -10, -10, -10, -10, -10, -10, -10, -10, 16.75, 17.1625, 17.791668, 17.9375, 18.1875, 18, 6.625, 6.7499995, 6.71875, 6.65625, 6.40625, 6.15625, 5.84375, 5.59375, 5.34375, 5.09375, 5, 5, 5.0625, 5.25, 5.5, 5.8125, 6, 6.3125, 6.5625, 6.78125, 7.03125, 7.03125, 6.96875, 6.9375, 7.0714283, 7.5029764, 7.6160717, 7.75, 7.75, 7.6875, 7.8303571, 7.9499998, 7.8928571, 8, 7.9375, 8, 8, 8, 8, 8, 7.9375, 7.9375, 7.9375, 7.9375, 8, 8, 8, 8, 7.875, 7.875, 7.875, 7.8125, 7.9375, 8.0803576, 8.3125, 8.4375, 8.5, 8.4375, 8.5625, 8.5625, 8.5625, 8.5625, 8.625, 8.9196434, 9.5357151, 10.636905, 11.357143, 11.90625, 12.388393, 13.374999, 14.63988, 15.28125, 15.96875, 16.482143, 17, 17.895834, 18.571428, 19.125, 19.78125, 20.370537, 20.96875, 21.59375, 22.214287, 23.020834, 23.744047, 24.241072, 25.020834, 25.723215, 26.339287, 26.9375, 27.669643, 28.32143, 28.928572, 30.083334, 30.714287, 31.25, 31.6875, 32.169643, 32.8125, 33.446426, 33.9375, 34.633926, 35.547615, 36.214287, 36.895832, 37.5625, 38.461311, 39.327381, 40, 40.5, 41, 41.6875, 42.32143, 42.75, 43.25, 43.8125, 44.827385, 45.755951, 46.525299, 47.09375, 47.6875, 48.32143, 48.9375, 49.741074, 50.57143, 51.285713, 51.857143, 52.357143, 52.875, 53.357143, 54.083332, 55.074402, 55.714287, 56.364582, 56.834824, 57.25, 57.758926, 58.677086, 59.501488, 60.147324, 60.78125, 61.598213, 62.330357, 62.964287, 63.375, 63.919643, 64.541664, 65.071426, 65.803574, 66.952377, 67.678574, 68.25, 68.928574, 69.607147, 70.214287, 70.732147, 71.797623, 72.773811, 73.35714, 74.154762, 74.636902, 75.14286, 76.297623, 76.892853, 77.375, 77.830353, 78.660713, 79.321426, 79.928574, 80.791664, 81.675591, 82.684525, 83.151787, 83.660713, 84.595238, 85.404762, 86.035721, 86.5625, 87.026787, 87.5, 88.160721, 88.931549, 89.392853, 90.035713, 90.25, 90.505104, 90.779762, 91.3125, 91.882652, 92.290817, 92.205353, 92.601189, 93.011909, 93.809525, 94.071426, 94.190475, 94.4375, 94.333336
-10, -10, -10, -10, -10, -10, -10, -10, -10, -10, -10, -10, -10, -10, -10, -10, -10, -10, -10, -10, -10, -10, -10, -10, -10, -10, -10, -10, -10, -10, -10, -10, -10, -10, -10, -10, -10, -10, -10, -10, -10, -10, -10, -10, -10, -10, -10, -10, -10, -10, -10, -10, -10, -10, -10, -10, -10, -10, -10, -10, -10, -10, -10, -10, -10, -10, -10, -10, -10, -10, -10, -10, -10, -10, -10, -10, -10, -10, -10, 71.553574, 71, 70.419647, 69.696426, 68.821426, 67.785713, 66.866066, 65.933029, 65.03125, 64.205353, 63.348213, 62.651787, 61.903275, 61.540176, 61.241074, 61, 60.75, 60.1875, 59.57143, 59, 57.958336, 57.428574, 56.90625, 56.46875, 55.924107, 55.28125, 54.616074, 54.125, 53.517857, 52.928574, 51.65625, 51.013393, 50.53125, 50.049107, 49.642857, 49.17857, 48.419643, 47.363094, 46.919643, 46.4375, 46.116074, 45.372025, 45.099998, -10, -10, -10, -10, -10, -10, -10, -10, -10, -10, -10, -10, -10, -10, -10, -10, -10, -10, -10, -10, -10, 17, 16.875, 17.225, 17.708334, 17.875, 18.125, 18, 6.5, 6.583333, 6.625, 6.5625, 6.375, 6.1875, 5.8125, 5.5625, 5.3125, 5.0625, 5, 5, 5.03125, 5.1875, 5.375, 5.6875, 5.90625, 6.25, 6.5625, 6.78125, 7.125, 7.25, 7.3125, 7.40625, 7.5, 7.6696429, 7.6875, 7.75, 7.8125, 7.8125, 7.9375, 8, 8, 8, 8, 8, 8, 8, 8, 8, 7.9375, 7.9375, 7.9375, 7.9375, 8, 8, 8, 8, 7.875, 7.875, 7.875, 7.875, 8.0625, 8.21875, 8.40625, 8.53125, 8.53125, 8.5, 8.5, 8.4375, 8.375, 8.3125, 8.3125, 8.5446434, 9.1785717, 10.616072, 11.428572, 12.03125, 12.459822, 13.229166, 14.532738, 15.232143, 15.9375, 16.482143, 17, 17.6875, 18.392857, 19, 19.700893, 20.263393, 20.90625, 21.513393, 22.107143, 22.958334, 23.589285, 24.169643, 24.958334, 25.660715, 26.232143, 26.875, 27.660715, 28.32143, 28.928572, 30.229168, 30.785715, 31.3125, 31.625, 32.0625, 32.895832, 33.5, 33.9375, 34.517857, 35.452377, 36.107143, 36.895832, 37.607143, 38.532738, 39.369045, 40, 40.5, 41, 41.6875, 42.32143, 42.8125, 43.3125, 43.875, 44.836311, 45.755951, 46.525299, 47.09375, 47.625, 48.214287, 49.020832, 49.803574, 50.589287, 51.285713, 52.065475, 52.535713, 53.0625, 53.544643, 54.178574, 55.324402, 55.92857, 56.40625, 56.84375, 57.125, 57.633926, 58.438988, 59.251488, 59.96875, 60.71875, 61.702381, 62.601189, 63.178574, 63.794643, 64.241074, 64.6875, 65.1875, 65.910721, 66.827377, 67.482147, 68.0625, 68.803574, 69.660721, 70.339287, 70.772324, 71.662201, 72.688988, 73.366074, 74.154762, 74.761902, 75.214287, 76.235123, 76.928574, 77.419647, 77.892853, 78.607147, 79.214287, 80.011909, 80.854164, 81.913689, 82.827385, 83.232147, 83.785713, 84.648811, 85.321426, 85.982147, 86.5625, 87.339287, 87.848213, 88.522324, 89.400299, 90.071426, 90.638397, 90.96875, 91.28125, 91.696426, 92.1875, 92.553574, 93.04464, 93.395836, 93.601189, 93.883331, 94.440475, 94.669647, 95.291672, 95.270836, 94.85714, -10, -10, -10, -10, -10, -10, -10, -10, -10, -10, -10, -10, -10, -10, -10, -10, -10, -10, -10, -10, -10, -10, -10, -10, -10, -10, -10, -10, -10, -10, -10, -10, -10, -10, -10, -10, -10, -10, -10, -10, -10, -10, -10, -10, -10, -10, -10, -10, -10, -10, -10, -10, -10, -10, -10, -10, -10, -10, -10, -10, -10, -10, -10, -10, -10, -10, -10, -10, -10, -10, -10, -10, -10, -10, -10, -10, -10, -10, -10, -10, -10, -10, -10, -10, -10, -10, -10, -10, -10, -10, -10, -10, -10, -10, -10, -10, -10, -10, -10, -10, -10, -10, -10, -10, -10, 72.916672, 72, 71.5, 70.821426, 70.169647, 69.446426, 68.571426, 67.535713, 66.616066, 65.683029, 64.78125, 63.955357, 63.169643, 62.508926, 61.840775, 61.602676, 61.303574, 61.0625, 60.705357, 60.125, 59.55357, 59, 57.812504, 57.35714, 56.84375, 56.40625, 55.816963, 55.21875, 54.598213, 54.125, 53.372025, 52.857143, 51.553574, 50.773811, 50.25, 49.830357, 49.5, 49.05357, 48.348213, 47.38393, 46.8125, 46.375, 45.991074, 45.291668, 44.966667, -10, -10, -10, -10, -10, -10, -10, -10, -10, -10, -10, -10, -10, -10, -10, -10, -10, -10, -10, -10, -10, 17, 17, 17.2875, 17.625, 17.8125, 18.0625, 18, 6.375, 6.4166665, 6.5, 6.4375, 6.3125, 6.1875, 5.875, 5.6875, 5.4285717, 5.0625, 5, 4.9375, 5, 5.1964283, 5.5416665, 5.78125, 6.03125, 6.28125, 6.5625, 6.78125, 7.1875, 7.375, 7.5625, 7.71875, 7.75, 7.8125, 7.8125, 7.875, 7.9375, 7.9375, 8, 7.9375, 7.9375, 7.9375, 7.9375, 8, 8, 8, 8, 8.0625, 8.0625, 8.0625, 8.0625, 8, 8, 8, 8, 8, 7.875, 7.875, 7.875, 7.875, 8, 8.09375, 8.28125, 8.34375, 8.40625, 8.4375, 8.375, 8.3125, 8.3125, 8.25, 8.25, 8.4375, 9.0357141, 10.678572, 11.5, 12.125, 12.5, 13.03125, 14.282738, 15.273809, 16.008928, 16.544643, 17.0625, 17.625, 18.25, 18.90625, 19.589287, 20.169643, 20.84375, 21.495537, 22.107143, 22.958334, 23.660715, 24.276787, 24.875, 25.598215, 26.214287, 26.875, 27.660715, 28.32143, 28.928572, 30.229168, 30.785715, 31.3125, 31.625, 32.0625, 33.041664, 33.571426, 34, 34.517857, 35.380951, 36, 36.833332, 37.535713, 38.449402, 39.297619, 39.9375, 40.482143, 41, 41.6875, 42.32143, 42.875, 43.375, 43.9375, 44.857143, 45.64286, 46.453869, 47.03125, 47.625, 48.214287, 49.020832, 49.741074, 50.482143, 51.223213, 52.056545, 52.535713, 53.0625, 53.607143, 54.357147, 55.565475, 56.10714, 56.53125, 56.96875, 57.294643, 57.8125, 58.397324, 59.180061, 59.90625, 60.709824, 61.630955, 62.494045, 63.261902, 63.848217, 64.3125, 64.895836, 65.366074, 66.044647, 66.723221, 67.410713, 68.044647, 68.803574, 69.723221, 70.482147, 70.84375, 71.495537, 72.510414, 73.20089, 73.988091, 74.733337, 75.059525, 76.151787, 76.75, 77.294647, 77.976196, 78.598221, 79.107147, 79.833336, 80.816666, 81.997025, 82.714287, 83.125, 83.571426, 84.220238, 84.785721, 85.708336, 86.482147, 87.517853, 88.14286, 88.84375, 89.629463, 90.4375, 90.986603, 91.424103, 91.816963, 92.196426, 92.854164, 93.482147, 93.9375, 94.595238, 94.676872, 94.695831, 94.982147, 95.178574, 96.15477, 96.345238, 96.753967
-10, -10, -10, -10, -10, -10, -10, -10, -10, -10, -10, -10, -10, -10, -10, -10, -10, -10, -10, -10, -10, -10, -10, -10, -10, -10, -10, -10, -10, -10, -10, -10, -10, -10, -10, -10, -10, -10, -10, -10, -10, -10, -10, -10, -10, -10, -10, -10, -10, -10, -10, -10, -10, -10, -10, -10, -10, -10, -10, -10, -10, -10, -10, -10, -10, -10, -10, -10, -10, -10, -10, -10, -10, -10, -10, -10, -10, 72.94445, 72.095238, 71.446426, 70.642853, 69.883926, 69.080353, 68.245537, 67.267853, 66.053566, 65.196426, 64.397324, 63.696426, 62.991074, 62.5, 61.947918, 61.727676, 61.428574, 61.0625, 60.642857, 60.0625, 59.535713, 59, 57.843754, 57.433037, 56.84375, 56.34375, 55.67857, 55.125, 54.517857, 53.986607, 53.278275, 52.75893, 51.678574, 50.845238, 50.330357, 49.9375, 49.291668, 48.839283, 48.214287, 47.267857, 46.642857, 46.25, 45.803574, 45.135418, 44.791664, -10, -10, -10, -10, -10, -10, -10, -10, -10, -10, -10, -10, -10, -10, -10, -10, -10, -10, -10, -10, -10, 17, 17.1, 17.4375, 17.625, 17.875, 18, 18, 6.375, 6.3333335, 6.375, 6.3125, 6.1875, 6.0625, 5.71875, 5.46875, 5.1473217, 4.84375, 4.90625, 4.9375, 5.0625, 5.2589283, 5.5729165, 5.71875, 5.96875, 6.21875, 6.5, 6.78125, 7.25, 7.5, 7.75, 7.96875, 7.9375, 7.9375, 7.9375, 7.9375, 8, 8, 8, 7.9375, 7.9375, 7.9375, 7.9375, 8, 8, 8, 8, 8.0625, 8.1875, 8.1875, 8.1875, 8.125, 8, 8, 8, 8, 7.9375, 7.875, 7.875, 7.875, 7.9375, 8.09375, 8.21875, 8.21875, 8.21875, 8.1875, 8.125, 8.125, 8.25, 8.3125, 8.4375, 8.6875, 9.2142859, 10.75, 11.580358, 12.334822, 12.825893, 13.325893, 14.333333, 15.392857, 16.071428, 16.5625, 17.0625, 17.5625, 18.107143, 18.8125, 19.580357, 20.214287, 20.875, 21.526787, 22.107143, 22.8125, 23.660715, 24.32143, 24.9375, 25.544643, 26.107143, 26.8125, 27.580359, 28.214287, 28.866072, 30.074406, 30.714287, 31.25, 31.625, 32.0625, 33.041664, 33.571426, 33.9375, 34.392857, 35.202377, 36.041668, 36.75, 37.473213, 38.369049, 39.190475, 39.875, 40.464287, 41, 41.6875, 42.32143, 42.9375, 43.482143, 44, 44.9375, 45.75, 46.370537, 46.96875, 47.616074, 48.214287, 49.020832, 49.678574, 50.303574, 50.991074, 51.869045, 52.410713, 53.053574, 53.678574, 54.464287, 55.482147, 56.10714, 56.46875, 56.96875, 57.276787, 57.8125, 58.428574, 59.255955, 59.875, 60.625, 61.535717, 62.315475, 63.083336, 63.869049, 64.3125, 65.020836, 65.473213, 66.107147, 66.732147, 67.482147, 68.151787, 68.803574, 69.607147, 70.3125, 70.822914, 71.680054, 72.522324, 73.191963, 73.863091, 74.525002, 74.925591, 75.973221, 76.666664, 77.461304, 78.154762, 78.723221, 79.053574, 79.726189, 80.745239, 82.101189, 82.785713, 83.1875, 83.53125, 83.897324, 84.285713, 85.583336, 86.461311, 87.482147, 88.25, 88.90625, 89.709824, 90.678574, 91.28125, 91.736603, 92.200897, 92.717262, 93.416664, 94.178574, 94.75, 95.309525, 95.488098, 95.938095, 96.183678, 96.377548, 96.916672, 97.40477, 97.789116, 99, -10, -10, -10, -10, -10, -10, -10, -10, -10, -10, -10, -10, -10, -10, -10, -10, -10, -10, -10, -10, -10, -10, -10, -10, -10, -10, -10, -10, -10, -10, -10, -10, -10, -10, -10, -10, -10, -10, -10, -10, -10, -10, -10, -10, -10, -10, -10, -10, -10, -10, -10, -10, -10, -10, -10, -10, -10, -10, -10, -10, -10, -10, -10, -10, -10, -10, -10, -10, -10, -10, -10, -10, -10, -10, -10, -10, -10, -10, -10, -10, -10, -10, -10, -10, -10, -10, -10, -10, -10, -10, -10, -10, -10, -10, -10, -10, -10, -10, -10, -10, -10, -10, -10, 73, 72.791672, 72.071426, 71.383926, 70.464287, 69.598213, 68.714279, 67.848213, 66.964287, 65.861603, 65.03125, 64.209824, 63.495537, 62.910713, 62.5, 62.21875, 62.03125, 61.678574, 61.125, 60.669643, 60.107143, 59.464283, 58.928574, 57.958336, 57.517853, 56.9375, 56.3125, 55.57143, 55.0625, 54.4375, 53.848213, 53.184525, 52.660713, 51.803574, 50.916668, 50.348213, 49.9375, 49.229168, 48.732143, 48.151787, 47.1875, 46.535717, 46.1875, 45.741074, 45.104168, 44.699997, -10, -10, -10, -10, -10, -10, -10, -10, -10, -10, -10, -10, -10, -10, -10, -10, -10, -10, -10, -10, -10, 17.1875, 17.400002, 17.799999, 17.821428, 18.008928, 18, 18, 6.25, 6.25, 6.25, 6.25, 6.125, 6, 5.71875, 5.40625, 4.9776788, 4.7366071, 4.9895835, 5.1160717, 5.25, 5.3839283, 5.6354165, 5.71875, 6.03125, 6.28125, 6.5625, 6.8125, 7.21875, 7.46875, 7.71875, 7.96875, 8, 8, 8, 8, 8, 8, 8, 7.9375, 7.9375, 7.9375, 7.9375, 8, 8, 8, 8, 8.0625, 8.1875, 8.1875, 8.1875, 8.125, 8, 8, 8, 8, 8, 7.9375, 7.9375, 7.9375, 7.9375, 8.03125, 8.09375, 8.09375, 8.09375, 8.0625, 8.0625, 8.125, 8.3125, 8.5, 8.75, 9.0625, 9.6071434, 10.854167, 11.723215, 12.575893, 13.183036, 13.65625, 14.321428, 15.440475, 16.071428, 16.5625, 17.0625, 17.5, 18, 18.75, 19.5, 20.107143, 20.75, 21.339287, 22.083334, 22.8125, 23.723215, 24.428572, 25, 25.5625, 26.107143, 26.75, 27.473215, 28.380953, 29.008928, 29.949406, 30.517859, 31.0625, 31.5625, 32.107143, 33.104164, 33.589287, 34, 34.446426, 35.119045, 36.208336, 36.883926, 37.482143, 38.252975, 39.011906, 39.916668, 40.517857, 41.0625, 41.6875, 42.32143, 42.9375, 43.544643, 44.107143, 44.8125, 45.589287, 46.214287, 46.875, 47.669643, 48.321426, 49.083332, 49.625, 50.125, 50.75, 51.690475, 52.33036, 52.991074, 53.741074, 54.571426, 55.294647, 55.821426, 56.169643, 56.9375, 57.36607, 57.9375, 58.491074, 59.273811, 59.8125, 60.508926, 61.440475, 62.208332, 62.989586, 63.775299, 64.28125, 64.989586, 65.473213, 66.107147, 66.803574, 67.660713, 68.321426, 68.8125, 69.491074, 70.142853, 70.813988, 71.751488, 72.379471, 73.049103, 73.666664, 74.275002, 74.791664, 75.794647, 76.523811, 77.398804, 78.199402, 78.723221, 79.125, 79.988098, 80.757141, 82.020828, 82.616074, 83.044647, 83.34375, 83.65625, 84.178574, 85.333336, 86.202385, 87.458336, 88.285713, 88.875, 89.5, 90.39286, 91.25, 91.723213, 92.232147, 92.654762, 93.476189, 94.132652, 94.75, 95.416672, 95.916672, 96.623817, 97.051025, 97.397964, 97.770836, 98.125, 98.502983
-10, -10, -10, -10, -10, -10, -10, -10, -10, -10, -10, -10, -10, -10, -10, -10, -10, -10, -10, -10, -10, -10, -10, -10, -10, -10, -10, -10, -10, -10, -10, -10, -10, -10, -10, -10, -10, -10, -10, -10, -10, -10, -10, -10, -10, -10, -10, -10, -10, -10, -10, -10, -10, -10, -10, -10, -10, -10, -10, -10, -10, -10, -10, -10, -10, -10, -10, -10, -10, -10, -10, -10, -10, -10, -10, -10, 73, 72.601196, 72.071426, 71.267853, 70.285713, 69.35714, 68.464279, 67.598213, 66.714287, 65.611603, 64.816971, 64.071426, 63.370537, 62.879463, 62.5625, 62.3125, 62.125, 61.8125, 61.303574, 60.648811, 60.107143, 59.446426, 58.991074, 58.182293, 57.680801, 56.982143, 56.296875, 55.522324, 54.857143, 54.21875, 53.629463, 53.010418, 52.508926, 51.94643, 51.059525, 50.285713, 49.8125, 48.979168, 48.482143, 47.9375, 47.104168, 46.428574, 46.0625, 45.625, 45.125, 44.766666, -10, -10, -10, -10, -10, -10, -10, -10, -10, -10, -10, -10, -10, -10, -10, -10, -10, -10, -10, -10, -10, 17.4375, 17.733334, 18.049999, 18.008928, 18.133928, 18, 18, 6.375, 6.4166665, 6.375, 6.375, 6.1875, 6, 5.7098217, 5.28125, 4.9151788, 4.7053571, 5.0520835, 5.2410717, 5.4375, 5.6026783, 5.8139877, 5.7062502, 6.0848217, 6.2098217, 6.5, 6.75, 7.1875, 7.5, 7.75, 8, 8, 8, 8, 8, 8, 8, 8, 7.9375, 7.9375, 7.9375, 7.9375, 8, 8, 8, 8, 8.0625, 8.1875, 8.1875, 8.1875, 8.125, 8, 8, 8, 8, 8, 7.9375, 7.9375, 7.9375, 7.9375, 8, 8, 8, 8, 8, 8.0625, 8.1875, 8.4375, 8.6875, 9.03125, 9.40625, 9.9330359, 10.84375, 11.723215, 12.629465, 13.290178, 13.65625, 14.214285, 15.458333, 16.107143, 16.59375, 17.09375, 17.5, 18, 18.6875, 19.392857, 19.982143, 20.5625, 21.398809, 22.154762, 22.875, 23.732143, 24.464285, 25.03125, 25.59375, 26.138393, 26.75, 27.473215, 28.380953, 29.008928, 29.803572, 30.44643, 31, 31.625, 32.25, 33.052082, 33.566963, 34.03125, 34.5, 35.035713, 36.291668, 36.946426, 37.5, 38.252975, 38.866074, 39.845238, 40.5, 41.0625, 41.6875, 42.32143, 42.9375, 43.544643, 44.107143, 44.8125, 45.517857, 46.107143, 46.8125, 47.723213, 48.42857, 49, 49.5, 50, 50.6875, 51.535713, 52.33036, 53.035717, 53.741074, 54.455357, 55.053574, 55.642857, 56.044643, 56.9375, 57.60714, 58.232143, 58.8125, 59.357143, 59.75, 60.392853, 61.35714, 62, 62.855656, 63.525299, 64.102676, 64.802086, 65.285713, 66.166664, 66.946426, 67.892853, 68.571426, 69, 69.5, 70.080353, 70.720238, 71.595238, 72.369049, 72.96875, 73.541664, 74.150002, 74.729164, 75.714294, 76.345238, 77.229164, 78.127975, 78.70536, 79.125, 80.029762, 80.792854, 81.760414, 82.325897, 82.732147, 83.03125, 83.46875, 84.10714, 85.315475, 86.139885, 87.083336, 87.857147, 88.65625, 89.236603, 90.071426, 91.14286, 91.616074, 92.169647, 92.592262, 93.251701, 93.757141, 94.866074, 95.404762, 96.166672, 96.895836, 97.428574, 97.973221, 98.419647, 98.875, 99.294647, 99.5, -10, -10, -10, -10, -10, -10, -10, -10, -10, -10, -10, -10, -10, -10, -10, -10, -10, -10, -10, -10, -10, -10, -10, -10, -10, -10, -10, -10, -10, -10, -10, -10, -10, -10, -10, -10, -10, -10, -10, -10, -10, -10, -10, -10, -10, -10, -10, -10, -10, -10, -10, -10, -10, -10, -10, -10, -10, -10, -10, -10, -10, -10, -10, -10, -10, -10, -10, -10, -10, -10, -10, -10, -10, -10, -10, -10, -10, -10, -10, -10, -10, -10, -10, -10, -10, -10, -10, -10, -10, -10, -10, -10, -10, -10, -10, -10, -10, -10, -10, -10, -10, -10, 73.5, 73, 72.676193, 72.095238, 71.261902, 70.285713, 69.285713, 68.089279, 67.285713, 66.464287, 65.361603, 64.602676, 63.96875, 63.392857, 63.017857, 62.8125, 62.553574, 62.1875, 61.875, 61.241074, 60.648811, 60.107143, 59.383926, 58.95536, 58.372768, 57.680801, 56.973217, 56.234375, 55.504463, 54.857143, 54.15625, 53.522324, 53.09375, 52.5, 51.910713, 51.205357, 50.473213, 50, 49.050594, 48.5, 48.0625, 47.255955, 46.327381, 45.892857, 45.375, 44.9375, 44.650002, -10, -10, -10, -10, -10, -10, -10, -10, -10, -10, -10, -10, -10, -10, -10, -10, -10, -10, -10, -10, -10, 17.6875, 18.045834, 18.299999, 18.196428, 18.258928, 18, 18, 6.625, 6.6666665, 6.625, 6.5625, 6.3125, 6.0625, 5.6383934, 4.9479165, 4.5580359, 4.4553571, 4.8735118, 5.3869047, 5.6160717, 5.78125, 5.7098217, 5.6125002, 5.9285717, 6.0535717, 6.4464283, 6.8958335, 7.3035717, 7.625, 7.8125, 8, 8, 8, 8, 8, 8, 8, 8, 8, 8, 8, 8, 8, 8, 8, 8, 8, 8.0625, 8.0625, 8.0625, 8.0625, 8, 8, 8, 8, 8, 8, 8.0625, 8.125, 8.1875, 8.25, 8.25, 8.1875, 8.125, 8.0625, 8.0625, 8.25, 8.5, 8.75, 9.09375, 9.46875, 10.013393, 10.772322, 11.723215, 12.642858, 13.321428, 13.6875, 14.214285, 15.416666, 16.071428, 16.5625, 17.0625, 17.5, 18, 18.625, 19.285715, 19.857143, 20.375, 21.291666, 21.976191, 22.830357, 23.589285, 24.325893, 24.9375, 25.513393, 26.03125, 26.625, 27.285715, 28.357143, 29.008928, 29.803572, 30.44643, 31, 31.625, 32.25, 32.90625, 33.495537, 33.96875, 34.5, 35.107143, 36.470238, 37.178574, 37.6875, 38.232143, 38.803574, 39.836311, 40.5, 41.0625, 41.625, 42.214287, 42.875, 43.598213, 44.214287, 44.875, 45.464287, 46, 46.75, 47.64286, 48.32143, 48.9375, 49.482143, 50, 50.6875, 51.535713, 52.401787, 53.142857, 53.803574, 54.401787, 54.875, 55.482143, 55.919643, 57.020832, 57.678574, 58.294643, 58.875, 59.464287, 59.8125, 60.401787, 61.35714, 62, 62.647324, 63.346725, 63.96875, 64.575897, 65.107147, 66.1875, 67.008926, 67.901794, 68.571426, 68.9375, 69.375, 69.875, 70.577385, 71.470238, 72.306549, 72.991074, 73.482147, 74, 74.75, 75.642853, 76.380951, 77.229164, 77.982147, 78.633926, 79.125, 80.291672, 80.89286, 81.635414, 82.147324, 82.607147, 83.03125, 83.647324, 84.541664, 85.410721, 86.104164, 86.988098, 87.571426, 88.40625, 88.799103, 89.5, 90.940475, 91.508926, 92.133926, 92.645836, 93.178574, 93.969398, 94.544647, 95.092262, 96.023811, 97.083336, 97.767853, 98.473221, 98.964294, 99.4375, 99.866074
-10, -10, -10, -10, -10, -10, -10, -10, -10, -10, -10, -10, -10, -10, -10, -10, -10, -10, -10, -10, -10, -10, -10, -10, -10, -10, -10, -10, -10, -10, -10, -10, -10, -10, -10, -10, -10, -10, -10, -10, -10, -10, -10, -10, -10, -10, -10, -10, -10, -10, -10, -10, -10, -10, -10, -10, -10, -10, -10, -10, -10, -10, -10, -10, -10, -10, -10, -10, -10, -10, -10, -10, -10, -10, -10, 73.55555, 72.9375, 72.62619, -10, -10, -10, -10, 68.023804, 66.955353, 66.208336, 65.455353, 64.566971, 63.995537, 63.517857, 63.25, 63.125, 62.866074, 62.392857, 61.833332, 61.169647, 60.586311, 60.169643, 59.4375, 58.872025, 58.279018, 57.524551, 56.834824, 56.140625, 55.486607, 54.857143, 54.15625, 53.522324, 53.03125, 52.375, 51.669643, 51.026787, 50.330357, 49.666668, 48.955357, 48.42857, 48.053574, 47.026787, 46.113094, 45.642857, 45.125, 44.791668, 44.600002, -10, -10, -10, -10, -10, -10, -10, -10, -10, -10, -10, -10, -10, -10, -10, -10, -10, -10, -10, 18, 18.125, 18.0625, 18.302977, 18.299999, 18.196428, 18.133928, 18, 7, 6.75, 6.833333, 6.75, 6.625, 6.375, 6.125, 5.7946434, 5.2916665, 4.9642859, 4.6532736, 5.0386906, 5.4940476, 5.7410717, 5.90625, 5.7410717, 5.6125002, 5.8660717, 5.9285717, 6.3928571, 7.041667, 7.4196429, 7.75, 7.875, 7.9375, 7.9375, 7.9375, 7.9375, 8, 8, 8, 8, 8, 8, 8, 8, 8, 8, 8, 8, 8, 8, 8, 8, 8, 8, 8, 8, 8, 8, 8.0625, 8.125, 8.1875, 8.3125, 8.375, 8.4375, 8.375, 8.25, 8.125, 8.0625, 8.3125, 8.5625, 8.8125, 9.09375, 9.3526783, 9.989583, 10.772322, 11.723215, 12.571429, 13.214287, 13.6875, 14.321428, 15.476191, 16.102678, 16.59375, 17.09375, 17.5, 18, 18.5625, 19.107143, 19.625, 20.125, 21.25, 21.976191, 22.976191, 23.660713, 24.34375, 24.875, 25.450893, 25.96875, 26.544643, 27.178572, 28.440477, 29, 29.625, 30.160715, 30.916666, 31.571428, 32.25, 32.90625, 33.495537, 33.96875, 34.508926, 35.345238, 36.57143, 37.285713, 37.6875, 38.1875, 38.741074, 39.827385, 40.571426, 41.169643, 41.6875, 42.276787, 42.875, 43.598213, 44.214287, 44.875, 45.464287, 46, 46.75, 47.571426, 48.214287, 49.020832, 49.535713, 50.0625, 50.75, 51.64286, 52.464287, 53.297619, 53.875, 54.419643, 54.875, 55.357143, 55.857143, 57.104164, 57.75, 58.357143, 58.8125, 59.357143, 59.8125, 60.4375, 61.273808, 61.9375, 62.575893, 63.138393, 63.84375, 64.504463, 65.107147, 66.1875, 66.946426, 67.660721, 68.285721, 68.833336, 69.3125, 69.875, 70.51786, 71.178574, 72.065475, 72.857147, 73.464287, 74, 74.75, 75.571426, 76.214287, 76.875, 77.732147, 78.428574, 79, 80.229172, 80.821426, 81.34375, 81.90625, 82.464287, 83, 83.732147, 84.869049, 85.535721, 86.0625, 86.916672, 87.65477, 88.334824, 88.674103, 89.258926, 90.690475, 91.321426, 92, 92.491074, 93.035721, 93.589294, 94.294647, 94.717262, 95.666672, 96.916664, 97.767853, 98.660721, 99.1875, 99.705353, 100.29465, 100.88096, -10, -10, -10, -10, -10, -10, -10, -10, -10, -10, -10, -10, -10, -10, -10, -10, -10, -10, -10, -10, -10, -10, -10, -10, -10, -10, -10, -10, -10, -10, -10, -10, -10, -10, -10, -10, -10, -10, -10, -10, -10, -10, -10, -10, -10, -10, -10, -10, -10, -10, -10, -10, -10, -10, -10, -10, -10, -10, -10, -10, -10, -10, -10, -10, -10, -10, -10, -10, -10, -10, -10, -10, -10, -10, -10, -10, -10, -10, -10, -10, -10, -10, -10, -10, -10, -10, -10, -10, -10, -10, -10, -10, -10, -10, -10, -10, -10, -10, -10, -10, -10, 73.75, 73.416664, 73.012497, 72.723808, -10, -10, -10, -10, -10, 66.633926, 66.017853, 65.299103, 64.428574, 63.964287, 63.625, 63.375, 63.3125, 62.964287, 62.059525, 61.547619, 60.950897, 60.465775, 60.09375, 59.459824, 58.836311, 58.247768, 57.430801, 56.69643, 56.046875, 55.40625, 54.67857, 53.986607, 53.441963, 52.90625, 52.25, 51.42857, 50.848213, 50.1875, 49.541668, 48.955357, 48.473213, 48.116074, 47.035717, 46.113094, 45.580357, 45, 44.679169, -10, -10, -10, -10, -10, -10, -10, -10, -10, -10, -10, -10, -10, -10, -10, -10, -10, -10, -10, 18, 18, 18.166666, 18.25, 18.440477, 18.3125, 18.25, 18.125, 18, 7, 6.875, 6.9166665, 6.875, 6.6875, 6.4375, 6.1875, 5.8571434, 5.5416665, 5.4464283, 5.1979165, 5.4553571, 5.7529764, 5.9285717, 6.03125, 5.7410717, 5.639286, 5.8392859, 5.8035717, 6.2678571, 6.791667, 7.1785717, 7.7083335, 7.8660717, 7.9375, 7.9375, 7.9375, 7.9375, 8, 8, 8, 8, 8, 8, 8, 8, 8, 8, 8, 8, 8, 8, 8, 8, 8, 8, 8, 8, 8, 8, 8.0625, 8.125, 8.1875, 8.375, 8.5, 8.5625, 8.5, 8.3125, 8.125, 8, 8.25, 8.5, 8.75, 9.03125, 9.2991066, 10.072916, 10.834822, 11.732143, 12.5, 13.075893, 13.59375, 14.214286, 15.497024, 16.138393, 16.625, 17.125, 17.5, 18, 18.5625, 19.107143, 19.5625, 20.0625, 21.1875, 21.809523, 23.059525, 23.758928, 24.392857, 24.84375, 25.388393, 25.90625, 26.526787, 27.178572, 28.357143, 28.857143, 29.446428, 30.119049, 30.916666, 31.508928, 32.080357, 32.71875, 33.308037, 33.897324, 34.5625, 35.523811, 36.511906, 37.214287, 37.625, 38.125, 38.75, 39.64286, 40.392857, 41.190475, 41.75, 42.294643, 42.875, 43.535713, 44.107143, 44.8125, 45.517857, 46.107143, 46.8125, 47.51786, 48.107143, 48.958332, 49.517857, 50.0625, 50.75, 51.571426, 52.357147, 53.297619, 53.758926, 54.419643, 54.9375, 55.544643, 56.178574, 57.139881, 57.678574, 58.339287, 58.8125, 59.419643, 59.982143, 60.553574, 61.261906, 62.020832, 62.598213, 63.169643, 63.8125, 64.517853, 65.107147, 66.1875, 66.910713, 67.513397, 68.084824, 68.681549, 69.333336, 69.9375, 70.464287, 71, 72.041672, 72.857147, 73.401787, 73.875, 74.5625, 75.434525, 76.107147, 76.8125, 77.723221, 78.428574, 79, 80.229172, 80.821426, 81.34375, 81.90625, 82.464287, 83, 83.961311, 85.083336, 85.723221, 86.196426, 86.770836, 87.547623, 88.285721, 88.642853, 89.223221, 90.523811, 91.178574, 91.9375, 92.669647, 93.39286, 93.919647, 94.294647, 94.508926, 95.226189, 96.833328, 97.758926, 98.678574, 99.1875, 99.705353, 100.41965
-10, -10, -10, -10, -10, -10, -10, -10, -10, -10, -10, -10, -10, -10, -10, -10, -10, -10, -10, -10, -10, -10, -10, -10, -10, -10, -10, -10, -10, -10, -10, -10, -10, -10, -10, -10, -10, -10, -10, -10, -10, -10, -10, -10, -10, -10, -10, -10, -10, -10, -10, -10, -10, -10, -10, -10, -10, -10, -10, -10, -10, -10, -10, -10, -10, -10, -10, -10, -10, -10, -10, -10, -10, -10, 73.722221, 73.354164, 72.962502, -10, -10, -10, -10, -10, -10, 66.1875, 65.696426, 65.120529, 64.383926, 63.995537, 63.78125, 63.53125, 63.5, 63.13393, 62.005951, 61.413689, 60.772324, 60.361607, 59.915176, 59.22768, 58.586311, 58.044643, 57.258926, 56.607143, 56, 55.375, 54.714283, 54.017857, 53.473213, 52.9375, 52.25, 51.35714, 50.74107, 50.1875, 49.479168, 48.955357, 48.247025, 47.9375, 47.119049, 46.300594, 45.776787, 44.895832, 44.591667, -10, -10, -10, -10, -10, -10, -10, -10, -10, -10, -10, -10, -10, -10, -10, -10, -10, -10, 17.833332, 17.916666, 17.9375, 18.125, 18.375, 18.544643, 18.4375, 18.3125, 18.0625, 17.916666, 7, 7, 7, 6.90625, 6.65625, 6.40625, 6.15625, 5.9285717, 5.7916665, 5.9693875, 5.833333, 6.0510206, 6.0654764, 6.1160717, 6.125, 5.8125, 5.9017859, 6.0044641, 5.96875, 6.3616071, 6.822917, 7.1785717, 7.7083335, 7.8660717, 7.9375, 7.9375, 7.9375, 7.9375, 8, 8, 8, 7.9375, 7.9375, 7.9375, 7.9375, 8, 8.0625, 8.125, 8.125, 8.125, 8.125, 8.0625, 8.0625, 8.0625, 8, 8, 8, 8, 8, 8, 8.0625, 8.125, 8.1875, 8.4375, 8.625, 8.6696434, 8.5500002, 8.4196434, 8.125, 8.0625, 8.25, 8.5, 8.75, 9, 9.2678566, 10.041666, 10.857143, 11.732143, 12.428572, 12.90625, 13.40625, 14, 15.413691, 16.102678, 16.625, 17.125, 17.5, 18, 18.625, 19.214287, 19.625, 20.133928, 21.1875, 21.809523, 23.059525, 23.758928, 24.357143, 24.75, 25.294643, 25.8125, 26.517859, 27.107143, 28.25, 28.794643, 29.366072, 30.011906, 30.854166, 31.428572, 31.9375, 32.5625, 33.151787, 33.803574, 34.616074, 35.702381, 36.535717, 37.214287, 37.625, 38.0625, 38.633926, 39.547619, 40.285713, 41.273808, 41.8125, 42.3125, 42.875, 43.535713, 44.107143, 44.8125, 45.517857, 46.107143, 46.8125, 47.44643, 48, 48.833332, 49.392857, 50, 50.741074, 51.5, 52.178574, 53.127975, 53.75, 54.464287, 55, 55.625, 56.357147, 57.309525, 57.6875, 58.294643, 58.75, 59.473213, 60.151787, 60.669643, 61.25, 62.104164, 62.589287, 63.125, 63.741074, 64.601189, 65.178574, 66.127975, 66.767853, 67.34375, 67.870537, 68.449402, 69.252975, 69.875, 70.464287, 71, 71.895836, 72.714287, 73.276787, 73.75, 74.375, 75.327377, 75.964287, 76.916664, 77.758934, 78.446426, 79, 80.041672, 80.642853, 81.1875, 81.8125, 82.51786, 83.107147, 84.023811, 85.092262, 85.723221, 86.258926, 86.958336, 87.797623, 88.223221, 88.5625, 89.022324, 90.055061, 90.754463, 91.46875, 92.26786, 93.297623, 93.848213, 94.357147, 94.5625, 95.142853, 96.916664, 97.821426, 98.625, 99.08036, 99.580353, 100.29465, 100.9875, -10, -10, -10, -10, -10, -10, -10, -10, -10, -10, -10, -10, -10, -10, -10, -10, -10, -10, -10, -10, -10, -10, -10, -10, -10, -10, -10, -10, -10, -10, -10, -10, -10, -10, -10, -10, -10, -10, -10, -10, -10, -10, -10, -10, -10, -10, -10, -10, -10, -10, -10, -10, -10, -10, -10, -10, -10, -10, -10, -10, -10, -10, -10, -10, -10, -10, -10, -10, -10, -10, -10, -10, -10, -10, -10, -10, -10, -10, -10, -10, -10, -10, -10, -10, -10, -10, -10, -10, -10, -10, -10, -10, -10, -10, -10, -10, -10, -10, -10, -10, 74, 73.708328, 73.291664, 72.912506, -10, -10, -10, -10, -10, -10, 65.8125, 65.375, 64.941963, 64.339279, 64.026787, 63.9375, 63.75, 63.75, 63.348213, 62.005951, 61.333336, 60.709824, 60.28125, 59.736603, 59.058037, 58.434525, 57.9375, 57.366074, 56.595238, 56, 55.166668, 54.464283, 53.830357, 53.330357, 52.75, 52.080357, 51.276787, 50.61607, 50.0625, 49.309525, 48.883926, 48.166668, 47.70536, 46.904762, 46.25893, 45.821426, 45.020832, 44.800003, -10, -10, -10, -10, -10, -10, -10, -10, -10, -10, -10, -10, -10, -10, -10, -10, -10, 18.375, 18.055555, 18.0625, 18, 18.125, 18.4375, 18.669643, 18.625, 18.392857, 18, 17.833332, 7, 7, 6.9375, 6.78125, 6.53125, 6.28125, 6.09375, 5.9375, 6, 6, 5.9166665, 6.1339283, 6.1696429, 6.1875, 6.125, 5.875, 6.0357141, 6.2669644, 6.1026783, 6.3616071, 6.5520835, 6.9375, 7.5654764, 7.8035717, 7.9375, 7.9375, 7.9375, 7.9375, 8, 8, 8, 7.9375, 7.9375, 7.9375, 7.9375, 8, 8.125, 8.1875, 8.1875, 8.1875, 8.125, 8.0625, 8.0625, 8.0625, 8, 8, 8, 8, 8, 8, 8, 8, 8, 8.1875, 8.375, 8.4821434, 8.5500002, 8.5446434, 8.2053566, 8.1339283, 8.25, 8.5, 8.75, 9, 9.2053566, 9.854166, 10.535714, 11.553572, 12.285715, 12.78125, 13.316964, 14.25, 15.467262, 16.129463, 16.59375, 17.09375, 17.46875, 18, 18.833334, 19.392859, 19.8125, 20.290178, 21.21875, 21.956844, 23.072918, 23.901787, 24.495537, 24.84375, 25.3125, 25.8125, 26.580359, 27.214287, 28.166668, 28.732143, 29.285715, 29.904762, 30.729166, 31.303572, 31.8125, 32.375, 33.127975, 33.803574, 34.616074, 35.702381, 36.464287, 37.107143, 37.625, 38.107143, 38.696426, 39.556545, 40.285713, 41.273808, 41.875, 42.419643, 42.9375, 43.482143, 44, 44.75, 45.5, 46.107143, 46.8125, 47.44643, 48, 48.770832, 49.285713, 49.9375, 50.660713, 51.32143, 52.166668, 53.092262, 53.6875, 54.401787, 54.9375, 55.678574, 56.535713, 57.333332, 57.69643, 58.294643, 58.75, 59.473213, 60.151787, 60.607143, 61.142853, 62.187496, 62.714287, 63.25, 63.741074, 64.556549, 65.10714, 66.086304, 66.767853, 67.28125, 67.70089, 68.324402, 69.127975, 69.866074, 70.535713, 71.107147, 71.958336, 72.660721, 73.169647, 73.678574, 74.479164, 75.255951, 75.732147, 76.595238, 77.488098, 78.172623, 78.857147, 79.708336, 80.392853, 80.883926, 81.741074, 82.535713, 83.273804, 84.303574, 85.122025, 85.830353, 86.25, 86.8125, 87.619049, 88.098221, 88.5, 88.915176, 89.614586, 90.552086, 91.260414, 92.25, 93.297623, 93.994049, 94.428574, 94.696426, 95.369049, 96.916664, 97.794647, 98.604164, 99.181549, 99.580353, 100.25893
-10, -10, -10, -10, -10, -10, -10, -10, -10, -10, -10, -10, -10, -10, -10, -10, -10, -10, -10, -10, -10, -10, -10, -10, -10, -10, -10, -10, -10, -10, -10, -10, -10, -10, -10, -10, -10, -10, -10, -10, -10, -10, -10, -10, -10, -10, -10, -10, -10, -10, -10, -10, -10, -10, -10, -10, -10, -10, -10, -10, -10, -10, -10, -10, -10, -10, -10, -10, -10, -10, -10, -10, -10, 73.888885, 73.583328, 73.125, 72.662506, -10, -10, -10, -10, -10, -10, 65.59375, 65.229164, 64.895088, 64.517853, 64.25, 64.125, 63.875, 63.8125, 63.392857, 61.934525, 61.428574, 60.78125, 60.28125, 59.566963, 58.879463, 58.361607, 57.90625, 57.334824, 56.608631, 56, 54.958336, 54.285713, 53.705357, 53.25, 52.714287, 52.089287, 51.163689, 50.580357, 50, 49.517857, 49.0625, 48.238094, 47.568451, 47.071426, 46.4375, 45.925598, 45.154758, 44.883331, -10, -10, -10, -10, -10, -10, -10, -10, -10, -10, -10, -10, -10, -10, 18.416668, 18.416668, 18.625, 18.583334, 18.229166, 18.1875, 18.0625, 18.0625, 18.3125, 18.633928, 18.825001, 18.464287, 18.133928, 17.833332, 7, 7, 6.9375, 6.78125, 6.53125, 6.28125, 6.09375, 5.9375, 5.875, 5.9375, 6.0625, 6.25, 6.3125, 6.25, 6.125, 5.9375, 6.0982141, 6.3294644, 6.1651783, 6.2901783, 6.28125, 6.6964283, 7.4226189, 7.7410717, 8, 8, 8, 8, 8, 8, 8, 7.9375, 7.9375, 7.9375, 7.9375, 8, 8.125, 8.1875, 8.1875, 8.1875, 8.125, 8.0625, 8.0625, 8.0625, 8, 8, 8, 8, 8, 8, 8, 8, 8, 8.125, 8.25, 8.2946434, 8.3625002, 8.4196434, 8.1428566, 8.1339283, 8.1875, 8.375, 8.5625, 8.8125, 9.0714283, 9.6279764, 10.285714, 11.491072, 12.214287, 12.6875, 13.165178, 14.238096, 15.431548, 16.129463, 16.59375, 17.09375, 17.46875, 18, 18.895834, 19.5, 19.9375, 20.477678, 21.313988, 22.063988, 22.989584, 23.776787, 24.370537, 24.78125, 25.25, 25.958334, 26.723215, 27.339287, 28.083334, 28.886906, 29.464287, 30.145834, 30.6875, 31.232143, 31.895832, 32.4375, 33.145832, 33.866074, 34.732143, 35.642857, 36.32143, 36.9375, 37.544643, 38.044643, 38.696426, 39.556545, 40.285713, 41.273808, 41.9375, 42.482143, 43, 43.5, 44, 44.75, 45.5, 46.107143, 46.8125, 47.44643, 47.9375, 48.5, 49.044643, 49.803574, 50.58036, 51.214287, 52.104168, 52.9375, 53.544647, 54.276787, 54.866074, 55.845238, 56.714287, 57.3125, 57.642857, 58.232143, 58.8125, 59.58036, 60.214287, 60.625, 61.142853, 62.333332, 62.785713, 63.3125, 63.678574, 64.377975, 64.928574, 66.127975, 66.821426, 67.40625, 67.754463, 68.178574, 68.949402, 69.761902, 70.357147, 70.964287, 72.020836, 72.625, 73.125, 73.553574, 74.260414, 74.992561, 75.446426, 76.553574, 77.380951, 78.065475, 78.732147, 79.520836, 80.285721, 80.705353, 81.732147, 82.5, 83.273804, 84.3125, 85.008926, 85.758926, 86.232147, 86.8125, 87.410721, 87.857147, 88.258926, 88.811012, 89.507439, 90.552086, 91.144348, 92.178574, 93.190483, 94.139885, 94.607147, 94.946426, 95.583328, 97, 97.83036, 98.572914, 99.177086, 99.65625, 100.2366, 100.85, -10, -10, -10, -10, -10, -10, -10, -10, -10, -10, -10, -10, -10, -10, -10, -10, -10, -10, -10, -10, -10, -10, -10, -10, -10, -10, -10, -10, -10, -10, -10, -10, -10, -10, -10, -10, -10, -10, -10, -10, -10, -10, -10, -10, -10, -10, -10, -10, -10, -10, -10, -10, -10, -10, -10, -10, -10, -10, -10, -10, -10, -10, -10, -10, -10, -10, -10, -10, -10, -10, -10, -10, -10, -10, -10, -10, -10, -10, -10, -10, -10, -10, -10, -10, -10, -10, -10, -10, -10, -10, -10, -10, -10, -10, -10, -10, -10, -10, -10, 74.25, 73.916664, 73.658333, 73.166664, 72.616669, 71.800003, -10, -10, -10, -10, -10, 65.46875, 65.15625, 64.863838, 64.625, 64.375, 64.25, 63.9375, 63.6875, 63.25, 62.142853, 61.589287, 60.9375, 60.25, 59.428574, 58.785713, 58.3125, 57.875, 57.303574, 56.622025, 56.0625, 55.074406, 54.380951, 53.8125, 53.25, 52.741074, 52.13393, 51.163689, 50.61607, 50, 49.517857, 49.0625, 48.193455, 47.339287, 46.928574, 46.294643, 45.818451, 45.092258, 44.849998, -10, -10, -10, -10, -10, -10, -10, -10, -10, -10, -10, -10, -10, 18.166668, 18.444445, 18.527779, 18.75, 18.6875, 18.416666, 18.3125, 18.125, 18, 18.1875, 18.383928, 18.575001, 18.276787, 18.008928, 17.833332, 6.875, 6.9166665, 6.875, 6.71875, 6.46875, 6.21875, 6.03125, 5.9375, 5.8125, 5.8125, 5.875, 6, 6.125, 6.125, 6.0625, 6, 6.1339283, 6.2937498, 6.1026783, 6.1026783, 6.15625, 6.5625, 7.2678571, 7.6696429, 7.9375, 8, 8, 8, 8, 8, 8, 7.9375, 7.9375, 7.9375, 7.9375, 8, 8.125, 8.1875, 8.1875, 8.1875, 8.125, 8.0625, 8.0625, 8.0625, 8, 8, 8, 8, 8, 8, 8, 8, 8, 8.0625, 8.125, 8.1696434, 8.2375002, 8.3571434, 8.1428566, 8.1339283, 8.125, 8.25, 8.4375, 8.6875, 9, 9.4196434, 10.035714, 11.386905, 12.107143, 12.65625, 13.25, 14.380953, 15.327381, 16.03125, 16.544643, 17.0625, 17.46875, 18, 18.895834, 19.5, 20, 20.602678, 21.555059, 22.254465, 22.90625, 23.616072, 24.214287, 24.6875, 25.125, 25.877977, 26.866072, 27.482143, 28.071428, 29.041668, 29.642857, 30.1875, 30.6875, 31.294643, 32.065475, 32.625, 33.333332, 33.9375, 34.678574, 35.464287, 36.151787, 36.866074, 37.598213, 38.151787, 38.758926, 39.636906, 40.464287, 41.297619, 41.9375, 42.482143, 43, 43.5625, 44.107143, 44.8125, 45.44643, 46, 46.75, 47.42857, 47.9375, 48.4375, 48.9375, 49.741074, 50.5, 51.107143, 52.041668, 52.866074, 53.58036, 54.169643, 54.803574, 55.836311, 56.64286, 57.276787, 57.6875, 58.232143, 58.75, 59.45536, 60.044643, 60.544643, 61.071426, 62.187496, 62.75, 63.28125, 63.647324, 64.302086, 64.866074, 66.047623, 66.678574, 67.3125, 67.70536, 68.142853, 68.803574, 69.690475, 70.375, 70.995537, 71.90625, 72.46875, 73.0625, 73.616074, 74.367554, 74.950897, 75.383926, 76.473213, 77.202377, 77.895836, 78.589287, 79.1875, 80.190475, 80.642853, 81.669647, 82.39286, 83.211304, 84.074409, 84.866074, 85.75, 86.276787, 86.8125, 87.232147, 87.5, 87.928574, 88.789581, 89.632439, 90.659225, 91.171127, 92.178574, 93.226189, 94.309525, 94.794647, 95.267853, 96.10714, 97.226189, 98.008926, 98.572914, 99.239586, 99.885414, 100.51339
-10, -10, -10, -10, -10, -10, -10, -10, -10, -10, -10, -10, -10, -10, -10, -10, -10, -10, -10, -10, -10, -10, -10, -10, -10, -10, -10, -10, -10, -10, -10, -10, -10, -10, -10, -10, -10, -10, -10, -10, -10, -10, -10, -10, -10, -10, -10, -10, -10, -10, -10, -10, -10, -10, -10, -10, -10, -10, -10, -10, -10, -10, -10, -10, -10, -10, -10, -10, -10, -10, -10, -10, 74.333336, 73.916664, 73.691666, -10, -10, -10, -10, -10, -10, -10, 65.75, 65.46875, 65.25, 65.002228, 64.875, 64.660713, 64.392853, 64, 63.5625, 63.035713, 62.071426, 61.535713, 60.9375, 60.25, 59.5, 58.892857, 58.34375, 57.90625, 57.272324, 56.604168, 56.0625, 55.074406, 54.425594, 53.84375, 53.1875, 52.70536, 52.178574, 51.163689, 50.651787, 50.0625, 49.642857, 49.25, 48.5625, 47.309525, 46.785717, 46.044643, 45.622025, 45.165176, 44.958332, -10, -10, -10, -10, -10, -10, -10, -10, -10, -10, -10, -10, 18, 18.361113, 18.541668, 18.614584, 18.8125, 18.9375, 18.6875, 18.5, 18.25, 18, 18.0625, 18.196428, 18.387501, 18.151787, 18.008928, 17.916666, 6.875, 6.9166665, 6.9375, 6.8125, 6.625, 6.375, 6.125, 6, 5.8125, 5.75, 5.75, 5.875, 6, 6.0625, 6.0625, 5.9375, 6.0089283, 6.1374998, 5.9464283, 5.9464283, 6.0625, 6.46875, 7.1741071, 7.6383929, 7.90625, 8, 8, 8, 8, 8, 8, 8, 8, 8, 8, 8, 8.0625, 8.0625, 8.0625, 8.0625, 8, 8, 8, 8, 8, 8, 8, 8, 8, 8, 8, 8, 8, 8, 8, 8.0625, 8.25, 8.3125, 8.2053566, 8.1964283, 8.1875, 8.3125, 8.5, 8.75, 9.0625, 9.4821434, 10.044643, 11.315475, 12, 12.65625, 13.357143, 14.523809, 15.223214, 15.959822, 16.495537, 17.03125, 17.46875, 18, 18.864584, 19.424107, 20.026787, 20.84375, 21.638393, 22.339287, 22.9375, 23.584822, 24.075893, 24.5625, 24.9375, 25.726192, 26.9375, 27.517857, 28.133928, 29.041668, 29.714285, 30.294643, 30.75, 31.375, 32.208332, 32.78125, 33.489582, 33.96875, 34.5625, 35.214287, 36.169643, 36.9375, 37.723213, 38.339287, 38.9375, 39.678574, 40.401787, 41.035713, 41.854168, 42.428574, 43, 43.625, 44.214287, 44.875, 45.526787, 46.107143, 46.8125, 47.446426, 47.9375, 48.4375, 48.9375, 49.741074, 50.42857, 51, 51.970238, 52.970242, 53.58036, 54.125, 54.741074, 55.755955, 56.464287, 57.075893, 57.5, 58.044643, 58.5, 59.058037, 59.625, 60.285713, 60.928574, 62.032738, 62.75, 63.325893, 63.71875, 64.21875, 64.794647, 65.815475, 66.428574, 67.0625, 67.526787, 68, 68.633926, 69.547623, 70.1875, 70.816963, 71.802086, 72.361603, 73, 73.669647, 74.546127, 75.058037, 75.526787, 76.369049, 77.095238, 77.770836, 78.526787, 79.178574, 80.190475, 80.580353, 81.553574, 82.297623, 83.104164, 84.011909, 84.857147, 85.75, 86.276787, 86.75, 87.125, 87.729164, 88.116074, 89.026184, 90.156456, 90.869049, 91.398804, 92.559525, 93.267853, 94.565475, 94.973221, 95.455353, 96.23214, 97.142853, 97.946426, 98.483627, 99.052086, 99.688988, 100.59673, 101.08333, -10, -10, -10, -10, -10, -10, -10, -10, -10, -10, -10, -10, -10, -10, -10, -10, -10, -10, -10, -10, -10, -10, -10, -10, -10, -10, -10, -10, -10, -10, -10, -10, -10, -10, -10, -10, -10, -10, -10, -10, -10, -10, -10, -10, -10, -10, -10, -10, -10, -10, -10, -10, -10, -10, -10, -10, -10, -10, -10, -10, -10, -10, -10, -10, -10, -10, -10, -10, -10, -10, -10, -10, -10, -10, -10, -10, -10, -10, -10, -10, -10, -10, -10, -10, -10, -10, -10, -10, -10, -10, -10, -10, -10, -10, -10, -10, -10, -10, -10, 74.416664, 73.979164, 73.725006, -10, -10, -10, -10, -10, -10, -10, 65.833336, 65.59375, 65.5, 65.296875, 65.1875, 64.910713, 64.517853, 64, 63.375, 62.857143, 62.17857, 61.5, 60.928574, 60.1875, 59.55357, 59, 58.40625, 57.90625, 57.15625, 56.508926, 55.955357, 55.157738, 54.550594, 53.96875, 53.25, 52.89286, 52.494049, 51.208328, 50.678574, 50.0625, 49.678574, 49.166668, 48.5, 47.166668, 46.723217, 46.044643, 45.577381, 45.165176, 44.875, -10, -10, -10, -10, -10, -10, -10, -10, -10, -10, -10, -10, -10, 18.333334, 18.458334, 18.625, 18.8125, 18.9375, 18.75, 18.5, 18.25, 18, 18, 18.008928, 18.137501, 18.008928, 18.008928, 18, 7, 7, 7.0625, 6.9375, 6.875, 6.75, 6.5625, 6.5625, 6.3660717, 6.1041665, 6.1041665, 6.25, 6.3125, 6.4375, 6.375, 6.25, 6.25, 6.1875, 6.125, 6.125, 6.25, 6.59375, 7.1919641, 7.6383929, 7.90625, 8, 8, 8, 8, 8, 8, 8, 8, 8, 8, 8, 8, 8, 8, 8, 8, 8, 8, 8, 8, 8, 8, 8, 8, 8, 8.0625, 8.0625, 8.125, 8.1875, 8.1875, 8.1875, 8.1875, 8.125, 8.0625, 8.1875, 8.25, 8.375, 8.5625, 8.8125, 9.1875, 9.7321434, 10.375, 11.422619, 12.035714, 12.65625, 13.321428, 14.211309, 14.973214, 15.825893, 16.47768, 17.03125, 17.5, 18, 18.65625, 19.183037, 19.82143, 20.9375, 21.821428, 22.526787, 23.0625, 23.5625, 23.9375, 24.375, 24.75, 25.654762, 26.928572, 27.517857, 28.133928, 28.979168, 29.607143, 30.232143, 30.803572, 31.553572, 32.440475, 33.03125, 33.53125, 33.90625, 34.446426, 35.202381, 36.205357, 37.044643, 37.785713, 38.357143, 38.9375, 39.616074, 40.294643, 40.973213, 41.845238, 42.428574, 43, 43.625, 44.214287, 44.875, 45.598213, 46.214287, 46.875, 47.464287, 47.9375, 48.4375, 48.9375, 49.886906, 50.5, 51.0625, 51.741074, 52.755955, 53.39286, 54, 54.732143, 55.684525, 56.285713, 56.90625, 57.419643, 57.919643, 58.3125, 58.763393, 59.3125, 60.077385, 60.970238, 61.949402, 62.625, 63.200893, 63.71875, 64.263397, 64.866074, 65.648804, 66.178574, 67.020836, 67.51786, 68, 68.571426, 69.369049, 69.946426, 70.63839, 71.659225, 72.236603, 73.083336, 73.741074, 74.441963, 75.058037, 75.651787, 76.627975, 77.285721, 77.9375, 78.752975, 79.428574, 80.315475, 80.696426, 81.48214, 82.404762, 83.080353, 83.866074, 84.723221, 85.642853, 86.321426, 86.8125, 87.3125, 87.961311, 88.428574, 89.463684, 90.494049, 91.071426, 91.5, 92.630951, 93.410713, 94.660713, 95.151787, 95.633926, 96.273811, 97.080353, 97.830353, 98.400299, 98.84375, 99.626488, 100.63245
-10, -10, -10, -10, -10, -10, -10, -10, -10, -10, -10, -10, -10, -10, -10, -10, -10, -10, -10, -10, -10, -10, -10, -10, -10, -10, -10, -10, -10, -10, -10, -10, -10, -10, -10, -10, -10, -10, -10, -10, -10, -10, -10, -10, -10, -10, -10, -10, -10, -10, -10, -10, -10, -10, -10, -10, -10, -10, -10, -10, -10, -10, -10, -10, -10, -10, -10, -10, -10, -10, -10, 75, 74.55555, 74.083336, 73.600006, -10, -10, -10, -10, -10, -10, -10, 65.958336, 65.785713, 65.651787, 65.4375, 65.25, 64.973213, 64.517853, 64, 63.25, 62.714287, 62.232143, 61.571426, 61, 60.267857, 59.660713, 59.0625, 58.419643, 57.90625, 57.15625, 56.446426, 55.848213, 55.241074, 54.541668, 53.995537, 53.294643, 52.82143, 52.422619, 51.166664, 50.64286, 50.0625, 49.616074, 49.059525, 48.42857, 47.25, 46.723217, 46, 45.553574, 45.177082, 44.833332, -10, -10, -10, -10, -10, -10, -10, -10, -10, -10, -10, -10, -10, 18.583334, 18.541666, 18.625, 18.75, 18.8125, 18.6875, 18.5, 18.25, 18, 18, 17.9375, 17.9375, 17.9375, 17.9375, 18, 7.3571429, 7.5, 7.4553571, 7.3125, 7.25, 7.1875, 7.0625, 7.2857141, 7.0535717, 6.6190476, 6.6190476, 6.854167, 6.8125, 6.875, 6.875, 6.8125, 6.7857141, 6.6517859, 6.625, 6.5625, 6.625, 6.84375, 7.2723217, 7.6383929, 7.90625, 8, 8, 8, 8, 8, 8, 8, 8, 8, 8, 8, 8, 8, 8, 8, 8, 8, 8, 8.0625, 8.125, 8.125, 8.125, 8.0625, 8, 8, 8, 8, 8.125, 8.2946434, 8.375, 8.375, 8.3125, 8.1875, 8, 8.1517859, 8.3571434, 8.5535717, 8.8125, 9.0625, 9.375, 9.875, 10.553572, 11.589285, 12.178572, 12.8125, 13.410715, 14.044643, 14.803572, 15.723215, 16.428572, 17, 17.5, 17.9375, 18.53125, 19.004465, 19.94643, 21.071428, 21.830357, 22.482143, 23, 23.544643, 23.9375, 24.375, 24.75, 25.5, 26.970238, 27.571428, 28.196428, 28.770834, 29.428572, 30.107143, 30.857143, 31.660713, 32.294643, 32.852676, 33.489582, 33.90625, 34.446426, 35.273811, 36.3125, 37.107143, 37.866074, 38.464287, 39, 39.625, 40.223213, 40.866074, 41.782738, 42.410713, 43, 43.6875, 44.32143, 44.9375, 45.678574, 46.32143, 46.9375, 47.482143, 48, 48.5, 49, 50.041664, 50.57143, 51.125, 51.741074, 52.684525, 53.285713, 53.9375, 54.732143, 55.5, 56.107143, 56.71875, 57.263393, 57.763393, 58.09375, 58.5625, 59.169643, 59.952385, 61.053574, 61.866074, 62.571426, 63.138393, 63.75, 64.294647, 64.90625, 65.450897, 66, 66.864586, 67.42411, 68.03125, 68.65625, 69.392853, 70.017853, 70.71875, 71.516373, 72.09375, 72.958336, 73.723213, 74.473213, 75.297623, 75.9375, 76.669647, 77.321426, 77.9375, 78.815475, 79.607147, 80.422623, 80.8125, 81.375, 82.5, 83.151787, 83.928574, 84.732147, 85.642853, 86.321426, 86.8125, 87.375, 88.202377, 88.714287, 89.630356, 90.619049, 91.008926, 91.5, 92.690475, 93.482147, 94.577385, 95.160721, 95.8125, 96.523811, 97.017853, 97.678574, 98.119049, 98.5625, 99.345238, 100.40476, 100.88333, -10, -10, -10, -10, -10, -10, -10, -10, -10, -10, -10, -10, -10, -10, -10, -10, -10, -10, -10, -10, -10, -10, -10, -10, -10, -10, -10, -10, -10, -10, -10, -10, -10, -10, -10, -10, -10, -10, -10, -10, -10, -10, -10, -10, -10, -10, -10, -10, -10, -10, -10, -10, -10, -10, -10, -10, -10, -10, -10, -10, -10, -10, -10, -10, -10, -10, -10, -10, -10, -10, -10, -10, -10, -10, -10, -10, -10, -10, -10, -10, -10, -10, -10, -10, -10, -10, -10, -10, -10, -10, -10, -10, -10, -10, -10, -10, -10, -10, -10, -10, -10, 73.400002, -10, -10, -10, -10, -10, -10, 66.5, 66.270836, 66.098213, 65.933037, 65.65625, 65.375, 65.035713, 64.517853, 64.0625, 63.366074, 62.738094, 62.303574, 61.625, 60.916668, 60.205357, 59.642857, 59.0625, 58.419643, 57.90625, 57.15625, 56.383926, 55.678574, 55.0625, 54.4375, 53.888393, 53.232143, 52.732143, 52.315475, 51.011902, 50.535713, 50, 49.5625, 48.705357, 48.10714, 47.104168, 46.669643, 46, 45.577381, 45.236111, -10, -10, -10, -10, -10, -10, -10, -10, -10, -10, -10, -10, -10, -10, 18.916666, 18.791666, 18.8125, 18.875, 19, 18.928572, 18.541666, 18.258928, 18, 18, 18, 18, 18, 18, 17.785713, 9.5, 8.5238094, 8.2678566, 8.0625, 8.0625, 7.8571429, 8.03125, 8.2857141, 8.1683674, 8.2361107, 8.2777777, 7.729167, 7.6875, 7.6875, 7.6875, 7.9642859, 8.0051022, 7.8520408, 7.8214288, 7.5, 7.5, 7.59375, 7.71875, 7.84375, 7.96875, 8, 8, 8, 8.0625, 8.0625, 8.0625, 8.125, 8.1875, 8.3571434, 8.3571434, 8.166667, 8.1428566, 8.0625, 8.0625, 8.0625, 8, 8, 8, 8.1339283, 8.458333, 8.4821434, 8.5, 8.3125, 8.1875, 8.1875, 8.1875, 8.3125, 8.4375, 8.6071434, 8.6875, 8.625, 8.5, 8.375, 8.1875, 8.4017859, 8.6696434, 8.8660717, 9.0625, 9.1875, 9.4375, 9.875, 10.553572, 11.589285, 12.178572, 12.8125, 13.339287, 13.9375, 14.886905, 15.785715, 16.446428, 17, 17.5, 17.9375, 18.46875, 18.897322, 20.113094, 21.205357, 21.839287, 22.4375, 22.875, 23.419643, 23.875, 24.357143, 24.75, 25.392857, 26.577381, 27.42857, 28.089287, 28.5625, 29.178572, 29.919643, 30.785713, 31.580357, 32.125, 32.674107, 33.447914, 33.90625, 34.508926, 35.452381, 36.482143, 37.178574, 37.875, 38.464287, 39, 39.625, 40.151787, 40.758926, 41.720238, 42.392853, 43, 43.6875, 44.32143, 44.875, 45.625, 46.404762, 47, 47.5, 48, 48.5625, 49.178574, 50.211308, 50.651787, 51.1875, 51.741074, 52.613094, 53.178574, 53.875, 54.651787, 55.32143, 56.083332, 56.647324, 57.138393, 57.59375, 58.084824, 58.607143, 59.169643, 59.907738, 60.982147, 61.970238, 62.607147, 63.107143, 63.59375, 64.120537, 64.96875, 65.486603, 66, 66.784225, 67.483627, 68.102676, 68.71875, 69.321426, 69.875, 70.625, 71.404762, 72, 72.895836, 73.64286, 74.366074, 75.235123, 75.928574, 76.741074, 77.428574, 78, 78.895836, 79.785721, 80.446426, 80.75, 81.321426, 82.666664, 83.285713, 84, 84.886909, 85.714294, 86.339287, 86.875, 87.5, 88.452377, 88.982147, 89.580353, 90.348221, 90.818451, 91.577377, 92.761902, 93.464287, 94.470238, 95.098221, 95.741074, 96.440475, 96.803574, 97.383926, 97.931549, 98.419647, 99.053574, 100.27381
-10, -10, -10, -10, -10, -10, -10, -10, -10, -10, -10, -10, -10, -10, -10, -10, -10, -10, -10, -10, -10, -10, -10, -10, -10, -10, -10, -10, -10, -10, -10, -10, -10, -10, -10, -10, -10, -10, -10, -10, -10, -10, -10, -10, -10, -10, -10, -10, -10, -10, -10, -10, -10, -10, -10, -10, -10, -10, -10, -10, -10, -10, -10, -10, -10, -10, -10, -10, -10, -10, -10, -10, -10, -10, 73.26667, -10, -10, -10, -10, -10, -10, 66.666664, 66.666672, 66.508926, 66.232147, 65.875, 65.4375, 65, 64.4375, 63.955357, 63.303574, 62.720238, 62.366074, 61.678574, 60.833336, 60.142857, 59.625, 59.0625, 58.404018, 57.890625, 57.140625, 56.337051, 55.57143, 55, 54.3125, 53.75, 53.169643, 52.642857, 52.270832, 51.083332, 50.35714, 49.794643, 49.241074, 48.184525, 47.642853, 47, 46.6875, 46.0625, 45.619049, -10, -10, -10, -10, -10, -10, -10, -10, -10, -10, -10, -10, -10, -10, 20, 19.166666, 18.958332, 18.90625, 18.875, 19, 18.928572, 18.541666, 18.258928, 18, 18, 18, 18, 18, 18, 17.571428, 12.055556, 9.6031752, 9.5561218, 9.2857141, 9.25, 9.583333, 9.2857141, 9.09375, 8.9598217, 9.0595236, 9.0952377, 8.9047623, 8.8571424, 8.625, 8.8214283, 8.9642859, 9.0051022, 8.8877554, 8.8571424, 8.7142859, 8.6428576, 8.4375, 8.4375, 8.4375, 8.2857141, 8.2857141, 8.2857141, 8.2857141, 8.5, 8.4375, 8.4553566, 8.625, 8.6875, 8.9196434, 8.8571434, 8.666667, 8.5803566, 8.4375, 8.375, 8.3125, 8.3125, 8.375, 8.4375, 8.6964283, 9.083333, 9.1071434, 9.125, 8.8125, 8.4875002, 8.6875, 8.7589283, 9, 9.1875, 9.2946434, 9.3125, 9.1875, 8.9375, 8.8125, 8.6875, 8.8392859, 9.1071434, 9.1785717, 9.25, 9.3125, 9.5, 9.9375, 10.491072, 11.482142, 12.116072, 12.767857, 13.263393, 13.90625, 14.855655, 15.785715, 16.446428, 17, 17.5, 17.9375, 18.5, 19.044643, 20.255953, 21.080357, 21.660715, 22.364584, 22.84375, 23.388393, 23.90625, 24.482143, 24.982143, 25.607143, 26.452381, 27.285713, 27.964287, 28.553572, 29.107143, 29.75, 30.607141, 31.476191, 31.982143, 32.580357, 33.458332, 34.229168, 34.80357, 35.738094, 36.464287, 37.107143, 37.6875, 38.232143, 38.928574, 39.642857, 40.32143, 40.9375, 41.741074, 42.42857, 42.9375, 43.571426, 44.297619, 44.803574, 45.508926, 46.380951, 47, 47.5625, 48.107143, 48.6875, 49.303574, 50.273808, 50.669643, 51.1875, 51.75, 52.5, 53.178574, 53.919643, 54.714287, 55.547619, 56.261902, 56.803574, 57.263393, 57.71875, 58.334824, 58.933037, 59.419643, 60.041668, 60.982147, 62.083336, 62.607147, 63.0625, 63.46875, 63.995537, 64.90625, 65.46875, 66, 66.784225, 67.483627, 68.040176, 68.602676, 69.339287, 69.973213, 70.76786, 71.550598, 72.0625, 72.958336, 73.571426, 74.125, 74.985123, 75.928574, 76.76786, 77.446426, 78, 78.886909, 79.898811, 80.51786, 80.875, 81.375, 82.583328, 83.369049, 84.0625, 85.125, 85.928574, 86.526787, 87.0625, 87.625, 88.254463, 88.825897, 89.401787, 90.386909, 90.961304, 91.755951, 92.782738, 93.446426, 94.178574, 94.857147, 95.464287, 96.208328, 96.696426, 97.23214, 97.860123, 98.669647, 99.375, 100.31548, 100.66666, -10, -10, -10, -10, -10, -10, -10, -10, -10, -10, -10, -10, -10, -10, -10, -10, -10, -10, -10, -10, -10, -10, -10, -10, -10, -10, -10, -10, -10, -10, -10, -10, -10, -10, -10, -10, -10, -10, -10, -10, -10, -10, -10, -10, -10, -10, -10, -10, -10, -10, -10, -10, -10, -10, -10, -10, -10, -10, -10, -10, -10, -10, -10, -10, -10, -10, -10, -10, -10, -10, -10, -10, -10, -10, -10, -10, -10, -10, -10, -10, -10, -10, -10, -10, -10, -10, -10, -10, -10, -10, -10, -10, -10, -10, -10, -10, -10, -10, -10, -10, -10, -10, -10, -10, -10, -10, -10, -10, 66.75, 66.916672, 66.758926, 66.419647, 66, 65.455353, 65, 64.375, 63.848213, 63.241074, 62.630955, 62.258926, 61.669647, 60.797623, 60.142857, 59.625, 59.0625, 58.341518, 57.712051, 56.970982, 56.265625, 55.55357, 55, 54.25, 53.642857, 53.107143, 52.517857, 52.125, 51.119049, 50.226189, 49.732143, 49.169647, 48.184525, 47.642853, 47.0625, 46.642857, 46.0625, 45.64286, -10, -10, -10, -10, -10, -10, -10, -10, -10, -10, -10, -10, -10, 20.166668, 20.083334, 19.604166, 19.291666, 19.0625, 18.9375, 19, 18.866072, 18.541666, 18.258928, 18, 18, 18, 18, 18, 18, 17.321428, 13.071428, 11.357142, 10.510203, 10.321428, 10.285714, 10.285714, 10.178572, 10.071428, 9.71875, 9.78125, 9.8125, 9.666667, 9.9285717, 9.8214283, 9.8571424, 9.75, 9.7857141, 9.9795923, 10, 9.8928576, 9.8928576, 9.8112249, 9.3452377, 9.1785717, 9.25, 9.25, 9.333333, 9.333333, 9, 8.9375, 8.9553566, 9.3673468, 9.7380953, 10.030612, 9.908164, 9.4965982, 9.0803566, 8.8125, 8.7678566, 8.979167, 9.020833, 9.0178566, 9.0803566, 9.4744892, 10.023809, 10.12245, 10.142858, 9.625, 9.1750002, 9.5714283, 9.6173468, 9.8928576, 10.071428, 9.9897966, 9.75, 9.5625, 9.375, 9.375, 9.6071424, 9.6938782, 9.6696434, 9.6785717, 9.625, 9.6875, 9.8125, 10.125, 10.553572, 11.4375, 11.991072, 12.642857, 13.200893, 13.897322, 14.855655, 15.785715, 16.446428, 17, 17.5, 17.9375, 18.5625, 19.285713, 20.505953, 21.080357, 21.633928, 22.315477, 22.8125, 23.357143, 23.9375, 24.607143, 25.151787, 25.616072, 26.336309, 27.107143, 28.047619, 28.714285, 29.263393, 29.78125, 30.5, 31.380953, 31.875, 32.517857, 33.511906, 34.398811, 34.982143, 35.75893, 36.42857, 37, 37.5625, 38.107143, 38.866074, 39.69643, 40.5, 41.107143, 41.8125, 42.44643, 42.875, 43.517853, 44.380951, 44.866074, 45.455353, 46.273808, 46.9375, 47.616074, 48.214287, 48.75, 49.375, 50.273808, 50.669643, 51.1875, 51.75, 52.571426, 53.357147, 54.089287, 54.785713, 55.773808, 56.440475, 56.866074, 57.21875, 57.71875, 58.441963, 59.120537, 59.669643, 60.232143, 60.877975, 61.833336, 62.303574, 62.979168, 63.352676, 63.888393, 64.834824, 65.71875, 66.25, 66.825897, 67.492554, 67.977676, 68.665176, 69.505951, 70.244049, 70.901787, 71.630951, 72.0625, 72.8125, 73.488098, 74.229164, 74.985123, 75.866074, 76.58036, 77.464287, 78.071426, 78.803574, 79.98214, 80.60714, 81.03125, 81.486603, 82.489578, 83.333336, 84, 85.270836, 86, 86.544647, 87.0625, 87.770836, 88.361603, 88.919647, 89.433037, 90.364586, 91.092255, 92.071426, 92.916664, 93.491074, 93.9375, 94.571426, 95.214287, 95.833328, 96.473221, 97.327377, 97.883934, 98.669647, 99.258926, 100.22024
