18.9375, 18.9375, 19, 19.125, 19.1875, 19.1875, 19.1875, 19.1875, 19.1875, 19.125, 19.125, 19, 19, 19.125, 19.125, 19.1875, 19.053572, 18.955357, 19, 18.9375, 19, 19.0625, 19.25, 19.428572, 19.512501, 19.258928, 19.029167, 19.107143, 19, 19.125, 19, 19, 19, 18.973213, 19.026787, 19.1875, 19.223213, 19.25, 19.1875, 19.125, 19.125, 19.125, 19.0625, 18.9375, 18.9375, 18.9375, 19, 19.0625, 19.0625, 19.0625, 19, 19, 19, 19, 19, 19.0625, 19.0625, 19, 18.9375, 18.75, 18.776787, 18.973213, 18.955357, 18.9375, 19.044643, 18.9375, 18.875, 18.75, 18.6875, 18.625, 18.75, 18.8125, 18.75, 18.875, 18.910713, 18.839287, 19, 18.9375, 19, 19, 19, 19, 19, 19, 18.9375, 18.9375, 18.875, 18.875, 19, 19.035713, 19.0625, 19.0625, 19, 19, 19, 19, 19, 19, 19, 19.0625, 19.0625, 19.0625, 19.0625, 18.9375, 18.9375, 18.9375, 18.9375, 18.9375, 18.8125, 18.75, 18.75, 18.8125, 18.875, 18.9375, 18.9375, 18.9375, 19, 19, 19, 19, 19, 19.0625, 19.035713, 19.026787, 19.0625, 19, 19.0625, 19, 19, 18.9375, 18.875, 18.8125, 18.75, 18.8125, 18.875, 19.0625, 19.125, 19.0625, 19, 18.6875, 18.5, 18.4375, 18.4375, 18.625, 18.8125, 18.875, 18.9375, 18.9375, 18.9375, 19, 19, 19, 19, 18.9375, 18.875, 18.8125, 18.553572, 18.3125, 18.25, 18.1875, 18.285713, 18.214287, 18.1875, 18.0625, 18.25, 18.375, 18.5, 18.5, 18.375, 18.25, 18.25, 18.375, 18.4375, 18.375, 18.3125, 18.3125, 18.3125, 18.4375, 18.5, 18.375, 18.25, 18.125, 18.0625, 18.0625, 18.0625, 18.0625, 18, 18, 18, 18, 18.0625, 18.1875, 18.25, 18.25, 18.25, 18.125, 18.0625, 18, 17.875, 17.8125, 17.8125, 17.875, 17.875, 17.9375, 18.0625, 18.1875, 18.3125, 18.3125, 18.1875, 18.125, 18.125, 18.125, 18.125, 18.0625, 18, 18, 18, 18, 18, 17.9375, 17.9375, 17.9375, 17.875, 17.9375, 18, 18.1875, 18.375, 18.375, 18.3125, 18.1875, 18.1875, 18.1875, 18.1875, 18.1875, 17.973213, 17.767857, 17.767857, 17.75, 17.875, 18.0625, 18.0625, 17.9375, 17.875, 17.6875, 17.6875, 17.8125, 17.875, 18, 18, 17.9375, 17.9375, 17.9375, 17.875, 17.9375, 17.9375, 17.9375, 18.0625, 18.0625, 18.0625, 18.125, 18.125, 18.303572, 18.3125, 18.214287, 18.1875, 18.0625, 18.0625, 18, 18, 18, 17.875, 17.8125, 17.8125, 17.875, 17.973213, 17.866072, 17.9375, 17.875, 18, 18, 18, 18, 18, 18.125, 18.25, 18.25, 18.25, 18.125, 18, 18, 18, 18, 18, 18, 18, 18.0625, 18.125, 18.1875, 18.232143, 18.125, 18.125, 18.0625, 18.125, 18.098213, 18.0625, 18.169643, 18.125, 18.1875, 17.982143, 17.8125, 17.8125, 17.75, 17.9375, 18, 18, 18, 18, 17.875, 17.875, 17.875, 17.875, 18, 18, 17.9375, 17.9375, 17.9375, 17.9375, 18, 18, 18, 18, 18, 18, 18.1875, 18.1875, 18.3125, 18.5, 18.5625, 18.8125, 18.9375, 19.0625, 19.0625, 19.1875, 19.3125, 19.375, 19.375, 19.4375, 19.5625, 19.6875, 19.9375, 20, 20, 20.125, 20.25, 20.5, 20.666668, -10, -10, -10, -10, -10, -10, -10, -10, -10, -10, -10, -10, -10, -10, -10, -10, -10, 19, 18.916666, 18.9375, 18.9375, 18.9375, 19, 19.0625, 19.0625, 19.0625, 19.0625, 19.125, 19.1875, 19.125, 19.1875, 19.125, 19.0625, 19.1875, 19.1875, 19.25, 19.178572, 19.080357, 19.0625, 18.9375, 19, 19.0625, 19.25, 19.366072, 19.512501, 19.321428, 19.091667, 19.294643, 19.1875, 19.25, 19.125, 19.0625, 19.0625, 19.098213, 19.214287, 19.4375, 19.410713, 19.375, 19.25, 19.0625, 19.0625, 19.0625, 19, 18.875, 18.875, 18.9375, 19.035713, 19.125, 19.125, 19.0625, 19, 18.9375, 18.9375, 18.9375, 18.9375, 19.0625, 19.0625, 19, 18.9375, 18.75, 18.651787, 18.785713, 18.785713, 18.875, 19.044643, 19, 18.875, 18.75, 18.6875, 18.625, 18.75, 18.8125, 18.8125, 18.9375, 18.973213, 18.901787, 19, 18.9375, 19, 19, 19, 19, 19, 19, 18.9375, 18.9375, 18.875, 18.875, 19, 19.098213, 19.125, 19.125, 19.0625, 19, 19, 19, 19, 19, 19, 19, 19, 19, 19, 18.9375, 18.9375, 18.9375, 18.9375, 18.9375, 18.875, 18.785713, 18.714287, 18.8125, 18.8125, 18.9375, 18.9375, 18.875, 18.9375, 18.9375, 18.9375, 19, 19, 19.0625, 18.973213, 18.901787, 18.9375, 18.875, 19, 19, 19, 18.875, 18.75, 18.625, 18.5625, 18.6875, 18.75, 18.9375, 19, 18.875, 18.8125, 18.625, 18.4375, 18.4375, 18.4375, 18.5625, 18.75, 18.8125, 18.9375, 18.9375, 18.9375, 19, 19, 19, 18.9375, 18.8125, 18.6875, 18.5625, 18.428572, 18.3125, 18.3125, 18.3125, 18.285713, 18.089287, 18.0625, 17.9375, 18.125, 18.25, 18.446428, 18.575001, 18.321428, 18.196428, 18.0625, 18.125, 18.25, 18.25, 18.3125, 18.4375, 18.5, 18.625, 18.625, 18.4375, 18.3125, 18.25, 18.25, 18.25, 18.25, 18.25, 18.125, 18.125, 18.0625, 18, 18.0625, 18.125, 18.125, 18.1875, 18.25, 18.1875, 18.1875, 18.125, 18, 17.9375, 17.9375, 17.9375, 17.9375, 18, 18.125, 18.3125, 18.4375, 18.4375, 18.375, 18.25, 18.1875, 18.1875, 18.125, 18.0625, 18, 18.0625, 18.125, 18.125, 18.125, 18, 17.9375, 18, 17.9375, 18.0625, 18.1875, 18.375, 18.5625, 18.5, 18.375, 18.1875, 18.0625, 18.0625, 18.0625, 18.125, 18.160713, 18.080357, 18.080357, 18, 18, 18, 18, 17.875, 17.8125, 17.6875, 17.6875, 17.875, 17.9375, 18.0625, 18.0625, 18, 18, 18, 18.0625, 18.1875, 18.25, 18.3125, 18.3125, 18.125, 18.0625, 18, 18, 18.241072, 18.25, 18.214287, 18.1875, 18.0625, 18.0625, 18, 18, 18, 17.9375, 17.8125, 17.8125, 17.9375, 18.008928, 17.928572, 18, 17.875, 18, 18, 18, 18, 18, 18.0625, 18.125, 18.125, 18.125, 18.0625, 18, 18, 18, 17.9375, 17.9375, 17.9375, 17.9375, 18, 17.9375, 17.9375, 18, 18.125, 18.1875, 18.1875, 18.125, 18.0625, 18.0625, 18.0625, 18.0625, 18, 17.875, 17.8125, 17.8125, 17.8125, 17.9375, 18, 18, 18, 18, 17.9375, 17.9375, 18, 18.0625, 18.125, 18.125, 18.0625, 18, 18, 18, 18, 18, 18, 18, 18, 18, 18.125, 18.125, 18.25, 18.5, 18.5625, 18.8125, 18.9375, 18.9375
19.142857, 19.0625, 19, 19, 19, 19, 19, 19.0625, 19.0625, 19, 19.0625, 19, 19, 19.125, 19.0625, 19.214287, 19.285713, 19.125, 19.125, 18.9375, 18.9375, 19.125, 19.4375, 19.598213, 19.75, 19.75, 19.424999, 19.544643, 19.375, 19.3125, 19.1875, 19.0625, 19, 19.0625, 19.3125, 19.5, 19.5, 19.4375, 19.25, 19.0625, 19.0625, 19.0625, 19, 18.875, 18.875, 19, 19.098213, 19.1875, 19.1875, 19.0625, 19, 18.9375, 18.9375, 19, 19.0625, 19.125, 19.125, 19, 18.875, 18.6875, 18.589287, 18.660713, 18.6875, 18.875, 18.9375, 19, 18.875, 18.8125, 18.6875, 18.6875, 18.8125, 18.875, 19, 19.0625, 19.035713, 18.964287, 19, 18.9375, 19, 19, 19, 19, 19, 19, 18.9375, 18.9375, 18.875, 18.875, 19, 19.098213, 19.125, 19.125, 19.0625, 19, 19, 19, 19, 19, 18.9375, 18.9375, 18.9375, 18.9375, 19, 19, 19.0625, 19.0625, 19.0625, 19, 18.875, 18.785713, 18.714287, 18.8125, 18.8125, 18.9375, 18.9375, 18.875, 18.9375, 18.9375, 18.9375, 19, 19, 19, 18.9375, 18.9375, 18.9375, 18.9375, 19, 19, 19, 18.875, 18.75, 18.625, 18.5625, 18.6875, 18.6875, 18.8125, 18.8125, 18.625, 18.5625, 18.5, 18.4375, 18.5, 18.5625, 18.625, 18.75, 18.8125, 18.9375, 18.9375, 18.9375, 19, 19, 19, 18.9375, 18.8125, 18.6875, 18.5625, 18.491072, 18.375, 18.3125, 18.3125, 18.223213, 18.026787, 18.125, 18, 18.125, 18.25, 18.446428, 18.673214, 18.446428, 18.276785, 18.0625, 18, 18.0625, 18.0625, 18.1875, 18.375, 18.5, 18.5625, 18.625, 18.4375, 18.3125, 18.375, 18.3125, 18.3125, 18.375, 18.3125, 18.1875, 18.1875, 18.125, 18.0625, 18.0625, 18.017857, 18, 18.0625, 18.1875, 18.1875, 18.1875, 18.125, 17.9375, 17.875, 17.9375, 17.9375, 18.0625, 18.125, 18.1875, 18.375, 18.4375, 18.5, 18.5, 18.375, 18.3125, 18.3125, 18.1875, 18.125, 18.0625, 18.125, 18.1875, 18.1875, 18.1875, 18, 17.9375, 18, 18.0625, 18.25, 18.375, 18.5625, 18.625, 18.5625, 18.4375, 18.25, 18.125, 18.0625, 18, 18.0625, 18.098213, 18.080357, 18.205357, 18.1875, 18.1875, 18.125, 18.0625, 17.875, 17.75, 17.625, 17.625, 17.8125, 17.9375, 18.0625, 18.0625, 17.9375, 17.9375, 18, 18.169643, 18.3125, 18.3125, 18.3125, 18.285713, 18, 17.9375, 17.75, 17.8125, 18.116072, 18.1875, 18.214287, 18.1875, 18.0625, 18.0625, 17.9375, 17.875, 17.875, 17.8125, 17.75, 17.8125, 18, 18.071428, 17.991072, 18.0625, 17.875, 18, 18, 18, 18, 18, 18, 18, 18, 18, 18, 18, 18, 18, 17.9375, 17.9375, 17.9375, 17.9375, 18, 17.9375, 17.9375, 18, 18.125, 18.1875, 18.1875, 18.125, 18, 18, 18, 18, 18, 17.9375, 17.875, 17.875, 17.875, 17.9375, 18, 18, 18, 18, 18, 18, 18.0625, 18.125, 18.0625, 18.0625, 18, 17.9375, 18, 18, 18, 18, 18, 18, 18, 18, 18.0625, 18.0625, 18.25, 18.5, 18.625, 18.8125, 18.875, 18.875, 18.9375, 19, 19.125, 19.1875, 19.25, 19.375, 19.4375, 19.625, 19.8125, 19.9375, 20, 20.125, 20.25, 20.375, 20.5, -10, -10, -10, -10, -10, -10, -10, -10, -10, -10, -10, -10, -10, -10, -10, -10, -10, 19.166666, 19.299999, 19.1875, 19.142857, 19.0625, 19, 19, 19, 19, 19, 19, 19, 18.9375, 19, 19, 19, 19.125, 19.125, 19.25, 19.25, 19.0625, 19, 18.875, 18.875, 19.0625, 19.25, 19.3125, 19.4375, 19.5, 19.375, 19.4375, 19.375, 19.25, 19.1875, 19.0625, 19, 19, 19.1875, 19.375, 19.375, 19.375, 19.1875, 19, 19, 19, 19, 18.875, 18.875, 19, 19.035713, 19.125, 19.125, 19, 19, 18.9375, 18.9375, 19.0625, 19.1875, 19.25, 19.25, 19.0625, 18.875, 18.6875, 18.5625, 18.5625, 18.625, 18.8125, 18.9375, 19, 18.9375, 18.875, 18.8125, 18.8125, 18.875, 18.9375, 19, 19, 19, 19, 19, 19, 19, 19, 19, 19, 19, 19, 19, 19, 18.9375, 18.9375, 19, 19.098213, 19.125, 19.125, 19.0625, 19, 18.9375, 18.9375, 18.9375, 18.9375, 18.9375, 18.9375, 18.9375, 18.9375, 19.0625, 19.125, 19.25, 19.3125, 19.25, 19.125, 19, 18.848213, 18.776787, 18.875, 18.8125, 18.9375, 18.9375, 18.875, 18.9375, 18.9375, 18.9375, 19, 19, 19, 19, 18.9375, 18.9375, 18.875, 18.875, 18.9375, 18.9375, 18.875, 18.75, 18.625, 18.5625, 18.6875, 18.625, 18.6875, 18.625, 18.375, 18.3125, 18.3125, 18.375, 18.5625, 18.6875, 18.75, 18.8125, 18.875, 19, 19, 19, 19, 19, 19, 18.9375, 18.8125, 18.6875, 18.5625, 18.5, 18.5, 18.375, 18.3125, 18.125, 17.9375, 18, 17.9375, 18, 18.125, 18.258928, 18.485714, 18.321428, 18.214285, 18.0625, 18, 18, 18, 18.1875, 18.375, 18.5625, 18.625, 18.75, 18.598213, 18.392857, 18.375, 18.1875, 18.1875, 18.3125, 18.419643, 18.375, 18.375, 18.3125, 18.169643, 17.955357, 17.839285, 17.75, 17.883928, 18.270834, 18.294643, 18.375, 18.25, 18.0625, 18.0625, 18.0625, 18.0625, 18.125, 18.125, 18.125, 18.25, 18.25, 18.3125, 18.4375, 18.410713, 18.375, 18.4375, 18.25, 18.1875, 18.125, 18.125, 18.1875, 18.1875, 18.1875, 18.125, 18.125, 18.25, 18.3125, 18.375, 18.4375, 18.5, 18.5625, 18.5625, 18.4375, 18.3125, 18.1875, 18.0625, 17.9375, 18, 18.035713, 18.080357, 18.267857, 18.3125, 18.375, 18.25, 18.1875, 18, 17.9375, 17.9375, 17.9375, 18.0625, 18.0625, 18.0625, 18.0625, 17.875, 17.875, 18, 18.276787, 18.4375, 18.428572, 18.299999, 18.330357, 18.0625, 18.0625, 17.8125, 17.875, 18.116072, 18.1875, 18.214287, 18.1875, 18.0625, 18.0625, 17.9375, 17.8125, 17.839287, 17.848213, 17.75, 17.875, 17.9375, 18.035713, 18.026787, 18.0625, 17.9375, 18, 18, 18, 18, 18, 18, 18, 18, 18, 18, 18, 18, 18, 17.9375, 17.9375, 17.9375, 17.9375, 18, 17.9375, 17.9375, 18, 18.125, 18.1875, 18.1875, 18.125, 18, 18, 18, 18, 18, 18, 18, 18, 18, 18, 18, 18, 18, 18, 18, 18, 18.0625, 18.125, 18.0625, 18.0625, 18, 17.9375, 18, 18, 18, 18, 18, 18, 18, 18, 18, 18, 18.125, 18.375, 18.5625, 18.75, 18.875, 18.875
19.142857, 19.0625, 19, 19, 19, 19, 19, 19, 19, 19, 19.0625, 19.0625, 19.0625, 19.125, 19.125, 19.1875, 19.1875, 19, 18.9375, 18.875, 18.875, 19.0625, 19.1875, 19.25, 19.375, 19.4375, 19.375, 19.5, 19.4375, 19.3125, 19.25, 19.0625, 19, 19, 19.1875, 19.4375, 19.5, 19.5, 19.3125, 19.0625, 19.0625, 19.0625, 19.0625, 19, 18.9375, 19.0625, 19.098213, 19.125, 19.125, 19.0625, 19.0625, 19.0625, 19.0625, 19.0625, 19.1875, 19.1875, 19.25, 19.25, 19.125, 19, 18.875, 18.8125, 18.8125, 18.9375, 19, 19, 19, 18.9375, 18.875, 18.875, 18.875, 18.9375, 19, 19, 19, 19, 19, 19, 19, 19, 19, 19, 19, 19, 19, 19, 19, 19, 19, 19.0625, 19.0625, 19.0625, 19.0625, 19, 18.9375, 18.9375, 19, 19.0625, 19.0625, 19.0625, 19, 18.9375, 19.0625, 19.125, 19.1875, 19.25, 19.1875, 19.125, 19.125, 19.035713, 18.964287, 19, 18.9375, 19, 19, 19, 19, 19, 19, 19, 19.0625, 19.0625, 19, 18.830357, 18.8125, 18.75, 18.8125, 18.9375, 18.9375, 18.9375, 18.875, 18.8125, 18.75, 18.8125, 18.6875, 18.6875, 18.5625, 18.3125, 18.3125, 18.375, 18.5625, 18.8125, 18.9375, 18.9375, 18.875, 18.901787, 19.035713, 19, 19.0625, 18.9375, 18.875, 18.875, 18.8125, 18.8125, 18.8125, 18.75, 18.75, 18.75, 18.5625, 18.4375, 18.1875, 17.9375, 18, 18, 18.0625, 18.1875, 18.321428, 18.485714, 18.383928, 18.276785, 18.125, 18.0625, 18.0625, 18.0625, 18.1875, 18.375, 18.5, 18.544643, 18.5625, 18.473213, 18.267857, 18.25, 18.0625, 18.0625, 18.1875, 18.419643, 18.5625, 18.660713, 18.625, 18.482143, 18.142857, 17.964285, 17.714285, 18.008928, 18.395834, 18.419643, 18.4375, 18.25, 18.0625, 18.0625, 18.125, 18.1875, 18.25, 18.25, 18.125, 18.125, 18.125, 18.125, 18.3125, 18.348213, 18.3125, 18.4375, 18.25, 18.1875, 18.125, 18.125, 18.1875, 18.1875, 18.1875, 18.125, 18.125, 18.3125, 18.4375, 18.5, 18.5, 18.4375, 18.4375, 18.4375, 18.375, 18.25, 18.0625, 17.9375, 17.8125, 17.9375, 18.125, 18.3125, 18.5, 18.5, 18.5, 18.3125, 18.25, 18.1875, 18.1875, 18.3125, 18.303572, 18.1875, 18.125, 18.0625, 18.125, 17.9375, 17.9375, 18, 18.339287, 18.5625, 18.553572, 18.424999, 18.392857, 18.125, 18.1875, 17.9375, 17.9375, 18, 18, 18.0625, 18.0625, 18, 18, 17.9375, 17.8125, 17.839287, 17.910713, 17.875, 18, 18, 18.035713, 18.0625, 18.0625, 18, 18, 18, 18, 18, 18, 18, 18, 18, 18, 18, 18, 18, 18, 17.9375, 17.9375, 17.9375, 17.9375, 17.9375, 17.875, 17.875, 17.875, 18, 18, 18, 18, 17.9375, 18, 18, 18, 18, 18, 18, 18, 18, 18, 18, 18, 18, 18, 18, 18, 18.0625, 18.125, 18.0625, 18.0625, 18, 17.9375, 17.9375, 17.9375, 17.9375, 17.9375, 18, 18, 18, 18, 18, 18, 18.0625, 18.3125, 18.5, 18.6875, 18.875, 18.875, 18.9375, 19, 19.125, 19.1875, 19.25, 19.25, 19.25, 19.375, 19.5625, 19.8125, 20, 20.0625, 20.125, 20.25, 20.25, -10, -10, -10, -10, -10, -10, -10, -10, -10, -10, -10, -10, -10, -10, -10, -10, -10, 19.166666, 19.299999, 19.1875, 19.142857, 19.0625, 19, 19, 19, 19, 19, 19, 19, 19, 19, 18.875, 18.875, 18.875, 18.875, 18.9375, 18.875, 18.75, 18.75, 18.8125, 18.875, 19, 19.0625, 19.125, 19.1875, 19.25, 19.25, 19.375, 19.3125, 19.25, 19.1875, 19, 19, 19, 19.1875, 19.348213, 19.339287, 19.375, 19.1875, 19.0625, 19.125, 19.1875, 19.1875, 19.1875, 19.0625, 19.0625, 19.0625, 19.0625, 19.0625, 19.125, 19.125, 19.125, 19.125, 19.0625, 19.1875, 19.1875, 19.3125, 19.375, 19.25, 19.125, 19, 18.875, 18.9375, 19.0625, 19.0625, 19.0625, 19, 18.9375, 18.875, 18.875, 18.875, 18.9375, 19, 19, 19, 19, 19, 19, 19, 19, 19, 19, 19, 19, 19, 19, 19, 19, 19, 19, 19, 19, 19, 18.9375, 18.875, 18.875, 18.9375, 19.0625, 19.0625, 19.0625, 18.9375, 18.875, 19, 19.0625, 19.1875, 19.25, 19.1875, 19.125, 19.0625, 19, 18.9375, 18.9375, 18.9375, 18.9375, 19, 19, 19, 19, 19, 18.928572, 18.729166, 18.705357, 18.678572, 18.788691, 18.8125, 18.8125, 18.8125, 19, 19, 19.0625, 19.0625, 19, 18.9375, 18.9375, 18.8125, 18.75, 18.5625, 18.3125, 18.3125, 18.375, 18.625, 18.875, 19, 19, 18.875, 18.839287, 18.848213, 18.75, 18.875, 18.75, 18.6875, 18.6875, 18.625, 18.6875, 18.8125, 18.875, 18.8125, 18.8125, 18.5625, 18.375, 18.1875, 17.9375, 18, 18, 18.0625, 18.25, 18.3125, 18.348213, 18.4375, 18.267857, 18.1875, 18.1875, 18.125, 18.125, 18.1875, 18.3125, 18.4375, 18.464287, 18.291666, 18.241072, 18.017857, 18, 17.875, 17.875, 18.0625, 18.357143, 18.625, 18.785713, 18.8125, 18.732143, 18.392857, 18.214285, 18.285715, 18.196428, 18.520834, 18.482143, 18.4375, 18.3125, 18.125, 18.1875, 18.3125, 18.375, 18.375, 18.3125, 18.125, 18.0625, 18.125, 18.125, 18.25, 18.223213, 18.125, 18.25, 18.125, 18.125, 18.125, 18.125, 18.125, 18.1875, 18.1875, 18.125, 18.1875, 18.25, 18.4375, 18.4375, 18.375, 18.3125, 18.25, 18.3125, 18.375, 18.3125, 18.1875, 18.0625, 17.875, 17.9375, 18.0625, 18.25, 18.5, 18.5625, 18.5625, 18.375, 18.25, 18.1875, 18.1875, 18.3125, 18.303572, 18.125, 18.0625, 18.0625, 18.125, 18, 18, 18, 18.276787, 18.4375, 18.428572, 18.299999, 18.330357, 18.1875, 18.25, 18.0625, 18.0625, 18.125, 18.125, 18.125, 18.125, 18, 18, 17.9375, 17.8125, 17.839287, 17.910713, 17.9375, 18.0625, 18, 18, 18, 18, 18, 18, 18, 18, 18, 18, 18, 18, 18, 18, 18, 18, 18, 18.0625, 18.035713, 17.964287, 18, 17.9375, 18, 18, 18.0625, 18.125, 18.125, 18.0625, 18, 17.9375, 17.9375, 18, 18, 18, 18, 18, 18, 18, 18, 18, 18, 18, 18, 18, 18, 18, 18, 18, 17.9375, 17.9375, 17.9375, 17.9375, 17.875, 17.8125, 17.8125, 17.8125, 17.9375, 18, 18, 18, 18, 18, 18.0625, 18.25, 18.5, 18.6875, 18.84375, 18.84375
19, 19, 19, 19, 19, 19, 19.0625, 19.0625, 19.0625, 19.0625, 18.9375, 18.8125, 18.8125, 18.8125, 18.9375, 19, 18.9375, 18.875, 18.8125, 18.875, 18.9375, 19, 19, 19, 19.0625, 19.0625, 19.0625, 19.25, 19.1875, 19.125, 19.017857, 18.875, 18.875, 18.9375, 19.125, 19.223213, 19.214287, 19.25, 19.125, 19.0625, 19.125, 19.25, 19.25, 19.25, 19.125, 19, 19, 19, 19, 19.125, 19.125, 19.125, 19.125, 19, 19.0625, 19.0625, 19.1875, 19.375, 19.3125, 19.25, 19.125, 18.9375, 19, 19.0625, 19.0625, 19.0625, 19, 18.9375, 18.9375, 18.9375, 18.9375, 19, 19, 19, 19, 19, 19, 19, 19, 19, 19, 19, 19, 19, 19, 19, 19, 19, 19, 19, 19, 19, 19, 18.875, 18.839287, 18.910713, 18.9375, 19.1875, 19.1875, 19.1875, 19.125, 18.973213, 18.892857, 18.955357, 19, 19.125, 19.125, 19, 19, 18.875, 18.75, 18.8125, 18.8125, 18.875, 19, 19, 19, 19, 19, 18.857143, 18.529167, 18.538691, 18.345238, 18.717262, 18.741072, 18.8125, 18.8125, 19, 19, 19.0625, 19.0625, 19, 18.9375, 18.9375, 18.875, 18.8125, 18.6875, 18.5, 18.5, 18.5625, 18.75, 18.9375, 19, 18.9375, 18.75, 18.651787, 18.598213, 18.5, 18.6875, 18.5625, 18.5, 18.5, 18.375, 18.4375, 18.625, 18.75, 18.6875, 18.6875, 18.4375, 18.25, 18.125, 17.9375, 17.9375, 17.9375, 18.0625, 18.3125, 18.375, 18.276787, 18.4375, 18.232143, 18.041666, 18.080357, 18, 18.0625, 18.25, 18.4375, 18.625, 18.651787, 18.291666, 18.142857, 17.892857, 17.8125, 17.8125, 17.8125, 18, 18.357143, 18.6875, 18.910713, 18.875, 18.857143, 18.580357, 18.508928, 18.714285, 18.508928, 18.708334, 18.544643, 18.4375, 18.3125, 18.125, 18.1875, 18.25, 18.3125, 18.3125, 18.3125, 18.1875, 18.125, 18.25, 18.1875, 18.25, 18.223213, 18.0625, 18.125, 18.0625, 18.0625, 18.0625, 18.0625, 18.0625, 18.125, 18.125, 18.125, 18.1875, 18.25, 18.375, 18.3125, 18.25, 18.125, 18.0625, 18.125, 18.1875, 18.1875, 18.125, 18.0625, 17.9375, 18, 18.125, 18.1875, 18.3125, 18.3125, 18.3125, 18.25, 18.1875, 18.1875, 18.1875, 18.3125, 18.303572, 18.125, 18.0625, 18.0625, 18.125, 18.0625, 18.0625, 18, 18.169643, 18.3125, 18.366072, 18.362499, 18.419643, 18.375, 18.4375, 18.25, 18.1875, 18.25, 18.1875, 18.1875, 18.1875, 18, 18, 18, 17.9375, 17.964287, 18.098213, 18.0625, 18.125, 18.0625, 18, 18, 18, 18, 18, 18.0625, 18.0625, 18.125, 18.1875, 18.125, 18.125, 18.0625, 18, 18.0625, 18.035713, 17.892857, 17.979166, 18.035713, 17.964287, 18.0625, 17.9375, 18, 18, 18.0625, 18.125, 18.125, 18.0625, 18, 17.9375, 17.9375, 18, 18, 18, 18, 18, 18, 18, 18, 18, 18, 18, 18, 18, 18, 18, 17.9375, 17.9375, 17.875, 17.8125, 17.875, 17.875, 17.8125, 17.75, 17.75, 17.75, 17.875, 18, 18, 18, 18, 18, 18, 18.125, 18.375, 18.6875, 18.941963, 18.96875, 19.053572, 19.125, 19.125, 19.3125, 19.3125, 19.375, 19.5625, 19.625, 19.75, 19.875, 20.0625, 20.125, 20.25, 20.4375, 20.416666, -10, -10, -10, -10, -10, -10, -10, -10, -10, -10, -10, -10, -10, -10, -10, -10, -10, 19.125, 19.083334, 19.125, 19.125, 19.125, 19.125, 19.0625, 19, 18.9375, 18.9375, 18.9375, 18.9375, 19, 18.875, 18.6875, 18.6875, 18.75, 18.973213, 19.0625, 19, 18.9375, 18.875, 18.9375, 19, 19, 18.9375, 18.9375, 19, 19, 19.0625, 19.3125, 19.223213, 19.053572, 18.986607, 18.78125, 18.84375, 18.9375, 19.125, 19.098213, 19.089287, 19.125, 19, 19.0625, 19.125, 19.25, 19.1875, 19.1875, 19, 18.875, 19, 19.035713, 19.0625, 19.1875, 19.125, 19.125, 19.125, 18.9375, 18.9375, 18.9375, 19.0625, 19.3125, 19.3125, 19.3125, 19.1875, 19, 19, 19, 19, 19.0625, 19.0625, 19, 19, 18.9375, 18.9375, 19, 19, 19, 18.9375, 18.9375, 18.9375, 18.9375, 19, 19, 19, 19, 19, 19, 19, 19, 19, 19, 19, 19, 19, 19, 19, 18.8125, 18.839287, 18.973213, 19.107143, 19.4375, 19.375, 19.3125, 19.1875, 18.910713, 18.705357, 18.642857, 18.625, 18.75, 18.8125, 18.75, 18.75, 18.6875, 18.625, 18.75, 18.8125, 18.875, 19, 19, 19, 19, 19, 18.794643, 18.466667, 18.538691, 18.380951, 18.779762, 18.696428, 18.830357, 18.9375, 19, 19.026787, 19, 19.0625, 19.0625, 19, 19, 18.9375, 18.9375, 18.875, 18.75, 18.75, 18.75, 18.875, 19, 19, 18.9375, 18.75, 18.589287, 18.473213, 18.3125, 18.5, 18.4375, 18.4375, 18.5, 18.375, 18.4375, 18.625, 18.6875, 18.625, 18.625, 18.4375, 18.375, 18.375, 18.25, 18.25, 18.1875, 18.25, 18.4375, 18.5, 18.464287, 18.5625, 18.419643, 18.148809, 18.044643, 18, 18, 18.1875, 18.375, 18.5625, 18.526787, 18.104166, 17.857143, 17.6875, 17.75, 17.875, 17.9375, 18.0625, 18.25, 18.5625, 18.785713, 18.75, 18.8125, 18.75, 18.8125, 18.9375, 18.875, 18.75, 18.5625, 18.375, 18.375, 18.25, 18.3125, 18.375, 18.375, 18.375, 18.3125, 18.1875, 18.1875, 18.4375, 18.375, 18.375, 18.25, 18, 18, 18, 18, 18, 18.0625, 18.0625, 18.125, 18.125, 18.0625, 18.0625, 18.0625, 18.25, 18.25, 18.25, 18.1875, 18, 18, 18.0625, 18.0625, 18.125, 18.125, 18.0625, 18.125, 18.1875, 18.1875, 18.25, 18.1875, 18.125, 18.125, 18, 18.0625, 18.0625, 18.125, 18.178572, 18, 18, 18.0625, 18.125, 18.125, 18.125, 18, 18.0625, 18.125, 18.1875, 18.3125, 18.3125, 18.4375, 18.5, 18.375, 18.3125, 18.3125, 18.1875, 18.25, 18.3125, 18.125, 18.1875, 18.1875, 18.125, 18.125, 18.125, 18.0625, 18.0625, 18.0625, 18, 18, 18, 18, 18, 18, 18, 18.125, 18.223213, 18.1875, 18.1875, 18.0625, 18, 17.991072, 17.702381, 17.464285, 17.550594, 17.869049, 17.892857, 18.0625, 17.9375, 18, 18, 18.0625, 18.125, 18.125, 18.0625, 18, 18, 18.0625, 18.125, 18.125, 18.0625, 18, 18, 17.9375, 17.9375, 17.9375, 17.9375, 18, 18, 18, 18, 18, 17.9375, 17.8125, 17.8125, 17.75, 17.6875, 17.8125, 17.8125, 17.75, 17.8125, 17.8125, 17.8125, 17.9375, 18, 18, 18, 18, 18, 18, 18.0625, 18.3125, 18.625, 18.879463, 18.96875
19.125, 19.125, 19.125, 19.125, 19.0625, 19, 19, 18.9375, 18.9375, 19, 18.875, 18.75, 18.8125, 18.9375, 19.160713, 19.1875, 19.0625, 18.9375, 18.875, 18.9375, 19, 19, 18.9375, 18.9375, 19, 19.0625, 19.1875, 19.375, 19.223213, 18.883928, 18.816963, 18.864584, 18.950893, 19.0625, 19.125, 19.035713, 18.9375, 18.830357, 18.767857, 18.875, 19, 19.1875, 19.125, 19.125, 19, 18.875, 19, 19.035713, 19.0625, 19.125, 19.0625, 19.0625, 19.0625, 19, 19, 19, 19.0625, 19.1875, 19.125, 19.0625, 19, 18.875, 19, 19.0625, 19.0625, 19.125, 19.0625, 19.125, 19.125, 19.0625, 19.0625, 19, 19, 19, 18.9375, 18.9375, 18.9375, 18.9375, 19, 19.0625, 19.125, 19.125, 19.125, 19.0625, 19, 19, 19, 19, 19, 19, 19, 19, 19, 18.875, 18.901787, 19.035713, 19.107143, 19.3125, 19.25, 19.1875, 19.125, 18.910713, 18.705357, 18.580357, 18.5625, 18.6875, 18.75, 18.6875, 18.6875, 18.625, 18.5625, 18.75, 18.8125, 18.875, 19, 18.9375, 18.9375, 18.9375, 18.9375, 18.794643, 18.404167, 18.538691, 18.443451, 18.886906, 18.714285, 18.830357, 18.8125, 18.875, 18.964287, 18.9375, 19, 19, 19, 19, 19, 19, 18.9375, 18.875, 18.875, 18.875, 18.9375, 19, 19, 18.9375, 18.8125, 18.625, 18.375, 18.1875, 18.25, 18.3125, 18.4375, 18.5625, 18.5, 18.5, 18.6875, 18.723213, 18.517857, 18.446428, 18.3125, 18.3125, 18.4375, 18.4375, 18.4375, 18.3125, 18.3125, 18.4375, 18.4375, 18.526787, 18.5625, 18.482143, 18.193453, 17.946428, 17.9375, 17.9375, 18.1875, 18.3125, 18.5, 18.482143, 18.229166, 17.964287, 17.75, 17.8125, 17.875, 18, 18.125, 18.1875, 18.4375, 18.5625, 18.5625, 18.625, 18.5625, 18.625, 18.6875, 18.625, 18.5, 18.4375, 18.375, 18.5, 18.4375, 18.5, 18.5, 18.4375, 18.4375, 18.3125, 18.1875, 18.1875, 18.4375, 18.4375, 18.5, 18.375, 18.125, 18.0625, 18, 18, 18, 18.0625, 18.0625, 18.125, 18.125, 18.0625, 18.0625, 18, 18.1875, 18.1875, 18.1875, 18.1875, 18.0625, 18.125, 18.1875, 18.1875, 18.1875, 18.125, 18.0625, 18.0625, 18.0625, 18.0625, 18.125, 18.125, 18.0625, 18.125, 18.0625, 18.0625, 18.0625, 18, 18, 18, 18, 18.0625, 18.0625, 18.0625, 18.0625, 18, 18, 18, 18.0625, 18.1875, 18.25, 18.4375, 18.4375, 18.3125, 18.25, 18.1875, 18.1875, 18.3125, 18.4375, 18.3125, 18.3125, 18.25, 18.125, 18.125, 18.125, 18.0625, 18.0625, 18, 17.9375, 17.9375, 17.9375, 18, 18, 18, 18, 18.125, 18.223213, 18.1875, 18.1875, 18.0625, 18, 17.991072, 17.702381, 17.464285, 17.550594, 17.869049, 17.892857, 18.0625, 17.9375, 18.0625, 18.0625, 18.125, 18.1875, 18.125, 18.125, 18.0625, 18.0625, 18.1875, 18.25, 18.25, 18.1875, 18.0625, 18, 17.9375, 17.9375, 17.9375, 17.9375, 18.0625, 18.0625, 18.0625, 18.0625, 18, 17.9375, 17.8125, 17.8125, 17.75, 17.6875, 17.875, 17.875, 17.875, 17.9375, 17.875, 17.875, 17.9375, 18, 18, 18, 18, 18, 18, 18, 18.25, 18.625, 18.915178, 19.03125, 19.116072, 19.1875, 19.25, 19.5625, 19.625, 19.6875, 19.875, 20, 20.098213, 20.1875, 20.375, 20.375, 20.5625, 20.6875, 20.666666, -10, -10, -10, -10, -10, -10, -10, -10, -10, -10, -10, -10, -10, -10, -10, -10, -10, 19.25, 19.166668, 19.1875, 19.125, 19.0625, 19.0625, 19.0625, 19, 19, 19, 18.9375, 18.9375, 18.9375, 18.8125, 18.75, 18.8125, 19, 19.223213, 19.25, 19.1875, 19.0625, 19, 19, 19, 19, 18.9375, 18.9375, 19, 19.0625, 19.1875, 19.3125, 19.223213, 18.946428, 18.941963, 19.114584, 19.200893, 19.3125, 19.3125, 19.25, 19.223213, 19.017857, 18.955357, 18.9375, 18.9375, 19.0625, 19, 19, 18.9375, 18.875, 19, 19.035713, 19.0625, 19.0625, 19, 19, 19, 19, 19, 19, 19, 19.0625, 19, 18.9375, 18.9375, 18.9375, 19.0625, 19.125, 19.125, 19.125, 19.125, 19.1875, 19.1875, 19.125, 19.0625, 19, 19, 19, 18.9375, 18.9375, 18.875, 18.8125, 18.875, 18.9375, 19.125, 19.1875, 19.1875, 19.125, 19, 19, 19, 19, 19, 19, 19, 19, 19, 18.9375, 18.964287, 19.098213, 19.169643, 19.3125, 19.25, 19.125, 19.0625, 18.848213, 18.580357, 18.517857, 18.5, 18.625, 18.75, 18.6875, 18.6875, 18.625, 18.5625, 18.75, 18.8125, 18.875, 19, 18.9375, 18.9375, 18.9375, 18.9375, 18.866072, 18.737499, 18.895834, 18.702381, 18.866072, 18.651785, 18.705357, 18.8125, 18.8125, 18.901787, 18.9375, 19.0625, 19.125, 19.125, 19.0625, 19, 19, 19, 18.9375, 18.875, 18.875, 18.875, 18.9375, 19, 18.9375, 18.875, 18.75, 18.5625, 18.4375, 18.375, 18.375, 18.5, 18.625, 18.6875, 18.75, 18.875, 18.848213, 18.580357, 18.383928, 18.1875, 18.1875, 18.375, 18.544643, 18.5625, 18.4375, 18.375, 18.3125, 18.3125, 18.464287, 18.473213, 18.544643, 18.318453, 17.946428, 18, 17.9375, 18.125, 18.1875, 18.3125, 18.3125, 18.25, 18.07143, 17.875, 17.875, 17.875, 18, 18.0625, 18.0625, 18.25, 18.3125, 18.375, 18.5, 18.5, 18.5625, 18.5625, 18.4375, 18.25, 18.3125, 18.3125, 18.4375, 18.4375, 18.375, 18.3125, 18.25, 18.25, 18.1875, 18.125, 18.125, 18.375, 18.4375, 18.5625, 18.5, 18.25, 18.125, 18, 18, 18, 18, 18, 18, 18, 18, 18, 18, 18.125, 18.125, 18.125, 18.1875, 18.1875, 18.3125, 18.3125, 18.25, 18.1875, 18.0625, 18.0625, 18.0625, 18, 17.9375, 17.9375, 17.9375, 17.9375, 18.125, 18.1875, 18.1875, 18.1875, 18.0625, 18, 18, 18.0625, 18.0625, 18.0625, 18.0625, 18, 18, 18, 18, 18, 18.0625, 18.125, 18.25, 18.3125, 18.25, 18.1875, 18.125, 18.125, 18.25, 18.375, 18.3125, 18.3125, 18.25, 18.125, 18.125, 18.125, 18.0625, 18.0625, 18, 17.9375, 17.9375, 17.9375, 18, 18, 18, 18, 18.1875, 18.285713, 18.25, 18.25, 18.0625, 18, 17.991072, 17.702381, 17.464285, 17.488094, 17.833334, 17.928572, 18.0625, 18, 18.0625, 18.0625, 18.0625, 18.0625, 18, 18, 18, 18.0625, 18.25, 18.375, 18.4375, 18.375, 18.1875, 18.0625, 17.9375, 17.875, 17.875, 17.875, 18, 18.0625, 18.0625, 18.0625, 18.0625, 18, 17.875, 17.875, 17.75, 17.6875, 17.875, 17.875, 17.9375, 18.0625, 18, 18, 18, 18, 18, 18, 18, 18, 18, 18, 18.1875, 18.5625, 18.883928, 19.0625
19.125, 19.0625, 19.0625, 19.0625, 19, 19, 18.9375, 18.875, 18.875, 18.875, 18.9375, 18.9375, 19, 19.1875, 19.223213, 19.1875, 19.125, 19, 19, 19, 19, 19, 18.9375, 18.9375, 18.9375, 19, 19.125, 19.1875, 19.223213, 19.071428, 19.236607, 19.489584, 19.513393, 19.5, 19.375, 19.25, 19.160713, 18.955357, 18.892857, 18.875, 18.9375, 19, 18.9375, 18.9375, 18.875, 18.875, 19, 19.035713, 19.125, 19.125, 19.0625, 19.0625, 19, 19, 19, 19, 19, 19, 18.9375, 18.875, 18.875, 18.9375, 19.0625, 19.125, 19.125, 19.125, 19.125, 19.1875, 19.1875, 19.125, 19.0625, 19, 19, 19, 18.9375, 18.9375, 18.8125, 18.6875, 18.75, 18.8125, 19.0625, 19.1875, 19.1875, 19.125, 19, 19, 19, 19, 19, 19, 19, 19, 19, 19, 19, 19.0625, 19.169643, 19.1875, 19.1875, 19.0625, 18.9375, 18.8125, 18.6875, 18.625, 18.625, 18.6875, 18.75, 18.75, 18.75, 18.75, 18.75, 18.8125, 18.8125, 18.75, 18.8125, 18.8125, 18.875, 18.9375, 18.875, 18.875, 18.875, 19, 19.035713, 18.9375, 18.723213, 18.705357, 18.8125, 18.8125, 18.964287, 19.125, 19.348213, 19.375, 19.267857, 19.125, 19, 19, 19, 18.875, 18.75, 18.6875, 18.625, 18.75, 18.8125, 18.875, 18.9375, 18.875, 18.8125, 18.6875, 18.5, 18.4375, 18.5, 18.5625, 18.6875, 18.75, 18.875, 18.848213, 18.642857, 18.508928, 18.303572, 18.237499, 18.553572, 18.651787, 18.6875, 18.5, 18.3125, 18.0625, 18, 18.25, 18.258928, 18.5, 18.526787, 18.178572, 18.3125, 18.178572, 18.0625, 18, 18, 18.0625, 18.125, 18.107143, 18, 18, 17.9375, 18.0625, 18, 18, 18.125, 18.125, 18.25, 18.25, 18.276787, 18.410713, 18.3125, 18.3125, 18.125, 18.25, 18.3125, 18.4375, 18.4375, 18.375, 18.3125, 18.25, 18.25, 18.125, 18.0625, 18.125, 18.375, 18.5625, 18.75, 18.6875, 18.5, 18.3125, 18.125, 18.0625, 18, 18, 18, 18, 18, 18, 18, 18, 18.1875, 18.25, 18.25, 18.3125, 18.25, 18.3125, 18.3125, 18.25, 18.1875, 18.0625, 18.0625, 18.0625, 18, 18, 18, 18, 18, 18.125, 18.1875, 18.1875, 18.125, 18.026787, 18, 17.821428, 17.955357, 17.9375, 18.0625, 18.1875, 18.125, 18.125, 18.0625, 18.0625, 18.125, 18.1875, 18.1875, 18.1875, 18.125, 18, 17.9375, 17.875, 17.9375, 18.125, 18.3125, 18.3125, 18.3125, 18.25, 18.125, 18.125, 18.0625, 18, 17.9375, 17.8125, 17.75, 17.75, 17.8125, 17.9375, 18, 17.9375, 17.9375, 18.0625, 18.098213, 18.125, 18.125, 17.9375, 17.875, 17.821428, 17.666666, 17.571428, 17.633928, 17.833334, 17.928572, 18, 18, 18.0625, 18.0625, 18.0625, 18.0625, 18, 18, 18, 18.0625, 18.25, 18.375, 18.4375, 18.375, 18.1875, 18.0625, 17.9375, 17.875, 17.8125, 17.8125, 17.9375, 17.9375, 18, 18, 18, 18, 17.9375, 17.9375, 17.875, 17.875, 18, 18, 18, 18.125, 18.0625, 18.0625, 18.0625, 18, 18, 18, 18, 18.0625, 18.125, 18.125, 18.3125, 18.5625, 18.785713, 19, 19.0625, 19.1875, 19.375, 19.625, 19.8125, 19.8125, 19.875, 20, 20.098213, 20.1875, 20.3125, 20.3125, 20.5, 20.6875, 20.75, -10, -10, -10, -10, -10, -10, -10, -10, -10, -10, -10, -10, -10, -10, -10, -10, -10, 19.125, 19.083334, 19.0625, 19, 18.9375, 18.9375, 19, 19, 19.0625, 19.0625, 19.0625, 19.0625, 19, 19.125, 19.1875, 19.25, 19.4375, 19.3125, 19.1875, 19.125, 19, 19, 19, 19, 19, 19, 19, 19, 19.0625, 19.125, 19.125, 19.1875, 19.142857, 19.267857, 19.645834, 19.669643, 19.625, 19.5, 19.375, 19.223213, 19.017857, 18.892857, 18.8125, 18.875, 18.9375, 19.0625, 19.0625, 19.0625, 19.0625, 19, 19, 19.0625, 19.0625, 19.0625, 19.0625, 19, 19, 19.0625, 19.0625, 19.0625, 19.0625, 18.9375, 18.875, 18.875, 18.9375, 19.125, 19.1875, 19.1875, 19.125, 19.0625, 19.125, 19.125, 19.125, 19.0625, 19, 19, 19, 19, 19, 18.875, 18.75, 18.8125, 18.875, 19.0625, 19.151787, 19.125, 19.0625, 19, 19, 19, 19, 19, 19, 19, 19, 19, 19.0625, 19.0625, 19.0625, 19.0625, 19, 19, 18.9375, 18.875, 18.875, 18.8125, 18.8125, 18.8125, 18.8125, 18.8125, 18.8125, 18.875, 18.875, 18.875, 18.875, 18.75, 18.625, 18.625, 18.5625, 18.625, 18.6875, 18.625, 18.75, 18.8125, 18.9375, 19, 18.9375, 18.830357, 18.8125, 18.8125, 18.875, 18.9375, 19.0625, 19.160713, 19.214285, 18.955357, 18.8125, 18.8125, 18.875, 18.9375, 18.875, 18.6875, 18.625, 18.5, 18.625, 18.6875, 18.6875, 18.8125, 18.8125, 18.875, 18.875, 18.6875, 18.5, 18.5, 18.4375, 18.5, 18.5625, 18.625, 18.660713, 18.517857, 18.508928, 18.366072, 18.299999, 18.616072, 18.714287, 18.75, 18.5625, 18.3125, 18, 17.8125, 18.026787, 18.169643, 18.375, 18.607143, 18.401787, 18.5625, 18.491072, 18.3125, 18.116072, 17.875, 17.9375, 17.9375, 18.107143, 18.0625, 18.0625, 17.9375, 18, 17.9375, 17.9375, 18.0625, 18.0625, 18.1875, 18.1875, 18.276787, 18.348213, 18.25, 18.25, 18.0625, 18.1875, 18.1875, 18.25, 18.25, 18.25, 18.3125, 18.375, 18.4375, 18.3125, 18.1875, 18.125, 18.25, 18.4375, 18.625, 18.6875, 18.625, 18.4375, 18.25, 18.125, 18, 18, 18, 18, 18, 18, 18, 18, 18.1875, 18.3125, 18.3125, 18.375, 18.3125, 18.3125, 18.3125, 18.25, 18.125, 18, 18, 18.0625, 18.0625, 18.0625, 18.0625, 18, 18, 18.125, 18.25, 18.25, 18.125, 18.053572, 18.035713, 17.758928, 17.919643, 17.875, 18.0625, 18.3125, 18.232143, 18.041666, 17.8125, 17.6875, 17.803572, 18.104166, 18.1875, 18.1875, 18, 17.875, 17.8125, 17.8125, 17.9375, 18.0625, 18.1875, 18.1875, 18.125, 18.0625, 18, 18, 18, 18, 17.9375, 17.75, 17.6875, 17.6875, 17.75, 17.9375, 18, 18, 18, 18.0625, 18.0625, 18.0625, 18.0625, 17.875, 17.75, 17.785713, 18.083334, 18.107143, 18.25, 18.125, 18.0625, 18.0625, 18, 18.0625, 18.0625, 18.0625, 18.0625, 18, 18, 18, 18, 18.0625, 18.1875, 18.25, 18.25, 18.1875, 18.0625, 18, 17.9375, 17.875, 17.875, 17.9375, 17.9375, 18, 18, 18, 18.0625, 18.0625, 18.0625, 18, 18, 18.0625, 18.0625, 18.0625, 18.0625, 18, 18, 18, 18, 18, 18, 18, 18.0625, 18.1875, 18.25, 18.4375, 18.6875, 18.848213, 19
19, 18.9375, 18.9375, 18.9375, 18.9375, 19, 19, 19.125, 19.1875, 19.125, 19.3125, 19.3125, 19.25, 19.375, 19.1875, 19.0625, 19.0625, 19.0625, 19.0625, 19.0625, 19.0625, 19, 19, 19, 19, 19, 19, 19, 19.125, 19.25, 19.375, 19.5625, 19.625, 19.5625, 19.5, 19.4375, 19.25, 19.1875, 19, 18.875, 18.875, 18.875, 19.0625, 19.0625, 19.0625, 19.0625, 19, 19, 19.125, 19.1875, 19.1875, 19.1875, 19.0625, 19, 19.125, 19.125, 19.125, 19.0625, 18.9375, 18.9375, 18.9375, 19.0625, 19.125, 19.125, 19.125, 19.0625, 19.0625, 19.0625, 19.125, 19.125, 19.125, 19.125, 19.0625, 19.0625, 19, 19, 18.875, 18.75, 18.8125, 18.8125, 18.9375, 19.026787, 19, 19, 19, 19, 19, 19, 19, 19, 19, 19, 19, 19, 19, 19, 19, 19, 18.9375, 18.8125, 18.75, 18.75, 18.75, 18.875, 18.9375, 18.9375, 18.9375, 18.9375, 18.9375, 18.9375, 18.9375, 18.875, 18.75, 18.625, 18.5625, 18.5, 18.5625, 18.5625, 18.5625, 18.6875, 18.6875, 18.8125, 18.875, 18.8125, 18.875, 18.875, 18.9375, 19, 18.9375, 19, 19.035713, 18.785715, 18.892857, 18.75, 18.75, 18.8125, 18.875, 18.875, 18.6875, 18.625, 18.5, 18.625, 18.625, 18.5625, 18.6875, 18.625, 18.75, 18.875, 18.75, 18.625, 18.625, 18.5, 18.5, 18.5, 18.4375, 18.4375, 18.375, 18.4375, 18.303572, 18.237499, 18.553572, 18.589287, 18.625, 18.4375, 18.1875, 17.9375, 17.8125, 17.964287, 18.107143, 18.25, 18.5625, 18.5625, 18.75, 18.741072, 18.5, 18.232143, 17.8125, 17.875, 17.75, 18, 18.0625, 18.0625, 18, 18, 17.9375, 17.9375, 18, 18, 18.0625, 18.0625, 18.276787, 18.410713, 18.375, 18.375, 18.0625, 18.0625, 18, 18, 18.125, 18.125, 18.1875, 18.25, 18.25, 18.258928, 18.325001, 18.196428, 18.258928, 18.3125, 18.4375, 18.5625, 18.5625, 18.4375, 18.3125, 18.0625, 17.9375, 17.9375, 17.9375, 18, 18, 18, 18, 18, 18.125, 18.25, 18.25, 18.3125, 18.25, 18.1875, 18.1875, 18.125, 18.0625, 18, 18, 18.125, 18.125, 18.125, 18.125, 18, 18.0625, 18.125, 18.1875, 18.1875, 17.9375, 17.928572, 17.973213, 17.696428, 17.919643, 17.9375, 18.1875, 18.4375, 18.357143, 18.041666, 17.75, 17.5625, 17.696428, 18.139881, 18.1875, 18.25, 18.0625, 17.9375, 17.875, 17.875, 17.875, 17.9375, 17.9375, 17.875, 17.875, 17.875, 17.9375, 18, 18, 18, 17.9375, 17.75, 17.6875, 17.6875, 17.75, 17.9375, 18, 18, 18, 18.0625, 18.0625, 18, 18.026787, 17.875, 17.571428, 17.702381, 18.166668, 18.214287, 18.375, 18.1875, 18.0625, 18.0625, 18, 18, 18, 18, 18, 18, 18, 18.0625, 18.035713, 18, 18.169643, 18.125, 18.1875, 18.125, 18.0625, 18, 17.9375, 17.9375, 17.9375, 17.9375, 17.9375, 17.9375, 17.9375, 18, 18.0625, 18, 18, 17.9375, 17.9375, 18, 18, 18, 18, 18, 18, 18, 18, 18, 18, 18, 18.125, 18.25, 18.3125, 18.5, 18.625, 18.75, 18.9375, 19, 19.1875, 19.375, 19.5625, 19.8125, 19.875, 19.9375, 20, 20, 20, 20, 20, 20.125, 20.375, 20.5, -10, -10, -10, -10, -10, -10, -10, -10, -10, -10, -10, -10, -10, -10, -10, -10, -10, 19, 19, 18.9375, 18.9375, 18.9375, 18.9375, 19, 19, 18.9375, 18.875, 19, 19.0625, 19.125, 19.4375, 19.5, 19.5, 19.5625, 19.3125, 19.125, 19.0625, 19.125, 19.1875, 19.1875, 19.1875, 19.0625, 19, 19, 19, 18.9375, 18.9375, 18.9375, 19.0625, 19.25, 19.3125, 19.5, 19.5625, 19.4375, 19.375, 19.3125, 19.0625, 19.0625, 18.9375, 18.8125, 18.875, 18.875, 19.0625, 19.0625, 19.0625, 19.0625, 19, 19, 19.1875, 19.25, 19.25, 19.25, 19.0625, 19, 19.125, 19.125, 19.125, 19.0625, 18.9375, 18.9375, 18.9375, 19, 19, 19, 19.0625, 19.125, 19.125, 19.125, 19.1875, 19.125, 19.125, 19.089287, 19, 19, 19, 19, 18.9375, 18.875, 18.9375, 18.9375, 18.9375, 18.964287, 18.9375, 18.9375, 19, 19, 19, 19, 19, 19, 19, 18.9375, 18.9375, 18.9375, 18.9375, 19, 19, 19, 18.875, 18.75, 18.75, 18.75, 18.875, 19, 19, 18.9375, 18.875, 18.875, 18.875, 18.9375, 19, 18.875, 18.75, 18.625, 18.5, 18.5, 18.5625, 18.5625, 18.5625, 18.6875, 18.6875, 18.75, 18.875, 18.8125, 18.875, 18.875, 18.875, 18.9375, 18.875, 18.9375, 18.910713, 18.8125, 18.767857, 18.6875, 18.75, 18.8125, 18.875, 18.9375, 18.75, 18.625, 18.5, 18.5625, 18.5, 18.4375, 18.5, 18.375, 18.5, 18.6875, 18.6875, 18.6875, 18.75, 18.625, 18.5, 18.375, 18.25, 18.1875, 18.1875, 18.3125, 18.303572, 18.362499, 18.616072, 18.544643, 18.5625, 18.3125, 18.125, 18.0625, 17.9375, 18.026787, 18.133928, 18.125, 18.375, 18.5, 18.75, 18.866072, 18.75, 18.544643, 18.125, 18.1875, 18, 18.1875, 18.1875, 18.125, 18.0625, 18, 17.9375, 17.9375, 18, 18, 18, 17.9375, 18.151787, 18.348213, 18.375, 18.4375, 18.125, 18, 17.9375, 18, 18.1875, 18.25, 18.3125, 18.3125, 18.25, 18.321428, 18.387501, 18.258928, 18.258928, 18.1875, 18.25, 18.4375, 18.5, 18.4375, 18.375, 18.0625, 17.9375, 17.9375, 17.9375, 18.0625, 18.125, 18.125, 18.125, 18.0625, 18.125, 18.25, 18.25, 18.25, 18.125, 18, 18, 18, 18, 18, 18, 18.125, 18.125, 18.125, 18.125, 18, 18.0625, 18.0625, 18.0625, 18.0625, 17.8125, 17.866072, 17.973213, 17.696428, 17.857143, 17.875, 18.125, 18.375, 18.357143, 18.041666, 17.75, 17.5625, 17.696428, 18.202381, 18.3125, 18.375, 18.1875, 18, 17.875, 17.875, 17.875, 17.9375, 18, 17.9375, 17.9375, 17.9375, 17.9375, 18, 18, 18, 17.9375, 17.6875, 17.5625, 17.5, 17.5, 17.75, 17.875, 17.9375, 18, 18, 18, 17.875, 17.901787, 17.75, 17.464285, 17.809523, 18.345238, 18.401787, 18.5, 18.25, 18.0625, 18.0625, 18, 18, 18, 18, 18, 18, 18, 18, 17.910713, 17.8125, 17.919643, 17.875, 18, 18, 18, 18, 18, 18, 18, 18, 18, 18, 18, 18, 17.9375, 17.8125, 17.8125, 17.8125, 17.875, 18, 18, 18, 18, 18, 18, 18, 18, 18, 18, 18, 18.125, 18.25, 18.3125, 18.5, 18.625, 18.75, 18.9375
18.9375, 18.875, 18.8125, 18.875, 18.875, 18.875, 18.8125, 18.875, 18.955357, 19.208334, 19.553572, 19.625, 19.5625, 19.5625, 19.3125, 19.125, 19.0625, 19.125, 19.1875, 19.1875, 19.1875, 19.0625, 19.0625, 19.125, 19.125, 19, 18.901787, 18.875, 18.9375, 19.125, 19.125, 19.25, 19.375, 19.3125, 19.25, 19.25, 19.0625, 19.0625, 19, 18.8125, 18.8125, 18.8125, 19, 19.125, 19.1875, 19.1875, 19.125, 19.0625, 19.125, 19.1875, 19.125, 19.125, 19.0625, 19, 19.125, 19.232143, 19.125, 19.125, 18.9375, 18.9375, 18.9375, 19, 19, 19, 19.0625, 19.125, 19.125, 19.125, 19.1875, 19.125, 19.0625, 18.964287, 18.875, 18.875, 18.9375, 19, 19, 19, 19.0625, 19.0625, 19, 18.964287, 18.9375, 18.9375, 19, 19, 19, 19, 19, 19, 18.9375, 18.875, 18.8125, 18.8125, 18.875, 18.9375, 19, 19, 18.875, 18.75, 18.75, 18.75, 18.875, 19, 19, 18.9375, 18.875, 18.875, 18.875, 18.9375, 18.9375, 18.875, 18.8125, 18.75, 18.6875, 18.625, 18.625, 18.5625, 18.625, 18.75, 18.75, 18.75, 18.8125, 18.75, 18.8125, 18.9375, 19, 19.0625, 18.9375, 18.8125, 18.625, 18.5625, 18.625, 18.625, 18.75, 18.8125, 18.875, 19, 18.8125, 18.6875, 18.625, 18.625, 18.625, 18.5625, 18.5625, 18.375, 18.375, 18.5625, 18.625, 18.75, 18.9375, 18.875, 18.75, 18.625, 18.4375, 18.25, 18.125, 18.1875, 18.1875, 18.375, 18.5, 18.4375, 18.4375, 18.25, 18.125, 18.1875, 18.0625, 18.089287, 18.160713, 18.0625, 18.25, 18.375, 18.5625, 18.75, 18.9375, 18.857143, 18.392857, 18.321428, 18.0625, 18.1875, 18.125, 18.0625, 18, 17.9375, 18, 18.0625, 18.125, 18.125, 18.0625, 18, 18.1875, 18.3125, 18.375, 18.375, 18.1875, 18.0625, 18, 18.125, 18.3125, 18.375, 18.4375, 18.375, 18.25, 18.383928, 18.512501, 18.321428, 18.258928, 18.0625, 18, 18.1875, 18.25, 18.25, 18.25, 18, 17.9375, 17.9375, 17.9375, 18, 18, 18, 18, 18.0625, 18.125, 18.1875, 18.1875, 18.125, 18.0625, 18, 18, 18, 18, 18, 18, 18.125, 18.125, 18.125, 18.125, 18, 18.0625, 18.0625, 18.125, 18.125, 17.9375, 17.964287, 17.973213, 17.875, 17.964287, 18, 18.125, 18.25, 18.232143, 17.916666, 17.6875, 17.5, 17.571428, 18.014881, 18.125, 18.25, 18.125, 18.0625, 18, 18, 18, 18, 18, 17.9375, 17.9375, 17.9375, 17.9375, 18, 18, 18, 18, 17.8125, 17.75, 17.6875, 17.625, 17.8125, 17.875, 17.9375, 18, 18, 18, 17.875, 17.901787, 17.875, 17.714285, 18.041666, 18.470238, 18.464287, 18.4375, 18.25, 18.0625, 18.0625, 18, 18, 18, 18, 18, 18, 18, 17.9375, 17.848213, 17.75, 17.857143, 17.875, 18, 18, 18, 18, 18, 18.0625, 18.0625, 18.0625, 18.1875, 18.1875, 18.1875, 18.1875, 18, 17.8125, 17.8125, 17.8125, 17.875, 18, 18, 18, 18, 18.0625, 18.0625, 18.0625, 18.0625, 18, 18, 18, 18.0625, 18.1875, 18.25, 18.375, 18.5625, 18.6875, 18.875, 19, 19.0625, 19.125, 19.25, 19.5, 19.6875, 19.875, 20, 20, 20, 20, 20, 20.0625, 20.3125, 20.416668, -10, -10, -10, -10, -10, -10, -10, -10, -10, -10, -10, -10, -10, -10, -10, -10, -10, 19, 19, 18.9375, 18.9375, 18.875, 18.875, 19, 19, 19, 18.875, 18.8125, 18.955357, 19.181547, 19.392857, 19.5, 19.375, 19.375, 19.1875, 19.125, 19.0625, 19.1875, 19.25, 19.1875, 19.1875, 19.0625, 19.125, 19.25, 19.25, 19.1875, 19.089287, 19, 19.0625, 19.1875, 19.125, 19.1875, 19.3125, 19.25, 19.1875, 19.25, 19.0625, 19.0625, 19, 18.75, 18.767857, 18.875, 18.9375, 19.125, 19.1875, 19.1875, 19.1875, 19.125, 19.125, 19.1875, 19.125, 19.125, 19, 18.875, 18.9375, 19.044643, 19, 19.0625, 18.9375, 19, 19, 19.0625, 19.0625, 19, 19.0625, 19.125, 19.125, 19.125, 19.1875, 19.0625, 19, 18.839287, 18.75, 18.8125, 18.875, 19, 19, 19, 19, 19, 19, 19, 19, 19, 19, 19, 19, 19, 19, 19, 18.9375, 18.875, 18.8125, 18.75, 18.8125, 18.875, 18.9375, 19, 18.875, 18.6875, 18.625, 18.625, 18.75, 18.9375, 19, 18.9375, 18.9375, 18.875, 18.8125, 18.8125, 18.75, 18.75, 18.8125, 18.875, 18.875, 18.875, 18.875, 18.875, 18.9375, 19, 18.875, 18.6875, 18.705357, 18.833334, 18.919643, 19.125, 19.125, 19.125, 19.0625, 19, 18.9375, 19, 19.0625, 19, 19, 18.9375, 18.9375, 19, 18.875, 18.75, 18.75, 18.75, 18.75, 18.75, 18.6875, 18.4375, 18.3125, 18.4375, 18.5, 18.75, 19, 18.9375, 18.875, 18.75, 18.5625, 18.375, 18.1875, 18.1875, 18.125, 18.25, 18.375, 18.25, 18.25, 18.125, 18.0625, 18.25, 18.3125, 18.375, 18.375, 18.25, 18.3125, 18.4375, 18.5625, 18.75, 18.875, 18.803572, 18.455357, 18.321428, 18.125, 18.1875, 18.125, 18.0625, 18.0625, 18, 18.0625, 18.125, 18.125, 18.125, 18.125, 18.125, 18.3125, 18.4375, 18.375, 18.3125, 18.125, 18, 18, 18.125, 18.3125, 18.3125, 18.3125, 18.1875, 18, 18.196428, 18.450001, 18.321428, 18.321428, 18.1875, 18.0625, 18.1875, 18.1875, 18.125, 18.125, 17.9375, 17.9375, 17.9375, 17.9375, 18, 18, 17.9375, 17.9375, 18, 18, 18.0625, 18.0625, 18.0625, 18.0625, 18, 17.964287, 17.9375, 17.9375, 18, 18, 18.0625, 18.0625, 18.0625, 18.0625, 18, 18.0625, 18.0625, 18.1875, 18.25, 18.125, 18.125, 18, 17.9375, 18, 18.0625, 18.0625, 18.0625, 18.0625, 17.9375, 17.9375, 17.875, 17.955357, 18.160713, 18.125, 18.151787, 18.0625, 18, 18, 18, 18, 18, 18, 17.9375, 17.9375, 17.9375, 17.9375, 18, 18, 18, 18, 17.875, 17.8125, 17.75, 17.6875, 17.8125, 17.875, 17.9375, 18, 18, 18, 17.875, 17.901787, 17.9375, 17.839285, 18.148809, 18.386906, 18.357143, 18.3125, 18.25, 18.107143, 17.916666, 17.892857, 17.875, 17.9375, 18, 18, 18, 18, 17.9375, 17.848213, 17.8125, 17.919643, 17.9375, 18.0625, 18, 18, 18, 18, 18.0625, 18.0625, 18.0625, 18.1875, 18.25, 18.25, 18.25, 18.0625, 17.8125, 17.8125, 17.8125, 17.875, 18, 18, 18, 18.0625, 18.1875, 18.1875, 18.1875, 18.125, 18, 18, 18.0625, 18.1875, 18.3125, 18.3125, 18.3125, 18.4375, 18.5625, 18.8125
19, 18.9375, 19, 19.125, 19.125, 19.125, 18.9375, 18.8125, 18.892857, 19.119047, 19.267857, 19.3125, 19.25, 19.25, 19.125, 19.1875, 19.125, 19.1875, 19.25, 19.125, 19.125, 19.0625, 19.125, 19.3125, 19.375, 19.375, 19.276787, 19.125, 19.125, 19.1875, 19.125, 19.1875, 19.25, 19.1875, 19.125, 19.125, 19, 19, 19, 18.8125, 18.830357, 18.9375, 18.9375, 19.125, 19.1875, 19.1875, 19.1875, 19.125, 19.0625, 19.0625, 19, 19, 18.9375, 18.875, 18.875, 18.982143, 18.9375, 19.0625, 19.0625, 19.1875, 19.1875, 19.1875, 19.125, 19, 19.0625, 19.125, 19.125, 19.1875, 19.125, 18.85, 18.875, 18.642857, 18.6875, 18.75, 18.875, 19, 19, 19, 19, 19, 19, 19, 19, 19.0625, 19.0625, 19.0625, 19.0625, 19, 19.0625, 19.0625, 19, 18.9375, 18.8125, 18.6875, 18.75, 18.8125, 18.875, 19, 18.9375, 18.75, 18.625, 18.5625, 18.625, 18.8125, 18.9375, 18.9375, 18.875, 18.75, 18.6875, 18.6875, 18.6875, 18.75, 18.8125, 18.875, 18.9375, 19.0625, 19.125, 19.25, 19.25, 19.1875, 19, 18.6875, 18.705357, 18.895834, 18.919643, 19.0625, 19, 18.875, 18.9375, 19, 19.0625, 19.125, 19.0625, 19, 18.9375, 18.875, 18.9375, 18.9375, 18.8125, 18.6875, 18.6875, 18.6875, 18.75, 18.875, 18.8125, 18.5625, 18.4375, 18.5, 18.5625, 18.8125, 19, 18.9375, 18.875, 18.8125, 18.6875, 18.5, 18.3125, 18.25, 18.125, 18.1875, 18.25, 18.125, 18.125, 18.0625, 18.125, 18.375, 18.5, 18.625, 18.6875, 18.5625, 18.5625, 18.625, 18.625, 18.75, 18.90625, 18.96875, 18.799107, 18.602678, 18.330357, 18.25, 18.125, 18.0625, 18.0625, 18, 18.0625, 18.125, 18.125, 18.125, 18.1875, 18.25, 18.375, 18.4375, 18.3125, 18.1875, 18.125, 18.0625, 18.0625, 18.25, 18.3125, 18.3125, 18.3125, 18.125, 18, 18.125, 18.25, 18.25, 18.25, 18.25, 18.125, 18.1875, 18.1875, 18.125, 18.125, 18.0625, 18.0625, 18, 18, 18, 17.9375, 17.875, 17.875, 17.9375, 18, 18.0625, 18.0625, 18.0625, 18.0625, 18, 17.964287, 17.9375, 17.9375, 18.0625, 18.125, 18.1875, 18.1875, 18.125, 18.0625, 18, 17.9375, 17.9375, 18.0625, 18.125, 18.1875, 18.1875, 18.0625, 18, 18.0625, 18.125, 18.0625, 18.0625, 18, 17.9375, 18, 18, 18.0625, 18.125, 18.125, 18.089287, 18.0625, 18, 18, 18, 18, 18, 18.0625, 18.0625, 18.0625, 18.0625, 18, 18, 18, 18, 18, 17.9375, 17.875, 17.8125, 17.75, 17.8125, 17.875, 17.9375, 18, 18, 18, 17.9375, 17.9375, 17.9375, 18.017857, 18.232143, 18.303572, 18.25, 18.25, 18.3125, 18.214287, 17.916666, 17.892857, 17.8125, 17.9375, 18, 18, 18, 18, 17.9375, 17.875, 17.875, 17.875, 17.9375, 18, 18, 18, 18, 18, 17.9375, 17.9375, 17.9375, 18.0625, 18.25, 18.25, 18.25, 18.0625, 17.875, 17.875, 17.875, 17.9375, 18, 18, 18, 18.0625, 18.1875, 18.1875, 18.1875, 18.125, 18, 18, 18.0625, 18.1875, 18.375, 18.375, 18.375, 18.5, 18.5625, 18.8125, 18.9375, 18.964287, 19.107143, 19.303572, 19.5625, 19.75, 19.9375, 20, 20, 20, 20, 20, 20.125, 20.375, 20.5, -10, -10, -10, -10, -10, -10, -10, -10, -10, -10, -10, -10, -10, -10, -10, -10, -10, 19, 19, 19.0625, 19.0625, 19, 19.125, 19.25, 19.25, 19.375, 19.1875, 19, 19.080357, 19.181547, 19.205357, 19.1875, 19.0625, 19.125, 19.0625, 19.1875, 19.1875, 19.125, 19.125, 19, 19, 19, 19.125, 19.375, 19.5, 19.544643, 19.255951, 19.008928, 18.9375, 18.9375, 18.9375, 19, 19.125, 19.125, 19.0625, 19.0625, 18.9375, 18.9375, 18.9375, 18.8125, 18.830357, 18.9375, 18.9375, 19.125, 19.1875, 19.1875, 19.1875, 19.125, 19, 19, 18.9375, 18.9375, 18.9375, 18.875, 18.875, 18.982143, 18.9375, 19.0625, 19.0625, 19.1875, 19.25, 19.25, 19.1875, 19, 18.9375, 18.9375, 18.875, 19.026787, 19, 18.680357, 18.9375, 18.714287, 18.8125, 18.875, 18.875, 19, 19, 19, 19, 19, 19, 19, 19, 19.0625, 19.0625, 19.0625, 19.0625, 19, 19.0625, 19.0625, 19, 19, 18.875, 18.6875, 18.75, 18.75, 18.8125, 19, 19, 18.875, 18.75, 18.6875, 18.6875, 18.875, 19.0625, 19.125, 19.0625, 18.8125, 18.6875, 18.5625, 18.5, 18.6875, 18.75, 18.875, 19, 19.125, 19.25, 19.4375, 19.5, 19.375, 19.125, 18.8125, 18.767857, 18.895834, 18.857143, 18.9375, 18.8125, 18.6875, 18.75, 18.8125, 18.875, 18.9375, 18.875, 18.75, 18.75, 18.75, 18.875, 18.9375, 18.875, 18.75, 18.6875, 18.625, 18.6875, 18.875, 18.9375, 18.8125, 18.625, 18.625, 18.625, 18.8125, 19, 18.875, 18.875, 18.875, 18.8125, 18.75, 18.5625, 18.5, 18.375, 18.375, 18.375, 18.1875, 18.125, 18.125, 18.25, 18.5, 18.6875, 18.8125, 18.875, 18.8125, 18.8125, 18.8125, 18.75, 18.75, 18.84375, 18.84375, 18.674107, 18.477678, 18.267857, 18.25, 18.125, 18.125, 18.0625, 18, 18.0625, 18.1875, 18.1875, 18.1875, 18.25, 18.3125, 18.375, 18.375, 18.25, 18.0625, 18.0625, 18.0625, 18.125, 18.25, 18.25, 18.25, 18.1875, 18.0625, 18, 18.0625, 18.1875, 18.1875, 18.1875, 18.3125, 18.1875, 18.1875, 18.1875, 18.0625, 18.0625, 18.125, 18.125, 18.0625, 18.0625, 18, 17.9375, 17.875, 17.875, 17.9375, 18, 18.125, 18.125, 18.125, 18.125, 18, 17.964287, 17.9375, 17.9375, 18.125, 18.1875, 18.25, 18.25, 18.125, 18.0625, 18, 17.9375, 17.9375, 18.0625, 18.125, 18.1875, 18.1875, 18.0625, 18.0625, 18.1875, 18.25, 18.1875, 18.125, 18, 17.9375, 18, 18, 18.0625, 18.0625, 18, 18.026787, 18, 18, 18.0625, 18.0625, 18.0625, 18.0625, 18.0625, 18, 18, 18, 18, 18, 18, 18, 18, 18, 18, 18, 18, 18, 18, 18, 18, 18.0625, 18.125, 18.125, 18.0625, 17.955357, 18, 18, 18.0625, 18.0625, 18.125, 18.25, 18.151787, 17.854166, 17.830357, 17.6875, 17.8125, 17.875, 17.875, 17.9375, 18, 18, 18, 18, 18, 18, 18, 18, 18, 18, 17.9375, 17.875, 17.875, 17.875, 18, 18.1875, 18.1875, 18.1875, 18.125, 17.9375, 17.875, 17.875, 17.875, 17.9375, 18, 18, 18.0625, 18.1875, 18.1875, 18.1875, 18.125, 18, 18, 18.0625, 18.25, 18.5, 18.5625, 18.625, 18.6875, 18.6875, 18.875
19.083334, 19.083334, 19.5, 19.625, 19.625, 19.6875, 19.5, 19.375, 19.375, 19.223213, 19.026787, 18.9375, 18.875, 19, 19.0625, 19.1875, 19.1875, 19.125, 19.125, 19, 19, 19, 19.0625, 19.3125, 19.5, 19.589287, 19.208332, 18.964285, 18.875, 18.875, 18.9375, 19, 19.125, 19.125, 19.125, 19.125, 19, 19, 18.9375, 18.875, 18.892857, 19, 19, 19.0625, 19.0625, 19.0625, 19.0625, 19.0625, 19, 19, 18.9375, 18.9375, 18.9375, 18.910713, 18.9375, 18.9375, 19, 19.125, 19.1875, 19.3125, 19.375, 19.375, 19.375, 19.25, 19.125, 19, 18.767857, 18.901787, 18.875, 18.617857, 19.0625, 18.964287, 19.0625, 19.125, 19, 19, 19, 19, 19, 19, 19, 19, 19, 19.0625, 19.0625, 19.0625, 19.0625, 19, 19.0625, 19.0625, 19.0625, 19.0625, 19, 18.8125, 18.8125, 18.8125, 18.75, 18.875, 18.875, 18.75, 18.6875, 18.6875, 18.6875, 18.875, 19.125, 19.25, 19.1875, 18.9375, 18.75, 18.5, 18.4375, 18.625, 18.6875, 18.875, 18.9375, 19, 19.0625, 19.1875, 19.321428, 19.325001, 18.875, 18.666666, 18.61607, 18.708334, 18.794643, 18.75, 18.625, 18.5625, 18.625, 18.75, 18.875, 18.9375, 18.9375, 18.875, 18.875, 18.875, 18.9375, 18.9375, 18.9375, 18.875, 18.8125, 18.75, 18.75, 18.875, 18.9375, 18.875, 18.75, 18.75, 18.75, 18.875, 18.9375, 18.8125, 18.8125, 18.8125, 18.75, 18.75, 18.625, 18.5625, 18.5625, 18.5625, 18.5, 18.375, 18.3125, 18.3125, 18.5, 18.6875, 18.875, 18.9375, 19, 19, 19, 19.0625, 19, 18.9375, 18.90625, 18.84375, 18.78125, 18.65625, 18.517857, 18.4375, 18.25, 18.1875, 18.0625, 18.03125, 18.09375, 18.15625, 18.15625, 18.125, 18.1875, 18.3125, 18.375, 18.375, 18.25, 18.0625, 18, 18, 18.125, 18.1875, 18.1875, 18.1875, 18.0625, 18, 18, 18, 18.0625, 18.0625, 18.0625, 18.25, 18.1875, 18.1875, 18.1875, 18.0625, 18.125, 18.25, 18.3125, 18.25, 18.1875, 18.125, 18.0625, 18, 18, 17.9375, 17.9375, 18.0625, 18.0625, 18.125, 18.125, 18, 17.964287, 17.9375, 17.9375, 18.1875, 18.25, 18.3125, 18.375, 18.1875, 18.125, 18.0625, 18, 18.0625, 18.125, 18.1875, 18.25, 18.1875, 18.125, 18.1875, 18.25, 18.3125, 18.25, 18.125, 18, 17.9375, 18, 18, 18.0625, 18.125, 18.125, 18.214287, 18.1875, 18.1875, 18.25, 18.25, 18.3125, 18.25, 18.1875, 18.0625, 18, 18.0625, 18.0625, 18.0625, 18.0625, 18.0625, 18.0625, 18.0625, 18.0625, 18, 18, 18.0625, 18.0625, 18.0625, 18.0625, 18.0625, 18.1875, 18.1875, 18.1875, 18, 17.839287, 17.875, 17.875, 18, 18.125, 18.25, 18.151787, 17.854166, 17.830357, 17.75, 17.848213, 17.839287, 17.875, 17.875, 18, 18.0625, 18.0625, 18.0625, 18.0625, 18.0625, 18.125, 18.1875, 18.25, 18.1875, 18.0625, 17.9375, 17.875, 17.875, 17.9375, 18.0625, 18.0625, 18.0625, 18.0625, 17.9375, 17.875, 17.875, 17.875, 17.9375, 18, 18, 18.0625, 18.125, 18.125, 18.125, 18.0625, 18, 18, 18.0625, 18.25, 18.4375, 18.5625, 18.625, 18.625, 18.6875, 18.8125, 18.875, 18.964287, 19.232143, 19.491072, 19.75, 19.9375, 20, 20, 20, 20, 20, 20, 20.25, 20.5, 20.666666, -10, -10, -10, -10, -10, -10, -10, -10, -10, -10, -10, -10, -10, -10, -10, -10, -10, -10, -10, -10, -10, -10, 19.6875, 19.666666, 19.666666, 19.75, 19.583334, 19.5, 19.479166, 19.3125, 19.1875, 19, 18.9375, 19, 19.0625, 19.125, 19.125, 19.0625, 19.125, 19.0625, 19.0625, 19.0625, 19, 19.1875, 19.375, 19.401787, 19.020832, 18.901785, 18.875, 19, 19.1875, 19.1875, 19.1875, 19.125, 19.0625, 19.0625, 19, 19, 19, 19, 19, 19, 19, 19, 19, 19, 19, 19, 19, 19, 18.9375, 18.9375, 19, 19.035713, 19.0625, 19.0625, 19.125, 19.25, 19.3125, 19.375, 19.375, 19.375, 19.375, 19.3125, 19.1875, 19, 18.767857, 18.901787, 18.875, 18.680357, 19.125, 19.089287, 19.1875, 19.1875, 19.0625, 19, 19, 19.0625, 19.125, 19.125, 19.125, 19.0625, 19.0625, 19.125, 19.125, 19.125, 19.0625, 19, 19.0625, 19.0625, 19.0625, 19.0625, 19, 18.9375, 18.9375, 18.9375, 18.875, 18.875, 18.875, 18.875, 18.875, 18.875, 18.875, 18.9375, 19.125, 19.25, 19.1875, 19, 18.875, 18.625, 18.5625, 18.6875, 18.6875, 18.875, 18.9375, 18.9375, 18.9375, 18.9375, 19.008928, 19.012501, 18.696428, 18.875, 18.806549, 18.541666, 18.580357, 18.4375, 18.375, 18.4375, 18.5, 18.625, 18.75, 18.75, 18.75, 18.75, 18.8125, 18.875, 18.9375, 18.9375, 18.9375, 18.875, 18.8125, 18.75, 18.75, 18.875, 18.9375, 18.9375, 18.875, 18.875, 18.875, 18.9375, 18.9375, 18.875, 18.875, 18.8125, 18.75, 18.6875, 18.625, 18.625, 18.6875, 18.75, 18.625, 18.5625, 18.5, 18.5, 18.6875, 18.8125, 18.9375, 18.875, 18.9375, 18.9375, 18.9375, 19.0625, 19, 18.9375, 18.96875, 18.96875, 18.96875, 18.84375, 18.705357, 18.625, 18.375, 18.3125, 18.125, 18.03125, 18.15625, 18.28125, 18.28125, 18.25, 18.1875, 18.1875, 18.1875, 18.1875, 18.125, 18, 18, 18, 18.125, 18.1875, 18.1875, 18.1875, 18.0625, 18, 18, 18, 18, 18, 18, 18.125, 18.125, 18.125, 18.125, 18.0625, 18.125, 18.3125, 18.4375, 18.4375, 18.4375, 18.375, 18.25, 18.25, 18.25, 18.125, 18.125, 18.125, 18.0625, 18.0625, 18.0625, 18, 18, 18, 18, 18.1875, 18.25, 18.25, 18.339287, 18.294643, 18.232143, 18.1875, 18.0625, 18.0625, 18.0625, 18.125, 18.25, 18.1875, 18.1875, 18.25, 18.25, 18.3125, 18.3125, 18.1875, 18, 17.875, 17.875, 17.875, 17.9375, 18.0625, 18.1875, 18.375, 18.4375, 18.4375, 18.375, 18.3125, 18.3125, 18.1875, 18.125, 18, 17.875, 17.9375, 17.955357, 18.0625, 18.0625, 18.125, 18.0625, 18.0625, 18.0625, 18, 18, 18.0625, 18.0625, 18.0625, 18.0625, 18.0625, 18.1875, 18.1875, 18.25, 18.125, 17.964287, 18, 17.9375, 18, 18.0625, 18.0625, 17.982143, 17.875, 17.875, 17.875, 17.910713, 17.839287, 17.875, 17.875, 18, 18.0625, 18.0625, 18.0625, 18, 18.026787, 18.160713, 18.25, 18.375, 18.25, 18.125, 17.9375, 17.875, 17.875, 17.9375, 18, 18, 18, 18, 17.9375, 17.8125, 17.75, 17.625, 17.651787, 17.857143, 17.928572, 18.0625, 18.0625, 18.0625, 18.0625, 18, 18, 18, 18, 18.125, 18.25, 18.375, 18.5, 18.5625, 18.6875, 18.8125
-10, -10, 19.75, -10, -10, -10, -10, 19.583334, 20.285715, 19.85, 19.625, 19.25, 19.125, 19.1875, 19.1875, 19.125, 19.125, 19, 19, 19, 19, 19, 19, 19.125, 19.25, 19.214287, 18.833332, 18.839285, 18.9375, 19.107143, 19.1875, 19.25, 19.294643, 19.25, 19.1875, 19.125, 19, 19, 19, 19, 19, 19, 19, 19, 19, 19, 19.0625, 19.0625, 19.0625, 19.0625, 18.9375, 18.9375, 19, 19.035713, 19.0625, 19.0625, 19.1875, 19.375, 19.375, 19.375, 19.3125, 19.3125, 19.4375, 19.5, 19.375, 19.1875, 18.892857, 18.901787, 18.9375, 18.830357, 19.125, 19.160713, 19.1875, 19.1875, 19.0625, 19, 19, 19.125, 19.1875, 19.1875, 19.1875, 19.0625, 19.125, 19.125, 19.1875, 19.1875, 19.0625, 19.0625, 19, 19, 19, 19, 19, 19.0625, 19.035713, 18.892857, 18.830357, 18.75, 18.875, 19.0625, 19.125, 19.1875, 19.125, 19.125, 19.3125, 19.4375, 19.4375, 19.25, 19, 18.625, 18.5, 18.5625, 18.5625, 18.8125, 18.875, 18.8125, 18.8125, 18.75, 18.653061, 18.887501, 18.758928, 19, 18.931549, 18.604166, 18.580357, 18.5, 18.4375, 18.625, 18.625, 18.6875, 18.8125, 18.8125, 18.875, 18.875, 18.9375, 19, 19, 19, 19, 18.875, 18.75, 18.625, 18.5625, 18.6875, 18.8125, 18.9375, 18.9375, 18.9375, 18.9375, 18.9375, 18.9375, 18.875, 18.875, 18.75, 18.625, 18.5625, 18.5625, 18.6875, 18.875, 19, 18.875, 18.8125, 18.75, 18.75, 18.875, 18.9375, 19, 18.875, 18.875, 18.9375, 18.9375, 19.0625, 19.0625, 18.9375, 18.9375, 18.875, 18.875, 18.75, 18.75, 18.75, 18.5625, 18.5, 18.25, 18.09375, 18.21875, 18.40625, 18.40625, 18.375, 18.1875, 18.0625, 18.0625, 18.0625, 18.0625, 18, 18, 18, 18.125, 18.125, 18.125, 18.125, 18, 18, 18, 18, 18, 18.0625, 18.125, 18.1875, 18.1875, 18.125, 18.0625, 18.0625, 18.125, 18.375, 18.5625, 18.625, 18.6875, 18.5625, 18.4375, 18.375, 18.3125, 18.1875, 18.125, 18.125, 18.0625, 18.0625, 18.0625, 18, 18, 18, 18.0625, 18.1875, 18.1875, 18.125, 18.214287, 18.294643, 18.276787, 18.104166, 18.017857, 18, 18.125, 18.3125, 18.375, 18.3125, 18.25, 18.25, 18.1875, 18.1875, 18.1875, 18.0625, 18, 18, 18, 18, 18, 18.0625, 18.1875, 18.375, 18.4375, 18.4375, 18.375, 18.3125, 18.3125, 18.1875, 18.1875, 18.0625, 17.875, 17.9375, 17.955357, 17.955357, 18.0625, 18.0625, 18.0625, 18.0625, 18.0625, 18, 18, 18.0625, 18.0625, 18.0625, 18.0625, 18.0625, 18.1875, 18.1875, 18.25, 18.1875, 18.026787, 18.0625, 18, 18, 18, 17.9375, 17.875, 17.875, 17.875, 17.9375, 17.910713, 17.839287, 17.875, 17.875, 18, 18, 18, 18, 17.875, 17.901787, 18.035713, 18.125, 18.3125, 18.25, 18.125, 18, 17.9375, 17.9375, 18, 17.9375, 17.9375, 17.9375, 17.9375, 17.9375, 17.75, 17.625, 17.5, 17.526787, 17.794643, 17.928572, 18.0625, 18.0625, 18.0625, 18.0625, 18, 18, 18, 18, 18.0625, 18.125, 18.25, 18.3125, 18.4375, 18.625, 18.75, 18.9375, 19, 19.25, 19.5, 19.75, 20, 20, 20, 20, 20, 20, 20, 20.1875, 20.3125, 20.416666, -10, -10, -10, -10, -10, -10, -10, -10, -10, -10, -10, -10, -10, -10, -10, -10, -10, -10, -10, -10, -10, -10, -10, -10, -10, -10, -10, -10, 23.15, 21.114286, 21.166666, 20.285715, 19.619049, 19.625, 19.375, 19.3125, 19.3125, 19.25, 19.25, 19.25, 19.25, 19.1875, 19.125, 19.125, 19.125, 19.107143, 18.916666, 19.017857, 19.0625, 19.107143, 19.125, 19.1875, 19.267857, 19.25, 19.1875, 19.0625, 19, 19.0625, 19.035713, 18.964287, 19, 18.9375, 19, 19, 19, 19, 19.0625, 19.0625, 19.0625, 19.0625, 18.9375, 18.9375, 19, 19.035713, 19.0625, 19.0625, 19.1875, 19.375, 19.375, 19.3125, 19.1875, 19.1875, 19.375, 19.625, 19.5625, 19.4375, 19.205357, 19.0625, 19.0625, 19, 19.0625, 19.125, 19.125, 19.125, 19.0625, 19, 19, 19.125, 19.1875, 19.1875, 19.1875, 19.125, 19.25, 19.3125, 19.375, 19.3125, 19.125, 19.0625, 19, 19, 19, 19, 19, 19.0625, 18.973213, 18.767857, 18.705357, 18.625, 18.8125, 19.0625, 19.125, 19.1875, 19.125, 19.0625, 19.1875, 19.3125, 19.3125, 19.3125, 19.125, 18.8125, 18.75, 18.6875, 18.625, 18.8125, 18.8125, 18.6875, 18.6875, 18.5625, 18.571428, 18.700001, 18.633928, 18.9375, 18.931549, 18.666666, 18.705357, 18.6875, 18.6875, 18.875, 18.875, 18.875, 19, 19, 19.0625, 19.125, 19.125, 19.125, 19.0625, 19, 19, 18.9375, 18.8125, 18.6875, 18.625, 18.6875, 18.8125, 18.9375, 19, 19, 19, 19, 18.9375, 18.9375, 18.875, 18.75, 18.5625, 18.4375, 18.5, 18.625, 18.8125, 18.9375, 18.875, 18.875, 18.9375, 18.9375, 19, 19, 19, 18.875, 18.8125, 18.875, 18.8125, 18.875, 18.9375, 18.875, 18.9375, 19, 18.9375, 18.8125, 18.875, 18.848213, 18.75, 18.6875, 18.375, 18.21875, 18.34375, 18.40625, 18.40625, 18.375, 18.125, 18, 18.0625, 18.125, 18.125, 18.125, 18.125, 18.0625, 18.125, 18.125, 18.0625, 18.0625, 18, 18, 18, 18, 18, 18.0625, 18.125, 18.125, 18.125, 18.125, 18.125, 18.1875, 18.25, 18.375, 18.5, 18.625, 18.6875, 18.5625, 18.375, 18.25, 18.1875, 18.125, 18.125, 18.0625, 18, 18.0625, 18.125, 18.125, 18.125, 18.0625, 18.125, 18.25, 18.25, 18.1875, 18.214287, 18.357143, 18.401787, 18.229166, 18.142857, 18.0625, 18.1875, 18.375, 18.4375, 18.4375, 18.3125, 18.25, 18.125, 18.0625, 18.0625, 18, 18.0625, 18.0625, 18.0625, 18.0625, 18, 18.125, 18.25, 18.375, 18.4375, 18.375, 18.3125, 18.25, 18.25, 18.1875, 18.25, 18.1875, 18, 18, 17.955357, 17.892857, 18, 18, 18, 18.0625, 18.0625, 18, 18, 18, 18, 18, 18, 18, 18.0625, 18.0625, 18.25, 18.357143, 18.214287, 18.25, 18.0625, 17.9375, 17.9375, 17.875, 17.875, 17.9375, 17.9375, 18.0625, 18.035713, 17.964287, 18, 17.9375, 18, 18, 18, 18, 17.8125, 17.839287, 17.973213, 18.0625, 18.3125, 18.25, 18.1875, 18.0625, 18, 18, 18, 17.875, 17.8125, 17.8125, 17.8125, 17.9375, 17.875, 17.75, 17.625, 17.589287, 17.794643, 17.928572, 18.0625, 18.0625, 18.0625, 18.0625, 18, 18, 18, 18.0625, 18.125, 18.1875, 18.25, 18.1875, 18.3125, 18.5, 18.6875
-10, -10, -10, -10, -10, -10, -10, -10, 25.388887, 24.816666, 24.75, 24.208334, 22.083334, 21.083334, 19.90476, 19.8125, 19.5625, 19.5, 19.5, 19.5, 19.5, 19.4375, 19.3125, 19.1875, 19.0625, 19, 19, 19.125, 19.125, 19.044643, 19.017857, 19.270834, 19.375, 19.375, 19.25, 19.0625, 19, 19.125, 19.098213, 19.026787, 19.0625, 18.9375, 19, 19, 19, 19, 19.0625, 19.0625, 19.0625, 19.0625, 19, 19, 19, 19, 19, 19, 19.125, 19.25, 19.25, 19.1875, 19.125, 19.1875, 19.375, 19.625, 19.5625, 19.5, 19.375, 19.1875, 19.1875, 19.0625, 19, 19, 19, 19, 19, 19, 19.0625, 19.1875, 19.25, 19.25, 19.1875, 19.1875, 19.375, 19.5, 19.553572, 19.3125, 19.125, 19, 19, 19, 19, 19, 19, 19.0625, 18.910713, 18.642857, 18.642857, 18.625, 18.875, 19.1875, 19.1875, 19.1875, 19.0625, 19, 19.0625, 19.0625, 19.0625, 19.0625, 18.9375, 18.8125, 18.875, 18.8125, 18.75, 18.9375, 19, 18.9375, 19, 18.8125, 18.6875, 18.6875, 18.758928, 19.020834, 19.020834, 18.791666, 18.767857, 18.8125, 18.75, 18.875, 18.875, 18.875, 19, 19, 19, 19, 19, 19, 19, 19, 19, 18.9375, 18.75, 18.625, 18.5625, 18.625, 18.8125, 18.9375, 19, 18.9375, 18.9375, 18.9375, 18.9375, 19, 18.9375, 18.8125, 18.625, 18.5, 18.5625, 18.6875, 18.8125, 18.875, 18.875, 18.875, 18.9375, 19, 19, 19, 19, 18.9375, 18.875, 18.9375, 18.875, 18.8125, 18.875, 18.8125, 18.875, 18.9375, 18.8125, 18.6875, 18.75, 18.848213, 18.875, 18.875, 18.5625, 18.375, 18.4375, 18.5, 18.5625, 18.5, 18.25, 18.125, 18.1875, 18.25, 18.3125, 18.3125, 18.3125, 18.25, 18.1875, 18.125, 18.0625, 18.0625, 18.0625, 18.0625, 18, 18.0625, 18.0625, 18.125, 18.1875, 18.125, 18.125, 18.125, 18.125, 18.1875, 18.1875, 18.3125, 18.375, 18.4375, 18.455357, 18.375, 18.25, 18.1875, 18.1875, 18.125, 18.125, 18.0625, 18, 18.0625, 18.125, 18.125, 18.0625, 18, 18.0625, 18.125, 18.1875, 18.125, 18.089287, 18.357143, 18.464287, 18.291666, 18.205357, 18, 18.0625, 18.25, 18.3125, 18.375, 18.25, 18.125, 18.0625, 18, 18, 18, 18.0625, 18.0625, 18.0625, 18.0625, 18, 18.0625, 18.125, 18.1875, 18.25, 18.25, 18.1875, 18.125, 18.0625, 18, 18.1875, 18.1875, 18.0625, 18.0625, 17.955357, 17.892857, 18, 17.9375, 17.9375, 18, 18, 18, 18, 17.9375, 17.9375, 17.9375, 18, 18.125, 18.125, 18.125, 18.1875, 18.25, 18.25, 18.25, 18.125, 17.9375, 17.9375, 17.875, 17.875, 17.9375, 17.9375, 18, 18, 18, 17.9375, 17.9375, 17.9375, 17.9375, 18, 18, 17.8125, 17.776787, 17.848213, 17.875, 18.0625, 18.0625, 18.0625, 18, 18.0625, 18.125, 18.125, 17.9375, 17.705357, 17.6875, 17.6875, 17.875, 17.875, 17.75, 17.625, 17.589287, 17.794643, 17.928572, 18.0625, 18.0625, 18.0625, 18.0625, 18, 18, 18, 18.0625, 18.1875, 18.3125, 18.3125, 18.3125, 18.4375, 18.5625, 18.8125, 19, 19, 19.25, 19.5, 19.75, 20, 20, 20, 20, 20, 20, 20, 20.0625, 20.125, 20.166668, -10, -10, -10, -10, -10, -10, -10, -10, -10, -10, -10, -10, -10, -10, -10, -10, -10, 19, 19, 19, 19, 18.875, -10, -10, -10, -10, -10, -10, 26.533331, 25.879999, 26.142857, 25.714285, 25.013891, 24.375, 22.133335, 20.964285, 20.642857, 20.428572, 20.104166, 19.830357, 19.625, 19.625, 19.5, 19.3125, 19.125, 19, 19, 19.0625, 19, 18.919643, 18.892857, 19.208334, 19.375, 19.375, 19.25, 19.0625, 19, 19.125, 19.098213, 19.026787, 19.0625, 18.9375, 19, 19, 19, 19, 19.0625, 19.0625, 19.0625, 19.0625, 19, 19, 19.0625, 19.0625, 19.0625, 19.0625, 19.0625, 19.1875, 19.1875, 19.125, 19.205357, 19.325001, 19.383928, 19.633928, 19.5, 19.5, 19.375, 19.1875, 19.1875, 19.0625, 19, 19, 19, 19, 19, 19, 19.0625, 19.1875, 19.1875, 19.25, 19.25, 19.3125, 19.5, 19.5625, 19.553572, 19.25, 19.1875, 19.0625, 19.0625, 19.0625, 19, 19, 19, 19, 18.848213, 18.580357, 18.580357, 18.625, 18.875, 19.125, 19.125, 19.125, 19, 19, 19, 18.9375, 18.9375, 18.9375, 18.875, 18.875, 18.9375, 18.9375, 18.875, 19, 19.0625, 19, 19.125, 18.9375, 18.875, 18.9375, 18.973213, 18.9375, 18.901787, 18.8125, 18.8125, 18.9375, 18.8125, 18.875, 18.8125, 18.830357, 19, 18.892857, 19, 19, 19.125, 19.125, 19.125, 19.0625, 19, 18.9375, 18.75, 18.625, 18.5625, 18.625, 18.8125, 18.9375, 19, 18.9375, 18.9375, 18.9375, 18.9375, 19, 18.9375, 18.875, 18.75, 18.6875, 18.75, 18.8125, 18.8125, 18.75, 18.75, 18.75, 18.875, 19, 19, 19, 19, 19, 18.875, 18.9375, 18.875, 18.75, 18.875, 18.8125, 18.875, 18.9375, 18.8125, 18.75, 18.8125, 18.910713, 19, 18.9375, 18.625, 18.4375, 18.4375, 18.5, 18.625, 18.5625, 18.3125, 18.1875, 18.1875, 18.25, 18.3125, 18.3125, 18.3125, 18.25, 18.25, 18.1875, 18.125, 18.125, 18.0625, 18.0625, 18, 18.125, 18.125, 18.1875, 18.3125, 18.25, 18.25, 18.25, 18.25, 18.3125, 18.375, 18.5625, 18.5625, 18.5, 18.276785, 18.089287, 18, 17.9375, 18, 18, 18, 18, 18, 18.0625, 18.0625, 18.0625, 18, 17.9375, 18.0625, 18.125, 18.1875, 18.1875, 18.125, 18.25, 18.357143, 18.166666, 18.142857, 18, 18.0625, 18.1875, 18.1875, 18.25, 18.125, 18.0625, 18.0625, 18, 18, 18, 18.125, 18.1875, 18.125, 18.125, 18, 18, 18.0625, 18.0625, 18.125, 18.125, 18.125, 18.125, 18.0625, 18.0625, 18.25, 18.25, 18.1875, 18.25, 18.125, 17.955357, 18.0625, 17.9375, 18, 18.0625, 18.0625, 18, 18, 17.9375, 17.9375, 17.9375, 18, 18.125, 18.125, 18.125, 18.125, 18.125, 18.125, 18.125, 18.0625, 17.9375, 17.9375, 17.9375, 17.9375, 18, 18, 18, 18, 18, 17.875, 17.875, 17.875, 17.875, 18, 18, 17.875, 17.8125, 17.8125, 17.8125, 17.9375, 18, 18, 18, 18.0625, 18.125, 18.125, 17.9375, 17.705357, 17.6875, 17.6875, 17.875, 17.9375, 17.875, 17.875, 17.875, 18, 18.0625, 18.0625, 18.0625, 18, 18, 18, 18, 18.0625, 18.1875, 18.375, 18.5, 18.5, 18.5, 18.5625, 18.6875, 18.875
18.916666, 18.75, 18.375, 18.166668, -10, -10, -10, -10, -10, -10, 27, 26.666666, 26.333332, 25.785715, 24.888887, 24.583334, 24.25, 23.833334, 21.231293, 20.476191, 19.9375, 19.75, 19.5625, 19.375, 19.1875, 19, 19, 19, 18.875, 18.8125, 18.892857, 19.145834, 19.267857, 19.25, 19.125, 19, 19, 19.125, 19.098213, 19.026787, 19.0625, 18.9375, 19, 19, 19, 19, 19, 19, 19, 19.0625, 19.0625, 19.0625, 19.125, 19.0625, 19.0625, 19.0625, 19, 19.0625, 19.0625, 18.9375, 19.017857, 19.075001, 19.071428, 19.321428, 19.25, 19.3125, 19.3125, 19.25, 19.3125, 19.25, 19.125, 19.0625, 19, 19, 19, 19, 19.0625, 19.0625, 19.089287, 19.294643, 19.366072, 19.5, 19.5625, 19.5625, 19.428572, 19.125, 19.1875, 19.0625, 19.125, 19.125, 19, 19, 19.0625, 19.0625, 18.9375, 18.8125, 18.75, 18.75, 18.875, 18.9375, 18.875, 18.8125, 18.75, 18.8125, 18.875, 18.8125, 18.8125, 18.875, 18.875, 19, 19.0625, 19.0625, 19, 19.0625, 19.125, 19.0625, 19.125, 18.875, 18.8125, 18.875, 18.848213, 18.875, 18.839287, 18.8125, 18.875, 19, 18.9375, 18.9375, 18.8125, 18.830357, 18.875, 18.767857, 18.875, 18.875, 19.0625, 19.0625, 19.125, 19.0625, 19, 19, 18.875, 18.8125, 18.8125, 18.8125, 18.9375, 18.9375, 18.9375, 18.875, 18.875, 18.9375, 18.9375, 19, 18.9375, 18.9375, 18.875, 18.875, 18.9375, 18.9375, 18.8125, 18.6875, 18.6875, 18.6875, 18.875, 19, 19, 19, 19, 19, 18.8125, 18.8125, 18.75, 18.625, 18.75, 18.6875, 18.75, 18.8125, 18.75, 18.8125, 18.875, 18.973213, 19.0625, 18.9375, 18.625, 18.5, 18.4375, 18.4375, 18.625, 18.5, 18.3125, 18.25, 18.1875, 18.25, 18.3125, 18.3125, 18.3125, 18.25, 18.1875, 18.125, 18.125, 18.160713, 18.125, 18.125, 18, 18.1875, 18.1875, 18.1875, 18.3125, 18.25, 18.25, 18.3125, 18.375, 18.375, 18.5, 18.6875, 18.625, 18.5625, 18.214285, 18.026787, 17.9375, 17.875, 18, 18, 18, 18, 18, 18.0625, 18, 18, 17.9375, 17.875, 17.9375, 17.9375, 17.9375, 17.9375, 17.9375, 18.0625, 18.25, 18.3125, 18.375, 18.3125, 18.3125, 18.25, 18.1875, 18.1875, 18.0625, 18.0625, 18.0625, 18, 18, 18, 18.0625, 18, 17.964287, 18.035713, 17.9375, 18.0625, 18.0625, 18.0625, 18.125, 18.125, 18.125, 18.125, 18.0625, 18.0625, 18.1875, 18.1875, 18.1875, 18.25, 18.125, 18.0625, 18.0625, 18.0625, 18.0625, 18.125, 18.125, 18, 18, 17.9375, 17.9375, 17.9375, 18, 18.125, 18.125, 18.125, 18.125, 18.0625, 18.0625, 18.0625, 18, 17.9375, 17.9375, 17.9375, 17.9375, 18, 18, 18, 18, 18, 17.875, 17.875, 17.875, 17.875, 18, 18, 17.9375, 17.9375, 17.9375, 17.9375, 18, 18, 18, 18, 18.0625, 18.125, 18.125, 18, 17.767857, 17.75, 17.75, 17.875, 18, 18, 18, 18, 18.0625, 18.0625, 18.0625, 18.0625, 18, 18, 18, 18, 18.125, 18.3125, 18.5, 18.625, 18.625, 18.625, 18.6875, 18.8125, 18.9375, 19, 19, 19.125, 19.25, 19.5, 19.75, 19.875, 20, 20, 20, 20.0625, 20.1875, 20.3125, 20.5, 20.583334, -10, -10, -10, -10, -10, -10, -10, -10, -10, -10, -10, -10, -10, -10, -10, -10, -10, -10, 19.125, 19.083334, 19, 18.8125, 18.583334, 18.444445, 18.75, 18.833334, -10, -10, -10, -10, -10, -10, 26.357143, 26.128571, 25.761904, 25.765306, 25.642857, 25.214285, 24.20635, 21.437075, 20.642857, 19.976192, 19.6875, 19.375, 19.25, 19.0625, 19.0625, 19, 18.9375, 18.9375, 19.017857, 19.208334, 19.232143, 19.1875, 19.125, 19.125, 19.107143, 18.979166, 18.955357, 18.9375, 19, 19, 19, 19, 19, 19, 19, 19, 19, 19.0625, 19.125, 19.125, 19.1875, 19.125, 19.125, 19.125, 19.0625, 19.125, 19.125, 19.125, 19.267857, 19.387501, 19.321428, 19.446428, 19.375, 19.375, 19.375, 19.375, 19.4375, 19.375, 19.25, 19.125, 19, 19, 19, 19, 19.0625, 19.0625, 19.089287, 19.294643, 19.428572, 19.5, 19.5, 19.4375, 19.241072, 19, 19.125, 19.0625, 19.125, 19.125, 19, 18.9375, 18.9375, 18.9375, 18.883928, 19, 18.9375, 18.9375, 18.9375, 18.9375, 18.875, 18.8125, 18.75, 18.8125, 18.875, 18.8125, 18.8125, 18.8125, 18.8125, 18.9375, 19, 19, 18.9375, 19, 19.0625, 19.0625, 19.125, 18.8125, 18.75, 18.8125, 18.705357, 18.674999, 18.767857, 18.741072, 18.9375, 19.0625, 19, 19, 18.8125, 18.830357, 18.875, 18.830357, 18.9375, 18.9375, 19.125, 19.0625, 19.125, 19.0625, 19.0625, 19.125, 19.0625, 19.0625, 19, 18.9375, 19, 18.9375, 18.9375, 18.875, 18.875, 19, 19, 19.0625, 19.0625, 19, 19, 19, 19, 19, 18.8125, 18.5625, 18.5, 18.607143, 18.803572, 19, 19, 19, 19, 19, 18.875, 18.875, 18.875, 18.8125, 18.8125, 18.75, 18.75, 18.75, 18.8125, 18.875, 18.875, 18.875, 18.875, 18.75, 18.5625, 18.5625, 18.5, 18.5, 18.625, 18.4375, 18.3125, 18.25, 18.125, 18.125, 18.1875, 18.1875, 18.1875, 18.1875, 18.125, 18.125, 18.25, 18.348213, 18.3125, 18.25, 18.125, 18.3125, 18.375, 18.4375, 18.5625, 18.5, 18.5, 18.5, 18.5, 18.5, 18.625, 18.875, 18.8125, 18.6875, 18.339285, 18.089287, 18, 17.9375, 18, 18, 18, 18, 18, 18, 17.875, 17.8125, 17.75, 17.75, 17.8125, 17.8125, 17.8125, 17.8125, 17.9375, 18.0625, 18.1875, 18.3125, 18.375, 18.4375, 18.4375, 18.3125, 18.1875, 18.0625, 18, 18, 18, 18, 18, 18, 18, 17.9375, 17.901787, 17.973213, 17.9375, 18, 18, 18, 18.0625, 18.125, 18.125, 18.125, 18, 17.9375, 18, 18, 18.0625, 18.1875, 18.1875, 18.1875, 18.1875, 18.1875, 18.0625, 18.0625, 18.0625, 17.9375, 18, 18, 18, 18, 18.0625, 18.125, 18.0625, 18.0625, 18, 17.875, 17.9375, 18, 18.035713, 18.0625, 18.0625, 18, 18, 18, 18, 18, 18, 18, 17.875, 17.9375, 18, 18, 18.125, 18.0625, 18, 18, 18, 18, 18, 18, 18, 18, 18.0625, 18.125, 18.125, 18.0625, 17.892857, 17.875, 17.875, 17.9375, 18, 18, 18, 18, 18.0625, 18.0625, 18.0625, 18.0625, 18, 18, 18, 18, 18.125, 18.25, 18.375, 18.4375, 18.5, 18.625, 18.75, 18.9375, 19
19.125, 18.875, 18.6875, 18.583334, 18.916666, 19.055555, -10, -10, -10, -10, -10, -10, 24, 24.425001, 25.678572, 26.0625, 26.21875, 25.96875, 25.355442, 24.567459, 23.791666, 21.402779, 20.607143, 20.142857, 19.547619, 19.3125, 19.0625, 19, 19, 19.0625, 19.125, 19.125, 19.125, 19.0625, 19.0625, 19.1875, 19.142857, 18.916666, 19, 18.875, 19, 19.0625, 19.0625, 19.0625, 19.0625, 19, 19, 19, 19.0625, 19.125, 19.25, 19.3125, 19.294643, 19.125, 19.1875, 19.160713, 19.125, 19.1875, 19.125, 19.1875, 19.267857, 19.325001, 19.196428, 19.196428, 19.1875, 19.25, 19.3125, 19.375, 19.5, 19.4375, 19.3125, 19.1875, 19, 19, 19, 19, 19, 19, 19.026787, 19.294643, 19.464287, 19.330357, 19.196428, 19.0625, 18.9375, 18.9375, 19.125, 19.0625, 19, 18.9375, 18.75, 18.6875, 18.6875, 18.6875, 18.758928, 19, 19.0625, 19.1875, 19.125, 19.0625, 18.9375, 18.8125, 18.8125, 18.875, 18.9375, 18.9375, 18.9375, 18.9375, 18.9375, 19, 19, 19, 18.9375, 18.9375, 18.875, 18.875, 19, 18.919643, 18.919643, 18.791666, 18.651785, 18.612499, 18.767857, 18.866072, 19.0625, 19.125, 19.0625, 19, 18.8125, 18.830357, 18.875, 18.830357, 18.9375, 18.9375, 19.125, 19.0625, 19.125, 19.125, 19.125, 19.1875, 19.125, 19, 18.9375, 18.875, 18.9375, 18.9375, 18.9375, 18.9375, 18.9375, 19.125, 19.1875, 19.1875, 19.1875, 19.0625, 19, 19, 19, 19, 18.8125, 18.625, 18.5625, 18.669643, 18.866072, 18.9375, 18.9375, 18.875, 18.875, 18.9375, 18.8125, 18.875, 18.875, 18.875, 18.875, 18.8125, 18.8125, 18.8125, 18.9375, 19, 18.9375, 18.8125, 18.6875, 18.5, 18.4375, 18.5, 18.4375, 18.4375, 18.4375, 18.25, 18.1875, 18.125, 18, 18, 18, 18, 18, 18, 18.0625, 18.1875, 18.375, 18.535713, 18.4375, 18.3125, 18.1875, 18.25, 18.375, 18.4375, 18.625, 18.6875, 18.6875, 18.75, 18.75, 18.75, 18.875, 19.0625, 19, 18.9375, 18.696428, 18.401787, 18.25, 18, 17.875, 17.892857, 18, 18, 18.0625, 18, 17.9375, 17.9375, 17.9375, 17.9375, 17.9375, 17.875, 17.875, 17.9375, 18.125, 18.1875, 18.1875, 18.25, 18.3125, 18.4375, 18.5, 18.375, 18.1875, 18.0625, 18.0625, 18.0625, 18.125, 18.125, 18.0625, 18.0625, 18, 17.9375, 17.901787, 17.973213, 17.9375, 18, 18, 18, 18.0625, 18.0625, 18.0625, 18.0625, 17.9375, 17.9375, 17.9375, 17.9375, 18, 18.0625, 18.125, 18.125, 18.125, 18.1875, 18.0625, 18.0625, 18, 17.8125, 17.875, 17.8125, 17.8125, 17.875, 17.9375, 18.035713, 18, 18, 17.9375, 17.875, 17.875, 17.875, 17.848213, 17.875, 17.9375, 17.9375, 18, 18, 18, 18, 18, 18, 17.9375, 18.0625, 18.125, 18.125, 18.1875, 18.0625, 18, 18, 18, 18, 18, 18, 18, 18, 18, 18, 18, 18, 18, 18, 18, 18, 18, 18, 18, 18, 18, 17.9375, 17.9375, 17.9375, 17.9375, 18, 18, 18, 18.125, 18.25, 18.3125, 18.3125, 18.375, 18.4375, 18.625, 18.875, 18.9375, 19, 19, 19, 19, 19.25, 19.5, 19.75, 20, 20, 20, 20.0625, 20.1875, 20.375, 20.5625, 20.666666, -10, -10, -10, -10, -10, -10, -10, -10, -10, -10, -10, -10, -10, -10, -10, -10, -10, -10, 19.75, 19.666666, 19.482143, 19.104166, 18.955357, 18.8125, 19, 19.104168, 19.333332, -10, -10, -10, -10, -10, 23.142857, 23.590475, 24.418367, 25.081633, 25.71875, 25.78125, 25.727678, 25.384354, 24.928572, 24.263891, 23.958334, 23.333334, 21.204762, 20.020834, 19.491072, 19.25, 19.25, 19.178572, 19, 19, 18.9375, 19, 19.0625, 19.1875, 19.142857, 18.979166, 19.125, 19.0625, 19.25, 19.3125, 19.25, 19.1875, 19.125, 19.0625, 19.0625, 19.0625, 19.125, 19.125, 19.25, 19.375, 19.294643, 19.125, 19.1875, 19.098213, 19.125, 19.125, 19.0625, 19.125, 19.125, 19.125, 19.125, 19.125, 19.1875, 19.25, 19.3125, 19.375, 19.5, 19.4375, 19.3125, 19.1875, 19, 19, 19, 19, 19, 18.9375, 18.964287, 19.169643, 19.214287, 19.107143, 19.044643, 19, 19, 19, 19.1875, 19.0625, 18.9375, 18.767857, 18.625, 18.5625, 18.5625, 18.625, 18.696428, 19, 19.125, 19.25, 19.1875, 19.0625, 18.875, 18.75, 18.75, 18.8125, 19, 19.0625, 19.0625, 19.0625, 19, 19, 19, 18.9375, 18.875, 18.875, 18.8125, 18.8125, 18.9375, 18.982143, 19.017857, 18.916666, 18.723215, 18.576786, 18.741072, 18.803572, 19.0625, 19.0625, 19.125, 19, 18.875, 18.875, 18.8125, 18.9375, 18.9375, 18.9375, 19, 18.875, 18.875, 18.9375, 19, 19.125, 19.125, 19, 18.875, 18.8125, 18.875, 18.875, 18.9375, 18.9375, 18.9375, 19.0625, 19.151787, 19.294643, 19.294643, 19.1875, 19.0625, 18.9375, 18.875, 18.875, 18.75, 18.6875, 18.6875, 18.794643, 18.928572, 18.875, 18.875, 18.8125, 18.8125, 18.9375, 18.875, 18.9375, 18.9375, 18.9375, 18.8125, 18.6875, 18.625, 18.625, 18.75, 18.8125, 18.75, 18.5625, 18.4375, 18.375, 18.4375, 18.5625, 18.5, 18.375, 18.25, 18.125, 18.1875, 18.25, 18.1875, 18.125, 18.0625, 18, 18, 18.0625, 18.0625, 18.1875, 18.375, 18.473213, 18.4375, 18.3125, 18.1875, 18.25, 18.4375, 18.5, 18.625, 18.6875, 18.6875, 18.8125, 18.875, 18.875, 18.9375, 19, 18.9375, 18.875, 18.8125, 18.5625, 18.375, 18.1875, 18, 18.080357, 18.25, 18.1875, 18.25, 18.107143, 18, 18.178572, 18.107143, 18.125, 18, 17.9375, 18, 18.0625, 18.25, 18.25, 18.1875, 18.25, 18.375, 18.5625, 18.625, 18.5, 18.25, 18.0625, 18.0625, 18.0625, 18.125, 18.125, 18.0625, 18.0625, 18, 17.9375, 17.964287, 18.035713, 18, 18.0625, 18, 18, 18.071428, 18.200001, 18.071428, 18.071428, 17.9375, 17.9375, 17.9375, 17.9375, 18, 18, 18, 17.9375, 17.875, 17.9375, 17.875, 18, 18.0625, 17.9375, 18, 17.8125, 17.6875, 17.75, 17.8125, 17.973213, 18, 18, 17.9375, 17.875, 17.875, 17.875, 17.785713, 17.8125, 17.875, 17.875, 18, 18, 18, 18.0625, 18.0625, 18, 17.964287, 18.0625, 18.125, 18.1875, 18.125, 18, 17.9375, 17.9375, 18, 18, 18, 18, 18, 18, 18, 18, 18, 18, 18, 18, 18, 18, 18, 18, 18, 17.9375, 17.8125, 17.6875, 17.6875, 17.75, 17.875, 18, 18, 18, 18.0625, 18.125, 18.125, 18.125, 18.25, 18.375, 18.625, 18.875, 18.9375
19.794643, 19.407738, 19.059525, 18.955357, 19.0625, 19.208334, 19.222221, -10, -10, -10, -10, -10, 22.25, 22.704166, 23.204082, 23.816328, 24.559525, 24.928572, 25.59375, 25.973213, 25.848213, 25.476192, 25.091837, 24.464285, 23.382936, 21.319445, 20.295918, 19.950001, 19.833334, 19.607143, 19.428572, 19.166666, 19.008928, 19, 19.0625, 19.125, 19.107143, 19.086309, 19.303572, 19.3125, 19.5, 19.5625, 19.5, 19.375, 19.25, 19.125, 19.0625, 19.0625, 19.125, 19.0625, 19.1875, 19.3125, 19.232143, 19.125, 19.1875, 19.098213, 19.125, 19.125, 19.0625, 19.1875, 19.25, 19.3125, 19.3125, 19.25, 19.25, 19.25, 19.1875, 19.125, 19.1875, 19.125, 19.125, 19.125, 19, 19, 19, 18.9375, 18.875, 18.875, 18.875, 19, 19.035713, 18.919643, 18.919643, 18.9375, 19, 19, 19.125, 19, 18.875, 18.642857, 18.5, 18.375, 18.25, 18.25, 18.383928, 18.75, 19, 19.3125, 19.25, 19.1875, 19.0625, 18.9375, 18.9375, 18.9375, 19, 19, 18.9375, 18.9375, 18.9375, 18.9375, 19, 18.9375, 18.875, 18.875, 18.8125, 18.8125, 18.9375, 19.044643, 19.080357, 18.979166, 18.723215, 18.451786, 18.553572, 18.616072, 18.9375, 19, 19.0625, 18.9375, 18.875, 18.875, 18.875, 19, 18.9375, 18.9375, 18.9375, 18.75, 18.625, 18.651787, 18.857143, 18.982143, 19, 18.875, 18.75, 18.75, 18.8125, 18.875, 18.9375, 18.9375, 18.9375, 18.9375, 19.026787, 19.169643, 19.232143, 19.125, 19, 18.875, 18.75, 18.8125, 18.75, 18.6875, 18.75, 18.857143, 18.928572, 18.875, 18.875, 18.8125, 18.8125, 18.9375, 18.9375, 19, 18.9375, 18.875, 18.6875, 18.5625, 18.5, 18.5, 18.5625, 18.5625, 18.5, 18.3125, 18.1875, 18.25, 18.4375, 18.625, 18.625, 18.4375, 18.1875, 18.125, 18.25, 18.294643, 18.1875, 18.125, 18, 18, 18, 18.0625, 18.125, 18.25, 18.375, 18.4375, 18.375, 18.3125, 18.3125, 18.375, 18.5625, 18.5625, 18.5625, 18.625, 18.6875, 18.875, 19, 19, 19, 19, 18.875, 18.75, 18.6875, 18.4375, 18.3125, 18.25, 18.125, 18.267857, 18.4375, 18.3125, 18.3125, 18.107143, 18, 18.116072, 18.0625, 18.1875, 18, 18.0625, 18.294643, 18.428572, 18.625, 18.5625, 18.375, 18.3125, 18.3125, 18.375, 18.375, 18.3125, 18.125, 18, 18.0625, 18.0625, 18.125, 18.125, 18.0625, 18.0625, 18, 18, 18, 18, 18, 18, 18, 18, 18.133928, 18.262501, 18.133928, 18.133928, 17.9375, 17.9375, 17.9375, 17.9375, 17.9375, 17.9375, 17.875, 17.75, 17.6875, 17.6875, 17.6875, 17.875, 18.0625, 18, 18.0625, 17.875, 17.6875, 17.75, 17.8125, 17.973213, 18, 18, 17.9375, 17.875, 17.875, 17.875, 17.723213, 17.6875, 17.6875, 17.625, 17.8125, 17.875, 17.9375, 18.0625, 18.0625, 18, 17.964287, 18.0625, 18.0625, 18.0625, 18, 17.875, 17.875, 17.9375, 18, 18, 18, 18, 18, 18, 18, 18, 18, 18, 18, 18, 18, 18, 18, 18, 18, 17.9375, 17.8125, 17.6875, 17.6875, 17.75, 17.875, 18, 18, 18, 18, 18, 18, 18.0625, 18.25, 18.4375, 18.6875, 18.875, 18.9375, 19, 19, 19, 19.0625, 19.25, 19.5, 19.75, 19.9375, 20, 20, 20.0625, 20.125, 20.1875, 20.25, 20.25, -10, -10, -10, -10, -10, -10, -10, -10, -10, -10, -10, -10, -10, -10, -10, -10, -10, -10, 20.125, 20.083332, 19.982143, 19.586309, 19.059525, 18.955357, 18.9375, 19.15625, 19.229166, 19.25, 19.5, 19.9375, 20.464287, 21, 22, 22.291666, 22.678572, 23.030611, 23.971727, 24.4375, 25.0625, 25.535713, 25.723213, 25.803572, 25.705357, 25.25, 24.506804, 23.638891, 23.083334, 21.35, 21.087303, 20.357143, 19.892857, 19.354166, 19.133928, 19.125, 19.125, 19.1875, 19.25, 19.482143, 19.785715, 19.8125, 19.9375, 19.875, 19.75, 19.5625, 19.375, 19.1875, 19.0625, 19.0625, 19.0625, 19, 19.0625, 19.1875, 19.107143, 19, 19.0625, 18.973213, 19.125, 19.125, 19.0625, 19.125, 19.0625, 19.0625, 19.0625, 19, 19, 19, 18.875, 18.8125, 18.875, 18.875, 19, 19.0625, 19, 19, 19, 18.866072, 18.674999, 18.803572, 18.803572, 19, 18.973213, 18.857143, 18.857143, 18.875, 19, 19.0625, 19.25, 19.125, 19, 18.705357, 18.53125, 18.53125, 18.53125, 18.580357, 18.5625, 18.75, 18.9375, 19.25, 19.25, 19.1875, 19.0625, 18.9375, 18.9375, 18.9375, 19, 18.9375, 18.8125, 18.8125, 18.8125, 18.875, 19.0625, 19.0625, 19.0625, 19.0625, 18.9375, 18.875, 18.9375, 19.107143, 19.080357, 18.916666, 18.678572, 18.401787, 18.375, 18.5, 18.8125, 18.973213, 19.0625, 18.9375, 18.875, 18.875, 18.8125, 18.8125, 18.6875, 18.625, 18.6875, 18.5625, 18.4375, 18.526787, 18.669643, 18.714287, 18.625, 18.5, 18.4375, 18.625, 18.6875, 18.8125, 18.875, 18.875, 18.9375, 18.875, 18.964287, 19.044643, 19.044643, 18.9375, 18.8125, 18.75, 18.6875, 18.8125, 18.8125, 18.8125, 18.9375, 18.9375, 18.9375, 18.875, 18.875, 18.8125, 18.8125, 18.9375, 18.9375, 19, 18.875, 18.75, 18.5625, 18.375, 18.375, 18.375, 18.375, 18.375, 18.25, 18.125, 18.0625, 18.1875, 18.4375, 18.625, 18.616072, 18.3125, 18.125, 18.125, 18.285713, 18.25893, 18.1875, 18.0625, 18, 18, 18, 18.0625, 18.125, 18.1875, 18.25, 18.25, 18.1875, 18.25, 18.3125, 18.375, 18.5, 18.375, 18.3125, 18.4375, 18.5625, 18.75, 18.875, 18.8125, 18.75, 18.8125, 18.8125, 18.75, 18.6875, 18.4375, 18.25, 18.1875, 18.125, 18.267857, 18.4375, 18.3125, 18.3125, 18.107143, 18.0625, 18.303572, 18.25, 18.375, 18.125, 18.125, 18.419643, 18.616072, 18.8125, 18.75, 18.5625, 18.375, 18.3125, 18.25, 18.1875, 18.1875, 18.0625, 18, 18.0625, 18.0625, 18.125, 18.125, 18.0625, 18.0625, 18, 18, 18, 18, 18, 18, 18, 17.9375, 18.098213, 18.369642, 18.241072, 18.258928, 18.0625, 18, 18, 18, 17.875, 17.901787, 17.8125, 17.508928, 17.517857, 17.5, 17.6875, 17.9375, 18.125, 18.0625, 18.0625, 17.875, 17.6875, 17.75, 17.8125, 17.973213, 18.0625, 18.0625, 18, 18, 17.9375, 17.875, 17.625, 17.5, 17.4375, 17.4375, 17.75, 17.910713, 17.9375, 17.9125, 17.991072, 17.928572, 17.964287, 17.9375, 17.8125, 17.8125, 17.75, 17.8125, 17.9375, 18, 18.0625, 18, 18, 18, 18, 17.9375, 17.9375, 17.9375, 17.9375, 18, 18, 18, 18, 18, 18, 18, 18, 17.9375, 17.8125, 17.6875, 17.6875, 17.75, 17.875, 18, 18, 18, 18, 18, 18, 18.125, 18.3125, 18.5, 18.75, 18.875, 18.9375
20.232143, 19.880953, 19.226191, 19.026785, 18.875, 19.03125, 19.0625, 19.166666, 19.416666, 19.791666, 20.309525, 20.833334, 21.625, 21.916666, 22.25, 22.705357, 23.440477, 23.90625, 24.53125, 25.035713, 25.223213, 25.366072, 25.330357, 25.1875, 25.026787, 24.547621, 24.285715, 23.966667, 23.674604, 21.773809, 20.87755, 20.098639, 19.592262, 19.375, 19.25, 19.375, 19.589287, 19.857143, 20.053572, 20.1875, 20.1875, 20.125, 20, 19.6875, 19.4375, 19.25, 19.0625, 19.0625, 19, 18.9375, 19, 19.035713, 18.892857, 18.892857, 18.875, 18.875, 19.125, 19.125, 19.125, 19.125, 19, 19, 19, 19, 19, 19, 18.875, 18.8125, 18.8125, 18.875, 19, 19.0625, 19.0625, 19, 19, 18.866072, 18.674999, 18.803572, 18.803572, 18.9375, 18.9375, 18.964287, 19.035713, 19.0625, 19.125, 19.1875, 19.375, 19.3125, 19.25, 18.955357, 18.78125, 18.84375, 18.90625, 18.955357, 18.875, 18.9375, 18.9375, 19.1875, 19.1875, 19.125, 19.0625, 18.9375, 18.9375, 18.875, 18.9375, 18.9375, 18.848213, 18.875, 18.875, 18.875, 19.125, 19.1875, 19.25, 19.25, 19.125, 19, 18.9375, 19, 18.910713, 18.875, 18.669643, 18.339287, 18.3125, 18.375, 18.6875, 18.910713, 19, 18.9375, 18.875, 18.875, 18.75, 18.75, 18.625, 18.5625, 18.625, 18.4375, 18.1875, 18.151787, 18.357143, 18.50893, 18.5, 18.5, 18.375, 18.5625, 18.625, 18.75, 18.875, 18.875, 18.9375, 18.8125, 18.839287, 18.919643, 18.857143, 18.839287, 18.848213, 18.75, 18.75, 18.8125, 18.8125, 18.8125, 18.9375, 18.9375, 18.9375, 18.9375, 18.9375, 18.9375, 18.9375, 19, 19, 19, 18.8125, 18.625, 18.375, 18.125, 18.125, 18.125, 18.125, 18.125, 18, 17.9375, 18, 18.294643, 18.5625, 18.75, 18.741072, 18.375, 18.1875, 18.25, 18.321428, 18.223215, 18.1875, 18, 18, 18, 18, 18.0625, 18.0625, 18.0625, 18.0625, 18, 18, 18.125, 18.25, 18.375, 18.4375, 18.3125, 18.1875, 18.1875, 18.25, 18.392857, 18.575001, 18.455357, 18.5625, 18.669643, 18.75, 18.75, 18.625, 18.375, 18.1875, 18.1875, 18.25, 18.375, 18.4375, 18.3125, 18.3125, 18.169643, 18.125, 18.303572, 18.1875, 18.375, 18.1875, 18.25, 18.482143, 18.616072, 18.6875, 18.625, 18.5625, 18.4375, 18.4375, 18.4375, 18.375, 18.3125, 18.1875, 18.0625, 18, 18, 18, 18, 18, 18, 18, 18, 18, 18, 18, 18, 18, 17.9375, 18.160713, 18.494642, 18.428572, 18.4375, 18.0625, 18, 17.9375, 18, 17.875, 17.964287, 17.848213, 17.508928, 17.625, 17.5, 17.75, 17.9375, 18.1875, 18.1875, 18.1875, 18.0625, 17.875, 17.875, 17.875, 17.9375, 18, 18, 18, 18, 18, 18, 17.8125, 17.6875, 17.5625, 17.5625, 17.785713, 17.875, 17.875, 17.7875, 17.928572, 17.866072, 17.901787, 17.75, 17.5625, 17.5625, 17.5625, 17.8125, 18, 18.0625, 18.125, 18, 18, 18, 18, 17.875, 17.8125, 17.8125, 17.8125, 17.9375, 18, 18, 18, 18, 18, 18, 18, 17.9375, 17.875, 17.8125, 17.8125, 17.875, 17.9375, 18, 18, 18, 18, 18, 18, 18.1875, 18.4375, 18.6875, 18.9375, 19, 19, 19, 19, 19.125, 19.25, 19.4375, 19.6875, 19.8125, 19.9375, 20.0625, 20.0625, 20.125, 20.1875, 20.1875, 20.25, 20.25, -10, -10, -10, -10, -10, -10, -10, -10, -10, -10, -10, -10, -10, -10, -10, -10, -10, -10, 20, 20.083334, 20.125, 19.901787, 19.208332, 19.026785, 18.8125, 18.96875, 19.0625, 19.125, 19.375, 19.78125, 20.339287, 20.8125, 21.25, 21.5625, 21.9375, 22.383928, 23.065477, 23.59375, 24.15625, 24.678572, 24.910713, 25.053572, 25.080357, 24.928572, 24.862499, 25, 24.982143, 25.042858, 24.792517, 24.119049, 23.678572, 22.617065, 20.321428, 19.803572, 19.5625, 19.8125, 20.125, 20.294643, 20.321428, 20.375, 20.25, 20.1875, 20.125, 19.75, 19.5625, 19.375, 19.1875, 19.1875, 19.125, 19.125, 19.1875, 19.160713, 18.955357, 18.892857, 18.8125, 18.875, 19.125, 19.125, 19.125, 19.125, 19, 19, 19, 19, 19.0625, 19.0625, 18.9375, 18.875, 18.8125, 18.875, 19.0625, 19.125, 19.125, 19.0625, 19, 18.866072, 18.674999, 18.803572, 18.803572, 18.9375, 19, 19, 19, 19, 19, 19.125, 19.25, 19.25, 19.25, 19.0625, 18.90625, 19.03125, 19.15625, 19.142857, 19.125, 19.0625, 18.9375, 19.25, 19.1875, 19.1875, 19.1875, 19.0625, 19.125, 19.125, 19.1875, 19.1875, 19.035713, 18.9375, 18.767857, 18.6875, 18.9375, 19.0625, 19.125, 19.125, 18.9375, 18.875, 18.875, 18.9375, 18.875, 18.75, 18.5625, 18.375, 18.375, 18.5, 18.75, 18.973213, 19, 19, 18.9375, 19, 18.848213, 18.714287, 18.625, 18.4375, 18.5, 18.3125, 18.0625, 18.026787, 18.232143, 18.32143, 18.25, 18.25, 18.1875, 18.4375, 18.5625, 18.75, 18.875, 18.875, 19, 19, 19, 18.9375, 18.8125, 18.714287, 18.785713, 18.8125, 18.875, 18.9375, 18.875, 18.8125, 18.8125, 18.8125, 18.875, 18.9375, 18.9375, 18.9375, 18.9375, 18.9375, 18.9375, 18.875, 18.625, 18.375, 18.1875, 18, 18.0625, 18.0625, 18.0625, 18.0625, 17.875, 17.901787, 18.107143, 18.339287, 18.5625, 18.75, 18.741072, 18.4375, 18.3125, 18.3125, 18.258928, 18.098215, 18.125, 18, 18.125, 18.1875, 18.125, 18.0625, 18, 18, 18, 18, 18, 18.125, 18.25, 18.375, 18.4375, 18.375, 18.241072, 17.979166, 17.946428, 17.955357, 18.075001, 17.955357, 18.125, 18.294643, 18.5, 18.625, 18.5, 18.3125, 18.125, 18.0625, 18.125, 18.125, 18.0625, 18, 18, 18, 18.1875, 18.1875, 18.142857, 18.375, 18.25, 18.3125, 18.482143, 18.553572, 18.5625, 18.5625, 18.5625, 18.4375, 18.4375, 18.375, 18.3125, 18.3125, 18.25, 18.25, 18.1875, 18.125, 18.0625, 18.0625, 18.0625, 18.125, 18.125, 18.0625, 18.0625, 18, 18, 18, 18, 17.9375, 18.151787, 18.419643, 18.464287, 18.282738, 17.955357, 17.875, 17.875, 18, 17.875, 18.026787, 18.035713, 17.758928, 17.9375, 17.75, 17.9375, 18.0625, 18.169643, 17.979166, 17.955357, 17.9375, 17.9375, 18, 18, 18, 18, 18, 18, 18, 18, 18, 17.875, 17.75, 17.5625, 17.5625, 17.723213, 17.8125, 17.875, 17.725, 17.866072, 17.866072, 17.9375, 17.8125, 17.625, 17.5625, 17.625, 17.875, 18.0625, 18.125, 18.125, 18, 18, 18, 18, 17.875, 17.8125, 17.8125, 17.8125, 17.9375, 18, 18, 18, 18, 18, 18, 18, 18, 18, 18, 18, 18, 18, 18, 18, 18, 18, 18, 18.0625, 18.3125, 18.5625, 18.8125, 19.0625, 19.0625, 19.0625
20.196428, 20.123215, 19.470238, 19.3125, 19, 19.09375, 19.125, 19.125, 19.3125, 19.625, 20.075893, 20.53125, 20.96875, 21.375, 21.9375, 22.375, 22.919643, 23.28125, 23.78125, 24.125, 24.375, 24.678572, 24.875, 24.803572, 24.737499, 24.8125, 25.008928, 25.3125, 25.214287, 24.857143, 24.479593, 23.719387, 21.583334, 20.653061, 20.262501, 20.458334, 20.589285, 20.625, 20.517857, 20.4375, 20.25, 20.125, 20, 19.625, 19.4375, 19.3125, 19.1875, 19.25, 19.1875, 19.1875, 19.25, 19.160713, 18.955357, 18.892857, 18.8125, 18.875, 19.125, 19.125, 19.125, 19.125, 19, 19, 19, 19, 19.125, 19.1875, 19.125, 19.125, 19, 19, 19.1875, 19.25, 19.25, 19.1875, 19.0625, 18.928572, 18.799999, 18.928572, 18.928572, 19, 19, 19, 19, 19, 19, 19.125, 19.25, 19.25, 19.25, 19.125, 19.03125, 19.28125, 19.46875, 19.455357, 19.375, 19.1875, 19, 19.1875, 19.0625, 19.0625, 19.125, 19.169643, 19.3125, 19.375, 19.4375, 19.366072, 19.014881, 18.821428, 18.580357, 18.5, 18.75, 18.9375, 19.0625, 19.125, 18.875, 18.8125, 18.8125, 18.875, 18.875, 18.75, 18.625, 18.5, 18.5625, 18.6875, 18.8125, 18.973213, 19, 18.9375, 18.875, 18.875, 18.598213, 18.464287, 18.4375, 18.25, 18.375, 18.25, 18.0625, 18.125, 18.160713, 18.214287, 18.232143, 18.125, 18.125, 18.25, 18.4375, 18.625, 18.8125, 18.875, 19, 19.125, 19.125, 19.0625, 18.875, 18.776787, 18.848213, 18.875, 19, 19, 18.866072, 18.674999, 18.741072, 18.741072, 18.875, 18.875, 18.875, 18.875, 18.875, 18.875, 18.8125, 18.6875, 18.4375, 18.25, 18.125, 18, 18.0625, 18, 17.9375, 17.9375, 17.75, 17.839287, 18.169643, 18.401787, 18.625, 18.8125, 18.803572, 18.5, 18.375, 18.3125, 18.133928, 17.991072, 18.1875, 18.125, 18.375, 18.375, 18.25, 18.125, 17.9375, 17.9375, 17.9375, 17.9375, 18, 18.125, 18.25, 18.3125, 18.375, 18.375, 18.241072, 17.979166, 17.821428, 17.642857, 17.637501, 17.517857, 17.75, 18.044643, 18.4375, 18.625, 18.625, 18.5, 18.3125, 18.1875, 18.125, 18, 17.875, 17.875, 17.9375, 18, 18.25, 18.3125, 18.3125, 18.5, 18.5, 18.5, 18.5, 18.4375, 18.3125, 18.3125, 18.375, 18.3125, 18.3125, 18.25, 18.1875, 18.25, 18.285713, 18.3125, 18.25, 18.125, 18.125, 18.1875, 18.25, 18.375, 18.375, 18.3125, 18.25, 18.125, 18.0625, 18, 18, 17.9375, 18.089287, 18.357143, 18.339287, 18.184525, 18.0625, 17.982143, 18.0625, 18.125, 18, 18.151787, 18.223213, 18.008928, 18.1875, 18, 18.125, 18.25, 18.294643, 18.166666, 18.142857, 18.0625, 18.0625, 18.0625, 18, 18, 18, 18, 18, 18, 18, 18, 17.9375, 17.875, 17.75, 17.8125, 17.910713, 17.9375, 17.9375, 17.725, 17.866072, 17.866072, 17.9375, 17.8125, 17.6875, 17.625, 17.625, 17.875, 18, 18.0625, 18.125, 18, 18, 18, 18, 17.875, 17.8125, 17.75, 17.75, 17.875, 17.9375, 18, 18, 18, 18, 18, 18, 18, 18, 18, 18, 18, 18, 18, 18, 18, 18, 18.0625, 18.1875, 18.4375, 18.625, 18.8125, 19, 19, 19.0625, 19.0625, 19, 19.125, 19.25, 19.5, 19.6875, 19.8125, 19.9375, 20, 20, 20.026787, 20.232143, 20.366072, 20.5, 20.583332, -10, -10, -10, -10, -10, -10, -10, -10, -10, -10, -10, -10, -10, -10, -10, -10, -10, -10, 20, 20.083334, 20.267857, 20.344643, 19.720238, 19.5625, 19.1875, 19.1875, 19.125, 19, 19.125, 19.40625, 19.825893, 20.28125, 20.78125, 21.223213, 21.75, 22.125, 22.5625, 22.9375, 23.4375, 23.9375, 24.285713, 24.5625, 24.6875, 24.553572, 24.424999, 24.5625, 24.696428, 25, 25.125, 25.1875, 25, 24.410713, 23.5, 22.833334, 21.57551, 21.104168, 21.017857, 20.8125, 20.455357, 20.205357, 20, 19.875, 19.8125, 19.5, 19.3125, 19.25, 19.1875, 19.25, 19.25, 19.25, 19.3125, 19.223213, 19.017857, 18.955357, 18.875, 18.9375, 19.0625, 19.0625, 19.0625, 19.0625, 19, 18.9375, 18.9375, 18.9375, 19.0625, 19.1875, 19.1875, 19.1875, 19.0625, 19.125, 19.3125, 19.4375, 19.4375, 19.3125, 19.1875, 19.0625, 19.0625, 19.0625, 19, 19, 19, 19, 19, 19, 19, 19.0625, 19.125, 19.125, 19.125, 19.0625, 19, 19.25, 19.375, 19.3125, 19.267857, 19.0625, 18.9375, 19.125, 19.0625, 19.0625, 19.1875, 19.294643, 19.4375, 19.5, 19.4375, 19.303572, 18.952381, 18.696428, 18.455357, 18.3125, 18.5, 18.75, 18.9375, 19, 18.75, 18.625, 18.625, 18.75, 18.875, 18.875, 18.8125, 18.75, 18.8125, 18.875, 18.8125, 18.8125, 18.8125, 18.75, 18.75, 18.75, 18.410713, 18.276787, 18.3125, 18.25, 18.4375, 18.375, 18.25, 18.25, 18.285713, 18.357143, 18.419643, 18.25, 18.1875, 18.1875, 18.4375, 18.5625, 18.8125, 18.8125, 18.875, 19.0625, 19.0625, 19.125, 19, 18.964287, 19.035713, 19, 19.0625, 18.9375, 18.803572, 18.737499, 18.910715, 18.928572, 19.0625, 18.875, 18.75, 18.75, 18.75, 18.75, 18.6875, 18.5, 18.25, 18.125, 18.0625, 18.0625, 18.0625, 18, 17.875, 17.75, 17.625, 17.714287, 18.107143, 18.401787, 18.625, 18.875, 18.9375, 18.75, 18.517857, 18.375, 18.098213, 18.089287, 18.3125, 18.3125, 18.5, 18.5, 18.375, 18.25, 18.125, 18.125, 18.0625, 18.125, 18.125, 18.125, 18.1875, 18.1875, 18.25, 18.3125, 18.241072, 17.916666, 17.696428, 17.517857, 17.512501, 17.455357, 17.75, 17.982143, 18.3125, 18.4375, 18.4375, 18.4375, 18.375, 18.375, 18.375, 18.25, 18.125, 18.0625, 18.0625, 18.0625, 18.1875, 18.25, 18.3125, 18.5, 18.5625, 18.5, 18.375, 18.25, 18.0625, 18.125, 18.1875, 18.25, 18.3125, 18.25, 18.25, 18.3125, 18.348213, 18.375, 18.3125, 18.125, 18.125, 18.1875, 18.1875, 18.339287, 18.482143, 18.491072, 18.4375, 18.25, 18.125, 18, 18, 18, 18.125, 18.25, 18.232143, 18.059525, 18, 17.982143, 18.125, 18.1875, 18.125, 18.25, 18.285713, 18.3125, 18.401787, 18.125, 18.1875, 18.25, 18.419643, 18.354166, 18.321428, 18.0625, 18.0625, 18, 18, 18, 18, 18, 18, 18, 18, 18, 18, 18, 17.9375, 18, 17.973213, 17.901787, 17.9375, 17.875, 17.9375, 17.9375, 17.9375, 17.875, 17.875, 17.875, 17.857143, 17.875, 17.9375, 17.9375, 18.0625, 18, 18, 18, 18, 17.9375, 17.875, 17.75, 17.75, 17.8125, 17.875, 18, 18.0625, 18.125, 18.125, 18.125, 18.0625, 18, 18, 18, 18, 18, 18, 18, 18, 18, 18, 18.0625, 18.1875, 18.4375, 18.5625, 18.75, 18.9375, 18.9375, 19.0625
