-10, -10, -10, 24, 24, 24, 24, 23.964287, 24.0625, 24.0625, 24.0625, 24.0625, 24, 24, 24, 24, 23.794643, 22.718254, 21.797621, 20.690477, 19.767857, 19.142857, 18.517857, 18.258928, 18.0625, 18.1875, 18.098213, 18.017857, 17.979166, 18, 18.0625, 17.991072, 17.678572, 17.291666, 17.008928, 17.008928, 17.0625, 17.0625, 17.125, 17, 17, 17, 17, 17, 16.943878, 16.964285, 17.09375, 17, 16.964287, 17.049107, 17.302084, 17.294643, 16.726191, 16.723213, 16.6875, 16.857143, 17, 17.258928, 17.512501, 17.508928, 17.508928, 17.375, 17.3125, 17.1875, 17, 16.8125, 16.857143, 16.5625, 16.6875, 16.857143, 16.830357, 16.714285, 16.357143, 15.847221, 15.511905, 14.023809, 13.87755, 13.591836, 13.425595, 13.258928, 13.3125, 13.3125, 13.375, 13.267857, 13.125, 13.125, 13.083333, -10, -10, -10, 19.625, 19.928572, 20, 19.9375, 20.151787, 20.223213, 20.1875, 20.3125, 20.1875, 20.25, 20.25, 20.1875, 20.0625, 20, 19.732143, 19.25, 19.1875, 19.098213, 19.116072, 18.809523, 18.633928, 18.450893, 18.322916, 18.227678, 18.15625, 18.125, 18, -10, -10, -10, -10, -10, -10, 23.75, 23.791666, 23.90625, 24.21875, 24.46875, 24.794643, 24.9375, 25.0625, 25.321428, 25.833334, 26.080357, 26.3125, 26.5, 26.875, 27.464287, 27.75, 28, 28.0625, 28.125, 28.1875, 28.419643, 28.794643, 29.0625, 29.508928, 29.848213, 30, 30.125, 30, 29.875, 29.75, 29.5625, 29.375, 29.241072, 28.720238, 28.321428, 28, 27.5625, 27.375, 27.125, 26.8125, 26.5625, 26.3125, 25.96875, 25.71875, 25.46875, 25.15625, 24.830357, 24.6875, 24.366072, 23.854166, 23.571428, 23.116072, 22.572916, 22.227678, 21.727678, 21.260416, 21.1875, 20.857143, 20.505951, 20.375, 20.25, 20.4375, 20.3125, 20.0625, 19.446428, 18.67857, 18.4375, 18.125, 17.96875, 17.71875, 17.40625, 17.03125, 16.901787, 16.78125, 16.53125, 16.361607, 16.15625, 16, 8, 7.6999998, 6.9375, 6.5892859, 6.3839283, 6.7172618, 6.8458333, 6.6130953, 6.5803571, 6.4464283, 6.6374998, 6.6428571, 6.8125, 7, 7.3125, 7.375, 7.375, 7.25, 7.125, 7.1875, 7.1875, 7.3125, 7.5, 7.625, 7.75, 7.875, 7.875, 7.75, 7.8125, 7.75, 7.75, 7.8125, 7.8125, 7.75, 7.625, 7.6875, 7.8482141, 7.9375, 8.0625, 8, 7.875, 7.8928571, 7.9499998, 7.6964283, 7.5089283, 7.5, 7.5625, 7.75, 8, 8, 8, 8, 8.0625, 8, 8, 8.0625, 8.25, 8.3583336, 8.041667, 7.9375, 7.6875, 7.8125, 7.8125, 7.875, 8, 8, 8, 8, 8, 8, 8, 8.125, 8.25, 8.5, 8.6875, 8.812501, -10, -10, -10, -10, -10, 18, 18, 18, 18.1875, 18.4375, 18.6875, 19.0625, 19.375, 19.625, 19.875, 20, 20, 19.928572, 19.75, 20, 20.303572, 20.669643, 21.1875, 21.5, 21.8125, 22.25, 22.5, 22.75, 22.9375, 23, 23.0625, 23.25, 23.5, 23.75, 23.875, 24, 24.0625, 24.25, 24.5625, 24.8125, 25.232143, 25.5, 25.625, 25.8125, 26.0625, 26.401787, 26.6875, 26.875, 26.875, 26.892857, 27.145834, 27.491072, 27.785713, 28.0625, 28.3125, 28.3125, 28.375, 28.508928, 28.895834, 29.285715, 29.5625, 29.75, 29.8125, 29.875, 29.9375, 30.125, 30.4375, 30.6875, 30.9375, 30.875, 31.053572, 31.464287, 31.660715, 31.875, 31.8125, 31.875, 32.232143, 33.116074, 33.660713, 33.9375, 34.0625, 34, 34, -10, -10, -10, -10, -10, -10, -10, -10, -10, -10, -10, -10, -10, -10, -10, -10, -10, -10, -10, 24.125, 24.049999, 23.964287, 24, 23.964287, 24.1875, 24.1875, 24.1875, 24.125, 24, 24, 24, 24, 23.651787, 22.670637, 21.273809, 20.169643, 19.611607, 19.075893, 18.486607, 18.227678, 18.0625, 18.1875, 18.098213, 18.080357, 18.104166, 18.1875, 18.25, 18.053572, 17.571428, 17.166666, 16.883928, 16.946428, 17.0625, 17.0625, 17.125, 17, 16.9375, 16.875, 16.6875, 16.5625, 16.669643, 16.625, 16.6875, 16.65625, 16.620537, 16.484694, 16.71875, 16.6875, 16.354166, 16.330357, 16.375, 16.607143, 16.6875, 16.883928, 17.075001, 17.008928, 17.071428, 16.910713, 16.776787, 16.625, 16.25, 16.214285, 15.958333, 16.3125, 16.4375, 16.607143, 16.75, 16.785713, 16.4375, 16.057823, 15.816327, 15.347221, 15.345238, 15.095238, 14.238095, 14.071428, 14.0625, 14, 13.866072, 13.434525, 13.267857, 13.208333, 13.111111, -10, -10, -10, 20, 20, 20, 20, 20.25, 20.3125, 20.375, 20.5, 20.4375, 20.4375, 20.375, 20.25, 20.0625, 19.9375, 19.678572, 19.375, 19.3125, 19.285713, 19.303572, 18.934523, 18.616072, 18.34375, 18.40625, 18.28125, 18.28125, 18.21875, 18.041666, -10, -10, -10, -10, -10, -10, 23.833334, 23.888887, 24.0625, 24.3125, 24.5625, 24.8125, 24.96875, 25.15625, 25.415178, 25.864584, 26.044643, 26.1875, 26.375, 26.8125, 27.44643, 27.6875, 27.875, 27.955357, 28.0625, 28.0625, 28.294643, 28.607143, 28.9375, 29.4375, 29.889881, 30.0625, 30.1875, 30.0625, 29.90625, 29.6875, 29.4375, 29.1875, 29.0625, 28.803572, 28.5, 28.3125, 27.866072, 27.479166, 27.196428, 26.75, 26.5, 26.25, 25.84375, 25.59375, 25.34375, 25.09375, 24.9375, 24.875, 24.616072, 24.104166, 23.758928, 23.258928, 22.697916, 22.227678, 21.790178, 21.40625, 21.3125, 21.0625, 20.755951, 20.6875, 20.625, 20.6875, 20.383928, 19.946428, 19.276785, 18.598213, 18.4375, 18.160713, 17.861607, 17.540178, 17.147322, 16.71875, 16.75, 16.700893, 16.59375, 16.486607, 16.34375, 7.75, 7.9166665, 7.7375002, 7.145833, 6.8928571, 6.625, 6.6339283, 6.7624998, 6.6964283, 6.7589283, 6.6875, 6.8125, 6.875, 6.9375, 7.1875, 7.375, 7.5, 7.5625, 7.375, 7.25, 7.1875, 7.125, 7.1875, 7.3125, 7.5, 7.5625, 7.7678571, 7.9107141, 7.8125, 8, 7.9375, 7.9375, 7.9375, 7.875, 7.8125, 7.625, 7.625, 7.75, 7.8125, 8, 8.0625, 8, 8, 8, 7.8125, 7.625, 7.625, 7.6875, 7.875, 8.0625, 8.0625, 8, 8, 8, 7.875, 7.875, 7.9910717, 8.4000006, 8.4297619, 8.1130953, 7.9375, 7.8125, 7.9375, 7.9375, 8, 8, 8, 8, 8, 8, 8, 8, 8.0625, 8.125, 8.375, 8.625, 8.8571434, -10, -10, -10, -10, -10, 18, 18, 18.0625, 18.25, 18.5, 18.75, 19, 19.276787, 19.607143, 19.866072, 20, 20, 20.0625, 20.0625, 20.3125, 20.625, 20.919643, 21.375, 21.625, 21.875, 22.3125, 22.5, 22.75, 22.9375, 22.9375, 23.0625, 23.1875, 23.4375, 23.6875, 23.8125, 24.0625, 24.125, 24.3125, 24.625, 24.875
-10, -10, -10, 24.25, 24.1, 23.928572, 23.9375, 23.901787, 24.1875, 24.25, 24.375, 24.25, 24.125, 24.0625, 24, 24, 23.571428, 21.632654, 20.833334, 19.973215, 19.278273, 18.790178, 18.34375, 18.15625, 18.0625, 18.1875, 18.160713, 18.142857, 18.229166, 18.3125, 18.3125, 18.116072, 17.508928, 17.104166, 16.821428, 16.821428, 17, 17.0625, 17.125, 17.0625, 17.0625, 17, 16.75, 16.5, 16.375, 16.25, 16.25, 16.28125, 16.21875, 16.15625, 16.21875, 16.1875, 16.1875, 16.1875, 16.25, 16.419643, 16.375, 16.285715, 16.357143, 16.428572, 16.6875, 16.473213, 16.214287, 15.9375, 15.8125, 15.8125, 15.75, 15.9375, 16, 16.169643, 16.3125, 16.285713, 16.080357, 16.008928, 15.919643, 15.458333, 15.653061, 15.571428, 15.190476, 14.974489, 14.857142, 14.5625, 14.303572, 13.872025, 13.705357, 13.645833, -10, -10, -10, -10, 20, 20, 20, 20, 20.25, 20.375, 20.5, 20.75, 20.75, 20.6875, 20.517857, 20.3125, 20, 19.875, 19.625, 19.4375, 19.375, 19.348213, 19.241072, 18.872023, 18.553572, 18.34375, 18.46875, 18.34375, 18.375, 18.28125, 18.125, -10, -10, -10, -10, -10, -10, -10, -10, 24.0625, 24.25, 24.5, 24.75, 24.9375, 25.25, 25.5, 25.75, 26, 26.125, 26.375, 26.875, 27.38393, 27.5625, 27.6875, 27.776787, 28.145834, 28.083334, 28.219643, 28.598215, 28.803572, 29.321428, 29.895832, 30.0625, 30.25, 30.0625, 29.8125, 29.5, 29.25, 29.0625, 29, 28.8125, 28.571428, 28.261906, 27.857143, 27.291666, 27.133928, 26.8125, 26.5625, 26.3125, 25.84375, 25.53125, 25.28125, 24.96875, 24.9375, 24.875, 24.741072, 24.354166, 24.008928, 23.508928, 22.822916, 22.379465, 22.084822, 21.665178, 21.333334, 21.133928, 21.142857, 21.223213, 21.125, 20.854166, 20.133928, 19.5, 18.839285, 18.379463, 18.09375, 17.879463, 17.549107, 17.290178, 16.991072, 16.5625, 16.625, 16.638393, 16.5625, 16.517857, 16.395834, 7.6666665, 7.833333, 7.7750001, 7.3541665, 7.1964283, 6.9375, 6.8125, 6.8125, 6.875, 6.9375, 6.9375, 7, 7, 7, 7.1875, 7.375, 7.5, 7.5625, 7.375, 7.1875, 7.0625, 7, 7.0625, 7.25, 7.5, 7.625, 8.1011906, 8.2440472, 8.0625, 8.25, 8.0625, 8.0625, 8.0625, 7.9375, 7.875, 7.7678571, 7.958333, 8.0446434, 8.0625, 8.125, 8.0625, 8, 7.9375, 7.9375, 7.8125, 7.6875, 7.75, 7.8125, 7.9375, 8.0625, 8.0625, 8, 7.9375, 7.9375, 7.8125, 7.8125, 7.9910717, 8.4000006, 8.3672619, 8.0505953, 7.9375, 7.9375, 8.125, 8.125, 8.125, 8, 8, 8, 8, 8, 8, 8, 8.0625, 8.125, 8.3125, 8.5, 8.7619057, 9.333334, -10, -10, -10, -10, 18, 18, 18.125, 18.3125, 18.5625, 18.8125, 19, 19.214287, 19.544643, 19.803572, 19.9375, 20, 20.125, 20.125, 20.392857, 20.857143, 21.160713, 21.5625, 21.75, 21.9375, 22.3125, 22.5, 22.75, 22.9375, 22.9375, 23.0625, 23.125, 23.375, 23.625, 23.8125, 24.125, 24.1875, 24.4375, 24.6875, 24.9375, 25.375, 25.625, 25.75, 25.875, 26, 26.214287, 26.5, 26.6875, 26.8125, 27.017857, 27.395834, 27.741072, 27.973213, 28.0625, 28.125, 28.125, 28.1875, 28.383928, 28.842262, 29.285715, 29.5625, 29.8125, 29.875, 30, 30, 30.125, 30.375, 30.6875, 31, 31.125, 31.339287, 31.607143, 31.803572, 32, 32, 32.25, 32.5, 32.991074, 33.410713, 33.625, 33.919643, 33.9375, 34, -10, -10, -10, -10, -10, -10, -10, -10, -10, -10, -10, -10, -10, -10, -10, -10, -10, -10, -10, 24.375, 24.183332, 23.991072, 24.0625, 24.03125, 24.28125, 24.40625, 24.53125, 24.375, 24.25, 24.125, 24, 24, 23.571428, 21.632654, 20.690477, 19.875, 19.242559, 18.683035, 18.290178, 18.09375, 18.0625, 18.125, 18.125, 18.25, 18.375, 18.375, 18.375, 18.116072, 17.517857, 17.3125, 17.0625, 17, 17.0625, 17.1875, 17.169643, 16.979166, 16.883928, 16.75, 16.5625, 16.375, 16.3125, 16.25, 16.25, 16.25, 16.125, 16, 16.0625, 16.0625, 16.125, 16.0625, 16, 16, 15.8125, 15.875, 15.875, 15.875, 16, 15.776786, 15.451786, 15.330357, 15.09375, 15.241072, 15.25, 15.5, 15.625, 15.732143, 15.8125, 15.571428, 15.616072, 15.446428, 15.455357, 15.4375, 15.5625, 15.6875, 15.52381, 15.383928, 15.3125, 15.125, 14.803572, 14.372025, 14.205357, 14.145833, -10, -10, -10, 20, 20, 20, 20, 20.0625, 20.3125, 20.5, 20.6875, 20.875, 20.8125, 20.6875, 20.455357, 20.25, 19.928572, 19.625, 19.4375, 19.3125, 19.375, 19.3125, 19.232143, 18.729166, 18.491072, 18.28125, 18.40625, 18.28125, 18.375, 18.34375, 18.375, -10, -10, -10, -10, -10, -10, -10, -10, 24, 24.208334, 24.4375, 24.75, 25.0625, 25.375, 25.625, 25.75, 25.964287, 26.232143, 26.5625, 27, 27.339287, 27.4375, 27.5, 27.714287, 28.252977, 28.395834, 28.567856, 28.803572, 28.866072, 29.267857, 30, 30.125, 30.375, 30.0625, 29.84375, 29.482143, 29.080357, 28.955357, 28.875, 28.75, 28.508928, 27.758503, 27.408163, 27.166666, 27.071428, 26.8125, 26.5625, 26.3125, 25.90625, 25.59375, 25.34375, 24.96875, 24.875, 24.8125, 24.75, 24.75, 24.473213, 23.892857, 23.157738, 22.723215, 22.428572, 21.946428, 21.583334, 21.383928, 21.366072, 21.473213, 21.3125, 20.916666, 20.1875, 19.354166, 18.839285, 18.486607, 18.209822, 17.796131, 17.433035, 17.227678, 17.053572, 16.669643, 16.479166, 16.46875, 16.375, 16.4375, 16.416668, 7.75, 7.833333, 7.8125, 7.5625, 7.4375, 7.1875, 7, 7, 7, 7, 7.0625, 7.0625, 7, 6.8928571, 7, 7.125, 7.3125, 7.4375, 7.3125, 7.1875, 7.125, 7.125, 7.1875, 7.375, 7.5, 7.5625, 8.0799322, 8.2431974, 8, 8.1875, 8, 7.9375, 7.9375, 7.75, 7.6875, 7.6428571, 7.770833, 7.9196429, 8, 8.0625, 8.0625, 8, 7.9375, 7.9375, 7.8125, 7.75, 7.8125, 7.875, 8, 8.0625, 8.0625, 8, 7.875, 7.8125, 7.6875, 7.6875, 7.9285717, 8.3285713, 8.2172613, 8.0505953, 7.9375, 8.0625, 8.1875, 8.1875, 8.1875, 8, 8, 8, 8, 8, 8, 8, 8.0625, 8.125, 8.25, 8.375, 8.666667, 9.2222223, -10, -10, -10, -10, 18, 18, 18.125, 18.375, 18.625, 18.875, 19, 19.026787, 19.32143, 19.660715, 19.866072, 20, 20.1875, 20.1875, 20.455357, 20.982143, 21.330357, 21.6875, 21.875, 22, 22.25, 22.4375, 22.6875, 22.875, 22.9375, 23.0625, 23.125, 23.375, 23.625, 23.8125, 24.1875, 24.3125, 24.5625, 24.875, 25.125
-10, -10, -10, 24.375, 24.266666, 24.053572, 24.125, 24.09375, 24.21875, 24.34375, 24.53125, 24.4375, 24.375, 24.25, 24.0625, 24, 23.428572, 21.25, 20.357143, 19.616072, 19.055059, 18.620535, 18.352678, 18.15625, 18.125, 18, 17.964287, 18.169643, 18.357143, 18.4375, 18.375, 18.1875, 17.705357, 17.375, 17.089287, 16.9375, 17, 17.1875, 17.107143, 16.854166, 16.696428, 16.5, 16.4375, 16.3125, 16.25, 16.25, 16.1875, 16.25, 16.1875, 16.0625, 16.0625, 16, 16, 15.866072, 15.6875, 15.6875, 15.5, 15.5625, 15.5, 15.4375, 15.5, 15.276786, 14.951786, 14.892857, 14.71875, 14.928572, 15, 15.125, 15.285714, 15.017857, 15.208333, 15.107143, 15.053572, 14.821428, 14.767857, 14.8125, 15, 15.3125, 15.544643, 15.633928, 15.75, 15.5, 15.196428, 14.791667, 14.642857, 14.583333, -10, -10, 20, 20, 20, 20, 20.0625, 20.1875, 20.5, 20.8125, 21, 21.0625, 20.830357, 20.5625, 20.267857, 20.125, 19.866072, 19.625, 19.4375, 19.25, 19.25, 19.1875, 19.089287, 18.705357, 18.491072, 18.25, 18.3125, 18.1875, 18.3125, 18.375, 18.59375, 19.6875, 20.428572, 20.666666, -10, -10, -10, -10, -10, 23.875, 24.083334, 24.357143, 24.625, 25.026787, 25.482143, 25.741072, 25.9375, 26.151787, 26.419643, 26.75, 27.0625, 27.232143, 27.3125, 27.375, 27.651787, 28.315477, 28.458334, 28.612499, 28.803572, 29.044643, 29.5, 30.28125, 30.34375, 30.46875, 30.026787, 29.572916, 29.178572, 28.767857, 28.705357, 28.625, 28.5625, 28.383928, 27.788691, 27.508928, 27.166666, 27.044643, 26.767857, 26.508928, 26.25, 25.9375, 25.625, 25.375, 25, 24.8125, 24.75, 24.8125, 24.833334, 24.369047, 23.821428, 23.241072, 22.901787, 22.6875, 22.321428, 21.895834, 21.696428, 21.553572, 21.535713, 21.267857, 20.916666, 20.125, 19.208332, 18.74107, 18.46875, 18.272322, 17.921131, 17.566963, 17.316963, 17.241072, 16.857143, 16.666666, 16.549107, 16.4375, 16.4375, 16.416668, 7.75, 7.7499995, 7.6875, 7.4375, 7.3125, 7.125, 7, 7, 7, 7, 7.1875, 7.25, 7.1875, 7.0803571, 7, 6.9375, 7, 7.0625, 7, 7.0625, 7.2321429, 7.3125, 7.4375, 7.5625, 7.5625, 7.625, 7.7823129, 7.8741498, 8.0625, 8.25, 8.0625, 8, 7.875, 7.625, 7.5, 7.5178571, 7.708333, 7.7946429, 7.9375, 8, 8, 8, 8, 8, 7.9375, 7.9375, 7.9375, 8, 8.0625, 8.0625, 8.0625, 8, 7.875, 7.8125, 7.75, 7.75, 7.9285717, 8.1499996, 8.0089283, 8.0089283, 7.9375, 8.0625, 8.125, 8.0625, 8.0892859, 8.0357141, 8, 8.0625, 8, 8, 8, 8, 8, 8.0625, 8.1875, 8.375, 8.8125, 9.25, -10, -10, -10, -10, 18, 18, 18.125, 18.3125, 18.5625, 18.8125, 18.875, 18.964287, 19.25893, 19.598215, 19.866072, 20.0625, 20.3125, 20.375, 20.642857, 21.107143, 21.455357, 21.75, 21.9375, 22, 22.125, 22.28125, 22.53125, 22.78125, 22.90625, 23.125, 23.25, 23.5, 23.75, 23.875, 24.1875, 24.3125, 24.5625, 24.9375, 25.25, 25.625, 25.875, 26, 26, 26, 26, 26.25, 26.5, 26.8125, 27.1875, 27.4375, 27.6875, 27.875, 28, 28.1875, 28.375, 28.5625, 28.75, 28.821428, 29, 29.1875, 29.5, 29.625, 29.8125, 29.955357, 30.1875, 30.4375, 30.875, 31.125, 31.4375, 31.6875, 31.8125, 32, 32.0625, 32.1875, 32.4375, 32.5625, 32.8125, 33.0625, 33.3125, 33.669643, 33.9375, 34.083332, -10, -10, -10, -10, -10, -10, -10, -10, -10, -10, -10, -10, -10, -10, -10, -10, -10, -10, -10, 24.25, 24.216667, 24.089287, 24.125, 24.09375, 24.09375, 24.21875, 24.46875, 24.5, 24.5625, 24.4375, 24.1875, 24.0625, 23.357143, 20.916668, 20, 19.303572, 18.836309, 18.526785, 18.401785, 18.375, 18.3125, 18.142857, 18.026787, 18.169643, 18.294643, 18.3125, 18.25, 18.017857, 17.395834, 17.0625, 16.839287, 16.8125, 16.9375, 17.1875, 17.107143, 16.791666, 16.571428, 16.3125, 16.25, 16.1875, 16.125, 16.1875, 16.125, 16.1875, 16.1875, 16.0625, 16.0625, 16, 15.9375, 15.678572, 15.366072, 15.34375, 15.09375, 15.15625, 15.125, 15.0625, 15.125, 14.928572, 14.6125, 14.517857, 14.34375, 14.491072, 14.5625, 14.625, 14.428572, 14.517857, 14.645833, 14.571428, 14.598214, 14.375, 14.267857, 14.28125, 14.53125, 14.955357, 15.263393, 15.508928, 15.708333, 15.583333, 15.357142, 15.166667, 15.642858, 15.690476, -10, -10, 20.208334, 20.1875, 20.25, 20.357143, 20.46875, 20.59375, 20.78125, 20.96875, 21.0625, 21.0625, 20.767857, 20.5, 20.205357, 20.0625, 19.866072, 19.6875, 19.5625, 19.375, 19.3125, 19.1875, 18.964287, 18.517857, 18.321428, 18.125, 18.0625, 17.9375, 18.046875, 18.15625, 18.552084, 19.208334, 19.833334, 20.177778, -10, -10, -10, -10, -10, 23.75, 24.020834, 24.401787, 24.6875, 25.120537, 25.513393, 25.772322, 25.90625, 26.116072, 26.526787, 26.866072, 27.125, 27.125, 27.25, 27.375, 27.696428, 28.315477, 28.458334, 28.612499, 28.866072, 29.107143, 29.57143, 30.28125, 30.3125, 30.4375, 29.928574, 29.208332, 28.8125, 28.455357, 28.580357, 28.625, 28.455357, 28.205357, 27.538691, 27.267857, 27.125, 27.035713, 26.767857, 26.508928, 26.25, 25.9375, 25.5625, 25.205357, 24.875, 24.625, 24.5625, 24.5625, 24.520834, 24.119047, 23.678572, 23.241072, 22.964287, 22.75, 22.383928, 21.895834, 21.696428, 21.553572, 21.473213, 21.205357, 20.916666, 20.303572, 19.565475, 19.098213, 18.90625, 18.566965, 18.052082, 17.745535, 17.495537, 17.5625, 17.357143, 17.032738, 16.608629, 16.321428, 16.1875, 16.166668, 7.75, 7.6666665, 7.5625, 7.3125, 7.1875, 7.0625, 7, 7, 7, 7, 7.1875, 7.25, 7.1696429, 7.0053573, 7.0535717, 6.9196429, 6.9375, 6.875, 6.8125, 7, 7.2946429, 7.4375, 7.625, 7.6875, 7.5625, 7.6875, 7.958333, 8.020833, 8.0982141, 8.0892859, 7.9375, 7.8125, 7.75, 7.5625, 7.5, 7.5803571, 7.833333, 7.9196429, 8.0625, 8.0625, 8, 8, 8, 8, 8, 8, 8, 8, 8, 8, 8, 8.0625, 7.9375, 7.875, 7.7678571, 7.6875, 7.8125, 7.875, 7.875, 7.9375, 7.9375, 8, 8.0625, 8.0625, 8.1517859, 8.2232141, 8.1875, 8.1875, 8.0625, 8, 8, 8, 8, 8.125, 8.25, 8.3125, 8.6220236, 9.1111107, -10, -10, -10, -10, 18, 18, 18.0625, 18.1875, 18.4375, 18.6875, 18.875, 19, 19.151787, 19.482143, 19.741072, 20, 20.3125, 20.4375, 20.705357, 21.107143, 21.348215, 21.625, 21.8125, 21.9375, 22.0625, 22.21875, 22.46875, 22.71875, 22.90625, 23.1875, 23.375, 23.625, 23.875, 23.9375, 24.1875, 24.375, 24.6875, 25.125, 25.4375
-10, -10, -10, 24.125, 24.166666, 24.125, 24.125, 24.03125, 23.90625, 23.9375, 24.125, 24.34375, 24.53125, 24.5, 24.3125, 23.955357, 22.952381, 20.511906, 19.607143, 19.125, 18.857143, 18.580357, 18.526785, 18.5, 18.4375, 18.267857, 18.089287, 18.169643, 18.232143, 18.25, 18.1875, 17.955357, 17.351191, 16.6875, 16.485119, 16.645834, 16.866072, 17.125, 17.044643, 16.729166, 16.446428, 16.25, 16.25, 16.25, 16.3125, 16.3125, 16.1875, 16.1875, 16.0625, 16, 15.919643, 15.714286, 15.6875, 15.366072, 15.116072, 15.09375, 14.90625, 14.96875, 14.9375, 14.8125, 14.8125, 14.616072, 14.3, 14.267857, 14.03125, 14.178572, 14.25, 14.25, 14.25, 14.205357, 14.333333, 14.321428, 14.285714, 14, 13.767857, 13.727678, 14.177083, 14.5625, 14.888393, 15.196428, 15.416666, -10, -10, -10, 18.333334, 18.5, 20.3125, 20.5625, 20.28125, 20.3125, 20.4375, 20.607143, 20.78125, 20.90625, 21.03125, 21.15625, 21.125, 21, 20.642857, 20.375, 20.125, 20, 19.928572, 19.75, 19.75, 19.625, 19.5625, 19.4375, 19.151787, 18.705357, 18.446428, 18.125, 17.892857, 17.6875, 17.703125, 17.875, 18.3125, 18.8125, 19.40625, 19.716665, -10, -10, -10, 23.25, 23.166668, 23.5625, 23.958334, 24.44643, 24.75, 25.214287, 25.544643, 25.803572, 25.9375, 26.116072, 26.526787, 26.866072, 27.0625, 27.0625, 27.1875, 27.375, 27.75, 28.169643, 28.375, 28.625, 28.8125, 29.116072, 29.57143, 30.28125, 30.28125, 30.40625, 29.897324, 29.114582, 28.714287, 28.455357, 28.6875, 28.696428, 28.351191, 28.133928, 27.767857, 27.625, 27.4375, 27.223213, 26.767857, 26.446428, 26.1875, 25.866072, 25.4375, 25.080357, 24.8125, 24.5625, 24.5, 24.46875, 24.302084, 23.900297, 23.459822, 23.116072, 22.875, 22.625, 22.25, 21.9375, 21.6875, 21.375, 21.1875, 20.955357, 20.875, 20.607143, 19.80357, 19.357143, 19.125, 18.839285, 18.208332, 18.035715, 17.926785, 17.946428, 17.803572, 17.336309, 16.619047, 16.267857, 16.0625, 16.111113, 7.7916665, 7.625, 7.4375, 7.1875, 7.0625, 7, 7, 7, 7, 7.0625, 7.2232141, 7.1428571, 7.0863094, 7.0886903, 7.2321429, 7.1071429, 7.0625, 6.9375, 6.8125, 7, 7.3571429, 7.5, 7.75, 7.8125, 7.625, 7.6875, 7.625, 7.625, 7.7232141, 7.6517859, 7.625, 7.5625, 7.6875, 7.6875, 7.6875, 7.8125, 7.875, 8, 8.125, 8.125, 8.0625, 8, 8.0625, 8.0625, 8.0625, 8.0625, 8.0625, 8.0357141, 7.9642859, 8, 7.9375, 8.0625, 8, 7.875, 7.7678571, 7.6875, 7.75, 7.875, 7.9375, 8, 8, 8.0625, 8.125, 8.1875, 8.2678576, 8.2232141, 8.1875, 8.125, 8.125, 8.125, 8.1875, 8.25, 8.25, 8.375, 8.5, 8.5, 8.7172623, -10, -10, -10, -10, -10, 18, 18, 18, 18.0625, 18.3125, 18.5625, 18.8125, 19, 19.089287, 19.419643, 19.678572, 19.9375, 20.25, 20.4375, 20.6875, 20.9375, 21.169643, 21.375, 21.625, 21.8125, 21.9375, 22.09375, 22.34375, 22.59375, 22.84375, 23.1875, 23.4375, 23.6875, 23.9375, 24, 24.25, 24.5, 24.8125, 25.1875, 25.401787, 25.732143, 25.928572, 26.0625, 26.0625, 26.0625, 26.0625, 26.25, 26.5625, 26.919643, 27.25, 27.4375, 27.625, 27.8125, 27.9375, 28.125, 28.3125, 28.5625, 28.8125, 28.9375, 29, 29.0625, 29.3125, 29.4375, 29.5625, 29.830357, 30.008928, 30.458334, 30.866072, 31, 31.25, 31.5, 31.75, 32.035713, 32.1875, 32.4375, 32.625, 32.875, 33.1875, 33.375, 33.625, 33.8125, 34, 34.083332, -10, -10, -10, -10, -10, -10, -10, -10, -10, -10, -10, -10, -10, -10, -10, -10, -10, -10, -10, 24, 24, 24, 24, 23.875, 23.75, 23.71875, 23.84375, 24.15625, 24.40625, 24.4375, 24.25, 23.705357, 21.484125, 20.071428, 19.285713, 18.9375, 18.75, 18.6875, 18.705357, 18.75, 18.625, 18.455357, 18.214287, 18.232143, 18.232143, 18.1875, 18.125, 17.892857, 17.413691, 16.741072, 16.422619, 16.645834, 16.741072, 17, 16.866072, 16.520832, 16.34375, 16.15625, 16.28125, 16.375, 16.5, 16.4375, 16.25, 16.1875, 15.9375, 15.875, 15.732143, 15.464286, 15.4375, 15.116072, 14.803572, 14.78125, 14.65625, 14.78125, 14.875, 14.8125, 14.8125, 14.6875, 14.428572, 14.041667, 13.892857, 13.875, 13.9375, 13.875, 13.8125, 13.830357, 14.020833, 14.107143, 14, 13.75, 13.5, 13.477678, 13.864583, 14.125, 14.34375, 14.696428, 14.966666, -10, -10, -10, 19.428572, 19.619047, 20.458334, 20.708334, 20.53125, 20.5625, 20.6875, 20.857143, 21.09375, 21.21875, 21.28125, 21.34375, 21.1875, 21, 20.642857, 20.4375, 20.1875, 20, 19.964287, 19.9375, 19.9375, 20, 19.875, 19.75, 19.535713, 19.098213, 18.446428, 18.044643, 17.642857, 17.4375, 17.390625, 17.5, 17.875, 18.053572, 18.494898, 18.819048, -10, -10, -10, 23.166666, 23.111113, 23.375, 23.75, 24.32143, 24.6875, 25.19643, 25.607143, 25.866072, 26.0625, 26.276787, 26.607143, 26.901787, 27.0625, 27.0625, 27.1875, 27.4375, 27.75, 28.0625, 28.125, 28.375, 28.625, 28.991072, 29.5625, 30.114582, 30.15625, 30.28125, 29.834824, 29.020832, 28.669643, 28.5625, 28.794643, 28.821428, 28.413691, 28.196428, 27.9375, 27.8125, 27.6875, 27.473213, 27.008928, 26.488094, 26.267857, 25.991072, 25.607143, 25.038691, 24.741072, 24.4375, 24.3125, 24.21875, 23.927084, 23.552084, 23.263393, 23.0625, 22.875, 22.5625, 22.25, 21.883928, 21.333334, 21.044643, 20.875, 20.767857, 20.732143, 20.345238, 19.708332, 19.285713, 19.125, 18.910713, 18.541666, 18.464287, 18.301785, 18.196428, 18.008928, 17.607143, 16.913691, 16.5625, 16.200001, 7.5, 7.5416665, 7.375, 7.25, 7.0625, 7, 7, 7, 7, 7, 7.125, 7.2232141, 7.1428571, 7.2113094, 7.3208332, 7.4821429, 7.3571429, 7.1875, 6.9375, 6.8125, 7.0625, 7.4196429, 7.5625, 7.75, 7.75, 7.625, 7.6875, 7.6875, 7.625, 7.5982141, 7.4642859, 7.4375, 7.5, 7.6875, 7.875, 8.0625, 8.2857141, 8.5, 8.5446434, 8.3928566, 8.2589283, 8.0625, 7.9375, 7.9375, 7.9375, 7.9375, 8, 8.0625, 8.1071424, 8.2142859, 8.25, 8.25, 8.3125, 8.25, 8.0625, 7.8928571, 7.8125, 7.875, 8.0625, 8.1160717, 8.0500002, 8.1785717, 8.1696434, 8.25, 8.25, 8.2678576, 8.2232141, 8.1875, 8.125, 8.125, 8.1875, 8.3125, 8.5, 8.625, 8.75, 8.8125, 8.6999998, 8.8611116, -10, -10, -10, -10, -10, 18, 18, 18, 18, 18.25, 18.5, 18.8125, 19.1875, 19.3125, 19.5625, 19.75, 19.9375, 20.25, 20.5, 20.8125, 21, 21.125, 21.3125, 21.5, 21.75, 22, 22.15625, 22.40625, 22.65625, 22.84375, 23.125, 23.375, 23.625, 23.875, 24, 24.25, 24.5, 24.8125, 25.125, 25.214287
-10, -10, -10, 24, 24, 24, 24, 23.8125, 23.625, 23.59375, 23.65625, 23.96875, 24.28125, 24.3125, 24.1875, 23.526785, 20.97279, 19.75, 19.035713, 18.875, 18.8125, 18.75, 18.767857, 18.8125, 18.625, 18.580357, 18.375, 18.25, 18.25, 18.125, 18.0625, 17.821428, 17.226191, 16.678572, 16.395832, 16.708334, 16.803572, 17, 16.857143, 16.3125, 16.174107, 16.03125, 16.15625, 16.3125, 16.4375, 16.3125, 16.125, 16, 15.6875, 15.625, 15.544643, 15.339286, 15.294643, 14.8125, 14.517858, 14.53125, 14.822917, 14.924107, 15.089286, 14.9375, 14.875, 14.8125, 14.616072, 14.229167, 13.892857, 13.839286, 13.78125, 13.78125, 13.6875, 13.651786, 13.723214, 13.75, 13.6875, 13.4375, 13.25, 13.227678, 13.552083, 13.75, 13.96875, 14.208333, 14.622222, -10, -10, -10, 20.375, 20.541666, 20.59375, 20.84375, 20.84375, 20.875, 21, 21.107143, 21.34375, 21.46875, 21.40625, 21.34375, 21.125, 20.875, 20.6875, 20.5625, 20.375, 20.25, 20.151787, 20.0625, 20, 20.0625, 20, 19.875, 19.75, 19.348213, 18.458334, 18.00893, 17.486607, 17.28125, 17.203125, 17.28125, 17.59375, 17.84375, 18.129463, 18.383333, -10, -10, -10, 23.1875, 23.125, 23.34375, 23.625, 24.214287, 24.75, 25.339287, 25.75, 26.0625, 26.1875, 26.401787, 26.669643, 26.901787, 27.0625, 27, 27.125, 27.520834, 27.75, 28, 28, 28.1875, 28.4375, 28.6875, 29.205357, 29.833332, 29.9375, 30.1875, 29.870537, 29.291666, 28.973215, 28.875, 29.044643, 29.008928, 28.538691, 28.258928, 28, 27.9375, 27.8125, 27.6875, 27.294643, 26.583332, 26.339285, 25.991072, 25.607143, 25.038691, 24.741072, 24.5, 24.3125, 24.09375, 23.78125, 23.59375, 23.34375, 23.1875, 22.875, 22.5, 22.1875, 21.821428, 21.261906, 20.773809, 20.705357, 20.75, 20.794643, 20.532738, 20.041666, 19.696428, 19.535713, 19.178572, 18.666666, 18.517857, 18.3375, 18.008928, 17.776785, 17.419643, 16.958332, 16.857143, 16.557142, 7.5, 7.5416665, 7.4583335, 7.375, 7.1875, 7.1875, 7.1875, 7.1875, 7.25, 7.1875, 7.25, 7.2232141, 7.0803571, 7.2113094, 7.3833332, 7.6071429, 7.4821429, 7.2767859, 7.0625, 7, 7.25, 7.5, 7.625, 7.75, 7.75, 7.6875, 7.6875, 7.625, 7.625, 7.5357141, 7.4642859, 7.5625, 7.625, 7.8125, 7.9375, 8.0625, 8.2321424, 8.645833, 8.7142859, 8.5178566, 8.3214283, 8.0625, 7.875, 7.75, 7.6875, 7.6875, 7.875, 8.0625, 8.0714283, 8.2767859, 8.3571434, 8.4375, 8.5625, 8.5, 8.3125, 8.0803566, 7.9375, 8, 8.1875, 8.3035717, 8.3000002, 8.4285717, 8.3571434, 8.375, 8.4375, 8.4285717, 8.2946434, 8.1875, 8.0625, 8.0625, 8.25, 8.4375, 8.75, 8.9375, 8.9375, 8.8303566, 8.5958328, -10, -10, -10, -10, -10, -10, 18, 18, 18, 18, 18.25, 18.5625, 18.982143, 19.25, 19.3125, 19.5, 19.625, 19.8125, 20.1875, 20.5, 20.848213, 21.0625, 21.0625, 21.151787, 21.419643, 21.678572, 22, 22.1875, 22.4375, 22.6875, 22.875, 23.0625, 23.3125, 23.5625, 23.8125, 24, 24.25, 24.5, 24.75, 25, 25.026787, 25.25893, 25.535715, 25.8125, 26.145834, 26.241072, 26.25, 26.383928, 26.833334, 27.089287, 27.375, 27.4375, 27.5625, 27.75, 27.875, 28.133928, 28.520834, 28.732143, 28.9375, 29, 29, 29, 29.25, 29.4375, 29.625, 29.875, 29.946428, 30.395834, 30.803572, 31.107143, 31.25, 31.5, 31.6875, 31.910713, 32.25, 32.5, 32.6875, 33, 33.3125, 33.5625, 33.8125, 34, 34, 34, -10, -10, -10, -10, -10, -10, -10, -10, -10, -10, -10, -10, -10, -10, -10, -10, -10, -10, -10, 24, 24.083334, 24.125, 24.125, 23.9375, 23.625, 23.53125, 23.53125, 23.78125, 24.09375, 24.125, 24.0625, 23.321428, 20.791666, 19.821428, 19.125, 19.0625, 18.9375, 18.875, 18.875, 18.75, 18.5625, 18.5, 18.375, 18.25, 18.3125, 18.1875, 18, 17.821428, 17.455357, 16.866072, 16.552082, 16.739584, 16.772322, 16.96875, 16.794643, 16.25, 16.111607, 15.96875, 16.15625, 16.3125, 16.4375, 16.3125, 16.0625, 15.9375, 15.625, 15.5625, 15.544643, 15.339286, 15.294643, 14.875, 14.589286, 14.475, 15.050595, 15.1875, 15.370536, 15.15625, 14.96875, 14.875, 14.669643, 14.083334, 13.714285, 13.660714, 13.78125, 13.78125, 13.75, 13.651786, 13.723214, 13.6875, 13.625, 13.375, 13.1875, 13.133928, 13.333333, 13.419643, 13.583333, 13.861111, -10, -10, -10, -10, 20.75, 20.833332, 20.875, 21, 21, 21.0625, 21.125, 21.15625, 21.34375, 21.40625, 21.34375, 21.3125, 21.125, 20.875, 20.75, 20.6875, 20.5625, 20.5, 20.401787, 20.25, 20.0625, 20.026787, 20, 19.875, 19.8125, 19.348213, 18.458334, 18.04018, 17.611607, 17.53125, 17.40625, 17.4375, 17.65625, 17.84375, 18.03125, 18.083334, -10, -10, -10, 23.125, 23.083332, 23.3125, 23.625, 24.214287, 24.8125, 25.526787, 25.875, 26.1875, 26.3125, 26.5625, 26.75, 26.973213, 27.0625, 27.0625, 27.1875, 27.520834, 27.6875, 27.8125, 27.8125, 28, 28.3125, 28.625, 29.133928, 29.666666, 29.84375, 30.09375, 29.84375, 29.5, 29.214287, 29.0625, 29.044643, 28.883928, 28.458334, 28.1875, 28, 28, 27.9375, 27.875, 27.535715, 26.624998, 26.348213, 26.053572, 25.794643, 25.333334, 24.991072, 24.75, 24.5, 24.3125, 24.0625, 23.8125, 23.5, 23.25, 22.9375, 22.5625, 22.3125, 22.008928, 21.386906, 20.898809, 20.767857, 20.75, 20.794643, 20.470238, 19.988094, 19.821428, 19.598213, 19.321428, 18.833334, 18.404762, 18.158928, 17.727678, 17.433035, 17.084822, 16.822916, 16.785715, 16.557142, 16.5, 7.5555553, 7.5, 7.2142859, 7.0208335, 7.125, 7.2946429, 7.375, 7.5, 7.375, 7.375, 7.2232141, 7.0178571, 7.2291665, 7.4583335, 7.5535717, 7.4375, 7.1517859, 7, 7, 7.25, 7.5, 7.6875, 7.8125, 7.875, 7.875, 7.75, 7.6875, 7.5625, 7.375, 7.4375, 7.5, 7.6875, 7.875, 8.0803566, 8.2755108, 8.469388, 8.958333, 8.9017859, 8.5803566, 8.3214283, 7.9910717, 7.625, 7.5, 7.375, 7.5, 7.8125, 8.0982141, 8.1339283, 8.3392859, 8.4196434, 8.5625, 8.6875, 8.625, 8.4375, 8.25, 8.125, 8.1875, 8.375, 8.4285717, 8.3625002, 8.4285717, 8.2946434, 8.3125, 8.375, 8.3392859, 8, 7.8214283, 7.6875, 7.8125, 8.125, 8.375, 8.75, 9, 8.9375, 8.7678566, 8.5541658, -10, -10, -10, -10, -10, -10, 18, 18, 18, 18, 18.25, 18.5625, 18.982143, 19.25, 19.3125, 19.5, 19.625, 19.8125, 20.125, 20.4375, 20.785713, 21, 21.0625, 21.151787, 21.419643, 21.678572, 22, 22.1875, 22.375, 22.625, 22.8125, 22.9375, 23.25, 23.5, 23.75, 24, 24.25, 24.5, 24.6875, 24.875, 24.839287
-10, -10, -10, 24, 24.166668, 24.25, 24.3125, 24.1875, 23.875, 23.75, 23.6875, 23.8125, 24, 24, 23.9375, 23.25, 20.791666, 19.821428, 19.125, 19.0625, 19, 19, 19, 18.875, 18.625, 18.5, 18.375, 18.25, 18.3125, 18.1875, 18, 17.758928, 17.4375, 17.116072, 16.71875, 16.78125, 16.71875, 16.84375, 16.669643, 16.0625, 15.861607, 15.71875, 15.90625, 16.0625, 16.1875, 16.0625, 15.8125, 15.6875, 15.4375, 15.375, 15.4375, 15.4375, 15.357143, 15, 14.651786, 14.4125, 15.014881, 15.223215, 15.370536, 15.28125, 15.09375, 15, 14.794643, 14.145834, 13.714285, 13.660714, 13.78125, 13.78125, 13.6875, 13.526786, 13.535714, 13.5, 13.5, 13.3125, 13.1875, 13.0625, 13.0625, 13.145833, 13.277778, -10, -10, -10, -10, 21, 20.875, 20.854166, 20.964287, 21.232143, 21.303572, 21.4375, 21.4375, 21.34375, 21.40625, 21.40625, 21.28125, 21.25, 21.125, 20.875, 20.84375, 20.875, 20.875, 20.875, 20.745537, 20.5, 20.0625, 19.857143, 19.8125, 19.6875, 19.6875, 19.25, 18.458334, 18.16518, 17.96875, 18.03125, 17.96875, 17.90625, 18.026787, 18.0625, 18.0625, 18, 17.666666, -10, -10, 23.375, 23.333332, 23.5625, 23.8125, 24.294643, 24.946428, 25.797621, 26.107143, 26.4375, 26.5, 26.6875, 26.875, 27.035713, 27.0625, 27.125, 27.3125, 27.645834, 27.75, 27.78125, 27.71875, 27.78125, 28.1875, 28.737499, 29.0625, 29.517857, 29.6875, 29.9375, 29.8125, 29.5625, 29.3125, 29.125, 28.973213, 28.705357, 28.446428, 28.1875, 28.0625, 27.9375, 27.875, 27.8125, 27.535715, 26.687498, 26.410713, 26.1875, 26.044643, 25.583334, 25.241072, 24.9375, 24.6875, 24.5, 24.3125, 24, 23.625, 23.375, 23.0625, 22.75, 22.5625, 22.258928, 21.699406, 21.184523, 20.910713, 20.821428, 20.794643, 20.541666, 20.321428, 20.1875, 19.973213, 19.705357, 19.261906, 18.416668, 17.9375, 17.489584, 17.148809, 16.875, 16.71875, 16.839287, 16.650892, 16.416666, 16.166668, 16, 6.9047618, 7.1145835, 7.28125, 7.5133929, 7.5625, 7.625, 7.5, 7.375, 7.3125, 7.3125, 7.5625, 7.6607141, 7.5892859, 7.5, 7.2142859, 7.1875, 7.25, 7.5, 7.6875, 7.875, 7.9375, 7.9375, 7.9375, 7.75, 7.6875, 7.625, 7.5, 7.5625, 7.625, 7.6875, 7.75, 7.8928571, 8.4761906, 8.5510197, 9, 8.8928576, 8.5357141, 8.2589283, 7.9285717, 7.625, 7.5, 7.375, 7.5625, 7.9375, 8.1607141, 8.2232141, 8.4375, 8.4910717, 8.875, 8.9375, 9, 8.7857141, 8.3839283, 8.1160717, 8.125, 8.25, 8.3660717, 8.3625002, 8.4285717, 8.2321434, 8.1875, 8.1875, 8.1607141, 7.9375, 7.6964283, 7.5625, 7.5625, 7.875, 8.125, 8.53125, 8.84375, 8.8125, 8.6904764, 8.4888887, -10, -10, -10, -10, -10, -10, 18, 18, 18, 18, 18.25, 18.5625, 19.044643, 19.3125, 19.375, 19.580357, 19.833334, 19.982143, 20.25, 20.5, 20.785713, 21, 21.0625, 21.214287, 21.482143, 21.741072, 22.0625, 22.1875, 22.3125, 22.5, 22.696428, 22.9375, 23.1875, 23.4375, 23.5625, 23.8125, 24.0625, 24.25, 24.4375, 24.6875, 24.732143, 24.901787, 25.232143, 25.508928, 26.166668, 26.357143, 26.4375, 26.571428, 26.895834, 26.982143, 27.1875, 27.3125, 27.5, 27.75, 28, 28.321428, 28.770834, 28.982143, 29.125, 29.1875, 29.1875, 29.1875, 29.4375, 29.5625, 29.8125, 30.125, 30.3125, 30.5625, 30.875, 31.169643, 31.375, 31.625, 31.75, 31.9375, 32.125, 32.3125, 32.5625, 32.8125, 33.0625, 33.3125, 33.5625, 33.8125, 33.96875, 34.041668, -10, -10, -10, -10, -10, -10, -10, -10, -10, -10, -10, -10, -10, -10, -10, -10, -10, -10, -10, 24, 24.166668, 24.25, 24.3125, 24.25, 24, 23.875, 23.8125, 23.875, 24, 24, 24, 23.357143, 21, 20.071428, 19.375, 19.25, 19.125, 19.0625, 19, 18.875, 18.625, 18.4375, 18.3125, 18.1875, 18.25, 18.1875, 18, 17.758928, 17.4375, 17.1875, 16.90625, 16.84375, 16.674107, 16.65625, 16.553572, 16.229166, 16.017857, 15.9375, 15.9375, 15.9375, 16, 15.875, 15.6875, 15.625, 15.46875, 15.40625, 15.46875, 15.46875, 15.357143, 15.0625, 14.776786, 14.475, 15.077381, 15.223215, 15.308036, 15.28125, 15.03125, 14.875, 14.678572, 14.229167, 13.821428, 13.785714, 13.84375, 13.84375, 13.75, 13.526786, 13.473214, 13.3125, 13.25, 13.125, 13.0625, 13, 13.0625, 13.194444, -10, -10, -10, -10, -10, 21, 20.9375, 20.875, 20.964287, 21.169643, 21.366072, 21.5, 21.5, 21.40625, 21.34375, 21.25, 21.0625, 20.96875, 20.90625, 20.8125, 20.90625, 21.0625, 21.125, 21.1875, 21.09375, 20.75, 20.3125, 19.982143, 19.9375, 19.84375, 19.78125, 19.450893, 18.927084, 18.683037, 18.53125, 18.46875, 18.34375, 18.334822, 18.630953, 18.6875, 18.625, 18.321428, 17.861111, -10, -10, 23.625, 23.583332, 23.75, 24, 24.419643, 25.008928, 25.877977, 26.214287, 26.5625, 26.6875, 26.8125, 26.9375, 27.0625, 27.125, 27.1875, 27.4375, 27.770834, 27.919643, 27.90625, 27.84375, 27.71875, 28.0625, 28.758333, 29, 29.517857, 29.625, 29.875, 29.8125, 29.5625, 29.3125, 29.125, 28.910713, 28.580357, 28.321428, 28.0625, 28, 27.9375, 27.8125, 27.6875, 27.419643, 26.708332, 26.392857, 26.125, 25.9375, 25.75, 25.53125, 25.3125, 25.0625, 24.875, 24.59375, 24.1875, 23.8125, 23.5, 23.178572, 22.8125, 22.5625, 22.25, 22.053572, 21.639879, 21.383926, 21.089285, 20.9375, 20.674999, 20.583334, 20.330357, 20.223213, 19.830357, 19.333334, 18.125, 17.571428, 17.114584, -10, -10, 16.40625, 16.648809, 16.575893, 16.375, 16.222223, 7, 6.8916664, 7.197917, 7.53125, 7.8258929, 7.8125, 7.8035717, 7.65625, 7.46875, 7.46875, 7.5, 7.75, 7.8482141, 7.7767859, 7.6875, 7.4017859, 7.4375, 7.6428571, 8.1374998, 8.0625, 8.1875, 8.09375, 8.03125, 8, 7.875, 7.8125, 7.8125, 7.8125, 8, 8.2321434, 8.1428576, 8.2142859, 8.2525511, 8.1964293, 8.4795914, 9.125, 8.7232151, 8.4642859, 8.1875, 7.9285717, 7.6875, 7.5625, 7.375, 7.5625, 7.875, 8.0982141, 8.2142859, 8.25, 8.3660717, 8.75, 8.875, 9.0625, 8.9107141, 8.5089283, 8.1160717, 7.8928571, 7.9553571, 8.354167, 8.520833, 8.3928566, 8.1964283, 8.0625, 8.125, 8.1607141, 7.9375, 7.6964283, 7.5625, 7.625, 7.9375, 8.1875, 8.59375, 8.78125, 8.770833, -10, -10, -10, -10, -10, -10, -10, -10, 18, 18, 18, 18, 18.25, 18.5625, 18.982143, 19.1875, 19.1875, 19.392857, 19.708334, 19.919643, 20.1875, 20.4375, 20.660713, 20.875, 21, 21.151787, 21.482143, 21.803572, 22.0625, 22.125, 22.25, 22.3125, 22.508928, 22.8125, 23, 23.25, 23.375, 23.625, 23.875, 24.0625, 24.25, 24.5, 24.669643
-10, -10, -10, 24, 24.166668, 24.25, 24.3125, 24.3125, 24.1875, 24.0625, 24, 24, 24, 24, 24, 23.535715, 21.442179, 20.476191, 19.696428, 19.375, 19.1875, 19.0625, 19, 18.9375, 18.6875, 18.4375, 18.25, 18.0625, 18.0625, 18.0625, 17.9375, 17.767857, 17.6875, 17.375, 17.09375, 16.90625, 16.674107, 16.65625, 16.625, 16.5, 16.25, 16.1875, 16.125, 16.0625, 16.125, 16, 15.8125, 15.6875, 15.59375, 15.46875, 15.40625, 15.40625, 15.25, 15.25, 15.098214, 14.689286, 14.973214, 15.017858, 15.09375, 15.15625, 14.90625, 14.6875, 14.428572, 13.979167, 13.821428, 13.821428, 14, 14, 13.9375, 13.6875, 13.5, 13.375, 13.3125, 13.375, 13.45238, 13.357142, 13.5, -10, -10, -10, -10, -10, 21, 21, 20.9375, 20.875, 20.964287, 21.169643, 21.397322, 21.5625, 21.5625, 21.46875, 21.3125, 21.125, 20.9375, 20.84375, 20.84375, 20.875, 20.96875, 21.1875, 21.25, 21.25, 21.21875, 20.875, 20.5625, 20.294643, 20.25, 20.09375, 19.90625, 19.620537, 19.34375, 19.21875, 19.1875, 19.125, 19, 18.959822, 19.193453, 19.1875, 19.125, 18.883928, 18.238094, -10, -10, 23.5, 23.479166, 23.834822, 24.232143, 24.607143, 25.133928, 25.895834, 26.089287, 26.375, 26.5, 26.669643, 26.875, 27.125, 27.25, 27.4375, 27.6875, 27.875, 27.982143, 27.90625, 27.90625, 27.78125, 28.125, 28.820833, 28.9375, 29.357143, 29.544643, 29.803572, 29.75, 29.5, 29.25, 29.0625, 28.848213, 28.517857, 28.258928, 28, 28, 27.875, 27.6875, 27.5, 27.241072, 26.791666, 26.571428, 26.375, 26.1875, 26, 25.71875, 25.3125, 25.125, 24.9375, 24.78125, 24.375, 24, 23.6875, 23.428572, 23.125, 22.9375, 22.607143, 22.339287, 22.11607, 21.449404, 21.142857, 20.8125, 20.487499, 20.422619, 20.142857, 20.125, 19.875, 19.404762, 17.958334, 17.392857, 17.052084, -10, -10, 16.291666, 16.388887, 16.291666, 16, 16.041668, 6.6666665, 6.6416664, 7.010417, 7.4151783, 7.8883929, 7.875, 7.8660717, 7.71875, 7.65625, 7.78125, 7.9375, 8.2946434, 8.3979588, 8.3979588, 8.4642859, 8.2857141, 8.3469391, 8.4013605, 9.4275513, 8.6428576, 8.6632652, 8.510417, 8.2455359, 8.0625, 8, 7.9375, 8.0803566, 8.3095236, 8.6020412, 8.8724489, 9.5500002, 10.208333, 10.220238, 10.229592, 10.142858, 9.625, 8.9910717, 8.3809528, 8.0625, 7.8035717, 7.6875, 7.5625, 7.5, 7.6875, 7.875, 8.1607141, 8.375, 8.3125, 8.3839283, 8.6875, 8.75, 9, 8.9107141, 8.5714283, 8.2410717, 7.9553571, 8.0178566, 8.291667, 8.333333, 8.2053566, 8.0089283, 7.9375, 8, 8.0357141, 7.8928571, 7.7589283, 7.625, 7.75, 7.9375, 8.1875, 8.5625, 8.75, 8.8125, -10, -10, -10, -10, -10, -10, -10, -10, 18, 18, 18, 18, 18.25, 18.5, 18.8125, 19.0625, 19.0625, 19.267857, 19.645834, 19.857143, 20.125, 20.583334, 20.803572, 21, 21.125, 21.25, 21.446428, 21.875, 22.0625, 22.125, 22.1875, 22.25, 22.383928, 22.75, 22.875, 23.0625, 23.1875, 23.4375, 23.6875, 23.875, 24.1875, 24.375, 24.625, 25.044643, 25.339287, 25.633928, 26.083334, 26.241072, 26.34375, 26.5, 26.625, 26.8125, 27, 27.1875, 27.375, 27.625, 28, 28.357143, 28.625, 28.875, 29, 29.125, 29.21875, 29.34375, 29.59375, 29.71875, 30, 30.25, 30.5, 30.75, 30.875, 31, 31.1875, 31.375, 31.5625, 31.821428, 32.145832, 32.366074, 32.625, 32.8125, 32.9375, 33.125, 33.375, 33.625, 33.96875, 34.125, -10, -10, -10, -10, -10, -10, -10, -10, -10, -10, -10, -10, -10, -10, -10, -10, -10, -10, -10, 23.875, 24, 24.0625, 24.1875, 24.25, 24.223213, 24.089287, 24.125, 24.098213, 24.0625, 24.0625, 24, 23.678572, 22.619049, 20.738096, 19.892857, 19.5, 19.375, 19.1875, 19.125, 19.0625, 18.75, 18.5, 18.25, 17.9375, 17.875, 17.875, 17.875, 17.8125, 17.75, 17.5, 17.1875, 17, 16.767857, 16.6875, 16.6875, 16.5625, 16.3125, 16.25, 16.1875, 16.1875, 16.25, 16.125, 15.9375, 15.6875, 15.53125, 15.34375, 15.15625, 15.15625, 15.0625, 15.0625, 14.973214, 14.714286, 14.776786, 14.848214, 14.9375, 15.0625, 14.875, 14.625, 14.375, 14.125, 14, 14, 14, 14, 13.8125, 13.5625, 13.3125, 13.1875, 13.258928, 13.729167, 14.787698, 14.976192, 14.416666, -10, -10, -10, -10, 21, 21, 21.071428, 21.270834, 21.208334, 21.201786, 21.464287, 21.647322, 21.9375, 21.9375, 21.705357, 21.477678, 21.21875, 21.03125, 20.90625, 20.84375, 20.875, 21.03125, 21.3125, 21.375, 21.464287, 21.504463, 21.125, 20.892857, 20.642857, 20.5625, 20.46875, 20.28125, 20.120537, 19.90625, 19.8125, 19.8125, 19.8125, 19.75, 19.741072, 19.943453, 19.8125, 19.6875, 19.760204, 19.756945, 21.21875, 21.78125, 22.8125, 23.4375, 23.897322, 24.401787, 24.6875, 25.133928, 25.645834, 25.839287, 26.125, 26.375, 26.651787, 26.875, 27.125, 27.3125, 27.5, 27.75, 28, 28.044643, 28.03125, 28.03125, 27.90625, 28.25, 28.945833, 29.270834, 29.589287, 29.732143, 29.866072, 29.75, 29.5, 29.25, 29, 28.785713, 28.455357, 28.133928, 27.964287, 28.035713, 27.875, 27.6875, 27.375, 27.125, 26.8125, 26.625, 26.375, 26.0625, 25.9375, 25.629463, 25.214287, 25.125, 24.90625, 24.8125, 24.46875, 24.15625, 23.875, 23.678572, 23.375, 23.25, 22.901787, 22.616074, 22.383928, 21.34524, 20.928572, 20.5, 20.237499, 20.235119, 20.017857, 20.0625, 19.732143, 18.904762, 17.642859, 17, 16.809525, -10, -10, -10, -10, -10, 16, 14.904762, 6.9166665, 7.0166664, 7.2395835, 7.5401783, 7.90625, 7.875, 7.9285717, 7.90625, 7.96875, 8.3258934, 8.5714283, 8.9897957, 10.398809, 10.541667, 10.791667, 10.791667, 10.809525, 10.650794, 10.677551, 10.625, 10.422619, 9.291667, 8.6913271, 8.4642859, 8.5, 8.5, 8.6989794, 10.263889, 10.738095, 11.029762, 11.083333, 11.071428, 10.964286, 10.964286, 10.877551, 10.25, 9.4183674, 8.7823124, 8.333333, 7.9464283, 7.875, 7.75, 7.75, 7.875, 7.9375, 8.125, 8.3125, 8.25, 8.3214283, 8.625, 8.75, 9.2410717, 9.2440472, 8.7172623, 8.3482141, 8.0267859, 8.3303566, 8.7648811, 8.7202377, 8.6811228, 8.5102034, 8.4081631, 8.3265305, 8.208333, 8.1785717, 8.03125, 8, 8.0625, 8.1875, 8.40625, 8.75, 8.9375, 9.1071434, -10, -10, -10, 10.875, -10, -10, -10, -10, 18, 18, 18, 18, 18.25, 18.5625, 18.982143, 19.25, 19.34375, 19.517857, 19.895834, 20.107143, 20.40625, 20.895834, 21.116072, 21.25, 21.25, 21.25, 21.392857, 21.9375, 22, 22.089287, 22.125, 22.1875, 22.383928, 22.75, 22.8125, 22.9375, 23.071428, 23.4375, 23.625, 23.8125, 24.0625, 24.25, 24.5625
-10, -10, -10, 23.875, 23.916666, 23.9375, 24.0625, 24.1875, 24.205357, 24.026787, 24.1875, 24.133928, 24.125, 24.125, 24, 23.857143, 23.129253, 21.142859, 20.285715, 19.821428, 19.958334, 19.729166, 19.375, 19.098213, 18.75, 18.5, 18.25, 18, 17.875, 17.875, 17.8125, 17.75, 17.6875, 17.5, 17.3125, 17.125, 16.892857, 16.8125, 16.75, 16.6875, 16.5, 16.375, 16.3125, 16.25, 16.25, 16.1875, 16.0625, 15.875, 15.71875, 15.46875, 15.21875, 15.09375, 15, 15.0625, 14.973214, 14.776786, 14.776786, 14.75, 14.875, 15, 14.875, 14.6875, 14.5, 14.28125, 14.15625, 14.09375, 14.03125, 14, 13.875, 13.6875, 13.5, 13.375, 13.446428, 13.988095, 15.258504, 15.632653, 15.595238, -10, -10, -10, -10, 21, 21.0625, 21.196428, 21.458334, 21.520834, 21.549999, 21.669643, 21.78125, 21.9375, 21.875, 21.705357, 21.540178, 21.40625, 21.28125, 21.15625, 21.03125, 21, 21.0625, 21.25, 21.25, 21.401787, 21.535713, 21.25, 21.142857, 20.892857, 20.8125, 20.78125, 20.71875, 20.65625, 20.46875, 20.4375, 20.4375, 20.678572, 20.714285, 20.7449, 20.622023, 20.1875, 20.053572, 19.96875, 20.505953, 21.526785, 22.0625, 22.828125, 23.25, 23.709822, 24.276787, 24.625, 25, 25.3125, 25.482143, 25.758928, 26.270834, 26.642857, 26.875, 27.1875, 27.4375, 27.625, 27.875, 28, 27.982143, 28, 28, 28.0625, 28.4375, 29.074406, 29.627975, 29.82143, 29.982143, 29.991072, 29.75, 29.5, 29.25, 28.9375, 28.8125, 28.598213, 28.205357, 28.107143, 28.098213, 28, 27.8125, 27.4375, 27.1875, 26.875, 26.6875, 26.375, 25.955357, 25.8125, 25.441963, 25.089287, 25.0625, 24.875, 24.84375, 24.5625, 24.3125, 24.0625, 23.866072, 23.5, 23.375, 22.964287, 22.616074, 22.348213, 21.264883, 20.75, 20.3125, 19.987499, 19.985119, 19.830357, 19.9375, 19.526787, 18.309525, 17.202381, 16.5, 15.666667, -10, -10, -10, -10, -10, -10, 9.5, 7.083333, 7.0999999, 7.2708335, 7.5089283, 7.875, 7.9375, 8.0535717, 8.1741066, 8.822917, 9.0051022, 10.458333, 10.803571, 11.178572, 11.341836, 11.535714, 11.571428, 11.469389, 11.034014, 11.155101, 10.964286, 10.862245, 10.351191, 10.288691, 10.208333, 10.375, 10.583333, 10.845238, 11.29762, 11.811225, 11.989797, 11.928572, 11.75, 11.763393, 11.866072, 11.741072, 11.380952, 11.125, 10.361112, 8.604166, 8.0892859, 7.875, 7.75, 7.75, 7.8125, 7.8125, 8, 8.1875, 8.1875, 8.3214283, 8.708333, 9, 9.4910717, 9.645833, 9.166666, 8.9081631, 8.6020412, 9.2678566, 9.6398811, 10.305555, 10.428571, 10.297619, 10.190476, 9.650794, 8.708333, 8.6473217, 8.515625, 8.46875, 8.59375, 8.6875, 8.890625, 9.21875, 9.4151783, 9.8154764, 11.357143, 11.660714, 11.625, 11.083333, 11.583334, -10, -10, -10, 17.333332, 17.65, 17.75, 18, 18.25, 18.5625, 18.982143, 19.3125, 19.46875, 19.625, 19.875, 20.09375, 20.375, 20.864584, 21.022322, 21.125, 21.125, 21.125, 21.339285, 22.083334, 22.107143, 22.214287, 22.1875, 22.25, 22.4375, 22.6875, 22.8125, 22.875, 23.142857, 23.708334, 23.928572, 24.1875, 24.375, 24.5, 24.705357, 25.044643, 25.214287, 25.46875, 25.71875, 25.90625, 26.0625, 26.3125, 26.5, 26.75, 27, 27.1875, 27.375, 27.625, 27.9375, 28.294643, 28.5625, 28.8125, 29, 29, 29.15625, 29.40625, 29.65625, 29.90625, 30.0625, 30.125, 30.3125, 30.5, 30.6875, 30.875, 31.0625, 31.25, 31.375, 31.633928, 32.020832, 32.241074, 32.544643, 32.916668, 33, 33.479168, 33.723213, 33.875, 34.125, 34.083332, -10, -10, -10, -10, -10, -10, -10, -10, -10, -10, -10, -10, -10, -10, -10, -10, -10, -10, -10, 23.875, 23.916666, 23.9375, 24.0625, 24.125, 24.142857, 24.026787, 24.395834, 24.383928, 24.375, 24.25, 24.0625, 24, 23.5, 21.750002, 20.737246, 20.206633, 20.880953, 20.537415, 19.625, 19.306547, 19.012501, 18.696428, 18.4375, 18.125, 17.9375, 17.875, 17.8125, 17.75, 17.6875, 17.5, 17.3125, 17.1875, 17.0625, 17, 16.9375, 16.8125, 16.625, 16.4375, 16.375, 16.3125, 16.25, 16.1875, 16.0625, 15.8125, 15.625, 15.375, 15.125, 15.0625, 15, 15.125, 15.066964, 14.933036, 14.933036, 14.84375, 14.9375, 15, 14.9375, 14.8125, 14.6875, 14.46875, 14.28125, 14.15625, 14.03125, 14, 13.875, 13.75, 13.625, 13.5625, 13.633928, 14.202381, 15.276191, 16.071428, 16.027777, -10, -10, -10, 21, 21, 21.125, 21.321428, 21.708334, 21.833334, 21.924999, 22.044643, 22.03125, 22.125, 22, 21.830357, 21.727678, 21.6875, 21.625, 21.5, 21.3125, 21.1875, 21.125, 21.125, 21.0625, 21.151787, 21.285713, 21.1875, 21.080357, 20.830357, 20.6875, 20.5625, 20.625, 20.6875, 20.6875, 20.8125, 20.9375, 21.125, 21.428572, 21.428572, 21.169643, 20.561224, 20.448978, 20.561224, 21.286459, 21.82366, 22.463541, 22.828125, 23.3125, 23.709822, 24.276787, 24.625, 24.9375, 25.125, 25.1875, 25.508928, 26.127977, 26.580357, 26.875, 27.125, 27.3125, 27.5625, 27.8125, 27.9375, 27.9375, 28, 28.0625, 28.3125, 28.75, 29.303572, 29.985119, 30.07143, 30.232143, 30.116072, 29.75, 29.5, 29.25, 29, 29, 28.830357, 28.309523, 28.25, 28.133928, 27.821428, 27.625, 27.25, 27.0625, 26.875, 26.6875, 26.375, 25.955357, 25.75, 25.285713, 24.866072, 24.875, 24.75, 24.8125, 24.5625, 24.3125, 24.0625, 23.875, 23.625, 23.5, 23.089287, 22.678574, 22.348213, 21.166668, 20.732143, 20.3125, 20.0625, 19.901787, 19.875, 19.758928, 19.110119, 17.738096, 16.494047, 15.785715, 15.071428, -10, -10, -10, -10, -10, -10, 8.9285717, 7.4166665, 7.375, 7.3125, 7.5089283, 8, 8.2946434, 8.4285717, 8.6989794, 9.9914961, 10.630952, 11.178572, 11.438775, 11.625, 11.767857, 11.8125, 11.839286, 11.892859, 11.511906, 11.535713, 11.53125, 11.441964, 11.072917, 11.158163, 11.035714, 11.178572, 11.428572, 11.724489, 12.238095, 12.491072, 12.5, 12.375, 12.3125, 12.294643, 12.428572, 12.303572, 12.04762, 11.785714, 10.921768, 8.770833, 8.1309528, 7.875, 7.8125, 7.9375, 7.9375, 7.9375, 8.125, 8.3125, 8.4821434, 8.6964283, 9.145833, 9.5, 9.9910717, 10.145833, 10.305555, 10.238095, 10.172619, 10.321428, 10.469388, 10.714286, 10.821428, 10.714286, 10.591836, 10.057823, 9.416666, 9.1473217, 9.015625, 8.90625, 8.90625, 8.9375, 9.078125, 9.40625, 9.7901783, 10.506803, 11.404762, 11.607142, 11.5, 11.125, 11.555556, 11.583334, -10, -10, 14.611111, 17.349998, 17.535713, 18.03125, 18.25, 18.625, 19.151787, 19.5, 19.71875, 19.8125, 20, 20.15625, 20.375, 20.864584, 21.022322, 21.0625, 21.0625, 21, 21.214287, 22.166668, 22.223215, 22.339287, 22.1875, 22.25, 22.4375, 22.625, 22.8125, 22.875, 23.142857, 23.833334, 24.160715, 24.357143, 24.291666, 24.354166, 24.663691
-10, -10, -10, 23.875, 23.916666, 23.9375, 24.0625, 24.125, 24.080357, 24.026787, 24.458334, 24.508928, 24.5625, 24.375, 24.125, 24, 23.580357, 22.291668, 22.184525, 21.797617, 21.809525, 21.465986, 20.142857, 19.931547, 19.575001, 18.988094, 18.696428, 18.375, 18.1875, 18.0625, 17.9375, 17.8125, 17.6875, 17.5625, 17.4375, 17.3125, 17.1875, 17.0625, 16.9375, 16.875, 16.75, 16.5625, 16.5, 16.4375, 16.375, 16.3125, 16.1875, 15.875, 15.5625, 15.3125, 15.0625, 15, 15.0625, 15.1875, 15.138393, 14.96875, 14.995536, 14.941964, 15, 15.0625, 15, 14.9375, 14.875, 14.65625, 14.40625, 14.21875, 14.03125, 14, 13.9375, 13.875, 13.8125, 13.8125, 13.794642, 14.166667, 14.859524, -10, -10, -10, -10, -10, 21, 21, 21.1875, 21.446428, 21.958334, 22.208334, 22.362499, 22.419643, 22.25, 22.25, 22.232143, 22.196428, 22.133928, 22.0625, 21.9375, 21.75, 21.5, 21.3125, 21.1875, 21, 20.875, 20.901787, 20.973213, 20.9375, 20.830357, 20.580357, 20.4375, 20.375, 20.5, 20.6875, 20.8125, 21, 21.1875, 21.4375, 21.625, 21.625, 21.544643, 21.336735, 21.523809, 21.782738, 21.911459, 22.44866, 23.026041, 23.328125, 23.625, 23.78125, 24.169643, 24.5, 24.75, 24.9375, 25.0625, 25.383928, 26.065477, 26.580357, 26.875, 27.0625, 27.1875, 27.4375, 27.6875, 27.8125, 27.9375, 28, 28.125, 28.5, 28.982143, 29.616072, 30.422619, 30.482143, 30.5, 30.25, 29.741072, 29.291666, 29.080357, 28.9375, 29.0625, 28.919643, 28.434523, 28.3125, 28.196428, 27.821428, 27.625, 27.25, 27.0625, 26.8125, 26.5625, 26.1875, 25.767857, 25.5625, 25.098213, 24.830357, 24.84375, 24.84375, 24.883928, 24.553572, 24.258928, 23.9375, 23.75, 23.5, 23.3125, 22.919643, 22.589287, 22.205357, 21.333334, 20.866072, 20.5, 20.3125, 20.116072, 19.854166, 19.571428, 18.589285, 17.166668, 16.098213, 15.285714, 14.705357, 14.354166, -10, -10, -10, -10, -10, 7.625, 7.4166665, 7.375, 7.3125, 7.5089283, 8.166667, 8.6875, 9.3367357, 10.011905, 10.777211, 11.183673, 11.625, 11.830357, 11.8125, 11.839286, 11.785714, 11.776786, 11.910715, 11.657739, 11.642857, 11.53125, 11.53125, 11.53125, 11.59375, 11.625, 11.75, 12.0625, 12.3125, 12.5625, 12.8125, 12.625, 12.5, 12.4375, 12.482143, 12.616072, 12.5, 12.3125, 12.125, 11.428572, 9.333333, 8.541667, 8.0625, 8, 8, 8, 8.0625, 8.21875, 8.46875, 8.7633934, 9.1887751, 9.7023802, 10.107142, 10.428572, 10.583333, 10.619047, 10.489797, 10.397959, 10.4375, 10.598214, 10.84375, 10.9375, 10.875, 10.767857, 10.363095, 9.802083, 9.6473217, 9.515625, 9.28125, 9.28125, 9.375, 9.5602684, 9.9375, 10.383928, 11.207482, 11.491072, 11.642857, 11.5625, 11.5625, 11.635417, 11.597222, 11.520834, -10, 13.095238, 17.474998, 17.357143, 18.09375, 18.1875, 18.571428, 19.297621, 19.678572, 19.96875, 20.0625, 20.1875, 20.28125, 20.375, 20.59375, 20.71875, 20.8125, 20.9375, 20.9375, 21.214287, 22.250002, 22.330359, 22.401787, 22.1875, 22.125, 22.375, 22.5625, 22.8125, 22.9375, 23.142857, 23.833334, 24.160715, 24.294643, 24.193451, 24.327381, 24.583334, 24.866072, 24.9375, 25.125, 25.34375, 25.59375, 25.84375, 26.21875, 26.5, 26.75, 27, 27.25, 27.5, 27.75, 27.9375, 28, 28.125, 28.25, 28.5625, 28.75, 28.9375, 29.1875, 29.4375, 29.732143, 29.875, 30, 30.1875, 30.375, 30.625, 30.875, 31, 31.1875, 31.375, 31.625, 31.8125, 32, 32.232143, 32.666668, 32.875, 33.416668, 33.598213, 33.75, 33.9375, 33.833336, -10, -10, -10, -10, -10, -10, -10, -10, -10, -10, -10, -10, -10, -10, -10, -10, -10, -10, -10, 23.875, 23.916666, 23.9375, 24.0625, 24.0625, 24.044643, 24.125, 24.520834, 24.660713, 24.6875, 24.4375, 24.1875, 24, 23.660715, 23.047621, 22.760204, 22.433672, 22.302084, 21.907738, 21.190475, 20.615646, 20.335714, 19.541666, 19.050594, 18.758928, 18.5, 18.3125, 18.125, 17.9375, 17.8125, 17.75, 17.6875, 17.5, 17.3125, 17.125, 17, 17, 17, 16.875, 16.75, 16.625, 16.5, 16.375, 16.25, 15.9375, 15.5625, 15.3125, 15.0625, 15, 15.0625, 15.25, 15.325893, 15.15625, 15.183036, 15.066964, 15, 15.0625, 15.0625, 15.0625, 15.0625, 14.96875, 14.691964, 14.361607, 14.102678, 14, 14, 14, 14, 14, 13.848214, 13.833333, 14.622223, -10, -10, -10, -10, 21, 21, 21.0625, 21.25, 21.517857, 21.982143, 22.303572, 22.5625, 22.5, 22.3125, 22.0625, 22.044643, 22.178572, 22.169643, 22.125, 22.0625, 21.875, 21.75, 21.5, 21.25, 20.875, 20.625, 20.5625, 20.5625, 20.6875, 20.6875, 20.517857, 20.4375, 20.3125, 20.4375, 20.625, 20.71875, 20.9375, 21.0625, 21.1875, 21.419643, 21.5625, 21.482143, 21.294643, 21.591837, 21.938776, 22.351191, 22.870535, 23.416666, 23.6875, 23.875, 23.8125, 23.9375, 24.205357, 24.583334, 24.866072, 25.0625, 25.383928, 26.065477, 26.580357, 26.875, 27.0625, 27.125, 27.375, 27.5625, 27.625, 27.8125, 27.875, 28.0625, 28.4375, 28.928572, 29.699406, 30.339287, 30.4375, 30.4375, 30.25, 29.803572, 29.345238, 29.017857, 29, 29.125, 29.107143, 28.684523, 28.473213, 28.223213, 27.821428, 27.5625, 27.25, 27, 26.75, 26.5, 26.1875, 25.892857, 25.6875, 25.241072, 24.866074, 24.90625, 24.90625, 24.839285, 24.5, 24.196428, 23.875, 23.625, 23.375, 23.0625, 22.6875, 22.375, 21.9375, 21.4375, 21.080357, 20.8125, 20.5625, 20.241072, 19.747023, 19.321428, 18.294643, 17.226191, 16.267857, 15.669643, 14.908164, 14.513888, 14.330357, 14.083334, -10, -10, -10, 7.375, 7.25, 7.25, 7.3125, 7.6339283, 8.4702387, 9.1785717, 9.9591837, 10.438775, 11.086309, 11.357143, 11.6875, 11.8125, 11.75, 11.901786, 11.910714, 11.901786, 12.035715, 11.720239, 11.580357, 11.4375, 11.46875, 11.59375, 11.78125, 11.90625, 12, 12.21875, 12.4375, 12.6875, 12.90625, 12.6875, 12.59375, 12.53125, 12.669643, 12.803572, 12.625, 12.375, 12.125, 11.464285, 9.5, 8.7559528, 8.25, 8.125, 8.125, 8.1875, 8.4196434, 8.71875, 9.09375, 9.3883934, 9.6651783, 10.020833, 10.3125, 10.625, 10.75, 10.875, 10.732143, 10.526786, 10.625, 10.669643, 10.8125, 10.90625, 10.875, 10.803572, 10.541667, 10.28125, 10.09375, 9.984375, 9.71875, 9.78125, 10, 10.279018, 10.6875, 11.133928, 11.627975, 11.741072, 11.75, 11.625, 11.625, 11.71875, 11.635417, 11.597222, 11.4375, 12.047618, 16.685715, 16.815475, 17.915178, 18.232143, 18.633928, 19.315477, 19.678572, 19.875, 19.9375, 19.9375, 19.96875, 20.03125, 20.15625, 20.34375, 20.5, 20.75, 20.875, 21.214287, 22.333334, 22.476191, 22.354166, 22.142857, 22.0625, 22.357143, 22.5625, 22.8125, 22.9375, 23.071428, 23.645834, 24.035715, 24.107143, 24.005951, 24.077381, 24.270834
-10, -10, -10, 23.75, 23.75, 23.8125, 24, 23.9375, 23.901787, 24.1875, 24.565477, 24.8125, 24.8125, 24.5625, 24.3125, 24.0625, 23.866072, 23.4375, 23.15625, 22.808037, 22.65625, 22.303572, 21.642857, 21.333334, 21.075001, 20.380951, 19.488094, 19.125, 18.875, 18.669643, 18.354166, 18.133928, 18.0625, 18.125, 18.125, 17.928572, 17.479166, 17.196428, 17.125, 17.1875, 17.3125, 17.25, 17.0625, 16.9375, 16.678572, 16.375, 16.25, 15.8125, 15.5, 15.25, 15, 15, 15.0625, 15.1875, 15.325893, 15.28125, 15.34375, 15.254464, 15.0625, 15, 15.0625, 15.169643, 15.1875, 15.125, 14.910714, 14.642857, 14.508928, 14.428572, 14.166667, 14.071428, 14, 14.0625, 13.883928, 13.711905, -10, -10, -10, -10, -10, 21.083334, 21.0625, 21.0625, 21.1875, 21.455357, 21.919643, 22.303572, 22.625, 22.5625, 22.375, 22.125, 22.107143, 22.241072, 22.232143, 22.125, 22.0625, 21.9375, 21.848213, 21.517857, 21.330357, 20.9375, 20.75, 20.625, 20.4375, 20.526787, 20.5625, 20.5, 20.4375, 20.3125, 20.375, 20.5625, 20.71875, 20.875, 21, 21.035713, 21.169643, 21.419643, 21.339287, 21.638393, 21.772322, 22.200893, 22.611607, 23.084822, 23.635416, 23.90625, 24.0625, 23.9375, 23.9375, 24.111607, 24.489584, 24.772322, 25.03125, 25.375, 25.919643, 26.50893, 26.8125, 27, 27, 27.1875, 27.3125, 27.4375, 27.6875, 27.8125, 28.0625, 28.375, 28.803572, 29.395834, 29.982143, 30.3125, 30.3125, 30.25, 29.803572, 29.345238, 29.017857, 29, 29.0625, 29.07143, 28.729166, 28.455357, 28.223213, 27.696428, 27.4375, 27.125, 26.84375, 26.625, 26.34375, 26.15625, 26, 25.78125, 25.428572, 24.991074, 24.96875, 24.90625, 24.776785, 24.4375, 24.133928, 23.8125, 23.5625, 23.3125, 22.9375, 22.625, 22.25, 21.8125, 21.4375, 21.1875, 21.0625, 20.848213, 20.383928, 19.747023, 18.988094, 18.008928, 17.392857, 16.785715, 16.255102, 15.541667, 14.563988, 14.303571, 14.166667, -10, -10, -10, 7.2916665, 7.2083335, 7.1875, 7.25, 7.6964283, 8.7113094, 9.6071434, 10.321428, 10.75, 11.169643, 11.25, 11.5, 11.6875, 11.75, 12.026786, 12.098214, 12.151786, 12.294643, 12.178572, 12, 11.8125, 11.708333, 11.708333, 11.875, 11.958333, 12, 12.208333, 12.46875, 12.6875, 12.828125, 12.6875, 12.65625, 12.53125, 12.53125, 12.5625, 12.375, 12.25, 11.955357, 11.107143, 9.4523811, 8.7380953, 8.3125, 8.125, 8.1875, 8.375, 8.7767859, 9.15625, 9.59375, 9.8883934, 10.09375, 10.1875, 10.375, 10.5625, 10.5625, 10.517857, 10.294643, 10.098214, 10.395833, 10.535714, 10.6875, 10.71875, 10.6875, 10.5625, 10.5, 10.34375, 10.1875, 10.125, 10, 10.125, 10.482143, 10.979592, 11.1875, 11.5625, 11.794643, 11.8125, 11.8125, 11.75, 11.75, 11.84375, 11.71875, 11.697917, 11.625, 11.9375, 14.55, 16.523809, 17.665178, 18.169643, 18.633928, 19.315477, 19.678572, 19.875, 19.9375, 19.875, 19.875, 19.9375, 20.09375, 20.375, 20.5625, 20.8125, 20.90625, 21.142857, 22.07143, 22.369049, 22.166666, 22.044643, 22, 22.339287, 22.5625, 22.8125, 22.9375, 23, 23.3125, 23.669643, 23.642857, 23.470238, 23.577381, 23.770834, 24.116072, 24.392857, 24.834822, 25.196428, 25.625, 26, 26.40625, 26.6875, 26.875, 26.9375, 27.0625, 27.3125, 27.607143, 27.8125, 27.875, 27.964287, 28.169643, 28.491072, 28.75, 28.8125, 28.9375, 29.125, 29.419643, 29.6875, 30, 30.3125, 30.625, 31.044643, 31.25, 31.25, 31.375, 31.5, 31.6875, 31.9375, 32.125, 32.1875, 32.4375, 32.75, 33.107143, 33.375, 33.625, 33.8125, 33.833336, -10, -10, -10, -10, -10, -10, -10, -10, -10, -10, -10, -10, -10, -10, -10, -10, -10, -10, -10, 23.5, 23.5, 23.5625, 23.75, 23.75, 23.776787, 24.125, 24.464287, 24.75, 24.75, 24.625, 24.375, 24.125, 23.9375, 23.5625, 23.25, 22.964287, 22.8125, 22.625, 22.392857, 22.125, 21.875, 21.544218, 20.093536, 19.785715, 19.535715, 19.318878, 18.940475, 18.653061, 18.517857, 18.535715, 18.78125, 18.584822, 17.90476, 17.617346, 17.464285, 17.6875, 17.8125, 17.633928, 17.4375, 17.125, 16.991072, 16.625, 16.392857, 15.875, 15.5, 15.3125, 15.0625, 15.125, 15.1875, 15.1875, 15.294643, 15.25, 15.3125, 15.285714, 15.125, 15, 15.125, 15.294643, 15.375, 15.4375, 15.285714, 15.080357, 15.008928, 14.928572, 14.595239, 14.154761, 14, 14.0625, 14.321428, 13.997278, -10, -10, -10, 21.625, 21.416668, 21.15625, 21.125, 21.0625, 21.1875, 21.455357, 21.919643, 22.366072, 22.625, 22.5625, 22.375, 22.125, 22.169643, 22.303572, 22.294643, 22.125, 22.0625, 22, 21.910713, 21.580357, 21.392857, 21, 20.875, 20.8125, 20.5625, 20.526787, 20.5, 20.375, 20.375, 20.375, 20.4375, 20.625, 20.78125, 20.875, 20.875, 20.848213, 20.919643, 21.169643, 21.125, 21.28125, 21.34375, 21.763393, 22.236607, 22.763393, 23.46875, 23.799107, 24, 23.9375, 23.875, 24.017857, 24.395834, 24.678572, 24.9375, 25.25, 25.75, 26.428572, 26.75, 27, 27, 27.125, 27.1875, 27.25, 27.375, 27.4375, 27.6875, 28, 28.491072, 29.083334, 29.625, 30.1875, 30.1875, 30.25, 29.803572, 29.345238, 29.017857, 28.9375, 28.9375, 28.964287, 28.8125, 28.5, 28.25, 27.767857, 27.4375, 27.125, 26.84375, 26.625, 26.397322, 26.09375, 26, 25.71875, 25.491072, 25.026787, 24.78125, 24.71875, 24.526785, 24.3125, 24.008928, 23.6875, 23.4375, 23.15625, 22.78125, 22.53125, 22.09375, 21.625, 21.3125, 21.0625, 20.991072, 20.723213, 20.383928, 19.747023, 19.095238, 18.21726, 17.714285, 17.3125, 16.857143, 16.008928, 15.022322, 14.352678, 14.125, -10, -10, 8, 7.2916665, 7.2083335, 7.125, 7.125, 7.5178566, 8.6904764, 9.6071434, 10.352678, 10.71875, 11.03125, 11.125, 11.375, 11.625, 11.875, 12.276786, 12.598214, 12.8125, 12.875, 12.6875, 12.375, 12.083333, -10, -10, -10, -10, -10, -10, 12.46875, 12.666667, 12.71875, 12.65625, 12.5, 12.3125, 12.296875, 12.25, 12.1875, 12.125, 11.75, 10.702381, 9.5714283, 8.8214283, 8.4375, 8.1875, 8.1875, 8.5625, 9.1339283, 9.53125, 9.90625, 10.03125, 10.03125, 10, 10.125, 10.25, 10.3125, 10.299107, 10.138393, 10.004464, 10.364583, 10.535714, 10.6875, 10.75, 10.75, 10.6875, 10.6875, 10.5625, 10.4375, 10.375, 10.3125, 10.5, 10.919643, 11.294643, 11.625, 11.875, 11.9375, 12, 12, 12, 12, 12.03125, 11.96875, 11.96875, 11.96875, 12.0625, 13.948979, 16.196428, 17.348213, 17.950893, 18.375, 19.065477, 19.491072, 19.75, 19.875, 19.875, 19.9375, 20.0625, 20.21875, 20.5, 20.6875, 20.9375, 21.09375, 21.267857, 21.863096, 22.002977, 21.729166, 21.741072, 22.020834, 22.455357, 22.75, 22.9375, 23, 23, 23.125, 23.375, 23.321428, 23.267857, 23.473213, 23.616072
-10, -10, -10, 23.25, 23.25, 23.375, 23.625, 23.6875, 23.776787, 24.125, 24.464287, 24.75, 24.75, 24.6875, 24.4375, 24.1875, 24, 23.5, 23.1875, 23, 22.875, 22.8125, 22.642857, 22.5, 22.571428, 22.346939, 21.777777, 21.5, 21.25, 20.988096, 20.777777, 20.589285, 20.333334, 20.083334, 19.62755, 19.418367, 19.194445, 19.005953, 18.833334, 18.4375, 18.5625, 18.446428, 17.964285, 17.571428, 17.397961, 16.948978, 16.559523, 16.017857, 15.625, 15.5, 15.25, 15.25, 15.21875, 15.15625, 15.34375, 15.40625, 15.375, 15.3125, 15.0625, 14.9375, 15.1875, 15.419643, 15.5625, 15.75, 15.589286, 15.267857, 15.258928, 15.204082, 14.720239, 14.217261, 14.0625, 14.1875, 14.87415, 15.577777, -10, -10, -10, 21.464285, 21.444445, 21.28125, 21.1875, 21.0625, 21.1875, 21.455357, 21.857143, 22.241072, 22.4375, 22.375, 22.3125, 22.1875, 22.125, 22.1875, 22.169643, 22, 22, 22, 21.910713, 21.580357, 21.392857, 21.0625, 20.9375, 20.875, 20.625, 20.526787, 20.5625, 20.4375, 20.4375, 20.5, 20.5625, 20.75, 20.90625, 20.9375, 20.875, 20.723213, 20.669643, 20.919643, 20.875, 21.15625, 21.34375, 21.799107, 22.12755, 22.658163, 23.46875, 23.767857, 24, 23.875, 23.8125, 23.924107, 24.302084, 24.647322, 24.90625, 25.25, 25.6875, 26.321428, 26.6875, 26.9375, 27, 27.0625, 27.0625, 27.0625, 27.0625, 27.1875, 27.4375, 27.6875, 28.196428, 28.770834, 29.428572, 30.169643, 30.1875, 30.3125, 29.875, 29.553572, 29.1875, 29, 28.9375, 29, 28.8125, 28.5625, 28.25, 27.767857, 27.40625, 27.03125, 26.6875, 26.46875, 26.272322, 25.96875, 25.875, 25.59375, 25.428572, 25.0625, 24.8125, 24.625, 24.330357, 24.196428, 23.875, 23.625, 23.375, 23.03125, 22.65625, 22.40625, 21.90625, 21.5, 21.25, 21, 20.919643, 20.473213, 20.205357, 19.767857, 19.282738, 18.613094, 18.107141, 17.875, 17.5, 16.491072, 15.386905, 14.401785, 14.1, -10, -10, -10, 7.6041665, 7.541667, 7.5, 7.5, 7.8526783, 8.7738094, 9.6428576, 10.424108, 10.888393, 11.09375, 11.125, 11.330357, 11.708333, 12.116072, 12.5625, 12.875, 13.125, 13.25, 13.21875, 12.96875, 12.833333, -10, -10, -10, -10, -10, -10, 12.458333, 12.638889, 12.625, 12.572917, 12.390625, 12.140625, 12.109375, 12.0625, 12.0625, 12.0625, 11.642857, 10.309524, 9.4285717, 8.7232141, 8.5, 8.3125, 8.375, 8.875, 9.4464283, 9.8125, 10.125, 10.125, 10, 9.875, 9.9375, 10, 10.0625, 10.049107, 9.9776783, 10.084822, 10.650297, 10.879464, 10.96875, 10.892857, 10.8125, 10.75, 10.75, 10.6875, 10.625, 10.5625, 10.625, 10.8125, 11.200893, 11.53125, 11.78125, 11.96875, 12, 12.0625, 12.0625, 12.0625, 12.125, 12.25, 12.419643, 12.5, 12.5625, 12.625, 13.142857, 15.530612, 16.869047, 17.772322, 18.366072, 18.919643, 19.419643, 19.6875, 19.875, 19.9375, 20.0625, 20.25, 20.40625, 20.625, 20.8125, 21.0625, 21.28125, 21.508928, 21.842262, 21.958334, 21.729166, 21.803572, 22.208334, 22.642857, 22.875, 23, 23, 23, 23.0625, 23.25, 23.227678, 23.116072, 23.3125, 23.553572, 24.241072, 24.669641, 25.040178, 25.227678, 25.745537, 26.120537, 26.5, 26.6875, 26.875, 26.9375, 27.0625, 27.3125, 27.607143, 27.8125, 28, 28.151787, 28.357143, 28.616072, 28.8125, 28.875, 29, 29.1875, 29.4375, 29.6875, 30.125, 30.4375, 30.75, 31.294643, 31.4375, 31.4375, 31.625, 31.625, 31.8125, 32.0625, 32.125, 32.1875, 32.375, 32.75, 33.276787, 33.625, 33.875, 34, 34, -10, -10, -10, -10, -10, -10, -10, -10, -10, -10, -10, -10, -10, -10, -10, -10, -10, -10, -10, 23.375, 23.333334, 23.4375, 23.625, 23.6875, 23.776787, 24.125, 24.464287, 24.75, 24.75, 24.6875, 24.4375, 24.1875, 24, 23.4375, 23.089287, 22.9375, 22.875, 23, 23, 22.9375, 22.875, 22.651787, 22.285715, 22.030613, 21.857143, 21.668367, 21.523808, 21.397959, 21.071428, 20.785715, 20.236607, 20.084822, 20.023808, 19.897959, 19.678572, 19.571428, 19.607143, 19.474489, 19.666666, 19.279762, 18.946428, 18.547619, 17.220238, 16.351191, 15.892857, 15.6875, 15.53125, 15.59375, 15.65625, 15.71875, 15.852678, 15.772322, 15.633928, 15.5, 15.25, 15.0625, 15.267857, 15.607143, 15.75, 15.9375, 15.803572, 15.5625, 15.5625, 15.366072, 14.970239, 14.467261, 14.25, 14.464286, 15.255953, 16.141497, 17.419643, 18.178572, 20.041668, 21.205357, 21.302084, 21.28125, 21.1875, 21, 21.15625, 21.40625, 21.65625, 22.03125, 22.25, 22.3125, 22.375, 22.375, 22.3125, 22.25, 22.125, 21.892857, 21.8125, 21.8125, 21.660713, 21.330357, 21.205357, 21, 21, 20.9375, 20.625, 20.401787, 20.3125, 20.25, 20.25, 20.375, 20.375, 20.526787, 20.857143, 20.928572, 20.9375, 20.785713, 20.625, 20.732143, 20.8125, 21.200893, 21.46875, 21.861607, 22.331633, 23.013607, 23.491072, 23.799107, 24, 23.9375, 23.9375, 24.09375, 24.34375, 24.65625, 24.90625, 25.25, 25.625, 26.151787, 26.5625, 26.8125, 27, 27.125, 27.15625, 27.1875, 27.15625, 27.28125, 27.5, 27.75, 28.21875, 28.65625, 29.334822, 30.214287, 30.25, 30.375, 29.875, 29.5, 29.25, 29, 29, 29, 28.875, 28.625, 28.3125, 27.767857, 27.34375, 27.03125, 26.723213, 26.486607, 26.28125, 25.9375, 25.78125, 25.4375, 25.28125, 25.0625, 24.75, 24.59375, 24.34375, 24.15625, 23.78125, 23.5, 23.25, 22.90625, 22.59375, 22.34375, 21.84375, 21.5, 21.25, 21, 20.982143, 20.571428, 20.285713, 19.875, 19.407738, 18.863094, 18.401785, 18.125, 17.50893, 16.383928, 15.535714, 14.549107, 14.308332, -10, -10, -10, 7.8055553, 8.166667, 8, 7.8303571, 7.9776783, 8.666667, 9.6309528, 10.459822, 11.058037, 11.21875, 11.25, 11.410713, 11.916666, 12.357143, 12.75, 13, 13.25, 13.375, 13.477678, 13.809524, 13.870749, -10, -10, -10, -10, -10, -10, -10, -10, 12.59375, 12.447917, 12.127232, 11.796875, 11.671875, 11.6875, 11.8125, 11.9375, 11.535713, 9.916667, 9.2857151, 8.625, 8.53125, 8.40625, 8.40625, 8.84375, 9.3392859, 9.6696434, 9.9375, 10, 9.875, 9.8125, 9.875, 9.875, 9.875, 9.7991066, 9.8705359, 10.227678, 10.775297, 11.022322, 11.03125, 10.892857, 10.75, 10.625, 10.625, 10.625, 10.6875, 10.75, 10.8125, 10.9375, 11.200893, 11.46875, 11.71875, 11.90625, 12, 12.0625, 12.0625, 12.0625, 12.125, 12.321428, 12.815475, 12.919643, 13, 12.9375, 13.285714, 15.019048, 16.869047, 17.772322, 18.303572, 18.857143, 19.357143, 19.6875, 19.9375, 20.0625, 20.1875, 20.375, 20.59375, 20.75, 20.9375, 21.1875, 21.40625, 21.625, 21.821428, 22, 22, 22.160715, 22.520834, 22.785715, 23, 23.125, 23.1875, 23.25, 23.3125, 23.410713, 23.316963, 23.241072, 23.375, 23.75
-10, -10, -10, 23.5, 23.5, 23.5625, 23.625, 23.625, 23.75, 24.0625, 24.565477, 24.8125, 24.8125, 24.625, 24.375, 24.125, 23.875, 23.3125, 22.991072, 22.910713, 22.875, 23.0625, 22.9375, 22.875, 22.8125, 22.6875, 22.4375, 22.25, 22.125, 21.96875, 22, 21.9375, 21.59375, 21.3125, 20.986607, 20.84375, 20.75, 20.625, 20.3125, 20.125, 20.125, 20.183672, 20.285715, 19.989796, 19.688778, 19.136057, 18.170069, 17.226191, 16.469387, 16.357143, 16.219387, 16.302084, 16.334822, 16.5, 16.581633, 16.272322, 16.071428, 15.9375, 15.875, 15.535714, 15.698979, 16.125, 16.1875, 16.25, 15.991072, 15.580357, 15.4375, 15.1875, 15.053572, 14.645833, 14.4375, 14.616072, 15.577381, 16.434523, 17.238096, 18.09127, 19.944445, 20.9375, 21.1875, 21.21875, 21.125, 21, 21.15625, 21.415178, 21.731251, 21.924107, 22.1875, 22.294643, 22.4375, 22.5625, 22.5, 22.375, 22.125, 21.767857, 21.625, 21.5, 21.4375, 21.375, 21.3125, 21.080357, 20.875, 20.6875, 20.4375, 20.1875, 20.125, 20.125, 20.125, 20.25, 20.1875, 20.276787, 20.607143, 20.785713, 20.75, 20.625, 20.4375, 20.40625, 20.65625, 21.013393, 21.34375, 21.705357, 22, 22.857143, 23.544643, 23.861607, 24, 24, 24, 24.1875, 24.4375, 24.75, 25, 25.3125, 25.6875, 26.151787, 26.5625, 26.75, 26.964287, 27.232143, 27.334822, 27.4375, 27.40625, 27.40625, 27.5, 27.6875, 28.09375, 28.697916, 29.626488, 30.392857, 30.4375, 30.4375, 29.9375, 29.4375, 29.080357, 28.8125, 28.75, 28.75, 28.6875, 28.5, 28.25, 27.767857, 27.28125, 26.924107, 26.629463, 26.361607, 26.3125, 25.96875, 25.78125, 25.424107, 25.21875, 25, 24.71875, 24.5625, 24.3125, 24.125, 23.71875, 23.375, 23.089287, 22.71875, 22.40625, 22.111607, 21.65625, 21.375, 21.1875, 21, 20.919643, 20.473213, 20.205357, 19.767857, 19.553572, 18.970238, 18.401785, 18.125, 17.473213, 16.580357, 15.749999, 14.736607, 14.391666, -10, -10, -10, -10, 8.8571424, 8.4375, 8.0892859, 8.0401783, 8.666667, 9.5952377, 10.53125, 11.227678, 11.34375, 11.375, 11.473213, 11.916666, 12.357143, 12.75, 13, 13.357143, 13.785714, 14.096939, 14.416666, 14.549319, 15.875, 15.75, 15.666667, -10, -10, -10, -10, -10, 12.5625, 12.510417, 12.210566, 11.984375, 11.828125, 11.8125, 11.90625, 11.9375, 11.5, 9.833334, 9.2142849, 8.5625, 8.53125, 8.46875, 8.3794641, 8.65625, 9.2321434, 9.5535717, 9.875, 10, 9.875, 9.8125, 9.8125, 9.8125, 9.8125, 9.8705359, 10.165178, 10.584822, 10.941964, 11.09375, 11.03125, 10.892857, 10.75, 10.6875, 10.75, 10.8125, 10.9375, 11, 11, 11, 11.15625, 11.40625, 11.65625, 11.90625, 12, 12.125, 12.125, 12.125, 12.1875, 12.383928, 12.898809, 13.226192, 13.333333, 13.541667, 13.897959, 15.993196, 17.181547, 17.897322, 18.366072, 18.857143, 19.232143, 19.5, 19.75, 19.9375, 20.125, 20.4375, 20.6875, 20.875, 21.0625, 21.3125, 21.5625, 21.8125, 22, 22, 22.0625, 22.196428, 22.583334, 22.803572, 23, 23.125, 23.1875, 23.25, 23.375, 23.473213, 23.46875, 23.589287, 23.75, 24.1875, 25.136906, 25.486609, 25.508928, 25.4125, 25.8125, 25.96875, 26.28125, 26.40625, 26.625, 27, 27.3125, 27.5, 27.75, 27.8125, 27.9375, 28.125, 28.25, 28.5, 28.75, 28.875, 29, 29.25, 29.5, 29.75, 30.125, 30.375, 30.625, 31, 31.25, 31.25, 31.5, 31.625, 31.8125, 32.0625, 32.1875, 32.375, 32.5625, 32.875, 33.169643, 33.4375, 33.625, 33.75, 33.833332, -10, -10, -10, -10, -10, -10, -10, -10, -10, -10, -10, -10, -10, -10, -10, -10, -10, -10, -10, 23.75, 23.75, 23.8125, 23.875, 23.8125, 23.875, 24.125, 24.565477, 24.8125, 24.8125, 24.5625, 24.3125, 24.0625, 23.8125, 23.25, 22.892857, 22.848213, 22.8125, 23.0625, 22.875, 22.75, 22.625, 22.5, 22.285713, 22.017857, 21.979166, 22, 22.0625, 22.125, 21.8125, 21.625, 21.392857, 21.3125, 21.25, 21.1875, 20.928572, 20.541666, 20.446428, 20.375, 20.5, 20.428572, 20.107143, 19.511906, 18.648809, 18.248301, 18.190475, 18.119047, 17.991072, 17.294218, 17.512754, 17.553572, 17.352678, 16.876488, 16.675594, 16.916668, 16.908163, 17.166666, 17.136904, 16.928572, 16.6875, 16.625, 16.303572, 15.830357, 15.6875, 15.214286, 15.142858, 15.25, 15.0625, 15.178572, 15.702381, 16.497023, 17.116072, 17.985119, 19.833334, 20.57143, 21, 21.125, 21.0625, 21, 21.09375, 21.290178, 21.543751, 21.674107, 22, 22.232143, 22.5, 22.6875, 22.625, 22.4375, 22.0625, 21.642857, 21.4375, 21.25, 21.25, 21.3125, 21.375, 21.205357, 20.96875, 20.65625, 20.34375, 20.09375, 20.0625, 20.125, 20.125, 20.1875, 20.0625, 20.089287, 20.419643, 20.660713, 20.6875, 20.5625, 20.3125, 20.21875, 20.46875, 20.888393, 21.28125, 21.767857, 22.1875, 23.178572, 23.651785, 23.90625, 24.0625, 24.125, 24.125, 24.34375, 24.53125, 24.78125, 25.03125, 25.3125, 25.625, 25.982143, 26.446428, 26.833334, 27.142857, 27.482143, 27.584822, 27.6875, 27.65625, 27.71875, 27.723213, 27.776787, 28.15625, 28.739582, 29.918154, 30.571428, 30.65625, 30.53125, 30.09375, 29.526787, 28.934523, 28.633928, 28.5, 28.5, 28.4375, 28.3125, 28.125, 27.6875, 27.174107, 26.861607, 26.535713, 26.267857, 26.227678, 26, 25.78125, 25.486607, 25.28125, 25.125, 25.03125, 24.8125, 24.5, 24.1875, 23.75, 23.40625, 23.026787, 22.354166, 22, 21.705357, 21.4375, 21.25, 21.09375, 20.9375, 20.866072, 20.535713, 20.174107, 19.705357, 19.4375, 19.053572, 18.508928, 18.041666, 17.285713, 16.339287, 15.416666, 14.683035, 14.391666, -10, -10, -10, -10, 9.1111107, 8.875, 8.4523811, 8.291667, 8.666667, 9.9047623, 10.9, 11.428572, 11.5, 11.4375, 11.473213, 11.979166, 12.464287, 12.875, 13.1875, 13.660714, 14.551021, 15.035714, 15.618054, 15.785714, 15.916667, 15.833333, 15.861112, -10, -10, -10, -10, -10, -10, 12.854167, 12.595983, 12.390625, 12.125, 12, 11.96875, 11.9375, 11.571428, 10, 9.2857141, 8.5803566, 8.46875, 8.40625, 8.3169641, 8.53125, 9.0625, 9.4732151, 9.8125, 10, 9.9375, 9.875, 9.875, 9.875, 9.875, 9.9642859, 10.258928, 10.678572, 10.973214, 11.09375, 11.03125, 10.892857, 10.75, 10.6875, 10.75, 10.8125, 10.9375, 11, 11, 10.9375, 11.03125, 11.28125, 11.575893, 11.84375, 12, 12.0625, 12.0625, 12.0625, 12.125, 12.321428, 12.773809, -10, -10, 13.958334, 15.761905, 16.408163, 17.529762, 18.178572, 18.6875, 19.125, 19.357143, 19.5625, 19.75, 19.875, 20.0625, 20.3125, 20.5625, 20.75, 21.0625, 21.375, 21.625, 21.9375, 22.125, 22.1875, 22.3125, 22.375, 22.5625, 22.75, 22.9375, 23.125, 23.1875, 23.321428, 23.625, 23.660713, 23.745537, 23.9375, 24.0625, 24.446428
-10, -10, -10, 24, 24, 24, 24, 23.9375, 23.9375, 24.1875, 24.627977, 24.8125, 24.875, 24.5625, 24.3125, 24.0625, 23.8125, 23.375, 23.017857, 22.875, 22.8125, 22.9375, 22.75, 22.5625, 22.375, 22.25, 22.098213, 21.892857, 21.916666, 22, 22.0625, 22.125, 21.875, 21.75, 21.625, 21.625, 21.625, 21.625, 21.357143, 20.708332, 20.517857, 20.3125, 20.4375, 20.366072, 20.017857, 19.538691, 19.075893, 18.614584, 18.62755, 18.4949, 18.456633, 18.026361, 18.280611, 18.080357, 17.795918, 17.148809, 16.988094, 17.431974, 17.586735, 17.714285, 17.581633, 17.5, 17.1875, 17, 16.75, 16.392857, 16.1875, 16.214285, 16.333334, 15.875, 15.625, 15.553572, 15.785714, 16.205357, 16.758928, 17.711309, 19.178572, 19.892859, 20.625, 20.892857, 21, 21, 21.03125, 21.165178, 21.356251, 21.424107, 21.8125, 22.107143, 22.4375, 22.625, 22.5625, 22.375, 22, 21.642857, 21.366072, 21, 21.0625, 21.15625, 21.40625, 21.276785, 20.959822, 20.602678, 20.28125, 20.09375, 20, 20.0625, 20.0625, 20.0625, 19.875, 19.776787, 19.982143, 20.098213, 20.151787, 20.232143, 20.116072, 20.09375, 20.28125, 20.60268, 20.879463, 21.196428, 21.866072, 22.946428, 23.571428, 23.875, 24.0625, 24.1875, 24.1875, 24.40625, 24.5625, 24.75, 25, 25.28125, 25.625, 25.919643, 26.383928, 26.770834, 27.142857, 27.607143, 27.834822, 28.0625, 28.03125, 28.09375, 27.955357, 27.732143, 28.010416, 28.635416, 29.757439, 30.370535, 30.515625, 30.390625, 29.96875, 29.386162, 28.715773, 28.415178, 28.25, 28.25, 28.25, 28.1875, 28.0625, 27.6875, 27.205357, 26.955357, 26.691963, 26.455357, 26.383928, 26.15625, 25.9375, 25.611607, 25.46875, 25.25, 25.0625, 24.84375, 24.46875, 24.09375, 23.625, 23.245537, 22.839287, 22.166666, 21.767857, 21.455357, 21.25, 21.125, 21.03125, 20.875, 20.8125, 20.598213, 20.174107, 19.705357, 19.375, 19.053572, 18.544643, 17.75, 17, 16.276787, 15.395833, 14.852678, 14.491667, -10, -10, -10, -10, -10, 9, -10, -10, -10, 10.142858, 11.021428, 11.321428, 11.4375, 11.3125, 11.392857, 11.770833, 12.285715, 12.8125, 13.303572, 13.964286, 14.959185, 15.428572, 15.708333, 15.973215, 16.354166, 16.303572, 16.360119, 16.839287, 16.566666, -10, -10, -10, -10, 13.2, 12.914286, 12.75, 12.4, 12, 11.96875, 11.9375, 11.571428, 9.9499998, 9.0535717, 8.3928566, 8.28125, 8.2544641, 8.0223217, 8.135417, 8.770833, 9.2142859, 9.5625, 9.75, 9.8125, 9.875, 9.9375, 10.03125, 10, 10.151786, 10.419643, 10.629464, 10.8125, 10.875, 10.9375, 11, 10.9375, 10.875, 10.875, 10.875, 10.9375, 11, 11, 11.008928, 11.25, 11.4375, 11.732143, 11.875, 12, 12.0625, 12.0625, 12.0625, 12.0625, 12.133928, 12.555554, -10, -10, 14.738096, 16.795918, 17.142857, 18.008928, 18.482143, 18.8125, 19.1875, 19.3125, 19.5, 19.6875, 19.875, 20, 20.25, 20.5, 20.6875, 21.0625, 21.375, 21.625, 21.875, 22.0625, 22.125, 22.1875, 22.25, 22.4375, 22.625, 22.875, 23.125, 23.1875, 23.321428, 23.625, 23.660713, 23.776787, 24, 24.1875, 24.571428, 25.145834, 25.397322, 25.459822, 25.56875, 25.816963, 25.910713, 26.09375, 26.21875, 26.508928, 27.107143, 27.3125, 27.4375, 27.5625, 27.6875, 27.910713, 28.125, 28.3125, 28.5, 28.625, 28.6875, 28.6875, 28.821428, 29.416666, 29.75, 30, 30.1875, 30.3125, 30.5, 30.8125, 30.9375, 31.25, 31.625, 31.919643, 32.125, 32.25, 32.3125, 32.4375, 32.6875, 32.8125, 33.125, 33.3125, 33.5, 33.666668, -10, -10, -10, -10, -10, -10, -10, -10, -10, -10, -10, -10, -10, -10, -10, -10, -10, -10, -10, 24, 24, 24, 24, 23.9375, 24, 24.25, 24.690477, 24.875, 24.875, 24.5625, 24.3125, 24.0625, 23.875, 23.5625, 23.241072, 23.0625, 22.875, 22.8125, 22.5625, 22.3125, 22.1875, 22.125, 22.035713, 21.892857, 21.854166, 21.9375, 22, 22.0625, 21.9375, 21.8125, 21.6875, 21.6875, 21.625, 21.6875, 21.464287, 20.663689, 20.401785, 20.125, 20.1875, 20.1875, 19.955357, 19.413691, 19.040178, 18.90625, 18.790178, 18.620537, 18.571428, 18.226191, 18.508928, 18.392857, 17.857143, 17.470238, 17.354166, 17.690477, 17.857143, 18.09375, 18.03125, 17.90625, 17.78125, 17.4375, 17.125, 16.767857, 16.5625, 16.714285, 16.714285, 16.3125, 16.0625, 15.901786, 15.857143, 16.098213, 16.540178, 17.407738, 18.739796, 19.489796, 20.40625, 20.767857, 20.9375, 21.0625, 21.0625, 21.071428, 21.164286, 21.142857, 21.5, 21.857143, 22.1875, 22.375, 22.3125, 22.125, 21.875, 21.6875, 21.491072, 21.1875, 21.1875, 21.21875, 21.135416, 20.982143, 20.647322, 20.352678, 20.15625, 20.03125, 20, 20, 19.9375, 19.9375, 19.8125, 19.75, 19.8125, 19.794643, 19.808037, 19.950893, 19.959822, 20, 20.09375, 20.245537, 20.473213, 20.821428, 21.544643, 22.541666, 23.455359, 23.803572, 24.125, 24.25, 24.25, 24.40625, 24.4375, 24.625, 24.875, 25.21875, 25.625, 25.919643, 26.383928, 26.770834, 27.142857, 27.607143, 27.928572, 28.25, 28.3125, 28.366072, 28.017857, 27.732143, 27.916666, 28.541666, 29.569939, 30.075893, 30.265625, 30.203125, 29.861607, 29.177826, 28.474703, 28.165178, 28, 28, 28, 28, 27.9375, 27.625, 27.205357, 26.892857, 26.65625, 26.53125, 26.46875, 26.28125, 26, 25.642857, 25.5, 25.25, 24.991072, 24.625, 24.241072, 23.705357, 23.290178, 22.933037, 22.526787, 21.854166, 21.455357, 21.142857, 21.0625, 21, 20.96875, 20.8125, 20.5625, 20.276787, 19.96875, 19.580357, 19.375, 19.053572, 18.535715, 17.520834, 16.785715, 16.098215, 15.288691, 14.758928, 14.45, -10, -10, -10, -10, -10, -10, -10, -10, -10, 10.351191, 11.045238, 11.151786, 11.3125, 11.1875, 11.3125, 11.5625, 12.044643, 12.633928, 13.386905, 14.214286, 15.089287, 15.526786, 16.017857, 16.711309, 17.175594, 17.241072, 17.235119, 17.392859, 17.169445, -10, -10, -10, -10, -10, -10, -10, -10, 12.1875, 12.09375, 12, 11.571428, 9.9499998, 8.9821434, 8.3303566, 8.25, 8.1339283, 7.8214288, 7.895833, 8.6875, 9.1071424, 9.5, 9.6875, 9.75, 9.875, 9.9375, 10.03125, 10.125, 10.401786, 10.669643, 10.736607, 10.9375, 10.982143, 11.125, 11.1875, 11.125, 11.0625, 11, 11, 11, 11.0625, 11.125, 11.196428, 11.5, 11.5625, 11.794643, 11.875, 12, 12.1875, 12.1875, 12.1875, 12.125, 12.0625, -10, -10, -10, 16.888889, 17.5, 17.642857, 18.1875, 18.375, 18.6875, 19, 19.125, 19.375, 19.5, 19.767857, 20.035713, 20.25, 20.5625, 20.6875, 21.125, 21.4375, 21.6875, 21.9375, 22, 22, 22, 22, 22.1875, 22.4375, 22.6875, 22.9375, 23, 23.071428, 23.3125, 23.375, 23.625, 23.875, 24.1875, 24.571428
-10, -10, -10, 24, 24, 24, 24, 24.0625, 24.1875, 24.4375, 24.732143, 24.875, 24.8125, 24.5625, 24.3125, 24.0625, 23.9375, 23.75, 23.464287, 23.25, 22.9375, 22.6875, 22.5, 22.25, 22.25, 22.3125, 22.223213, 22.080357, 21.979166, 22.0625, 22.035713, 21.955357, 21.821428, 21.625, 21.5, 21.5, 21.375, 21.526787, 21.464287, 20.547619, 20.285715, 20, 20, 20, 19.848213, 19.580357, 19.258928, 19.0625, 18.785713, 18.339287, 18.214287, 18.267857, 18.6875, 18.705357, 18.375, 17.782738, 17.666666, 17.940477, 18.013393, 18.21875, 18.21875, 18.21875, 18.125, 17.875, 17.625, 17.375, 17.142857, 16.9, 16.928572, 16.5625, 16.4375, 16.1875, 16, 16.0625, 16.383928, 17.116072, 18.285715, 18.9375, 19.794643, 20.517857, 20.830357, 21.0625, 21.0625, 21, 20.964287, 21, 21.1875, 21.5, 21.8125, 22, 22.125, 22.035713, 21.767857, 21.598213, 21.334822, 21.09375, 21.03125, 20.96875, 20.813988, 20.589285, 20.428572, 20.196428, 20.125, 20.0625, 20, 19.9375, 19.8125, 19.8125, 19.75, 19.75, 19.75, 19.5625, 19.495537, 19.575893, 19.709822, 19.78125, 19.8125, 19.982143, 20.337799, 20.6875, 21.366072, 22.107141, 23.276787, 23.696428, 24.1875, 24.25, 24.25, 24.28125, 24.1875, 24.375, 24.770834, 25.15625, 25.5625, 25.75, 26.258928, 26.708334, 27.178572, 27.625, 27.9375, 28.3125, 28.4375, 28.584822, 28.330357, 27.982143, 28.104166, 28.53125, 29.278273, 29.980656, 30.185268, 30.203125, 29.861607, 29.031994, 28.474703, 28.227678, 28.125, 28.125, 28.0625, 28, 27.9375, 27.625, 27.267857, 27.0625, 26.772322, 26.53125, 26.40625, 26.15625, 25.9375, 25.625, 25.5, 25.25, 24.959822, 24.59375, 24.147322, 23.340775, 22.924107, 22.620537, 22.375, 21.916666, 21.74107, 21.303572, 21.46875, 21.3125, 21.15625, 20.84375, 20.46875, 20.214287, 20.03125, 19.8125, 19.625, 19.267857, 18.848215, 17.833334, 17, 16.360119, 15.574405, 15.008928, 14.533333, -10, -10, -10, -10, -10, -10, -10, -10, -10, 10.611112, 11.022918, 10.982143, 11.140625, 11.046875, 11.1875, 11.5, 11.919643, 12.508928, 13.574405, 14.392858, 15.058037, 15.455357, 16.184525, 17.023809, 17.795918, 17.785715, 17.792858, 17.621429, 17.954762, 18.833334, -10, -10, -10, -10, -10, -10, -10, 12.125, 12.0625, 12, 11.607143, 10.033333, 9.0535717, 8.3928566, 8.3125, 8.2589283, 8.1428576, 8.270833, 8.875, 9.2232141, 9.5, 9.6875, 9.75, 9.875, 9.9375, 10.03125, 10.25, 10.625, 10.848214, 10.870536, 11, 11.044643, 11.25, 11.3125, 11.3125, 11.25, 11.125, 11.1875, 11.1875, 11.25, 11.375, 11.446428, 11.6875, 11.6875, 11.919643, 12, 12.1875, 12.375, 12.3125, 12.1875, 11.955357, 11.833333, -10, -10, -10, 17.523809, 17.75, 17.821428, 18.1875, 18.375, 18.6875, 19, 19.125, 19.4375, 19.5625, 19.830357, 20.098213, 20.1875, 20.4375, 20.5625, 21, 21.3125, 21.625, 21.875, 21.9375, 21.9375, 21.9375, 21.9375, 22.0625, 22.375, 22.625, 22.875, 23, 23.102678, 23.34375, 23.40625, 23.65625, 23.8125, 24.0625, 24.446428, 24.958334, 25.169643, 25.3125, 25.508928, 25.75, 25.875, 26.0625, 26.125, 26.446428, 26.919643, 27.125, 27.25, 27.375, 27.625, 27.848213, 28.0625, 28.25, 28.4375, 28.5625, 28.6875, 28.75, 28.883928, 29.604166, 30.107143, 30.375, 30.5625, 30.5625, 30.5625, 30.776787, 31.107143, 31.428572, 31.875, 32.232143, 32.4375, 32.5625, 32.5625, 32.5625, 32.6875, 32.75, 32.9375, 33.0625, 33.3125, 33.5, -10, -10, -10, -10, -10, -10, -10, -10, -10, -10, -10, -10, -10, -10, -10, -10, -10, -10, -10, 24, 24, 24, 24, 24.1875, 24.375, 24.625, 24.875, 24.9375, 24.8125, 24.5625, 24.3125, 24.0625, 24, 23.875, 23.5625, 23.276787, 22.9375, 22.625, 22.625, 22.410713, 22.401787, 22.5, 22.3125, 22.3125, 22.125, 22.125, 22.223213, 22.101191, 21.779762, 21.482143, 21.25, 21.3125, 21.25, 21.464287, 21.535715, 20.818453, 20.589287, 20.3125, 20.25, 20.125, 20, 19.875, 19.544643, 19.166666, 18.821428, 18.375, 18.214287, 18.3125, 18.526787, 18.580357, 18.5, 18.244898, 17.9375, 17.982143, 17.984375, 18.140625, 18.265625, 18.390625, 18.330357, 17.916666, 17.705357, 17.410713, 16.964285, 16.65, 16.616072, 16.3125, 16.3125, 16.125, 16, 16.0625, 16.321428, 16.866072, 17.880953, 18.488096, 19.476191, 20.517857, 20.830357, 21.0625, 21.0625, 21, 20.964287, 20.9375, 21.0625, 21.25, 21.4375, 21.625, 21.75, 21.723213, 21.580357, 21.535713, 21.334822, 21.15625, 21.09375, 20.90625, 20.688988, 20.464285, 20.334822, 20.165178, 20.15625, 20.09375, 20, 19.875, 19.625, 19.455357, 19.392857, 19.5, 19.4375, 19.25, 19.120537, 19.200893, 19.459822, 19.59375, 19.5625, 19.732143, 20.087799, 20.482143, 21.116072, 21.785713, 23.169643, 23.651785, 24.1875, 24.1875, 24.1875, 24.09375, 23.875, 24.080357, 24.604168, 25.09375, 25.5625, 25.75, 26.25, 26.5, 27, 27.5, 27.875, 28.3125, 28.5, 28.647322, 28.482143, 28.205357, 28.229166, 28.552084, 28.986607, 29.885418, 30.073662, 30.171875, 29.767857, 28.880207, 28.558037, 28.441963, 28.3125, 28.339287, 28.25, 28.125, 28.125, 27.8125, 27.5, 27.25, 26.866072, 26.5625, 26.375, 26.125, 25.875, 25.5625, 25.375, 25.125, 24.834822, 24.53125, 24.09375, 22.986607, 22.5625, 22.214287, 22.1875, 22.21875, 22.27232, 22.331633, 21.897322, 21.633928, 21.4375, 21.21875, 20.84375, 20.443453, 20.3125, 20.0625, 19.875, 19.410713, 18.982143, 18.166668, 17.642857, 16.38492, 15.866072, 15.4375, 15.033333, -10, -10, -10, -10, -10, -10, -10, -10, -10, -10, 10.685417, 10.75, 10.921875, 10.953125, 11.15625, 11.40625, 11.71875, 12.217261, 13.515873, 14.285714, 14.934525, 15.767857, 16.434525, 17.36508, 18.095238, -10, -10, -10, 19.22143, 19.555555, 20, 19.75, 19.666668, -10, -10, -10, -10, 12.083333, 12.0625, 11.9375, 11.491072, 10.021428, 9.0892859, 8.5625, 8.5, 8.5089283, 8.3928576, 8.458333, 9, 9.2410717, 9.5, 9.6875, 9.75, 9.9375, 10.0625, 10.25, 10.53125, 10.90625, 11.053572, 10.870536, 11, 10.982143, 11.3125, 11.4375, 11.5, 11.5, 11.3125, 11.3125, 11.3125, 11.375, 11.5625, 11.821428, 12.125, 12.125, 12.3125, 12.3125, 12.4375, 12.625, 12.5, 12.25, 11.848214, 11.666666, -10, -10, -10, 18, 18, 18, 18.1875, 18.375, 18.625, 18.875, 19.0625, 19.375, 19.5625, 19.830357, 19.973213, 20.0625, 20.25, 20.4375, 20.875, 21.125, 21.5, 21.75, 21.875, 21.875, 21.901787, 22.044643, 22.178572, 22.5, 22.6875, 22.875, 23.0625, 23.15625, 23.28125, 23.40625, 23.65625, 23.875, 24.125, 24.508928
-10, -10, -10, 24, 24, 24, 24, 24.1875, 24.375, 24.625, 24.875, 24.9375, 24.75, 24.5, 24.25, 24, 24, 23.9375, 23.75, 23.526787, 23.1875, 22.830357, 22.8125, 22.535713, 22.526787, 22.5625, 22.375, 22.348213, 22.017857, 21.946428, 22.076529, 21.937075, 21.467262, 21.232143, 21.125, 21.25, 21.25, 21.464287, 21.607143, 21.089287, 20.892857, 20.625, 20.5, 20.375, 20.3125, 20.169643, 19.825893, 19.53125, 18.986607, 18.602678, 18.339287, 18.4375, 18.589287, 18.6875, 18.8125, 18.625, 18.5, 18.3125, 18.171875, 18.234375, 18.421875, 18.609375, 18.535713, 17.958332, 17.651785, 17.285713, 16.776785, 16.364285, 16.303572, 16.0625, 16.1875, 16.0625, 16, 16.09375, 16.3125, 16.616072, -10, -10, -10, 20.625, 20.830357, 21, 21, 21, 21, 21, 21.0625, 21.125, 21.321428, 21.625, 21.8125, 21.848213, 21.580357, 21.5, 21.28125, 21.21875, 21.125, 20.84375, 20.501488, 20.299107, 20.3125, 20.25, 20.25, 20.125, 19.9375, 19.6875, 19.339287, 19.080357, 19.098213, 19.482143, 19.553572, 19.5625, 19.34375, 19.21875, 19.34375, 19.34375, 19.375, 19.580357, 19.927084, 20.348215, 20.6875, 21.285713, 22.979166, 23.571428, 24.25, 24.25, 24.1875, 23.955357, 23.705357, 24.038691, 24.666668, 25.1875, 25.5625, 25.6875, 26.116072, 26.541666, 27, 27.5, 27.75, 28.125, 28.4375, 28.584822, 28.446428, 28.2125, 28.3125, 28.397322, 28.825893, 29.979168, 30.160715, 30.3125, 29.821428, 28.479166, 28.36735, 28.2551, 28.178572, 28.160715, 28.333334, 28.208334, 28.125, 27.8125, 27.4375, 27.25, 26.803572, 26.46875, 26.34375, 26.066963, 25.808037, 25.5625, 25.25, 25.0625, 24.741072, 24.5, 24.071428, 22.726191, 22.357143, 22, 22.083334, 22.291666, 22.505951, 22.764286, 22.196428, 21.883928, 21.6875, 21.59375, 21.302084, 20.507936, 20.416666, 20.166666, 20, 19.464285, 19.071428, 18.444445, 37.75, 37.625, 15.904762, 15.5, 15.111111, 16, -10, -10, -10, -10, -10, -10, -10, -10, -10, 10.510417, 10.666667, 10.796875, 10.953125, 11.125, 11.375, 11.625, 11.988094, -10, -10, -10, 16.270407, 16.684525, -10, -10, -10, -10, -10, 20.196428, 20.142857, 20.416666, 20.25, 20.194445, -10, -10, -10, 12.25, 12.083333, 12.0625, 11.875, 11.410714, 10.142857, 9.3571434, 8.875, 8.75, 8.7232141, 8.6875, 8.666666, 9.0595245, 9.395833, 9.6785717, 9.9375, 9.9375, 10.125, 10.25, 10.46875, 10.84375, 11.21875, 11.366072, 11.151786, 11.1875, 11.169643, 11.5, 11.625, 11.75, 11.75, 11.5625, 11.5, 11.4375, 11.5, 11.75, 12.107143, 12.3125, 12.375, 12.5, 12.5625, 12.758928, 13.208333, 13.041667, 12.5, 11.883928, 11.583333, -10, -10, -10, 18, 18, 18, 18.1875, 18.375, 18.625, 18.875, 19.0625, 19.375, 19.5625, 19.767857, 19.910713, 19.9375, 20.0625, 20.3125, 20.6875, 20.9375, 21.375, 21.625, 21.8125, 21.8125, 21.866074, 22.151787, 22.223215, 22.5, 22.642857, 22.875, 23.0625, 23.21875, 23.34375, 23.53125, 23.84375, 24.0625, 24.125, 24.383928, 24.815477, 25.107143, 25.375, 25.571428, 25.875, 25.9375, 26.0625, 26.0625, 26.3125, 26.5625, 27, 27.375, 27.732143, 28.0625, 28.25, 28.4375, 28.625, 28.75, 28.875, 29, 29.1875, 29.4375, 29.8125, 30.294643, 30.5, 30.6875, 30.8125, 30.8125, 30.964287, 31.294643, 31.553572, 31.875, 32.125, 32.375, 32.5625, 32.75, 33, 33.232143, 33.25, 33.375, 33.3125, 33.464287, 33.716667, -10, -10, -10, -10, -10, -10, -10, -10, -10, -10, -10, -10, -10, -10, -10, -10, -10, -10, -10, 24, 24, 24, 24.0625, 24.3125, 24.4375, 24.6875, 24.875, 24.875, 24.75, 24.5, 24.25, 24, 23.9375, 23.8125, 23.5625, 23.276787, 23, 22.767857, 22.875, 22.723213, 22.642857, 22.5, 22.25, 22.098213, 21.830357, 21.696428, 21.5051, 21.353743, 21.217262, 21.044643, 21, 21.1875, 21.25, 21.401787, 21.5625, 21.196428, 21.071428, 20.875, 20.75, 20.625, 20.625, 20.482143, 20.200893, 19.96875, 19.424107, 19.165178, 18.830357, 18.6875, 18.732143, 18.75, 18.9375, 18.875, 18.8125, 18.5625, 18.359375, 18.328125, 18.453125, 18.640625, 18.504463, 17.851189, 17.589285, 17.160713, 16.651785, 16.176785, 16.053572, 15.875, 16.0625, 15.9375, 15.9375, 16.03125, 16.1875, 16.4375, -10, -10, -10, 20.666666, 20.892857, 20.9375, 20.9375, 21, 21.035713, 21.0625, 21.0625, 21, 21.196428, 21.5, 21.8125, 21.946428, 21.535713, 21.455357, 21.15625, 21.15625, 21.1875, 20.950893, 20.668156, 20.334822, 20.25, 20.125, 20.1875, 20.125, 19.830357, 19.508928, 19.151787, 18.955357, 19.035713, 19.482143, 19.616072, 19.6875, 19.5, 19.3125, 19.3125, 19.1875, 19.125, 19.330357, 19.708334, 20.098215, 20.375, 21, 22.833332, 23.5, 24.25, 24.25, 24.1875, 23.892857, 23.642857, 23.976191, 24.720238, 25.294643, 25.625, 25.75, 26.125, 26.75, 27.107143, 27.5625, 27.6875, 27.9375, 28.3125, 28.370537, 28.071428, 27.8375, 28.145834, 28.308035, 28.857143, 30.148809, 30.327381, 30.375, 29.785715, 28.104166, 27.653063, 27.273809, 27.607143, 28.035715, 28.270834, 28.145834, 28, 27.6875, 27.3125, 27.1875, 26.732143, 26.166666, 26.104166, 25.923214, 25.839287, 25.9375, 25.330357, 25.354166, 25.071428, 25.081633, 24.734694, 23.523809, 23.183674, 22.857143, -10, -10, -10, -10, -10, 22.178572, 21.916666, 21.875, 21.652779, 37, 37, 37.125, 37.25, 37.5, 37.75, 37.875, 37.916668, 37.797619, 37.535713, 37.267857, 37, 37, 37, 37, 37, 37, -10, -10, -10, -10, -10, 10.458333, 10.729167, 10.796875, 10.953125, 11.0625, 11.333333, 11.583333, 11.888888, -10, -10, -10, 16.642857, 17.041666, -10, -10, -10, -10, -10, 20.875, 20.809525, 21.239796, 21.091837, 20.952381, 21.5, 21.333332, 12, 12.166667, 12.083333, 12.0625, 11.8125, 11.330357, 10.285714, 9.5714283, 9.125, 8.9375, 8.9375, 8.9821434, 8.875, 9.0178566, 9.333333, 9.6607141, 9.9375, 10, 10.1875, 10.375, 10.59375, 10.96875, 11.21875, 11.303572, 11.125, 11.0625, 11.0625, 11.419643, 11.5625, 11.8125, 11.875, 11.8125, 11.8125, 11.8125, 11.875, 12.0625, 12.419643, 12.5625, 12.6875, 12.8125, 12.9375, 13.133928, 13.520833, 13.345239, 12.541667, 11.892858, 11.583333, -10, -10, -10, 18, 18, 17.9375, 18.151787, 18.482143, 18.741072, 19, 19.1875, 19.4375, 19.6875, 19.875, 19.875, 19.875, 19.9375, 20.25, 20.5625, 20.8125, 21.1875, 21.375, 21.625, 21.6875, 21.803574, 22.214287, 22.285715, 22.5, 22.660713, 22.958334, 23.109375, 23.359375, 23.484375, 23.65625, 23.959822, 24.1875, 24.008928, 24.229166
