22.125, 22.1875, 22.116072, 21.9375, 21.9375, 21.875, 22, 21.866072, 21.416666, 21.071428, 20.75, 20.5625, 20.625, 20.8125, 20.973213, 21.125, 21.208334, 21.277779, -10, -10, -10, -10, -10, -10, -10, -10, -10, -10, -10, -10, -10, -10, -10, -10, 53.75, 53.208332, 52.947918, 52.833336, -10, -10, -10, -10, -10, -10, -10, -10, -10, -10, 34.055553, 32.849998, 32.215473, 31.388691, 30.396826, -10, -10, -10, -10, -10, -10, -10, -10, -10, -10, -10, -10, -10, -10, -10, -10, -10, -10, -10, -10, -10, -10, -10, -10, -10, -10, -10, -10, -10, -10, -10, -10, -10, -10, -10, -10, -10, -10, -10, -10, -10, -10, -10, -10, -10, -10, -10, -10, -10, -10, 46.25, 46.166668, 46.071426, 45.849998, 45.857143, 45.625, 45.5, 45.25, 45.083332, 44.916668, 44.75, 44.458336, 9.166667, 9.166667, 9.0625, 9.0625, 9.0625, 9.0625, 9.0625, 9, 9, 9, 8.8125, 8.6875, 8.6875, 8.6875, 8.875, 9, 9, 9, 9, 9, 9, 9, 9, 9, 9, 9, 9, 9, 9, 9, 8.8125, 8.6875, 8.6875, 8.625, 8.75, 8.875, 8.875, 8.8125, 8.75, 8.625, 8.625, 8.6875, 8.8125, 8.9375, 8.9375, 9, 9, 9, 9, 9, 9, 9, 9, 9, 9, 9, 9, 9, 9, 9, 9, 9.2678566, 9.666666, -10, -10, -10, -10, -10, -10, -10, -10, -10, -10, -10, -10, -10, -10, -10, -10, -10, 45, 45.5, 45.5, 45.5, 45.5, 45.5, 45.5625, 45.625, 45.625, 45.5625, 45.4375, 45.46875, 45.395832, -10, -10, -10, -10, -10, -10, -10, -10, -10, -10, -10, -10, -10, -10, -10, -10, -10, -10, -10, -10, -10, -10, -10, -10, -10, -10, -10, -10, -10, -10, -10, -10, -10, -10, -10, -10, -10, -10, -10, -10, -10, -10, -10, -10, -10, -10, -10, -10, -10, -10, -10, -10, -10, -10, -10, -10, -10, -10, -10, -10, -10, -10, -10, -10, -10, -10, -10, 62.166668, -10, -10, -10, 62.5, 62.1875, 62.260418, 62.25, 62.3125, 62.504463, 62.8125, 63, 63.25, 63.401787, 63.794643, 63.991074, 64.0625, 64.0625, 64, 64, 63.9375, 63.6875, 63.5625, 63.5625, 63.520832, 63.599998, 63.875, 63.866074, 64.0625, 64.125, 64.125, 64.330353, 64.5625, 64.6875, 65, 65.107147, 65.125, 65.116074, 64.854164, 64.854164, 64.949997, 64.892853, 65, 64.875, 65.071426, 65.666672, 65.991074, 66.223213, 66.1875, 66.125, 66, 66, 66, 66, 66.015625, 66.140625, 66.40625, 66.629463, 66.828125, 66.953125, 67.0625, 67.3125, 67.5, 67.6875, 67.75, -10, -10, -10, -10, -10, -10, -10, -10, -10, -10, -10, -10, -10, -10, -10, -10, -10, -10, -10, -10, -10, -10, -10, -10, -10, -10, -10, -10, -10, -10, 22.5, 22.416666, 22.375, 22.25, 22.125, 22.0625, 22, 22, 21.9375, 21.9375, 21.875, 21.8125, 21.8125, 21.678572, 21.291666, 21.008928, 20.75, 20.625, 20.660713, 20.776787, 20.973213, 21.041666, 21.277779, -10, -10, -10, -10, -10, -10, -10, -10, -10, -10, -10, -10, -10, -10, -10, -10, 53.75, 53.722225, 53.377975, 52.965775, 52.808334, -10, -10, -10, -10, -10, -10, -10, -10, -10, -10, 34.441666, 33.433334, 32.744045, 32.138687, -10, -10, -10, -10, -10, -10, -10, -10, -10, -10, -10, -10, -10, -10, -10, -10, -10, -10, -10, -10, -10, -10, -10, -10, -10, -10, -10, -10, -10, -10, -10, -10, -10, -10, -10, -10, -10, -10, -10, -10, -10, -10, -10, -10, -10, -10, -10, -10, -10, -10, -10, 46.5, 46.354168, 46.142853, 45.64167, 45.544643, 45.125, 44.955357, 44.75, 44.625, 44.625, 44.5625, 44.305557, 44, 43.875, 9, 9, 9, 9, 9, 9, 9, 9, 8.875, 8.6875, 8.6875, 8.6875, 8.8125, 9, 9, 9, 9, 9, 9, 9, 9, 9, 9, 9, 9, 9, 9, 9, 8.8125, 8.625, 8.5625, 8.4375, 8.5, 8.6875, 8.6875, 8.6875, 8.6875, 8.5625, 8.625, 8.6875, 8.8125, 8.9375, 8.9375, 9, 9, 9, 9, 9, 9, 9, 9, 8.9375, 8.9375, 8.9375, 8.9375, 9, 9, 9, 9, 9.2767849, 9.833333, -10, -10, -10, -10, -10, -10, -10, -10, -10, -10, -10, -10, -10, -10, -10, -10, -10, 44.666668, 45, 45, 45, 45, 45.0625, 45.1875, 45.3125, 45.375, 45.3125, 45.1875, 45.21875, 45.208332, -10, -10, -10, -10, -10, -10, -10, -10, -10, -10, -10, -10, -10, -10, -10, -10, -10, -10, -10, -10, -10, -10, -10, -10, -10, -10, -10, -10, -10, -10, -10, -10, -10, -10, -10, -10, -10, -10, -10, -10, -10, -10, -10, -10, -10, -10, -10, -10, -10, -10, -10, -10, -10, -10, -10, -10, -10, -10, -10, -10, -10, -10, -10, -10, -10, -10, -10, -10, -10, -10, -10, -10, 61.916668, 62.013889, 62, 62.0625, 62.316963, 62.6875, 63, 63.4375, 63.625, 63.9375, 64.0625, 64.0625, 64, 63.9375, 63.9375, 63.875, 63.6875, 63.5625, 63.5, 63.395832, 63.474998, 63.75, 63.803574, 64.0625, 64.125, 64.125, 64.1875, 64.276787, 64.544647, 64.9375, 65.232147, 65.375, 65.428574, 65.059525, 64.816666, 64.949997, 64.892853, 65.0625, 65, 65.133926, 65.458336, 65.741074, 65.973213, 66.0625
22, 22, 22, 22, 21.875, 21.75, 21.625, 21.428572, 21.041666, 20.821428, 20.625, 20.642857, 20.964285, 21.151787, 21.047619, 21.055555, -10, -10, -10, -10, -10, -10, -10, -10, -10, -10, -10, -10, -10, -10, -10, -10, -10, 53.833332, 53.684525, 53.127975, 52.65625, 52.391666, -10, -10, -10, -10, -10, -10, -10, -10, -10, 36.642857, 35.17976, 34.283333, 32.992062, 32.434921, -10, -10, -10, -10, -10, -10, -10, -10, -10, -10, -10, -10, -10, -10, -10, -10, -10, -10, -10, -10, -10, -10, -10, -10, -10, -10, -10, -10, -10, -10, -10, -10, -10, -10, -10, -10, -10, -10, -10, -10, -10, -10, -10, -10, -10, -10, -10, -10, -10, -10, 46.5, 46.5, 46.354168, 46.071426, 45.308334, 45.11607, 44.6875, 44.580357, 44.4375, 44.375, 44.375, 44.3125, 44.229168, 43.916668, 43.75, 43.458336, 9, 9, 9, 9, 9, 9, 9, 8.875, 8.625, 8.625, 8.625, 8.75, 9, 9, 8.9375, 8.9375, 8.9375, 8.9375, 8.9375, 8.9375, 8.9375, 8.875, 8.875, 8.8125, 8.75, 8.75, 8.75, 8.5625, 8.375, 8.3125, 8.25, 8.375, 8.5625, 8.5625, 8.5625, 8.5625, 8.5, 8.625, 8.625, 8.75, 8.875, 8.875, 9, 9, 9, 8.9375, 8.875, 8.8125, 8.75, 8.75, 8.75, 8.8125, 8.875, 8.9375, 9, 9, 9, 9, 9.2142849, 10, -10, -10, -10, -10, -10, -10, -10, -10, -10, -10, -10, -10, -10, -10, -10, -10, -10, 44.5, 44.5, 44.5, 44.5, 44.4375, 44.5, 44.625, 44.8125, 44.958332, 45.166668, 45.083332, 45.125, 45.125, -10, -10, -10, -10, -10, -10, -10, -10, -10, -10, -10, -10, -10, -10, -10, -10, -10, -10, -10, -10, -10, -10, -10, -10, -10, -10, -10, -10, -10, -10, -10, -10, -10, -10, -10, -10, -10, -10, -10, -10, -10, -10, -10, -10, -10, -10, -10, -10, -10, -10, -10, -10, -10, -10, -10, -10, -10, -10, -10, -10, -10, -10, -10, -10, -10, -10, -10, -10, -10, -10, -10, -10, -10, -10, 61.791668, 61.65625, 61.910713, 62.666668, 63, 63.5, 63.666668, 63.916668, 64, 63.833332, 63.637501, 63.6875, 63.65625, 63.71875, 63.65625, 63.59375, 63.5625, 63.458332, 63.474998, 63.75, 63.803574, 64.125, 64.1875, 64.1875, 64.21875, 64.214287, 64.482147, 64.875, 65.200897, 65.375, 65.428574, 65.059525, 64.816666, 64.949997, 64.955353, 65.1875, 65.125, 65.1875, 65.1875, 65.3125, 65.535713, 65.75, 65.875, 65.9375, 66, 66, 66, 66, 66, 66.1875, 66.285713, 66.375, 66.4375, 66.375, 66.5625, 66.645836, 67.222221, -10, -10, -10, -10, -10, -10, -10, -10, -10, -10, -10, -10, -10, -10, -10, -10, -10, -10, -10, -10, -10, -10, -10, -10, -10, -10, -10, -10, -10, -10, -10, 22.125, 22.083332, 22.125, 22.0625, 22.125, 22.1875, 22.125, 22.0625, 21.964287, 21.9375, 21.8125, 21.75, 21.625, 21.4375, 21.1875, 20.964287, 20.75, 20.767857, 21.068451, 21.285715, -10, -10, -10, -10, -10, -10, -10, -10, -10, -10, -10, -10, -10, -10, -10, -10, -10, 54, 54, 53.875, 53.702381, 52.794643, 52.129463, 51.614285, -10, -10, -10, -10, -10, -10, -10, 38.25, 37.799999, 36.650791, 35.667854, 35.033333, -10, -10, -10, -10, -10, -10, -10, -10, -10, -10, -10, -10, -10, -10, -10, -10, -10, -10, -10, -10, -10, -10, -10, -10, -10, -10, -10, -10, -10, -10, -10, -10, -10, -10, -10, -10, -10, -10, -10, -10, -10, -10, -10, -10, -10, -10, -10, -10, -10, -10, -10, 46.0625, 46.333332, 46.5, 46.291668, 45.946426, 45.058334, 44.74107, 44.3125, 44.205357, 44.125, 44.125, 44.0625, 44, 43.90625, 43.78125, 43.65625, 43.430557, 43.125, 43, 9, 8.75, 8.833333, 8.875, 8.9375, 8.9375, 8.75, 8.6875, 8.625, 8.625, 8.8125, 8.8125, 8.75, 8.75, 8.6875, 8.6875, 8.6875, 8.6875, 8.6875, 8.625, 8.625, 8.5625, 8.5, 8.5, 8.5, 8.375, 8.25, 8.25, 8.25, 8.375, 8.5, 8.4375, 8.4375, 8.4375, 8.5, 8.625, 8.5625, 8.625, 8.6875, 8.75, 8.9375, 9, 8.9285717, 8.604166, 8.5178566, 8.4375, 8.4375, 8.5, 8.5625, 8.6875, 8.75, 8.875, 8.9375, 8.9375, 9, 9, 9.1428566, -10, -10, -10, -10, -10, -10, -10, -10, -10, -10, -10, -10, -10, -10, -10, -10, -10, 43.5, 44, 44, 44, 44, 43.9375, 44, 44.125, 44.270832, 44.777775, -10, -10, -10, 45.055557, -10, -10, -10, -10, -10, -10, -10, -10, -10, -10, -10, -10, -10, -10, -10, -10, -10, -10, -10, -10, -10, -10, -10, -10, -10, -10, -10, -10, -10, -10, -10, -10, -10, -10, -10, -10, -10, -10, -10, -10, -10, -10, -10, -10, -10, -10, -10, -10, -10, -10, -10, -10, -10, -10, -10, -10, -10, -10, -10, -10, -10, -10, -10, -10, -10, -10, -10, -10, -10, -10, -10, -10, -10, -10, -10, 61.541668, 61.797619, -10, -10, -10, -10, -10, -10, 63.777775, 63.516666, 63.4375, 63.447918, 63.625, 63.6875, 63.6875, 63.625, 63.5, 63.625, 63.75, 63.8125, 64, 64.080353, 64.137497, 64.072922, 64.196426, 64.357147, 64.75, 65.013397, 65.1875, 65.178574, 64.872025, 64.754166, 65.057144, 65.142853, 65.4375, 65.3125, 65.3125, 65.1875, 65.125, 65.25, 65.5
22.25, 22.0625, 21.901787, 21.875, 21.75, 21.75, 21.625, 21.5, 21.375, 21.276787, 21.0625, 21.008928, 21.255951, -10, -10, -10, -10, -10, -10, -10, -10, -10, -10, -10, -10, -10, -10, -10, -10, -10, -10, 54, 54, 53.8125, 53.514881, 52.5, 51.869045, 51.355556, -10, -10, -10, -10, -10, -10, -10, 38.25, 37.700001, 36.738094, 36.257141, 35.700001, -10, -10, -10, -10, -10, -10, -10, -10, -10, -10, -10, -10, -10, -10, -10, -10, -10, -10, -10, -10, -10, -10, -10, -10, -10, -10, -10, -10, -10, -10, -10, -10, -10, -10, -10, -10, -10, -10, -10, -10, -10, -10, -10, -10, -10, -10, -10, 46.125, 46.166664, 46.125, 46.1875, 46.041668, 46.1875, 46.1875, 46, 45.625, 44.851192, 44.446426, 44.0625, 43.892857, 43.875, 43.8125, 43.75, 43.6875, 43.59375, 43.53125, 43.40625, 43.322918, 43.083332, 42.916668, 42.75, 8.666667, 8.7777777, 8.75, 8.854167, 8.875, 8.75, 8.625, 8.5, 8.4375, 8.5625, 8.5625, 8.5, 8.5, 8.4375, 8.4375, 8.4375, 8.4375, 8.4375, 8.375, 8.375, 8.3125, 8.25, 8.25, 8.25, 8.1875, 8.125, 8.125, 8.1875, 8.375, 8.4375, 8.375, 8.375, 8.3125, 8.4375, 8.5625, 8.5, 8.5, 8.5, 8.625, 8.8125, 8.875, 8.8035717, 8.416666, 8.2678566, 8.125, 8.0625, 8.125, 8.25, 8.5446434, 8.625, 8.75, 8.8125, 8.8125, 8.9375, 9.0625, 9.1547613, -10, -10, -10, -10, -10, -10, -10, -10, -10, -10, -10, -10, -10, -10, -10, -10, -10, 43.333332, 43.5, 43.5, 43.5, 43.5, 43.4375, 43.5, 43.6875, 43.854164, -10, -10, -10, -10, -10, -10, -10, -10, -10, -10, -10, -10, -10, -10, -10, -10, -10, -10, -10, -10, -10, -10, -10, -10, -10, -10, -10, -10, -10, -10, -10, -10, -10, -10, -10, -10, -10, -10, -10, -10, -10, -10, -10, -10, -10, -10, -10, -10, -10, -10, -10, -10, -10, -10, -10, -10, -10, -10, -10, -10, -10, -10, -10, -10, -10, -10, -10, -10, -10, -10, -10, -10, -10, -10, -10, -10, -10, -10, -10, -10, -10, -10, -10, -10, -10, -10, -10, -10, -10, -10, 63.25, 63.263889, 63.5, 63.625, 63.729168, 63.78125, 63.75, 63.9375, 64, 63.90625, 63.964287, 64.017853, 64.012497, 64.010422, 64.133926, 64.232147, 64.5625, 64.71875, 64.875, 64.785713, 64.955353, 64.900002, 65.232147, 65.4375, 65.625, 65.5, 65.375, 65.125, 65, 65.0625, 65.25, 65.4375, 65.625, 65.8125, 65.875, 65.9375, 66, 65.9375, 65.955353, 65.900002, 65.580353, 65.4375, 65.229164, 65.583336, -10, -10, -10, -10, -10, -10, -10, -10, -10, -10, -10, -10, -10, -10, -10, -10, -10, -10, -10, -10, -10, -10, -10, -10, -10, -10, -10, -10, -10, -10, -10, -10, -10, 21.875, 21.916666, 22.008928, 22.1875, 22.1875, 22.1875, 22.0625, 21.9375, 21.839287, 21.8125, 21.75, 21.8125, 21.75, 21.6875, 21.53125, 21.370537, 21.15625, 21.102678, 21.386904, -10, -10, -10, -10, -10, -10, -10, -10, -10, -10, -10, -10, -10, -10, -10, -10, -10, -10, 54.166668, 54.0625, 53.758926, 53.205357, 52.111607, 51.601189, -10, -10, -10, -10, -10, -10, -10, -10, -10, 37.700001, 36.984127, 36.476192, 36.15556, -10, -10, -10, -10, -10, -10, -10, -10, -10, -10, -10, -10, -10, -10, -10, -10, -10, -10, -10, -10, -10, -10, -10, -10, -10, -10, -10, -10, -10, -10, -10, -10, -10, -10, -10, -10, -10, -10, -10, -10, -10, -10, -10, -10, -10, -10, -10, 45.916668, 46, 46, 46.125, 45.96875, 45.8125, 45.6875, 45.4375, 45.116074, 44.622025, 44.294643, 43.955357, 43.821426, 43.75, 43.6875, 43.5625, 43.375, 43.21875, 43.09375, 42.96875, 42.90625, 42.8125, 42.6875, 42.416668, 41.75, 41.583336, 8.666667, 8.604167, 8.625, 8.5625, 8.4375, 8.3125, 8.25, 8.3125, 8.3125, 8.25, 8.25, 8.1875, 8.1875, 8.1875, 8.1875, 8.1875, 8.125, 8.125, 8.0625, 8, 8, 8, 8, 8, 8.0625, 8.1875, 8.375, 8.375, 8.3125, 8.3125, 8.1875, 8.3125, 8.375, 8.3125, 8.3125, 8.3125, 8.4375, 8.5625, 8.625, 8.5535717, 8.166666, 8.0178566, 7.8125, 7.75, 7.8125, 8.0625, 8.4196434, 8.5, 8.625, 8.625, 8.6875, 8.8125, 8.979167, 9.1111107, -10, -10, -10, -10, -10, -10, -10, -10, -10, -10, -10, -10, -10, -10, -10, -10, -10, 43, 43, 43, 43.0625, 43.125, 43.125, 43.1875, 43.3125, 43.555553, -10, -10, -10, -10, -10, -10, -10, -10, -10, -10, -10, -10, -10, -10, -10, -10, -10, -10, -10, -10, -10, -10, -10, -10, -10, -10, -10, -10, -10, -10, -10, -10, -10, -10, -10, -10, -10, -10, -10, -10, -10, -10, -10, -10, -10, -10, -10, -10, -10, -10, -10, -10, -10, -10, -10, -10, -10, -10, -10, -10, -10, -10, -10, -10, -10, -10, -10, -10, -10, -10, -10, -10, -10, -10, -10, -10, -10, -10, -10, -10, -10, -10, -10, -10, -10, -10, -10, -10, -10, -10, -10, -10, -10, 63.6875, 63.805557, 63.958332, 64, 64.03125, 63.979168, 63.828125, 63.745537, 63.861607, 63.856251, 63.947918, 64.107147, 64.0625, 64.375, 64.46875, 64.625, 64.75, 64.875, 65.0625, 65.294647, 65.4375, 65.5625, 65.4375, 65.3125, 65.125, 65, 65, 65.125
21.776787, 21.6875, 21.625, 21.625, 21.6875, 21.8125, 21.8125, 21.8125, 21.736607, 21.683037, 21.53125, 21.459822, 21.375, -10, -10, -10, -10, -10, -10, -10, -10, -10, -10, -10, -10, -10, -10, -10, -10, -10, 55, 54.416668, 54.205357, 53.508926, 52.919643, 52.111607, 51.744045, -10, -10, -10, -10, -10, -10, -10, -10, -10, -10, -10, -10, -10, -10, -10, -10, -10, -10, -10, -10, -10, -10, -10, -10, -10, -10, -10, -10, -10, -10, -10, -10, -10, -10, -10, -10, -10, -10, -10, -10, -10, -10, -10, -10, -10, -10, -10, -10, -10, -10, -10, -10, -10, -10, -10, -10, -10, -10, -10, -10, 45.875, 45.9375, 46, 46.09375, 45.90625, 45.6875, 45.4375, 45.0625, 44.75, 44.455357, 44.285713, 44.017857, 43.821426, 43.642857, 43.5, 43.3125, 43.125, 42.90625, 42.78125, 42.59375, 42.46875, 42.375, 42.1875, 42.0625, 41.5, 41.388889, 41.166664, 8.4722223, 8.375, 8.375, 8.25, 8.125, 8.0625, 8.0625, 8.0625, 8.0625, 8.0625, 8, 8, 8, 8, 8, 8, 8, 8, 8, 8, 8, 8, 8, 8.0625, 8.125, 8.25, 8.25, 8.1875, 8.1875, 8.0625, 8.1875, 8.1875, 8.1875, 8.1875, 8.125, 8.25, 8.3125, 8.375, 8.3035717, 7.9791665, 7.8928571, 7.75, 7.75, 7.8125, 8.0625, 8.3571434, 8.375, 8.4375, 8.4464283, 8.6374998, 8.6339283, 8.8291664, -10, -10, -10, -10, -10, -10, -10, -10, -10, -10, -10, -10, -10, -10, -10, -10, -10, 42, 42.5, 42.5, 42.4375, 42.4375, 42.5, 42.5625, 42.75, 42.958332, -10, -10, -10, -10, -10, -10, -10, -10, -10, -10, -10, -10, -10, -10, -10, -10, -10, -10, -10, -10, -10, -10, -10, -10, -10, -10, -10, -10, -10, -10, -10, -10, -10, -10, -10, -10, -10, -10, -10, -10, -10, -10, -10, -10, -10, -10, -10, -10, -10, -10, -10, -10, -10, -10, -10, -10, -10, -10, -10, -10, -10, -10, -10, -10, -10, -10, -10, -10, -10, -10, -10, -10, -10, -10, -10, -10, -10, -10, -10, -10, -10, -10, -10, -10, -10, -10, -10, -10, -10, -10, -10, -10, -10, -10, 63.78125, -10, -10, -10, 64.03125, 63.895836, 63.703125, 63.558037, 63.642857, 63.731251, 63.916668, 64.089287, 63.9375, 64.25, 64.357147, 64.5625, 64.8125, 64.9375, 65.1875, 65.401787, 65.267853, 65.330353, 65.1875, 65.125, 65.0625, 64.9375, 64.9375, 64.9375, 65, 65.1875, 65.419647, 65.625, 65.6875, 65.8125, 65.833328, -10, -10, -10, -10, -10, -10, -10, -10, -10, -10, -10, -10, -10, -10, -10, -10, -10, -10, -10, -10, -10, -10, -10, -10, -10, -10, -10, -10, -10, -10, -10, -10, -10, -10, -10, -10, -10, -10, -10, 21.25, 21.625, 21.875, 22.1875, 22, 21.6875, 21.366072, 21.3125, 21.348213, 21.4375, 21.5625, 21.6875, 21.75, 21.875, 21.924107, 21.90625, 21.78125, 21.647322, 21.458332, -10, -10, -10, -10, -10, -10, -10, -10, -10, -10, -10, -10, -10, -10, -10, -10, -10, 55, 54.666668, 54.348213, 53.258926, 52.633926, 52.111607, 51.944443, -10, -10, -10, -10, -10, -10, -10, -10, -10, -10, -10, -10, -10, -10, -10, -10, -10, -10, -10, -10, -10, -10, -10, -10, -10, -10, -10, -10, -10, -10, -10, -10, -10, -10, -10, -10, -10, -10, -10, -10, -10, -10, -10, -10, -10, -10, -10, -10, -10, -10, -10, -10, -10, -10, -10, -10, 46.974998, 46.535713, 46.205357, 45.9375, 45.75, 45.8125, 45.84375, 45.875, 45.6875, 45.375, 45.0625, 44.6875, 44.3125, 44.080357, 43.973213, 43.642857, 43.508926, 43.267857, 43.0625, 43, 42.875, 42.633926, 42.270832, 42, 41.8125, 41.8125, 41.6875, 41.5625, 41.375, 41.291668, 41.111111, 41, 8.166667, 8.166667, 8.0625, 8, 8, 8, 8, 8, 8, 8, 8, 8, 8, 8, 8, 8, 8, 8, 8, 8, 8, 8, 8, 8, 8.0625, 8.0625, 8.0625, 8.125, 8.0625, 8.125, 8.125, 8.125, 8.125, 8.0625, 8.125, 8.125, 8.125, 8.125, 8.0625, 8, 7.875, 7.8125, 7.8125, 8, 8.2321434, 8.25, 8.25, 8.2589283, 8.4499998, 8.3839283, 8.5791664, -10, -10, -10, -10, -10, -10, -10, -10, -10, -10, -10, -10, -10, -10, -10, -10, -10, 42, 42.25, 42.25, 42.1875, 42.1875, 42.25, 42.3125, 42.5, 42.861111, -10, -10, -10, -10, -10, -10, -10, -10, -10, -10, -10, -10, -10, -10, -10, -10, -10, -10, -10, -10, -10, -10, -10, -10, -10, -10, -10, -10, -10, -10, -10, -10, -10, -10, -10, -10, -10, -10, -10, -10, -10, -10, -10, -10, -10, -10, -10, -10, -10, -10, -10, -10, -10, -10, -10, -10, -10, -10, -10, -10, -10, -10, -10, -10, -10, -10, -10, -10, -10, -10, -10, -10, -10, -10, -10, -10, -10, -10, -10, -10, -10, -10, -10, -10, -10, -10, -10, -10, -10, -10, -10, -10, -10, -10, 63.833332, -10, -10, -10, 63.90625, 63.8125, 63.703125, 63.620537, 63.765625, 63.8125, 64.09375, 64.075897, 64.015625, 64.3125, 64.482147, 64.75, 65.0625, 65.09375, 65.1875, 65.169647, 64.892853, 64.924103, 64.875, 64.9375, 65, 64.875, 64.875, 64.75
20.803572, 20.9375, 21.098213, 21.25, 21.4375, 21.5625, 21.75, 22, 21.96875, 21.760416, 21.53125, 21.385416, 21.444443, -10, -10, -10, -10, -10, -10, -10, -10, -10, -10, -10, -10, -10, -10, -10, -10, -10, 55, 54.916668, 54.598213, 53.464283, 52.571426, 52.118752, -10, -10, -10, -10, 46.333332, 45, 44.42857, 43.799999, -10, -10, -10, -10, -10, -10, -10, -10, -10, -10, -10, -10, -10, -10, -10, -10, -10, -10, -10, -10, -10, -10, -10, -10, -10, -10, -10, -10, -10, -10, -10, -10, -10, -10, -10, -10, -10, -10, -10, -10, -10, -10, -10, -10, -10, -10, -10, -10, 47, 46.872223, 46.607143, 46.386902, 46.125, 45.8125, 45.729168, 45.6875, 45.625, 45.375, 45, 44.446426, 44.0625, 43.848213, 43.6875, 43.723213, 43.392857, 43.1875, 42.767857, 42.6875, 42.732143, 42.75, 42.571426, 42.083332, 41.642857, 41.375, 41.3125, 41.178574, 40.9375, 40.875, 40.875, 40.958332, 40.833332, 40.625, 40.458336, 8, 7.875, 7.9166665, 7.9375, 8, 8, 8, 8, 8, 8, 8, 8, 8, 8, 8, 8, 8, 8, 8, 8, 8, 8, 7.9375, 7.9375, 7.9375, 8, 8.0625, 8.125, 8.125, 8.125, 8.125, 8.0625, 8.0625, 7.9375, 7.9375, 7.9375, 7.9375, 8, 7.9375, 7.9375, 7.9375, 8.0625, 8.125, 8.125, 8.125, 8.1339283, 8.3249998, 8.1964283, 8.2666664, -10, -10, -10, -10, -10, -10, -10, -10, -10, -10, -10, -10, -10, -10, -10, -10, -10, 42, 42, 42, 41.866074, 41.604168, 41.642857, 41.71875, 41.958332, -10, -10, -10, -10, -10, -10, -10, -10, -10, -10, -10, -10, -10, -10, -10, -10, -10, -10, -10, -10, -10, -10, -10, -10, -10, -10, -10, -10, -10, -10, -10, -10, -10, -10, -10, -10, -10, -10, -10, -10, -10, -10, -10, -10, -10, -10, -10, -10, -10, -10, -10, -10, -10, -10, -10, -10, -10, -10, -10, -10, -10, -10, -10, -10, -10, -10, -10, -10, -10, -10, -10, -10, -10, -10, -10, -10, -10, -10, -10, -10, -10, -10, -10, -10, -10, -10, -10, -10, -10, -10, -10, -10, -10, -10, -10, -10, -10, -10, -10, 63.65625, 63.5625, 63.578125, 63.5625, 63.796875, 63.9375, 64.15625, 64.138397, 64.140625, 64.4375, 64.607147, 64.875, 65.125, 65.09375, 65.0625, 64.919647, 64.580353, 64.611603, 64.6875, 64.875, 65, 64.8125, 64.75, 64.5625, 64.4375, 64.5625, 64.741074, 65.270836, 65.678574, 65.910713, 66, -10, -10, -10, -10, -10, -10, -10, -10, -10, -10, -10, -10, -10, -10, -10, -10, -10, -10, -10, -10, -10, -10, -10, -10, -10, -10, -10, -10, -10, -10, -10, -10, -10, -10, -10, -10, -10, -10, 19.75, 20.333334, 20.677082, 20.866072, 20.666666, 20.875, 20.625, 20.491072, 20.625, 20.785713, 21, 21.3125, 21.5, 21.8125, 22.125, 22.07143, 21.6875, 21.339287, 21.104166, -10, -10, -10, -10, -10, -10, -10, -10, -10, -10, -10, -10, -10, -10, -10, -10, -10, -10, 55, 55, 54.723213, 53.705357, 52.857143, 52.48333, -10, -10, -10, -10, 46.422222, 45.222225, 44.619049, 44.088886, -10, -10, -10, -10, -10, -10, -10, -10, -10, -10, -10, -10, -10, -10, -10, -10, -10, -10, -10, -10, -10, -10, -10, -10, -10, -10, -10, -10, -10, -10, -10, -10, -10, -10, -10, -10, -10, -10, -10, -10, -10, -10, -10, -10, -10, -10, -10, -10, 46.833332, 46.737499, 46.517857, 46.352676, 46.03125, 45.8125, 45.625, 45.4375, 45.3125, 45.044643, 44.517857, 43.946426, 43.5625, 43.348213, 43.1875, 43.25, 43.125, 42.991074, 42.580357, 42.5625, 42.517857, 42.491074, 42.415176, 41.989582, 41.674107, 41.4375, 41.3125, 40.761902, 40.541668, 40.607143, 40.583332, 40.625, 40.625, 40.333332, 40.222225, 39.75, 7.8333335, 7.9166665, 7.9375, 8, 8, 8, 8, 8, 8, 8, 8, 8, 8, 8, 8, 8, 8, 8, 8, 8, 8, 7.9375, 7.9375, 7.9375, 7.9375, 8, 8.0625, 8.0625, 8.0625, 8.0625, 8, 8, 7.875, 7.8125, 7.75, 7.75, 7.875, 7.9375, 8, 8, 8.0625, 8.0625, 8.0625, 8.0625, 8.0714283, 8.1999998, 8.0714283, 8.1000004, -10, -10, -10, -10, -10, -10, -10, -10, -10, -10, -10, -10, -10, -10, -10, -10, -10, 42, 42, 42, 41.866074, 41.479168, 41.392857, 41.34375, 41.458332, -10, -10, -10, -10, -10, -10, -10, -10, -10, -10, -10, -10, -10, -10, -10, -10, -10, -10, -10, -10, -10, -10, -10, -10, -10, -10, -10, -10, -10, -10, -10, -10, -10, -10, -10, -10, -10, -10, -10, -10, -10, -10, -10, -10, -10, -10, -10, -10, -10, -10, -10, -10, -10, -10, -10, -10, -10, -10, -10, -10, -10, -10, -10, -10, -10, -10, -10, -10, -10, -10, -10, -10, -10, -10, -10, -10, -10, -10, -10, -10, -10, -10, -10, -10, -10, -10, -10, -10, -10, -10, -10, -10, -10, -10, -10, -10, -10, -10, -10, 63.666668, 63.611115, 63.625, 63.625, 63.854168, 64.041664, 64.291664, 64.26786, 64.328125, 64.541664, 64.669647, 64.9375, 65.0625, 65.03125, 65, 64.857147, 64.580353, 64.611603, 64.6875, 64.875, 65, 64.75, 64.625, 64.375
20.401787, 20.5, 20.6875, 20.875, 21.25, 21.5, 21.9375, 22.375, 22.25, 21.520834, 21.053572, 20.729166, -10, -10, -10, -10, -10, -10, -10, -10, -10, -10, -10, -10, -10, -10, -10, -10, -10, -10, 55, 55, 54.767857, 54.017857, 53.142857, 52.79583, -10, -10, -10, 47.857143, 46.649998, 45.595238, 44.964287, 44.483334, -10, -10, -10, -10, -10, -10, -10, -10, -10, -10, -10, -10, -10, -10, -10, -10, -10, -10, -10, -10, -10, -10, -10, -10, -10, -10, -10, -10, -10, -10, -10, -10, -10, -10, -10, -10, -10, -10, -10, -10, -10, -10, -10, -10, -10, -10, -10, -10, 46.625, 46.549999, 46.392857, 46.214287, 45.5625, 45.267857, 45.03125, 44.84375, 44.78125, 44.669643, 44.330357, 43.904762, 43.395832, 43.071426, 42.8125, 42.75, 42.5625, 42.491074, 42.1875, 42.25, 42.205357, 42.116074, 42.040176, 41.686012, 41.574108, 41.241074, 41.178574, 40.636902, 40.479168, 40.544643, 40.395832, 40.267857, 40.1875, 40, 39.916668, 39.5, 39.166664, 7.8888888, 7.9375, 8, 8, 8, 8, 8, 8, 8, 8, 8, 8, 8, 8, 8, 8, 8, 8, 8, 8, 7.9375, 7.9375, 7.9375, 7.9375, 8, 8, 8, 8, 8, 8, 8, 7.8125, 7.6875, 7.5625, 7.5, 7.6875, 7.8125, 7.9375, 8, 8, 8, 7.9375, 7.9375, 7.9375, 7.9375, 8, 8, -10, -10, -10, -10, -10, -10, -10, -10, -10, -10, -10, -10, -10, -10, -10, -10, -10, 42, 42, 41.928574, 41.678574, 41.291668, 41.142857, 41.135418, 41.277775, -10, -10, -10, -10, -10, -10, -10, -10, -10, -10, -10, -10, -10, -10, -10, -10, -10, -10, -10, -10, -10, -10, -10, -10, -10, -10, -10, -10, -10, -10, -10, -10, -10, -10, -10, -10, -10, -10, -10, -10, -10, -10, -10, -10, -10, -10, -10, -10, -10, -10, -10, -10, -10, -10, -10, -10, -10, -10, -10, -10, -10, -10, -10, -10, -10, -10, -10, -10, -10, -10, -10, -10, -10, -10, -10, -10, -10, -10, -10, -10, -10, -10, -10, -10, -10, -10, -10, -10, -10, -10, -10, -10, -10, -10, -10, -10, -10, -10, -10, -10, -10, -10, -10, -10, -10, -10, -10, 64.4375, 64.638885, 64.5625, 65, 65, 64.958336, 64.791664, 64.849998, 64.71875, 64.8125, 64.84375, 64.9375, 65, 64.8125, 64.625, 64.375, 64.258926, 64.4375, 64.491074, 64.8125, 65.387756, 65.602043, 65.645836, 64.642853, 64.400002, 63.666668, 29.5, -10, -10, -10, -10, -10, -10, -10, -10, -10, -10, 30.875, -10, -10, -10, -10, -10, -10, -10, -10, -10, -10, -10, -10, -10, -10, -10, -10, -10, -10, -10, -10, -10, -10, -10, 20.1875, 20.125002, 20.09375, 20, 20.0625, 20.0625, 20.1875, 20.3125, 20.5625, 20.8125, 20.9375, 21.330357, 21.625, 22, 22.4375, 22.1875, 21.458334, 20.991072, 20.666666, -10, -10, -10, -10, -10, -10, -10, -10, -10, -10, -10, -10, -10, -10, -10, -10, -10, -10, 55, 55, 54.803574, 54.184525, 53.357143, 53.04583, 52.571426, 50.833332, 50, 48.333332, 47.138096, 46.166664, 45.5, 45.116669, -10, -10, -10, -10, -10, -10, -10, -10, -10, -10, -10, -10, -10, -10, -10, -10, -10, -10, -10, -10, -10, -10, -10, -10, -10, -10, -10, -10, -10, -10, -10, -10, -10, -10, -10, -10, -10, -10, -10, -10, -10, -10, -10, -10, 45.5, 45.666668, 45.625, 45.75, 46.0625, 46.07143, 46.25, 46.035713, 45, 44.591835, 44.32143, 44.46875, 44.441963, 44.25, 43.964287, 43.529762, 43.083332, 42.821426, 42.5625, 42.5, 42.375, 42.303574, 42.0625, 42.116074, 41.830357, 41.741074, 41.65625, 41.540176, 41.449108, 41.116074, 40.991074, 40.449402, 40.291668, 40.294643, 40.020832, 39.830357, 39.6875, 39.625, 39.5625, 39.4375, 39.194443, 38.875, 7.9166665, 8, 8, 8, 8, 8, 8, 8, 8, 8, 8, 8, 8, 8, 8, 8, 8, 8, 8, 7.9375, 7.9375, 7.9375, 7.9375, 7.9375, 7.9375, 7.9375, 7.9375, 7.9375, 7.9375, 7.9375, 7.6875, 7.5625, 7.375, 7.3125, 7.5625, 7.75, 7.9375, 8, 8, 8, 7.9375, 7.9375, 7.9375, 7.9375, 8, 8.0714283, -10, -10, -10, -10, -10, -10, -10, -10, -10, -10, -10, -10, -10, -10, -10, -10, -10, 41.75, 41.75, 41.616074, 41.303574, 40.854168, 40.642857, 40.635418, -10, -10, -10, -10, -10, -10, -10, -10, -10, -10, -10, -10, -10, -10, -10, -10, -10, -10, -10, -10, -10, -10, -10, -10, -10, -10, -10, -10, -10, -10, -10, -10, -10, -10, -10, -10, -10, -10, -10, -10, -10, -10, -10, -10, -10, -10, -10, -10, -10, -10, -10, -10, -10, -10, -10, -10, -10, -10, -10, -10, -10, -10, -10, -10, -10, -10, -10, -10, -10, -10, -10, -10, -10, -10, -10, -10, -10, -10, -10, -10, -10, -10, -10, -10, -10, -10, -10, -10, -10, -10, -10, -10, -10, -10, -10, -10, -10, -10, -10, -10, -10, -10, -10, -10, -10, -10, -10, -10, -10, -10, 64.5, -10, -10, -10, 64.666664, 64.849998, 64.8125, 64.96875, 65.03125, 65.125, 65.1875, 65.09375, 64.9375, 64.6875
20, 20.25, 20.5625, 20.794643, 21.267857, 21.625, 21.9375, 22.3125, 22.080357, 21.479168, 21.116072, 20.833334, -10, -10, -10, -10, -10, -10, -10, -10, -10, -10, -10, -10, -10, -10, -10, -10, -10, -10, 55, 55, 54.741074, 54.104168, 53.5, 53.208332, 52.630951, 51.317459, 50.166668, 48.809521, 47.346432, 46.523808, 45.892857, 45.555557, -10, -10, -10, -10, -10, -10, -10, -10, -10, -10, -10, -10, -10, -10, -10, -10, -10, -10, -10, -10, -10, -10, -10, -10, -10, -10, -10, -10, -10, -10, -10, -10, -10, -10, -10, -10, -10, -10, -10, -10, -10, -10, -10, -10, 45.666668, 45.694447, 45.583332, 45.583332, 45.6875, 45.654762, 45.8125, 45.598213, 44.75, 44.392857, 44.15625, 44.084824, 43.858631, 43.729168, 43.693455, 43.489582, 43.119045, 42.556545, 42.25, 42.0625, 42.0625, 42, 41.9375, 41.866074, 41.473213, 41.303574, 41.21875, 41.196426, 41.243752, 40.739799, 40.803574, 40.302082, 40.291668, 40.294643, 39.958332, 39.580357, 39.375, 39.178574, 39.049999, 39.116074, 39.002975, 38.75, 38.458336, 8, 7.875, 7.9166665, 7.9375, 7.9375, 8, 8, 8, 8, 7.9375, 7.9375, 7.9375, 7.9375, 7.9375, 7.875, 7.875, 7.875, 7.9375, 8, 7.9375, 7.875, 7.8125, 7.6875, 7.75, 7.8125, 7.875, 7.875, 7.8125, 7.8125, 7.625, 7.5625, 7.4375, 7.3125, 7.4375, 7.5625, 7.75, 7.875, 8, 8.0625, 7.9375, 7.8303571, 7.8125, 7.8125, 7.9375, 8.1339283, 8.666666, -10, -10, -10, -10, -10, -10, -10, -10, -10, -10, -10, -10, -10, -10, -10, -10, 41.5, 41.5, 41.294643, 40.875, 40.6875, 40.375, 40.395836, -10, -10, -10, -10, -10, -10, -10, -10, -10, -10, -10, -10, -10, -10, -10, -10, -10, -10, -10, -10, -10, -10, -10, -10, -10, -10, -10, -10, -10, -10, -10, -10, -10, -10, -10, -10, -10, -10, -10, -10, -10, -10, -10, -10, -10, -10, -10, -10, -10, -10, -10, -10, -10, -10, -10, -10, -10, -10, -10, -10, -10, -10, -10, -10, -10, -10, -10, -10, -10, -10, -10, -10, -10, -10, -10, -10, -10, -10, -10, -10, -10, -10, -10, -10, -10, -10, -10, -10, -10, -10, -10, -10, -10, -10, -10, -10, -10, -10, -10, -10, -10, -10, -10, -10, -10, -10, -10, -10, -10, -10, -10, -10, -10, -10, 64.729164, 64.974998, 64.9375, 65.09375, 65.09375, 65.1875, 65.1875, 65.056252, 65.169647, 64.910713, 64.915176, 64.96875, 64.732147, 64.604172, 64.508926, 64.669647, 65.211304, 65.196426, 65.442856, 65.666672, 29.75, 30, -10, -10, -10, 30, 30, 30.041666, 30.125, 30.125, 30.375, 30.71875, 30.930555, 31.5625, 31.75, -10, -10, -10, -10, -10, -10, -10, -10, -10, -10, -10, -10, -10, -10, -10, -10, -10, -10, -10, -10, 19.75, 19.75, 19.6875, 19.5, 19.5625, 19.5625, 19.75, 19.9375, 20.1875, 20.5, 20.732143, 21.205357, 21.625, 21.875, 22.1875, 22.008928, 21.645834, 21.330357, 20.875, -10, -10, -10, -10, -10, -10, -10, -10, -10, -10, -10, -10, -10, -10, -10, -10, -10, -10, 55, 54.75, 54.553574, 54.041668, 53.607143, 53.303574, 52.523216, 51.071426, 49.982143, 48.976192, 47.57143, 46.809525, 46.190475, -10, -10, -10, -10, -10, -10, -10, -10, -10, -10, -10, -10, -10, -10, -10, -10, -10, -10, -10, -10, -10, -10, -10, -10, -10, -10, -10, -10, -10, -10, -10, -10, -10, -10, -10, -10, -10, -10, -10, -10, -10, -10, -10, -10, 46, 45.6875, 45.645836, 45.5, 45.4375, 45.3125, 45.321426, 45.5, 45.223213, 44.4375, 44.080357, 43.78125, 43.772324, 43.421131, 43.336311, 43.532742, 43.395832, 43.10342, 42.47842, 42.15625, 41.890625, 41.8125, 41.6875, 41.625, 41.491074, 41.1875, 41.053574, 40.666668, 40.513393, 40.635715, 40.204082, 39.928574, 39.875, 40, 40, 39.6875, 39.330357, 39, 38.803574, 38.612499, 38.741074, 38.669643, 38.5625, 38.305557, 37.875, 7.8333335, 7.9166665, 7.9375, 7.9375, 8, 7.9375, 7.9375, 7.875, 7.75, 7.8125, 7.8125, 7.875, 7.875, 7.75, 7.6875, 7.625, 7.6875, 7.75, 7.6875, 7.625, 7.5625, 7.4375, 7.5, 7.625, 7.75, 7.75, 7.6875, 7.625, 7.4375, 7.5, 7.5, 7.375, 7.4375, 7.4375, 7.5625, 7.6875, 7.8125, 7.875, 7.6875, 7.5803571, 7.625, 7.6875, 7.8125, 8.0982141, 8.5111113, -10, -10, -10, -10, -10, -10, -10, -10, -10, -10, -10, -10, -10, -10, -10, -10, 41, 41, 40.732143, 40.25, 40.0625, 39.6875, 39.75, -10, -10, -10, -10, -10, -10, -10, -10, -10, -10, -10, -10, -10, -10, -10, -10, -10, -10, -10, -10, -10, -10, -10, -10, -10, -10, -10, -10, -10, -10, -10, -10, -10, -10, -10, -10, -10, -10, -10, -10, -10, -10, -10, -10, -10, -10, -10, -10, -10, -10, -10, -10, -10, -10, -10, -10, -10, -10, -10, -10, -10, -10, -10, -10, -10, -10, -10, -10, -10, -10, -10, -10, -10, -10, -10, -10, -10, -10, -10, -10, -10, -10, -10, -10, -10, -10, -10, -10, -10, -10, -10, -10, -10, -10, -10, -10, -10, -10, -10, -10, -10, -10, -10, -10, -10, -10, -10, -10, -10, -10, -10, -10, -10, -10, 64.638885, 64.912498, 64.8125, 64.875, 64.84375, 64.973213, 64.9375, 64.962502, 65.138397, 65.004463
19.6875, 20, 20.375, 20.732143, 21.178572, 21.5625, 21.6875, 21.8125, 21.75, 21.6875, 21.473213, 20.916666, 20.342857, -10, -10, -10, -10, -10, -10, -10, -10, -10, -10, -10, -10, -10, -10, -10, -10, -10, -10, 54.5, 54.366074, 53.979168, 53.714283, 53.428574, 52.728569, 51.529762, 50.130951, 49.047619, 47.613094, -10, -10, -10, -10, -10, -10, -10, -10, -10, -10, -10, -10, -10, -10, -10, -10, -10, -10, -10, -10, -10, -10, -10, -10, -10, -10, -10, -10, -10, -10, -10, -10, -10, -10, -10, -10, -10, -10, -10, -10, -10, -10, -10, -10, -10, 46, 46, 45.8125, 45.729168, 45.5, 45.3125, 45.125, 45.071426, 45.1875, 45.017857, 44.625, 44.294643, 43.854168, 43.6875, 43.202381, 43.023811, 43.023808, 42.645832, 42.582588, 42.067707, 41.90625, 41.671875, 41.625, 41.4375, 41.3125, 41.116074, 40.75, 40.616074, 40.291668, 40.129463, 39.811226, 39.333336, 39.321426, 39.3125, 39.4375, 39.4375, 39.25, 39, 38.6875, 38.616074, 38.398212, 38.3125, 38.169643, 38.0625, 38.086311, 37.75, 37.458336, 7.8888888, 7.6428571, 7.5208335, 7.6875, 7.7946429, 7.875, 7.8125, 7.625, 7.6875, 7.6875, 7.8125, 7.8125, 7.625, 7.5, 7.375, 7.4375, 7.5, 7.4375, 7.375, 7.3125, 7.1875, 7.25, 7.4375, 7.5625, 7.5625, 7.5625, 7.4375, 7.375, 7.5625, 7.5625, 7.5, 7.4375, 7.3125, 7.375, 7.5, 7.6875, 7.75, 7.625, 7.5178571, 7.5625, 7.6875, 7.8125, 8.1607141, 8.4666662, -10, -10, -10, -10, -10, -10, -10, -10, -10, -10, -10, -10, -10, -10, -10, -10, 40.375, 40.333332, 40.116074, 39.8125, 39.553574, 39.0625, 39.083336, -10, -10, -10, -10, -10, -10, -10, -10, -10, -10, -10, -10, -10, -10, -10, -10, -10, -10, -10, -10, -10, -10, -10, -10, -10, -10, -10, -10, -10, -10, -10, -10, -10, -10, -10, -10, -10, -10, -10, -10, -10, -10, -10, -10, -10, -10, -10, -10, -10, -10, -10, -10, -10, -10, -10, -10, -10, -10, -10, -10, -10, -10, -10, -10, -10, -10, -10, -10, -10, -10, -10, -10, -10, -10, -10, -10, -10, -10, -10, -10, -10, -10, -10, -10, -10, -10, -10, -10, -10, -10, -10, -10, -10, -10, -10, -10, -10, -10, -10, -10, -10, -10, -10, -10, -10, -10, -10, -10, -10, -10, -10, -10, -10, -10, -10, 64.75, 64.708336, 64.59375, 64.6875, 64.816963, 64.84375, 64.900002, 65.138397, 65.066963, 65.089287, 64.96875, 64.508926, 64.541664, 64.824402, 65.324402, 65.732147, 65.9375, 66, 30, 29.875, 29.916666, -10, -10, -10, -10, 30, 30, 30, 30.0625, 30.321428, 30.802084, 31.272322, 31.59375, 31.708332, -10, -10, -10, -10, -10, -10, -10, -10, -10, -10, -10, -10, -10, -10, -10, -10, -10, -10, -10, -10, 19.383335, 19.183334, 19.196428, 19.125, 19.1875, 19.169643, 19.2875, 19.5625, 19.833334, 20.3125, 20.491072, 20.928572, 21.1875, 21.375, 21.5, 21.5625, 21.5625, 21.473213, 20.979166, 20.673018, 20, -10, -10, -10, -10, -10, -10, -10, -10, -10, -10, -10, -10, -10, -10, -10, -10, -10, 54.333332, 54.25, 53.9375, 53.726189, 53.491074, 52.799999, 51.915176, 50.402214, 49.454929, 48.07143, -10, -10, -10, -10, -10, -10, -10, -10, -10, -10, -10, -10, -10, -10, -10, -10, -10, -10, -10, -10, -10, -10, -10, -10, -10, -10, -10, -10, -10, -10, -10, -10, -10, -10, -10, -10, -10, -10, -10, -10, -10, -10, -10, -10, 46, 46, 46, 45.875, 45.625, 45.267857, 45.0625, 44.9375, 44.875, 44.875, 44.8125, 44.607143, 44.211311, 43.809525, 43.4375, 42.979168, 42.880955, 42.764881, 42.360119, 42.270088, 41.817707, 41.71875, 41.484375, 41.4375, 41.125, 40.9375, 40.75, 40.5, 40.366074, 40.104168, 39.879463, 39.678574, 39.229168, 39.008926, 39, 39.09375, 39.09375, 38.96875, 38.71875, 38.4375, 38.241074, 37.960712, 37.8125, 37.67857, 37.958332, 38.002975, 37.645832, 37.21032, 36.525002, 7.0999999, 7.3958335, 7.5208335, 7.6071429, 7.625, 7.5625, 7.375, 7.4375, 7.4375, 7.625, 7.625, 7.4375, 7.3125, 7.125, 7.1875, 7.25, 7.1875, 7.125, 7.0625, 7, 7.0625, 7.25, 7.375, 7.375, 7.375, 7.25, 7.3125, 7.5625, 7.625, 7.5625, 7.375, 7.125, 7.1875, 7.375, 7.625, 7.6875, 7.5, 7.3303571, 7.3125, 7.4375, 7.5625, 7.9017859, 8.0500002, -10, -10, -10, -10, -10, -10, -10, -10, -10, -10, -10, -10, -10, -10, -10, -10, 39.875, 39.833332, 39.607143, 39.104168, 38.8125, 38.40625, 38.458336, -10, -10, -10, -10, -10, -10, -10, -10, -10, -10, -10, -10, -10, -10, -10, -10, -10, -10, -10, -10, -10, -10, -10, -10, -10, -10, -10, -10, -10, -10, -10, -10, -10, -10, -10, -10, -10, -10, -10, -10, -10, -10, -10, -10, -10, -10, -10, -10, -10, -10, -10, -10, -10, -10, -10, -10, -10, -10, -10, -10, -10, -10, -10, -10, -10, -10, -10, -10, -10, -10, -10, -10, -10, -10, -10, -10, -10, -10, -10, -10, -10, -10, -10, -10, -10, -10, -10, -10, -10, -10, -10, -10, -10, -10, -10, -10, -10, -10, -10, -10, -10, -10, -10, -10, -10, -10, -10, -10, -10, -10, -10, -10, -10, -10, -10, -10, -10, 64.458336, 64.59375, 64.671127, 64.640625, 64.681252, 64.950897, 64.941963
19.762501, 19.9375, 20.482143, 20.446428, 20.866072, 21, 21.1875, 21.25, 21.416666, 21.5, 21.464285, 20.770832, 20.629763, -10, -10, -10, -10, -10, -10, -10, -10, -10, -10, -10, -10, -10, -10, -10, -10, -10, -10, -10, -10, 53.833332, 53.777775, 53.428574, 52.862499, 52.273811, 51.640873, 51.136902, 50.555557, -10, -10, -10, -10, -10, -10, -10, -10, -10, -10, -10, -10, -10, -10, -10, -10, -10, -10, -10, -10, -10, -10, -10, -10, -10, -10, -10, -10, -10, -10, -10, -10, -10, -10, -10, -10, -10, -10, -10, -10, -10, -10, 46.125, 46.125, 46, 46, 46, 45.8125, 45.5, 45.107143, 44.875, 44.75, 44.625, 44.5, 44.375, 44.169643, 43.836311, 43.497025, 43.258926, 43.0625, 42.964287, 42.660713, 42.203869, 41.984375, 41.463543, 41.447918, 41.442707, 41.428574, 41.178574, 40.729168, 40.4375, 40.125, 39.928574, 39.604168, 39.410713, 39.241074, 38.854168, 38.625, 38.46875, 38.59375, 38.53125, 38.59375, 38.40625, 38.25, 38.1875, 37.910713, 37.526787, 37.321426, 37.458332, 37.681973, 37.145832, 36.907738, 36.350002, 35.875, 7.2777781, 7.2708335, 7.3571429, 7.375, 7.3125, 7.1875, 7.1875, 7.125, 7.3125, 7.3125, 7.25, 7.1875, 7, 6.9375, 6.9375, 6.9375, 6.9375, 7, 7, 7, 7.125, 7.1875, 7.1875, 7.25, 7.125, 7.125, 7.3125, 7.3125, 7.3125, 7.3125, 7.1875, 7.25, 7.375, 7.5, 7.4375, 7.3125, 7.25, 7.1875, 7.3125, 7.375, 7.6517859, 7.8000002, -10, -10, -10, -10, -10, -10, -10, -10, -10, -10, -10, -10, -10, -10, -10, -10, 39.291668, 39.270832, 39.116074, 38.729168, 38.375, 38.09375, 38.125, -10, -10, -10, -10, -10, -10, -10, -10, -10, -10, -10, -10, -10, -10, -10, -10, -10, -10, -10, -10, -10, -10, -10, -10, -10, -10, -10, -10, -10, -10, -10, -10, -10, -10, -10, -10, -10, -10, -10, -10, -10, -10, -10, -10, -10, -10, -10, -10, -10, -10, -10, -10, -10, -10, -10, -10, -10, -10, -10, -10, -10, -10, -10, -10, -10, -10, -10, -10, -10, -10, -10, -10, -10, -10, -10, -10, -10, -10, -10, -10, -10, -10, -10, -10, -10, -10, -10, -10, -10, -10, -10, -10, -10, -10, -10, -10, -10, -10, -10, -10, -10, -10, -10, -10, -10, -10, -10, -10, -10, -10, -10, -10, -10, -10, -10, -10, -10, -10, 64.5625, 64.587791, 64.625, 64.78125, 64.84375, 64.90625, 64.995537, 65.03125, 64.727676, 64.822914, 65.168152, 65.636902, 65.875, 66.0625, 65.9375, 29.833334, 29.791666, 29.854166, 29.833334, 30, 30, 30.125, 30.125, 30.125, 30.1875, 30.375, 30.678572, 31.145834, 31.553572, 31.71875, 31.791668, -10, -10, -10, -10, -10, -10, -10, -10, -10, -10, -10, -10, -10, -10, -10, -10, -10, -10, 17.75, 18.222221, 19.008335, 18.957144, 19.133928, 19.3125, 19.482143, 19.419643, 19.555357, 19.762501, 19.9375, 20.482143, 20.446428, 20.723213, 20.517857, 20.666666, 20.75, -10, -10, -10, 20.604166, 20.529762, -10, -10, -10, -10, -10, -10, -10, -10, -10, -10, -10, -10, -10, -10, -10, -10, -10, -10, -10, -10, -10, -10, 53.333332, 53.083332, 52.697918, 52.345242, 51.964287, 51.595242, -10, -10, -10, -10, -10, -10, -10, -10, -10, -10, -10, -10, -10, -10, -10, -10, -10, -10, -10, -10, -10, -10, -10, -10, -10, -10, -10, -10, -10, -10, -10, -10, -10, -10, -10, -10, -10, -10, -10, -10, 46.583336, 46.541664, 46.333332, 46.166668, 45.964287, 45.9375, 45.875, 45.8125, 45.482143, 44.9375, 44.696426, 44.5, 44.3125, 44.125, 44, 43.794643, 43.523811, 43.238094, 42.933929, 42.991074, 42.928574, 42.616074, 42.119049, 41.583332, 41.050594, 41.050594, 41.385414, 41.386902, 41.032738, 40.550594, 40.125, 39.75, 39.5625, 39.5, 39.46875, 39.397324, 39.010418, 38.65625, 38.375, 38.40625, 38.21875, 38.072918, 37.977676, 37.982143, 38.0625, 37.910713, 37.455357, 37.071426, 37.145832, 36.884357, 36.770832, 36.491074, 36.262501, 35.833332, 35.666668, 7.0208335, 7.1696429, 7.1875, 7.1875, 7.125, 7.0625, 7, 7.125, 7.125, 7.125, 7.125, 7, 6.9375, 6.9375, 6.9375, 6.9375, 7, 7, 7, 7.0625, 7.0625, 7.0625, 7.125, 7.0625, 7.125, 7.25, 7.1875, 7.1875, 7.1875, 7.125, 7.1875, 7.3125, 7.4375, 7.375, 7.3125, 7.25, 7.125, 7.25, 7.375, 7.5625, 7.666667, -10, -10, -10, -10, -10, -10, -10, -10, -10, -10, -10, -10, -10, -10, -10, 38.25, 38.791668, 38.770832, 38.616074, 38.166668, 37.776787, 37.59375, 37.583332, -10, -10, -10, -10, -10, -10, -10, -10, -10, -10, -10, -10, -10, -10, -10, -10, -10, -10, -10, -10, -10, -10, -10, -10, -10, -10, -10, -10, -10, -10, -10, -10, -10, -10, -10, -10, -10, -10, -10, -10, -10, -10, -10, -10, -10, -10, -10, -10, -10, -10, -10, -10, -10, -10, -10, -10, -10, -10, -10, -10, -10, -10, -10, -10, -10, -10, -10, -10, -10, -10, -10, -10, -10, -10, -10, -10, -10, -10, -10, -10, -10, -10, -10, -10, -10, -10, -10, -10, -10, -10, -10, -10, -10, -10, -10, -10, -10, -10, -10, -10, -10, -10, -10, -10, -10, -10, -10, -10, -10, -10, -10, -10, -10, -10, -10, -10, -10, -10, 64.8125, 64.802078, 64.84375, 64.84375, 64.84375, 64.84375
19.887501, 20.0625, 20.482143, 20.290178, 20.40625, 20.049107, 20.211309, 20.5, -10, -10, -10, 20.583334, 20.611113, -10, -10, -10, -10, -10, -10, -10, -10, -10, -10, -10, -10, -10, -10, -10, -10, -10, -10, -10, -10, -10, -10, -10, -10, 52.875, 52.53125, 52.34375, 52.208336, -10, -10, -10, -10, -10, -10, -10, -10, -10, -10, -10, -10, -10, -10, -10, -10, -10, -10, -10, -10, -10, -10, -10, -10, -10, -10, -10, -10, -10, -10, -10, -10, -10, -10, -10, -10, -10, -10, -10, 46.25, 46.472225, 46.444443, 46.25, 46.017857, 45.839287, 45.75, 45.6875, 45.6875, 45.232143, 44.541668, 44.392857, 44.223213, 44.0625, 43.830357, 43.6875, 43.419643, 43.166668, 42.964287, 42.674999, 42.803574, 42.741074, 42.4375, 42.053574, 41.458332, 40.925594, 40.863094, 41.166664, 41.136902, 40.845238, 40.398811, 39.892857, 39.571426, 39.375, 39.3125, 39.21875, 39.03125, 38.736607, 38.459824, 38.1875, 38.21875, 38.03125, 37.822918, 37.727676, 37.732143, 37.8125, 37.660713, 37.276787, 36.892857, 36.895832, 36.404762, 36.270832, 35.991074, 35.8125, 35.625, 35.444447, 7.1111112, 7.0625, 7, 7, 7, 6.9375, 6.875, 6.9375, 6.9375, 7, 7.0625, 7, 6.9375, 6.875, 6.875, 6.875, 6.9375, 7, 7, 7, 7, 7, 7, 7, 7, 7.0625, 7.0625, 7.0625, 7.125, 7.125, 7.1875, 7.25, 7.3125, 7.25, 7.1875, 7.125, 7, 7.0625, 7.125, 7.25, 7.4047623, -10, -10, -10, -10, -10, -10, -10, -10, -10, -10, -10, -10, -10, -10, -10, 38.25, 38.416668, 38.354168, 38.178574, 37.604168, 37.148216, 37.236607, 37.114582, 36.583336, -10, -10, -10, -10, -10, -10, -10, -10, -10, -10, -10, -10, -10, -10, -10, -10, -10, -10, -10, -10, -10, -10, -10, -10, -10, -10, -10, -10, -10, -10, -10, -10, -10, -10, -10, -10, -10, -10, -10, -10, -10, -10, -10, -10, -10, -10, -10, -10, -10, -10, -10, -10, -10, -10, -10, -10, -10, -10, -10, -10, -10, -10, -10, -10, -10, -10, -10, -10, -10, -10, -10, -10, -10, -10, -10, -10, -10, -10, -10, -10, -10, -10, -10, -10, -10, -10, -10, -10, -10, -10, -10, -10, -10, -10, -10, -10, -10, -10, -10, -10, -10, -10, -10, -10, -10, -10, -10, -10, -10, -10, -10, -10, -10, -10, -10, -10, -10, 64.916664, 64.944435, 64.8125, 64.739586, 64.71875, 64.65625, 64.8125, 64.96875, 65.03125, 65.15625, 65.34375, 65.5625, 65.8125, 66, 66, 29.625, 29.75, 29.8125, 29.875, 29.875, 29.875, 30, 30.125, 30.1875, 30.375, 30.5625, 30.857143, 31.0625, 31.25, 31.504463, 31.820835, -10, -10, -10, -10, -10, -10, -10, -10, -10, -10, -10, -10, -10, -10, -10, -10, -10, -10, 17.416666, 17.816668, 17.991072, 18.357143, 18.53125, 18.84375, 19.200893, 19.450893, 19.705357, 19.887501, 20.041666, 20.294643, 20.28125, 20.325893, 19.924107, 20.023809, 20.3125, -10, -10, -10, -10, -10, -10, -10, -10, -10, -10, -10, -10, -10, -10, -10, -10, -10, -10, -10, -10, -10, -10, -10, -10, -10, -10, -10, -10, -10, -10, 52.375, 52.166668, 52.041668, -10, -10, -10, -10, -10, -10, -10, -10, -10, -10, -10, -10, -10, -10, -10, -10, -10, -10, -10, -10, -10, -10, -10, -10, -10, -10, -10, -10, -10, -10, -10, -10, -10, -10, -10, -10, -10, -10, 45.5, 45.916668, 46.291668, 46.440475, 46.375, 46.080357, 45.732143, 45.5625, 45.4375, 45.4375, 45.107143, 44.586311, 44.339287, 43.848213, 43.616074, 43.267857, 43.125, 42.9375, 42.8125, 42.57143, 42.362499, 42.491074, 42.428574, 42.25, 41.901787, 41.270832, 40.675594, 40.550594, 40.854164, 40.886902, 40.782738, 40.461311, 40.008926, 39.488094, 39.196426, 39.0625, 39, 38.78125, 38.455357, 38.147324, 37.71875, 37.71875, 37.5625, 37.385418, 37.383926, 37.419643, 37.5, 37.348213, 36.995537, 36.571426, 36.3125, 36, 35.75, 35.526787, 35.4375, 35.25, 35.208336, 34.666664, 7, 7, 7, 7, 6.9375, 6.875, 6.875, 6.875, 6.9375, 7, 7, 6.9375, 6.875, 6.875, 6.875, 6.9375, 7, 7, 7, 7, 7, 7, 7, 6.9375, 6.9375, 6.9375, 6.9375, 7.0625, 7.125, 7.125, 7.125, 7.125, 7.0625, 7.0625, 7.0625, 7, 7.0625, 7.125, 7.25, 7.5089288, 8.2142859, -10, -10, -10, -10, -10, -10, -10, -10, -10, -10, -10, -10, -10, -10, -10, 37.916668, 37.854168, 37.75, 37.366074, 36.794895, 37.192856, 36.552719, 36.58889, -10, -10, -10, -10, -10, -10, -10, -10, -10, -10, -10, -10, -10, -10, -10, -10, -10, -10, -10, -10, -10, -10, -10, -10, -10, -10, -10, -10, -10, -10, -10, -10, -10, -10, -10, -10, -10, -10, -10, -10, -10, -10, -10, -10, -10, -10, -10, -10, -10, -10, -10, -10, -10, -10, -10, -10, -10, -10, -10, -10, -10, -10, -10, -10, -10, -10, -10, -10, -10, -10, -10, -10, -10, -10, -10, -10, -10, -10, -10, -10, -10, -10, -10, -10, -10, -10, -10, -10, -10, -10, -10, -10, -10, -10, -10, -10, -10, -10, -10, -10, -10, -10, -10, -10, -10, -10, -10, -10, -10, -10, -10, -10, -10, -10, -10, -10, -10, -10, -10, 64.703125, 64.572922, 64.46875, 64.34375
19.6875, 19.875, 20, 20.09375, 20.075893, 19.736607, 19.711309, 20, 20, -10, -10, -10, -10, -10, -10, -10, -10, -10, -10, -10, -10, -10, -10, -10, -10, -10, -10, -10, -10, -10, -10, -10, -10, -10, -10, -10, -10, -10, 52.333332, 52.138889, 51.791668, 51.125, 50.875, -10, -10, -10, -10, -10, -10, -10, -10, -10, -10, -10, -10, -10, -10, -10, -10, -10, -10, -10, -10, -10, -10, -10, -10, -10, -10, -10, -10, -10, -10, -10, -10, -10, -10, 45.666664, 45.75, 45.916668, 46.125, 46.354168, 46.544643, 46.419643, 45.934525, 45.553574, 45.25, 45.0625, 45.0625, 44.857143, 44.372025, 44.005955, 43.535713, 43.241074, 43.080357, 42.9375, 42.6875, 42.455357, 42.19643, 41.987499, 42.116074, 42.116074, 41.919643, 41.491074, 41.020832, 40.633926, 40.508926, 40.645832, 40.520832, 40.416668, 40.294643, 39.883926, 39.363094, 39.008926, 38.9375, 38.875, 38.65625, 38.330357, 37.96875, 37.53125, 37.361607, 37.25, 36.947918, 36.946426, 36.919643, 36.9375, 36.848213, 36.60268, 36.321426, 36.1875, 35.9375, 35.678574, 35.193455, 35.080357, 34.875, 34.854168, 34.555553, 7, 7, 7, 7, 7, 7, 7, 7, 7, 7, 7, 7, 6.9375, 6.9375, 6.875, 6.875, 6.875, 6.8125, 6.8125, 6.75, 6.8125, 6.875, 6.9375, 7, 7, 7, 7, 7, 7, 7, 7, 7, 7, 7, 7, 7, 7.0625, 7.125, 7.25, 7.6130953, 8.2857141, 8.666667, -10, -10, -10, -10, -10, -10, -10, -10, -10, -10, -10, -10, -10, -10, 37.666668, 37.416668, 37.3125, 36.919643, 36.614285, 37.030357, 36.26339, 36.641666, -10, -10, -10, -10, -10, -10, -10, -10, -10, -10, -10, -10, -10, -10, -10, -10, -10, -10, -10, -10, -10, -10, -10, -10, -10, -10, -10, -10, -10, -10, -10, -10, -10, -10, -10, -10, -10, -10, -10, -10, -10, -10, -10, -10, -10, -10, -10, -10, -10, -10, -10, -10, -10, -10, -10, -10, -10, -10, -10, -10, -10, -10, -10, -10, -10, -10, -10, -10, -10, -10, -10, -10, -10, -10, -10, -10, -10, -10, -10, -10, -10, -10, -10, -10, -10, -10, -10, -10, -10, -10, -10, -10, -10, -10, -10, -10, -10, -10, -10, -10, -10, -10, -10, -10, -10, -10, -10, -10, -10, -10, -10, -10, -10, -10, -10, -10, -10, -10, -10, 64.71875, 64.572922, 64.40625, 64.21875, 64.25, 64.3125, 64.5625, 64.90625, 65.325897, 65.65625, 65.90625, 66, 66, 30, 30.166666, 30.25, 30.3125, 30.25, 30.1875, 30, 30.0625, 30.0625, 30.3125, 30.5, 30.75, 30.9375, 30.9375, 31.160713, 31.445833, -10, -10, -10, -10, -10, -10, -10, -10, -10, -10, -10, -10, -10, -10, -10, -10, -10, -10, 17.291666, 17.65, 17.803572, 18.1875, 18.200893, 18.268749, 18.709822, 19.004465, 19.34375, 19.59375, 19.78125, 19.90625, 19.96875, 19.96875, 19.84375, 19.732143, 19.9375, 19.888887, -10, -10, -10, -10, -10, -10, -10, -10, -10, -10, -10, -10, -10, -10, -10, -10, -10, -10, -10, -10, -10, -10, -10, -10, -10, -10, -10, -10, -10, -10, -10, 51.5, 51.125, 50.875, 50.666668, -10, -10, -10, -10, -10, -10, -10, -10, -10, -10, -10, -10, -10, -10, -10, -10, -10, -10, -10, -10, -10, -10, -10, -10, -10, -10, -10, -10, -10, -10, -10, -10, 46, 45.777775, 45.916668, 46.0625, 46.125, 46.3125, 46.357143, 46.107143, 45.684525, 45.276787, 44.9375, 44.75, 44.625, 44.428574, 43.979168, 43.684525, 43.223213, 43.116074, 42.991074, 42.767857, 42.580357, 42.24107, 41.910713, 41.758926, 41.71875, 41.78125, 41.638393, 41.325893, 41.125, 40.633926, 40.401787, 40.25, 40.125, 40.25, 40.160713, 39.883926, 39.345238, 38.839287, 38.767857, 38.65625, 38.5, 38.22768, 37.729168, 37.21875, 37.013393, 37.035713, 36.834824, 36.724998, 36.741074, 36.642857, 36.504463, 36.236607, 36.008926, 35.90625, 35.78125, 35.473213, 34.860123, 34.651787, 34.4375, 34.4375, 34.416664, 7, 7, 7, 6.9375, 6.875, 6.8125, 6.8125, 6.875, 6.9375, 7, 7, 7, 6.9375, 6.875, 6.75, 6.6875, 6.625, 6.5625, 6.5625, 6.5625, 6.625, 6.75, 6.875, 6.9375, 7, 6.9375, 6.875, 6.8125, 6.8125, 6.875, 6.9375, 7, 7, 7.0625, 7.0625, 7.0625, 7.0625, 7, 7.1875, 7.5297618, 9.3877554, 10.2, -10, -10, -10, -10, -10, -10, -10, -10, -10, -10, -10, -10, -10, -10, -10, 37.166668, 37.125, 36.857143, 36.757141, 37.509521, 36.586731, 36.971428, -10, -10, -10, -10, -10, -10, -10, -10, -10, -10, -10, -10, -10, -10, -10, -10, -10, -10, -10, -10, -10, -10, -10, -10, -10, -10, -10, -10, -10, -10, -10, -10, -10, -10, -10, -10, -10, -10, -10, -10, -10, -10, -10, -10, -10, -10, -10, -10, -10, -10, -10, -10, -10, -10, -10, -10, -10, -10, -10, -10, -10, -10, -10, -10, -10, -10, -10, -10, -10, -10, -10, -10, -10, -10, -10, -10, -10, -10, -10, -10, -10, -10, -10, -10, -10, -10, -10, -10, -10, -10, -10, -10, -10, -10, -10, -10, -10, -10, -10, -10, -10, -10, -10, -10, -10, -10, -10, -10, -10, -10, -10, -10, -10, -10, -10, -10, -10, -10, -10, 64.6875, 64.604172, 64.4375, 64.25
19.415178, 19.36875, 19.510416, 19.595236, 19.678572, 19.678572, 19.625, 19.6875, 19.666666, -10, -10, -10, -10, -10, -10, -10, -10, -10, -10, -10, -10, -10, -10, -10, -10, -10, -10, -10, -10, -10, -10, -10, -10, -10, -10, -10, -10, -10, -10, -10, -10, -10, -10, -10, -10, -10, -10, -10, -10, -10, -10, -10, -10, -10, -10, -10, -10, -10, -10, -10, -10, -10, -10, -10, -10, -10, -10, -10, -10, -10, -10, -10, -10, -10, 46, 46, 46, 45.833332, 45.9375, 46.0625, 46.125, 46.1875, 46.169643, 45.857143, 45.354168, 44.866074, 44.5625, 44.4375, 44.285713, 44.07143, 43.758926, 43.425594, 42.973213, 42.6875, 42.598213, 42.330357, 42.205357, 41.919643, 41.517857, 41.446426, 41.34375, 41.46875, 41.388393, 41.183037, 41.0625, 40.633926, 40.464287, 40.303574, 39.979168, 40.008926, 39.875, 39.678574, 39.148811, 38.651787, 38.517857, 38.397324, 38.1875, 38.084824, 37.541668, 37.0625, 36.732143, 36.691963, 36.491074, 36.474998, 36.616074, 36.4375, 36.135418, 35.986607, 35.75, 35.78125, 35.700893, 35.241074, 34.619049, 34.401787, 34.1875, 34.1875, 34.166664, 34, 7, 6.9166665, 6.8125, 6.75, 6.6875, 6.6875, 6.8125, 6.875, 6.875, 6.875, 6.8125, 6.75, 6.6875, 6.625, 6.625, 6.5, 6.4375, 6.375, 6.375, 6.5, 6.6875, 6.875, 6.9375, 7, 6.9375, 6.875, 6.8125, 6.8125, 6.875, 6.9375, 7, 7, 7.125, 7.4196429, 8.0714283, 7.0833335, 7, 7.25, 7.6111112, 13.476192, 13.708333, 16.4375, 16.5625, 16.625, 16.645832, -10, -10, -10, -10, -10, -10, -10, -10, -10, -10, -10, 37.25, 37.25, 37.169643, 37.394642, 38.152382, 38.071426, 38.185719, 38.583336, -10, -10, -10, -10, -10, -10, -10, -10, -10, -10, -10, -10, -10, -10, -10, -10, -10, -10, -10, -10, -10, -10, -10, -10, -10, -10, -10, -10, -10, -10, -10, -10, -10, -10, -10, -10, -10, -10, -10, -10, -10, -10, -10, -10, -10, -10, -10, -10, -10, -10, -10, -10, -10, -10, -10, -10, -10, -10, -10, -10, -10, -10, -10, -10, -10, -10, -10, -10, -10, -10, -10, -10, -10, -10, -10, -10, -10, -10, -10, -10, -10, -10, -10, -10, -10, -10, -10, -10, -10, -10, -10, -10, -10, -10, -10, -10, -10, -10, -10, -10, -10, -10, -10, -10, -10, -10, -10, -10, -10, -10, -10, -10, -10, 63.625, 63.666664, 63.5, 64, 64.6875, 64.729164, 64.645836, 64.5, 64.3125, 64.25, 64.392853, 64.75, 65.03125, 65.513397, 65.71875, 65.90625, 66, 66, -10, -10, -10, 30, 30.25, 30.234375, 30.109375, 30.140625, 30.203125, 30.4375, 30.65625, 30.875, 31, 30.9375, 31, 31, -10, -10, -10, -10, -10, -10, -10, -10, -10, -10, -10, -10, -10, -10, -10, -10, -10, -10, 17.0625, 17.208332, 17.450893, 18.06875, 18.044643, 18.255358, 18.491072, 18.553572, 18.736607, 18.938776, 18.61875, 18.760416, 18.476191, 19.053572, 19.116072, 19.125, 19.15625, 19.124998, -10, -10, -10, -10, -10, -10, -10, -10, -10, -10, -10, -10, -10, -10, -10, 19, -10, -10, -10, -10, -10, -10, -10, -10, -10, -10, -10, -10, -10, -10, -10, -10, -10, -10, -10, -10, -10, -10, -10, -10, -10, -10, -10, -10, -10, -10, -10, -10, -10, -10, -10, -10, -10, -10, -10, -10, -10, -10, -10, -10, -10, -10, -10, -10, -10, 45.555557, 45.666668, 45.875, 46.020832, 46.1875, 46.3125, 46.25, 46.125, 45.875, 45.410717, 44.708336, 44.29464, 44.0625, 44, 43.910713, 43.69643, 43.321426, 43.032742, 42.723213, 42.571426, 42.508926, 42.267857, 42.142857, 41.785717, 41.267857, 41.196426, 41.09375, 41.28125, 40.971725, 40.828869, 40.895832, 40.529762, 40.339287, 40.303574, 39.916668, 39.705357, 39.294643, 38.892857, 38.607143, 38.205357, 38.205357, 38.116074, 37.9375, 37.886906, 37.472225, 37.041668, 36.684525, 36.504463, 36.334824, 36.349998, 36.464287, 36.205357, 35.894348, 35.767857, 35.5, 35.239582, 35.191963, 34.803574, 34.342262, 34.214287, 34.0625, 34.0625, 34.083332, 34, 6.75, 6.6666665, 6.5625, 6.5, 6.4375, 6.4375, 6.625, 6.6875, 6.6875, 6.6875, 6.5625, 6.5, 6.4375, 6.375, 6.375, 6.25, 6.1875, 6.125, 6.125, 6.3125, 6.5625, 6.8125, 6.875, 6.9375, 6.875, 6.8125, 6.8125, 6.75, 6.875, 6.9375, 7, 7.25, 7.8571429, 8.5748301, 12.041667, 15.583334, 15.75, 16, 16, 14.485715, 14.716667, 16.4375, 16.458334, 16.583334, 16.638887, 16.583332, -10, -10, -10, -10, -10, -10, -10, -10, -10, -10, 37.333332, 37.75, 37.824402, 38.057144, 38.664879, 38.612244, 38.502041, 38.472225, 38.166664, -10, -10, -10, -10, -10, -10, -10, -10, -10, -10, -10, -10, -10, -10, -10, -10, -10, -10, -10, -10, -10, -10, -10, -10, -10, -10, -10, -10, -10, -10, -10, -10, -10, -10, -10, -10, -10, -10, -10, -10, -10, -10, -10, -10, -10, -10, -10, -10, -10, -10, -10, -10, -10, -10, -10, -10, -10, -10, -10, -10, -10, -10, -10, -10, -10, -10, -10, -10, -10, -10, -10, -10, -10, -10, -10, -10, -10, -10, -10, -10, -10, -10, -10, -10, -10, -10, -10, -10, -10, -10, -10, -10, -10, -10, -10, -10, -10, -10, -10, -10, -10, -10, -10, -10, -10, -10, -10, -10, -10, -10, 64, 64, 63.75, 63.777775, -10, -10, 64.791664, 64.770828, 64.6875, 64.4375, 64.276787
18.193453, 18.189285, 18.244047, 18.047619, 18.418367, 18.418367, 18.75, 18.78125, 18.791666, -10, -10, -10, -10, -10, -10, -10, -10, -10, -10, -10, -10, -10, -10, 18.5, 18.75, 18.75, 18.833332, -10, -10, -10, -10, -10, -10, -10, -10, -10, -10, -10, -10, -10, -10, -10, -10, -10, -10, -10, -10, -10, -10, -10, -10, -10, -10, -10, -10, -10, -10, -10, -10, -10, -10, -10, -10, -10, -10, -10, -10, -10, -10, -10, -10, -10, -10, 44.75, 45.354168, 45.5625, 45.8125, 45.9375, 45.955357, 45.946426, 45.8125, 45.6875, 45.375, 44.928574, 44.291668, 43.848213, 43.6875, 43.625, 43.598213, 43.38393, 43.008926, 42.866074, 42.473213, 42.410713, 42.35714, 42.080357, 42.035713, 41.64286, 41.080357, 40.946426, 40.861607, 41.010418, 40.364582, 40.328869, 40.333332, 40.261906, 40.07143, 39.845238, 39.425598, 39.142857, 38.732143, 38.270409, 38.294643, 37.986607, 38.017857, 37.866074, 37.625, 37.553574, -10, -10, -10, 36.379463, 36.209824, 36.162498, 36.214287, 35.955357, 35.644348, 35.517857, 35.1875, 34.864582, 34.754463, 34.375, 34.175594, 34.008926, 33.875, 33.75, 33.5625, 33.653061, 6.6666665, 6.4166665, 6.3125, 6.25, 6.1875, 6.1875, 6.4375, 6.5625, 6.5625, 6.5625, 6.375, 6.25, 6.1875, 6.1875, 6.1875, 6.125, 6.125, 6.0625, 6.125, 6.25, 6.5, 6.75, 6.8125, 6.9375, 6.875, 6.8125, 6.8125, -10, 6.875, 6.9166665, 7, 8.5, 10.75, 12.501984, 13.678572, 15.5, 15.75, 16, -10, -10, -10, -10, 16.34375, 16.520834, 16.604166, 16.611109, -10, -10, -10, -10, -10, -10, -10, -10, -10, -10, -10, 38.200001, 39.166664, 39.107143, 39.443451, 39.166668, 38.910713, 38.604168, 38.166664, -10, -10, -10, -10, -10, -10, -10, -10, -10, -10, -10, -10, -10, -10, -10, -10, -10, -10, -10, -10, -10, -10, -10, -10, -10, -10, -10, -10, -10, -10, -10, -10, -10, -10, -10, -10, -10, -10, -10, -10, -10, -10, -10, -10, -10, -10, -10, -10, -10, -10, -10, -10, -10, -10, -10, -10, -10, -10, -10, -10, -10, -10, -10, -10, -10, -10, -10, -10, -10, -10, -10, -10, -10, -10, -10, -10, -10, -10, -10, -10, -10, -10, -10, -10, -10, -10, -10, -10, -10, -10, -10, -10, -10, -10, -10, -10, -10, -10, -10, -10, -10, -10, 62.833336, 62.833336, -10, -10, -10, -10, -10, -10, 63.916668, 64, 63.8125, 63.833332, -10, -10, 64.84375, 64.687492, 64.5625, 64.392853, 64.401787, 64.473213, 64.705353, 64.9375, 65, 65.334824, 65.760414, 65.950897, 66.09375, 66.083336, -10, -10, -10, 29.75, 29.833334, 29.921875, 30.171875, 30.328125, 30.578125, 30.84375, 30.96875, 31.0625, 31, 30.75, 30.78125, 30.708332, -10, -10, -10, -10, -10, -10, -10, -10, -10, -10, -10, -10, -10, -10, -10, -10, -10, -10, 16.5625, 16.791666, 17.058037, 17.63125, 17.75, 18.080357, 18.1875, 18.25, 18.267857, 18.133928, 17.9625, 17.979166, 17.791666, 18.116072, 18.116072, 18.3125, 18.34375, 18.375, -10, -10, -10, -10, -10, -10, -10, 18, -10, -10, -10, -10, -10, 17.875, 18.25, 18.479166, 18.75, 18.833332, -10, -10, -10, -10, -10, -10, -10, -10, -10, -10, -10, -10, -10, -10, -10, -10, -10, -10, -10, -10, -10, -10, -10, -10, -10, -10, -10, -10, -10, -10, -10, -10, -10, -10, -10, -10, -10, -10, -10, -10, -10, -10, -10, -10, 45.166664, 44.775002, 44.75, 45.041668, 45.375, 45.75, 45.9375, 45.785713, 45.642853, 45.366074, 44.979168, 44.767857, 44.428574, 43.916668, 43.660713, 43.5, 43.4375, 43.410713, 43.142857, 42.883926, 42.678574, 42.285713, 42.035713, 41.883926, 41.651787, 41.580357, 41.232143, 40.8125, 40.75, 40.767857, 40.833336, 39.57143, 39.442177, 39.452381, 39.877975, 39.857143, 39.506805, 39.175598, 38.767857, 38.357143, 38.080357, 37.973213, 37.700893, 37.589287, 37.334824, 37.03125, 36.958332, -10, -10, -10, 36.09375, 35.947918, 35.875, 35.75, 35.5, 35.113098, 35.080357, 34.8125, 34.458332, 34.410713, 34.053574, 33.901787, 33.758926, 33.5625, 33.375, 33.09375, 32.398808, 31.416668, 6.0416665, 5.9583335, 6, 6, 6.0625, 6.3125, 6.375, 6.3125, 6.3125, 6.125, 6, 6, 6.0625, 6.125, 6.125, 6.125, 6.0625, 6.0625, 6.1875, 6.375, 6.5625, 6.625, 6.9166665, 6.8541665, 6.9375, 7, -10, 7, 15.916666, 15.645834, 14.05, 14.75, 14.180273, 15.0625, 15.5, -10, -10, -10, -10, -10, -10, 16.208334, 16.333334, 16.520834, 16.541666, -10, -10, -10, -10, -10, -10, -10, -10, -10, -10, -10, -10, 40.130951, 40.17857, 39.95536, 39.333336, 39.053574, 38.770832, -10, -10, -10, -10, -10, -10, -10, -10, -10, -10, -10, -10, -10, -10, -10, -10, -10, -10, -10, -10, -10, -10, -10, -10, -10, -10, -10, -10, -10, -10, -10, -10, -10, -10, -10, -10, 48, -10, -10, -10, -10, -10, -10, 49.25, -10, -10, -10, -10, -10, -10, -10, -10, -10, -10, -10, -10, -10, -10, -10, -10, -10, -10, -10, 53.25, 53.25, -10, -10, -10, -10, -10, -10, -10, -10, 56.25, -10, -10, -10, -10, 57.5, -10, -10, -10, -10, -10, -10, -10, -10, -10, -10, -10, -10, -10, 59.5, -10, -10, -10, -10, 60.8125, -10, -10, -10, -10, 62.25, 62.611115, 62.611115, -10, -10, -10, 62.583336, 63, 63.42857, 63.875, 64, 64, 64, -10, -10, 65, 64.749992, 64.625, 64.517853, 64.464287
17.59375, 17.65625, 17.71875, 17.78125, 17.875, 17.8125, 17.9375, 18.03125, 18, 17.625, 17.5625, 17.5625, 17.6875, 17.9375, 18, 18, 18, 17.732143, 17.375, 17.375, 17.25, 17.5, 17.583334, 18.03125, 18.104166, -10, -10, -10, -10, -10, -10, -10, -10, -10, -10, -10, -10, -10, -10, -10, -10, -10, -10, -10, -10, -10, -10, -10, -10, -10, -10, -10, -10, -10, -10, -10, -10, -10, -10, -10, -10, -10, -10, -10, -10, -10, -10, -10, -10, 44.75, 44.880951, 45.027775, 44.850002, 44.8125, 44.729168, 45.125, 45.650002, 45.6875, 45.607143, 45.330353, 44.928574, 44.434525, 44.267857, 43.991074, 43.666668, 43.571426, 43.375, 43.25, 43.1875, 42.928574, 42.612499, 42.449402, 41.821426, 41.785713, 41.571426, 41.339287, 41.267857, 40.866074, 40.625, 40.625, 40.767857, 40.75, 39.291668, 39.101192, 39.020832, 39.315475, 39.357143, 39.166668, 38.883926, 38.508926, 38.107143, 37.82143, 37.598213, 37.388393, 37.214287, 37.03125, 36.84375, 36.708332, -10, -10, -10, 36, 35.738094, 35.455357, 35.25, 34.955357, 34.758926, 34.75, 34.5, 34.083332, 34.053574, 33.910713, 33.767857, 33.571426, 33.205357, 32.9375, 32.53125, 31.913265, 31.361113, 5.8333335, 5.8333335, 5.875, 5.875, 5.9375, 6.125, 6.1875, 6.1875, 6.1875, 6.0625, 6, 6, 6, 6, 6, 6, 6, 6, 6.0833335, 6.25, 6.4166665, 6.5, -10, 6.8055553, 6.9166665, 7, -10, 16, 15.944444, 15.680556, 14.535714, 15.035714, 15.291667, 15.5625, -10, -10, -10, -10, -10, -10, -10, -10, 16.208334, 16.364584, 16.555555, -10, -10, -10, -10, -10, -10, -10, -10, -10, -10, -10, -10, 40.583332, 40.5625, 40.3125, 39.333336, 38.946426, 38.645832, -10, -10, -10, -10, -10, -10, -10, -10, -10, -10, -10, -10, -10, -10, -10, -10, -10, -10, -10, -10, -10, -10, -10, -10, -10, -10, -10, -10, -10, -10, -10, -10, -10, -10, -10, 48, 48, -10, -10, -10, -10, -10, 49.416664, 49.277775, -10, -10, -10, -10, -10, -10, -10, -10, 51.5, -10, -10, -10, -10, -10, -10, -10, -10, -10, -10, 53.5, 53.5, -10, -10, -10, -10, -10, -10, -10, -10, 56.166668, 56.25, -10, -10, -10, 57.25, -10, -10, -10, -10, 57.875, 57.9375, -10, -10, -10, -10, -10, -10, 58.75, 59.25, 59.125, 59.375, 59.8125, 60.3125, 60.708332, 60.666664, -10, -10, -10, 62, 62.395836, 62.395836, -10, -10, 62.5, 62.638889, 63.083332, 63.452381, 63.8125, 64, 64, 64, -10, -10, 64.875, 64.749992, 64.6875, 64.611603, 64.651787, 64.8125, 64.9375, 64.821426, 64.955353, 65.138397, 65.84375, 66.013397, 66.15625, 66.145836, 30.25, 30.611113, 30.483332, 30.080357, 30.029762, 29.9375, 30.0625, 30.21875, 30.4375, 30.78125, 30.9375, 31.03125, 30.9375, 30.776787, 30.950893, 30.941666, -10, -10, -10, -10, -10, -10, -10, -10, -10, -10, -10, -10, -10, -10, -10, -10, -10, -10, 16.625, 16.833332, 16.982143, 17.25, 17.375, 17.4375, 17.5, 17.5625, 17.535713, 17.424107, 17.486607, 17.53125, 17.59375, 17.6875, 17.625, 17.75, 17.8125, 17.770834, 17.5, 17.291666, 17.291666, 17.458334, 17.767859, 17.916666, 18, 17.928572, 17.376984, 17.011904, 17, 17, 17.25, 17.5, 17.71875, 17.904167, -10, -10, -10, -10, -10, -10, -10, -10, -10, -10, -10, -10, -10, -10, -10, -10, -10, -10, -10, -10, -10, -10, -10, -10, -10, -10, -10, -10, -10, -10, -10, -10, -10, -10, -10, -10, -10, -10, -10, -10, -10, -10, -10, 44.150002, 44.833332, 44.837299, 45.020832, 44.887501, 44.9375, 44.875, 45.160713, 45.525002, 45.607143, 45.325893, 45.049103, 44.584824, 44.090775, 43.955357, 43.75, 43.625, 43.5625, 43.3125, 43.116074, 42.924999, 42.699406, 42.279167, 42.354164, 41.642857, 41.544643, 41.285713, 41.026787, 40.892857, 40.5, 40.339287, 40.375, 40.625, 40.57143, 39.166668, 38.892857, 38.625, 38.919643, 38.982143, 38.666668, 38.446426, 38.1875, 37.791668, 37.678574, 37.410713, 37.263393, 37.026787, 36.78125, 36.59375, 36.4375, 36, 36.125, 36.125, 36, 35.738094, 35.321426, 34.880955, 34.633926, 34.4375, 34.4375, 34.25, 34.125, 34.125, 33.973213, 33.705357, 33.321426, 32.830357, 32.5, 31.96875, 31.549107, 31.333334, 31, 5.7083335, 5.7916665, 5.8125, 5.9375, 6.0625, 6.125, 6.125, 6.125, 6.0625, 6, 6, 6, 6, 6, 6, 6, 6, -10, -10, -10, -10, -10, 15.625, 15.416666, 15.4375, 15.5, 15.809525, 15.833333, 15.635417, 15.53125, 15.46875, 15.5, 15.729167, -10, -10, -10, -10, -10, -10, -10, -10, 16.083334, 16.208334, -10, -10, -10, -10, -10, -10, -10, -10, -10, -10, -10, -10, -10, 41, 41, 40.75, 39.726192, 39.071426, 38.73333, -10, -10, -10, -10, -10, -10, -10, -10, -10, -10, -10, -10, -10, -10, -10, -10, -10, -10, -10, -10, -10, -10, -10, -10, -10, -10, -10, -10, -10, -10, -10, -10, -10, -10, 47.8125, 47.916668, 47.953125, -10, -10, -10, -10, 49.25, 49.277775, 49.208332, -10, -10, -10, -10, -10, -10, 51, 51, 51.416668, -10, -10, -10, 51.125, -10, -10, -10, 53, 53.208336, 53.4375, 53.46875, 53.53125, 53.9375, -10, -10, -10, -10, -10, -10, -10, 56.125, 56.166668, 56.0625, 56.1875, 56.4375, 57.09375, 56.875, 57.125, 57.3125, 57.5625, 57.875, 57.958332, 58, -10, -10, -10, 58.5, 58.666664, 58.833332, 59.203125, 59.166668, 59.416668, 59.791668, 60.270832, 60.65625, 60.694443, 60.75, 60.875, 61.214287, 61.75, 61.958336, 62.020836, 61.75, 62.25, 62.5, 62.666668, 63.0625, 63.339287, 63.5625, 63.75, 63.75, 63.75, -10, -10, 64.625, 64.749992, 64.75, 64.830353, 64.9375
17.111607, 17.236607, 17.34375, 17.46875, 17.5625, 17.5, 17.5, 17.4375, 17.3125, 17.1875, 17.03125, 17.09375, 17.34375, 17.700893, 17.875, 17.9375, 17.803572, 17.282738, 16.883928, 16.875, 16.875, 17.125, 17.25, 17.46875, 17.591667, -10, -10, -10, -10, -10, -10, -10, -10, -10, -10, -10, -10, -10, -10, -10, -10, -10, -10, -10, -10, -10, -10, -10, -10, -10, -10, -10, -10, -10, -10, -10, -10, -10, -10, -10, -10, -10, -10, -10, -10, -10, -10, 46, 44.933334, 45.1875, 45.020832, 44.9375, 44.8125, 44.830357, 44.9375, 45.098213, 45.400002, 45.285713, 44.933037, 44.727676, 44.272324, 43.778275, 43.705357, 43.5, 43.4375, 43.5, 43.178574, 42.782742, 42.567856, 42.324406, 41.966667, 42.104164, 41.455357, 41.330357, 41, 40.76786, 40.416668, 40.071426, 39.901787, 40.071426, 40.482143, 40.404762, 39.416668, 39.053574, 38.6875, 38.6875, 38.6875, 38.5625, 38.375, 37.895832, 37.461311, 37.303574, 37.098213, 37.044643, 36.776787, 36.59375, 36.40625, 36.208332, 36, 35.916668, 35.833332, 35.75, 35.550594, 35.169643, 34.648811, 34.464287, 34.223213, 34.151787, 34.0625, 33.857143, 33.8125, 33.723213, 33.330357, 33.008926, 32.517857, 32.1875, 31.78125, 31.40625, 31.125, 30.777779, 5.7083335, 5.7916665, 5.8125, 5.9375, 6, 6, 6, 6, 6, 6, 6, 6, 6, 6, 6, 6, 6, -10, -10, -10, -10, -10, 15.666667, 14.238095, 14.214286, 15.416667, 15.607143, 15.583333, 15.46875, 15.46875, 15.53125, 15.6875, 15.916667, -10, -10, -10, -10, -10, -10, -10, -10, 15.85, 16.083334, -10, -10, -10, -10, -10, -10, -10, -10, -10, -10, -10, -10, -10, 41, 41, 40.88393, 40.059525, 39.166668, 38.833332, -10, -10, -10, -10, -10, -10, -10, -10, -10, -10, -10, -10, -10, -10, -10, -10, -10, -10, 43.8125, -10, -10, -10, -10, -10, -10, -10, -10, -10, -10, -10, -10, -10, -10, -10, 47.597225, 47.78125, 47.859375, 47.895836, -10, -10, -10, 48.976192, 49.145832, 49.270832, -10, -10, -10, -10, -10, -10, 50.722225, 50.722225, 51.09375, 50.964287, 51.416664, 51.607143, 51.416668, 51.625, 51.875, 52.25, 52.916668, 53.138889, 53.208332, 53.433037, 53.638393, 53.863098, 54, 54.0625, 54.3125, 54.5, -10, -10, -10, 55.9375, 56, 55.958332, 56.125, 56.291668, 56.65625, 56.75, 57, 57.208332, 57.375, 57.71875, 57.84375, 57.833332, 58, 58.1875, 58.4375, 58.541668, 58.736111, 58.875, 58.984375, 59.21875, 59.46875, 59.8125, 60.203125, 60.4375, 60.583332, 60.666668, 60.833332, 61.101192, 61.4375, 61.666668, 61.791668, 61.833332, 62.166668, 62.4375, 62.666668, 63, 63.232143, 63.375, 63.5, 63.5, 63.5625, 63.25, -10, 64.375, 64.645828, 64.75, 64.875, 64.9375, 64.964287, 65.0625, 64.946426, 65.080353, 65.303574, 65.708336, 65.875, 66.0625, 66.125, 66.333336, 30.708334, 30.529167, 30.267857, 30.133928, 29.875, 29.875, 29.9375, 30.15625, 30.53125, 30.78125, 30.96875, 30.9375, 30.964287, 31.107143, 31.15, -10, -10, -10, -10, -10, -10, -10, -10, -10, -10, -10, -10, -10, -10, -10, -10, -10, 16, 16.458334, 16.541666, 16.625, 16.75, 16.75, 16.6875, 16.625, 16.75, 16.785713, 16.736607, 16.861607, 16.96875, 17.09375, 17.25, 17.25, 17.3125, 17.223213, 16.883928, 16.75, 16.46875, 16.549107, 17.013393, 17.379465, 17.625, 17.6875, 17.522322, 17.001488, 16.602678, 16.59375, 16.625, 16.875, 17.0625, 17.28125, 17.424999, -10, -10, -10, -10, -10, -10, -10, -10, -10, -10, -10, -10, -10, -10, -10, -10, -10, -10, -10, -10, -10, -10, -10, -10, -10, -10, -10, -10, -10, -10, -10, -10, -10, -10, -10, -10, -10, -10, -10, -10, -10, 46.107143, 45.904766, 45.157143, 45.214287, 44.875, 44.9375, 44.9375, 44.955357, 45.0625, 45.098213, 45.150002, 44.973213, 44.665176, 44.46875, 44.09375, 43.736607, 43.625, 43.375, 43.1875, 43.125, 42.741074, 42.282738, 42.130356, 41.949406, 41.654167, 41.791664, 41.080357, 41.017857, 40.75, 40.678574, 40.354168, 40.071426, 39.88393, 39.839287, 40.044643, 39.952381, 39.410713, 39.089287, 38.875, 38.6875, 38.5625, 38.4375, 38.1875, 37.479164, 37.005955, 36.803574, 36.625, 36.75, 36.6875, 36.625, 36.5, 36.303574, 35.916668, 35.758926, 35.625, 35.5, 35.321426, 34.982143, 34.497025, 34.339287, 34.160713, 34.089287, 34.0625, 33.785713, 33.5, 33.4375, 33.0625, 32.8125, 32.330357, 31.9375, 31.5, 31.125, 30.8125, 30.583334, 5.875, 5.9166665, 5.9375, 6, 6, 6, 6, 6, 6, 6, 6, 6, 6, 6, 6, 6, 6, -10, -10, -10, -10, -10, 15.5, 15.333333, 15.375, 15.375, 15.419643, 15.5, 15.375, 15.375, 15.4375, 15.5625, 15.791667, 15.875, -10, -10, -10, -10, -10, -10, 15.3, 16.016666, 16.25, -10, -10, -10, -10, -10, -10, -10, -10, -10, -10, -10, -10, -10, 41, 41, 40.955357, 40.520409, 39.336311, 38.892857, -10, -10, -10, -10, 40.75, -10, -10, -10, 41.8125, -10, -10, -10, -10, -10, 42.833336, 42.9375, 43.0625, 43.4375, 43.791668, 43.875, 44.0625, 44.1875, 44.3125, -10, -10, -10, -10, 45.875, 45.916664, 45.916664, -10, -10, -10, 47, 47.479168, 47.625, 47.765625, 47.888889, 47.875, 47.875, 48, 48.794643, 48.895832, 49.083332, 49.25, 49.375, 49.5, 49.625, 49.75, -10, 50.479168, 50.541668, 50.700893, 50.892857, 51.277775, 51.488098, 51.4375, 51.666668, 51.916668, 52.25, 52.8125, 52.979168, 53.03125, 53.183037, 53.450893, 53.754463, 53.916668, 54.041668, 54.208332, 54.416668, 54.625, 54.875, 55, 55.5625, 55.6875, 55.84375, 56.03125, 56.21875, 56.34375, 56.526787, 56.857143, 57.15625, 57.40625, 57.59375, 57.71875, 57.6875, 57.75, 57.958332, 58.208332, 58.46875, 58.677082, 58.8125, 58.984375, 59.1875, 59.4375, 59.75, 60.015625, 60.15625, 60.267857, 60.583332, 60.803574, 61.075893, 61.1875, 61.446426, 61.75, 61.875, 62.1875, 62.3125, 62.5625, 62.875, 63.0625, 63.125, 63.125, 63.142857, 63.395832, 63.404766, 63.875, 64.125, 64.333328, 64.4375, 64.5625, 64.75
16.455357, 16.517857, 16.5, 16.625, 16.8125, 16.910713, 17, 16.848213, 16.508928, 16.375, 16.125, 16.205357, 16.669643, 17.035715, 17.3125, 17.5, 17.397322, 17.010416, 16.790178, 16.71875, 16.75, 16.875, 17.0625, 17.1875, 17.237499, -10, -10, -10, -10, -10, -10, -10, -10, -10, -10, -10, -10, -10, -10, -10, -10, -10, -10, -10, -10, -10, -10, -10, -10, -10, -10, -10, -10, -10, -10, -10, -10, -10, -10, -10, -10, -10, -10, -10, 44.976189, 45.699997, 45.833332, 45.75, 45.262501, 45.1875, 44.830357, 44.8125, 44.8125, 44.892857, 45.125, 45.035713, 44.8125, 44.616074, 44.21875, 44.09375, 43.84375, 43.65625, 43.5, 43.25, 43, 42.8125, 42.428574, 41.970238, 41.817856, 41.699406, 41.270836, 41.279762, 40.821426, 40.821426, 40.71875, 40.741074, 40.291668, 39.946426, 39.66518, 39.464287, 39.544643, 39.410713, 39.212795, 38.96875, 38.90625, 38.65625, 38.4375, 38.3125, 38, 37.229164, 36.720238, 36.5625, 36.5625, 36.6875, 36.633926, 36.208332, 36.2551, 36.096939, 35.541668, 35.383926, 35.3125, 35.1875, 35.1875, 35.089287, 34.729168, 34.5625, 33.931545, 33.669643, 33.785713, 33.285713, 33, 32.9375, 32.6875, 32.5625, 32.1875, 31.767857, 31.3125, 30.875, 30.5625, 30.333334, 5.875, 5.9166665, 5.9375, 6, 5.9375, 5.9375, 5.9375, 5.9375, 5.9375, 5.9375, 6, 6.0357141, 6.0625, 6.0625, 6, 6, 6, -10, -10, -10, -10, -10, 15.25, 15.083333, 15.1875, 15.25, 15.294643, 15.4375, 15.3125, 15.25, 15.3125, 15.4375, 15.666667, 15.833333, 16, 16, -10, -10, -10, 15.625, 15.7, 16.204166, 16.5, 17.166668, -10, -10, -10, -10, -10, -10, -10, -10, -10, -10, -10, -10, 41, 41, 41.0625, 40.767857, 39.791668, 39.285713, 39.125, 38.875, 38.875, 39.214287, 40.5, 40.660713, 41.0625, 41.3125, 41.708332, 41.791664, -10, -10, -10, 42.25, 42.555557, 42.708332, 42.875, 43.291668, 43.65625, 43.75, 43.958332, 44.041668, 44.291668, 44.6875, 44.875, -10, -10, 45.666668, 45.777775, 45.861111, -10, -10, 46.75, 46.916668, 47.244793, 47.390625, 47.546875, 47.729168, 47.729168, 47.8125, 47.958332, 48.419643, 48.5625, 48.78125, 48.958332, 49.125, 49.375, 49.583332, 49.75, 49.75, 50.166668, 50.229168, 50.450893, 50.776787, 51.208332, 51.401787, 51.401787, 51.5625, 51.794643, 52.125, 52.4375, 52.625, 52.71875, 52.870537, 53.200893, 53.566963, 53.8125, 53.96875, 54.15625, 54.3125, 54.5, 54.75, 54.916668, 55.3125, 55.4375, 55.625, 55.84375, 56.03125, 56.09375, 56.183037, 56.450893, 56.78125, 57.174107, 57.375, 57.53125, 57.46875, 57.625, 57.78125, 58.03125, 58.40625, 58.59375, 58.8125, 58.984375, 59.15625, 59.40625, 59.65625, 59.859375, 59.96875, 60.080357, 60.395832, 60.616074, 60.84375, 61, 61.258926, 61.5625, 61.75, 62, 62.125, 62.375, 62.5625, 62.75, 62.8125, 62.8125, 62.830357, 63.083332, 63.241074, 63.5, 63.75, 63.916664, 64.0625, 64.21875, 64.5, 64.625, 64.6875, 64.8125, 64.8125, 65.1875, 65.5, 65.75, 66, 66.0625, 30, 30.25, 30.166666, 30.125, 30.0625, 30.008928, 30.125, 30.15625, 30.40625, 30.638393, 30.84375, 31, 31, 31.0625, 31.0625, 31.083334, -10, -10, -10, -10, -10, -10, -10, -10, -10, -10, -10, -10, -10, -10, -10, -10, -10, 16, 16.083334, 16.125, 16.1875, 16.25, 16.28125, 16.25, 16.25, 16.3125, 16.28125, 16.205357, 16.1875, 16.1875, 16.25, 16.375, 16.535713, 16.5625, 16.473213, 16.196428, 16.0625, 15.9375, 16.017857, 16.482143, 16.803572, 17.0625, 17.178572, 17.018749, 16.950893, 16.78125, 16.84375, 16.8125, 16.9375, 17, 16.9375, 16.8125, 16.375, 16.166668, -10, -10, -10, -10, -10, -10, -10, -10, -10, -10, -10, -10, -10, -10, -10, -10, -10, -10, -10, -10, -10, 46.833336, -10, -10, -10, -10, -10, -10, -10, -10, -10, -10, -10, -10, -10, 45, 45, 45.067459, 45.549999, 45.6875, 45.666668, 45.1875, 45, 44.705357, 44.6875, 44.75, 44.892857, 45, 44.875, 44.625, 44.196426, 43.875, 43.6875, 43.5, 43.375, 43.1875, 42.9375, 42.75, 42.535713, 42.14286, 41.729168, 41.580357, 41.366074, 41.041668, 40.883926, 40.6875, 40.75, 40.71875, 40.678574, 40.166668, 39.776787, 39.513393, 39.214287, 39.125, 38.964287, 38.941963, 38.71875, 38.71875, 38.397324, 37.979168, 37.821426, 37.5, 36.854164, 36.55357, 36.4375, 36.4375, 36.4375, 36.446426, 36.020832, 35.359127, 35.244049, 35.229168, 35.071426, 34.875, 34.651787, 34.625, 34.660713, 34.598213, 34.3125, 33.681545, 33.294643, 32.791668, 32.848213, 32.5, 32.5, 32.3125, 32.25, 31.9375, 31.517857, 31.0625, 30.625, 30.3125, 30.083334, 6, 6, 6, 5.9375, 5.875, 5.875, 5.875, 5.9375, 5.96875, 6.03125, 6.15625, 6.1919641, 6.1875, 6.125, 6.2142859, 6.6190476, 6.8571429, -10, -10, 14.625, 14.625, 14.625, 15.0625, 15, 15.15625, 15.25, 15.1875, 15.375, 15.25, 15.25, 15.3125, 15.375, 15.625, 15.8125, 16, 16, 16, 16, 16.0625, 15.875, 15.93125, 16.422916, 16.75, 17.111113, -10, -10, -10, -10, -10, -10, -10, -10, -10, -10, -10, -10, 41, 41, 41.0625, 40.84375, 40.197918, 39.666965, 39.375, 39.166668, 39.166668, 39.559525, 40.5, 40.690475, 41.041668, 41.208332, 41.59375, 41.694443, 41.875, 42, 42, 42.166668, 42.479168, 42.65625, 42.84375, 43.25, 43.5, 43.71875, 43.9375, 44.03125, 44.21875, 44.541668, 44.75, 44.875, 45, 45.5, 45.645832, 45.770832, 45.875, 46.125, 46.5, 46.71875, 46.932293, 47.046875, 47.21875, 47.40625, 47.515625, 47.703125, 47.90625, 48.169643, 48.375, 48.65625, 48.90625, 49.09375, 49.28125, 49.5, 49.625, 49.666668, 49.854168, 49.916668, 50.200893, 50.589287, 51.119045, 51.276787, 51.303574, 51.5, 51.776787, 52.0625, 52.3125, 52.5, 52.5625, 52.714287, 53.044643, 53.348213, 53.5625, 53.75, 53.9375, 54.125, 54.40625, 54.65625, 54.84375, 55.03125, 55.1875, 55.375, 55.5625, 55.75, 55.8125, 55.901787, 56.107143, 56.375, 56.767857, 57.013393, 57.15625, 57.15625, 57.3125, 57.441963, 57.71875, 58.09375, 58.28125, 58.625, 58.84375, 59.09375, 59.40625, 59.65625, 59.8125, 59.84375, 59.892857, 60.145832, 60.366074, 60.65625, 60.9375, 61.30357, 61.5625, 61.6875, 61.75, 61.8125, 62.0625, 62.3125, 62.5625, 62.6875, 62.75, 62.767857, 63.020832, 63.178574, 63.375, 63.650002, 63.571426, 63.767857, 63.8125, 64.142853
15.910713, 15.8125, 15.8125, 15.875, 16, 16.160713, 16.25, 16.285713, 16.071428, 16, 15.875, 15.892857, 16.232143, 16.428572, 16.625, 16.741072, 16.706249, 16.825893, 16.84375, 16.96875, 16.9375, 16.9375, 16.875, 16.75, 16.5625, 16.25, 16.111113, 16.125, -10, -10, -10, -10, -10, -10, -10, -10, -10, -10, -10, -10, -10, -10, -10, -10, -10, -10, -10, 45.583336, 46.555557, 46.517857, 46.75, 46.833336, -10, -10, -10, -10, 45.75, 45.666664, 45.625, -10, -10, -10, 44.916668, 44.916668, 45.050594, 45.412498, 45.375, 45.285713, 44.705357, 44.508926, 44.3125, 44.5, 44.6875, 44.75, 44.541668, 44.375, 44, 43.830357, 43.6875, 43.5, 43.375, 43.125, 42.875, 42.625, 42.375, 42.098213, 41.776787, 41.5625, 41.4375, 41.241074, 40.854168, 40.633926, 40.5, 40.625, 40.65625, 40.607143, 40, 39.705357, 39.441963, 39.142857, 38.8125, 38.589287, 38.504463, 38.34375, 38.40625, 38.147324, 37.791668, 37.438774, 37.25, 36.788689, 36.508926, 36.3125, 36.25, 36.1875, 36.133926, 35.645832, 35.264881, 35.178574, 34.916668, 34.946426, 34.75, 34.526787, 34.375, 34.3125, 34.330357, 33.98214, 33.395832, 33.080357, 32.607143, 32.553574, 32.142857, 32.125, 32, 31.875, 31.589287, 31.236607, 30.78125, 30.46875, 30.229166, 30, 6, 6, 5.9375, 5.875, 5.8125, 5.8125, 5.875, 5.9375, 6, 6.125, 6.3125, 6.3482141, 6.5803571, 6.833333, 7.1020408, 9.1833324, 10.5, 13.589286, 13.875, 14.416667, 14.416667, 14.5, 14.75, 14.8125, 15.0625, 15.1875, 15.1875, 15.4375, 15.3125, 15.25, 15.3125, 15.3125, 15.5625, 15.8125, 16, 16, 16, 16, 16.125, 16.03125, 16.36875, 16.822916, 17, 17.083334, -10, -10, -10, -10, -10, -10, -10, -10, -10, -10, -10, -10, -10, 41, 41, 40.78125, 40.34375, 39.709824, 39.40625, 39.25, 39.3125, 39.607143, 40.125, 40.410713, 40.864582, 41.084824, 41.34375, 41.520832, 41.666668, 41.833332, 41.916668, 42.125, 42.291668, 42.53125, 42.75, 43.15625, 43.34375, 43.5625, 43.8125, 43.96875, 44.21875, 44.40625, 44.625, 44.75, 44.916668, 45.25, 45.395832, 45.583332, 45.75, 46, 46.375, 46.53125, 46.765625, 46.828125, 46.9375, 47, 47.078125, 47.328125, 47.53125, 47.8125, 48.0625, 48.28125, 48.59375, 48.78125, 48.96875, 49.25, 49.375, 49.5625, 49.6875, 49.8125, 50.169643, 50.482143, 50.848213, 50.910713, 50.866074, 51.125, 51.401787, 51.794643, 52.0625, 52.25, 52.4375, 52.625, 52.875, 53.169643, 53.25, 53.375, 53.517857, 53.833332, 54.147324, 54.40625, 54.59375, 54.78125, 54.9375, 55.125, 55.3125, 55.5, 55.5625, 55.651787, 55.919643, 56.25, 56.705357, 56.950893, 56.96875, 56.96875, 57.0625, 57.160713, 57.4375, 57.6875, 57.875, 58.25, 58.5, 58.821426, 59.333332, 59.520832, 59.5625, 59.5625, 59.517857, 59.833332, 60.053574, 60.375, 60.6875, 61.11607, 61.410713, 61.5, 61.5625, 61.5625, 61.8125, 62.125, 62.375, 62.4375, 62.5, 62.625, 62.886902, 63.053574, 63.258926, 63.600002, 63.330353, 63.559525, 63.708336, 64.071426, 64.410713, 64.375, 64.5625, 64.571426, 65.145836, 65.553574, 65.8125, 66, 29.5, 29.833334, 29.90625, 30, 30.125, 30.1875, 30.352678, 30.5625, 30.5625, 30.6875, 30.732143, 30.875, 31.035713, 31.0625, 31.1875, 31.125, 31.166668, -10, -10, -10, -10, -10, -10, -10, -10, -10, -10, -10, -10, -10, -10, -10, -10, 16, 16, 16, 16, 16, 16, 16, 16.03125, 16.09375, 16.017857, 15.697917, 15.535713, 15.5, 15.5625, 15.6875, 15.8125, 15.910714, 15.9375, 16, 16, 16, 16, 16, 16.125, 16.25, 16.375, 16.553572, 16.612499, 16.794643, 16.875, 17, 16.9375, 16.9375, 16.8125, 16.625, 16.4375, 16.3125, 16.208334, 16.25, 16.416668, -10, -10, -10, -10, -10, -10, -10, -10, -10, -10, -10, -10, -10, -10, -10, -10, -10, -10, 45.277782, 46.416668, 46.440475, 46.642857, 46.555557, -10, -10, -10, -10, 45.75, 45.666668, 45.583332, 45.125, 44.8125, 44.75, 44.875, 44.875, 45.133926, 45.262501, 45.125, 44.85714, 44.455357, 44.196426, 44.125, 44.25, 44.375, 44.366074, 43.895836, 43.633926, 43.375, 43.267857, 43.25, 43.1875, 43.0625, 42.875, 42.625, 42.3125, 42.0625, 41.785713, 41.526787, 41.4375, 41.3125, 41.116074, 40.666668, 40.446426, 40.4375, 40.5625, 40.65625, 40.44643, 39.525002, 39.330357, 39.013393, 39, 38.75, 38.5, 38.28125, 38.022324, 37.84375, 37.709824, 37.354168, 37.258926, 37.035713, 36.723213, 36.473213, 36.1875, 36.125, 36, 35.821426, 35.333332, 34.827381, 34.75, 34.75, 34.8125, 34.625, 34.339287, 34.125, 34.0625, 34.080357, 33.66964, 33.083332, 32.705357, 32.375, 32.1875, 31.892857, 31.8125, 31.75, 31.53125, 31.245537, 30.892857, 30.4375, 30.15625, 29.916666, 6, 6, 6, 5.9375, 5.875, 5.8125, 5.8125, 5.875, 5.9375, 6.03125, 6.4464283, 7.2857141, 7.3469391, 7.734694, 9.4833326, 10.476191, 11.472221, 11.928572, 13.559525, 13.833333, 14.3125, 14.375, 14.5, 14.6875, 14.8125, 14.9375, 15.089286, 15.232143, 15.491072, 15.5, 15.4375, 15.5, 15.5, 15.6875, 15.875, 16, 16, 16, 16.0625, 16.203125, 16.453125, 16.703125, 16.890625, 17, 17, -10, -10, -10, -10, -10, -10, -10, -10, -10, -10, -10, -10, -10, 40.75, 40.708332, 40.5, 40.125, 39.598213, 39.34375, 39.25, 39.3125, 39.544643, 40, 40.223213, 40.645832, 40.928574, 41.1875, 41.276787, 41.5, 41.625, 41.8125, 41.9375, 42.0625, 42.1875, 42.392857, 42.864582, 43.084824, 43.34375, 43.53125, 43.6875, 43.9375, 44.125, 44.375, 44.5625, 44.75, 44.9375, 45.125, 45.375, 45.625, 45.875, 46.0625, 46.28125, 46.484375, 46.546875, 46.65625, 46.71875, 46.765625, 46.953125, 47.15625, 47.4375, 47.794643, 48.03125, 48.34375, 48.59375, 48.84375, 49.125, 49.25, 49.5, 49.6875, 49.848213, 50.125, 50.357143, 50.598213, 50.660713, 50.616074, 50.875, 51.151787, 51.482143, 51.75, 51.9375, 52.1875, 52.4375, 52.625, 52.875, 52.9375, 53.0625, 53.205357, 53.485119, 53.879463, 54.147324, 54.34375, 54.5625, 54.71875, 54.90625, 55.09375, 55.1875, 55.3125, 55.4375, 55.669643, 56, 56.455357, 56.763393, 56.84375, 56.90625, 57, 57.035713, 57.25, 57.375, 57.5625, 57.9375, 58.1875, 58.633926, 59.145832, 59.270832, 59.375, 59.375, 59.375, 59.625, 59.8125, 60.125, 60.4375, 60.857143, 61.035713, 61.1875, 61.25, 61.375, 61.625, 61.9375, 62.1875, 62.28125, 62.46875, 62.638393, 62.772324, 62.875, 63.071426, 63.537502, 63.5, 63.809525, 64.020836, 64.321426
15.348213, 15.3125, 15.375, 15.5, 15.5625, 15.625, 15.6875, 15.8125, 15.9375, 16, 16, 16, 16.0625, 16.125, 16.1875, 16.303572, 16.362499, 16.544643, 16.6875, 16.8125, 16.75, 16.75, 16.5625, 16.375, 16.25, 16.1875, 16.125, 16.1875, 16.277779, 16.517857, 17.1, -10, -10, -10, -10, -10, -10, -10, -10, -10, -10, -10, -10, -10, -10, -10, -10, 45.208336, 45.916668, 46.142853, 46.294643, 46.229168, 45.625, -10, -10, -10, 45.5625, 45.5, 45.4375, 45.083332, 44.875, 44.833332, 44.875, 44.875, 45.0625, 45.0625, 45.053574, 44.848213, 44.55357, 44.214287, 44.133926, 44.1875, 44.25, 44.178574, 43.416668, 43.081631, 42.852043, 43.0625, 43.0625, 43.0625, 42.8125, 42.526787, 42.3125, 42, 41.8125, 41.535713, 41.276787, 41.1875, 41, 40.8125, 40.5625, 40.375, 40.4375, 40.473213, 40.392857, 40.00893, 38.962502, 38.830357, 38.544643, 38.75, 38.598213, 38.375, 38.080357, 37.678574, 37.3125, 37.178574, 36.854168, 36.821426, 36.723213, 36.473213, 36.258926, 35.9375, 35.75, 35.526787, 35.4375, 35.3125, 35.005955, 34.90625, 34.8125, 34.75, 34.40625, 34.089287, 33.78125, 33.59375, 33.473213, 33.071426, 32.875, 32.625, 32.375, 32.1875, 31.830357, 31.6875, 31.5, 31.21875, 30.933037, 30.5625, 30.080357, 29.78125, 29.520832, 6, 6, 6.2142859, 6.5, 6.5918365, 6.75, 6.75, 6.8392859, 6.9285712, 7.0357141, 7.5816321, 10.75, 10.839286, 11.261905, 11.597222, 11.836736, 12.690475, 13, 13.544643, 13.8125, 14.0625, 14.1875, 14.375, 14.625, 14.8125, 14.8125, 14.870536, 14.982143, 15.178572, 15.3125, 15.34375, 15.5, 15.5625, 15.75, 15.9375, 16, 16, 16, 16.0625, 16.234375, 16.484375, 16.734375, 16.921875, 17, 17, -10, -10, -10, -10, -10, -10, -10, -10, -10, -10, -10, -10, -10, 40.5, 40.416664, 40.21875, 39.90625, 39.486607, 39.34375, 39.375, 39.5625, 39.8125, 39.9375, 40.080357, 40.395832, 40.616074, 40.8125, 40.901787, 41.125, 41.3125, 41.625, 41.8125, 42, 42.0625, 42.205357, 42.552082, 42.772324, 43.09375, 43.28125, 43.5, 43.625, 43.75, 43.9375, 44.125, 44.375, 44.625, 44.875, 45.125, 45.375, 45.5625, 45.75, 45.96875, 46.15625, 46.28125, 46.375, 46.46875, 46.53125, 46.71875, 46.9375, 47.1875, 47.607143, 47.875, 48.1875, 48.4375, 48.625, 48.875, 49, 49.25, 49.5, 49.660713, 49.9375, 50.125, 50.285713, 50.375, 50.464287, 50.6875, 50.982143, 51.294643, 51.5, 51.625, 51.8125, 52.0625, 52.25, 52.4375, 52.526787, 52.732143, 52.8125, 53.110119, 53.459824, 53.855656, 54.013393, 54.25, 54.40625, 54.59375, 54.84375, 54.875, 55.0625, 55.3125, 55.651787, 56.0625, 56.4375, 56.732143, 56.8125, 56.875, 56.9375, 56.973213, 57.125, 57.25, 57.4375, 57.75, 58, 58.446426, 58.958332, 59.083332, 59.1875, 59.1875, 59.25, 59.5625, 59.75, 60, 60.3125, 60.669643, 60.910713, 61.0625, 61.0625, 61.25, 61.5, 61.875, 62.125, 62.21875, 62.46875, 62.77232, 62.959824, 63.0625, 63.258926, 63.693752, 63.6875, 64.059525, 64.270836, 64.508926, 64.723213, 64.625, 64.625, 64.696426, 65.208336, 65.598213, 65.875, 66, 30.142857, 30.1875, 30.165178, 30.4375, 30.5, 30.625, 30.59375, 30.5625, 30.4375, 30.375, 30.375, 30.5625, 30.785713, 30.9375, 31.1875, 31.1875, 31.25, -10, -10, -10, -10, -10, -10, -10, -10, -10, -10, -10, -10, -10, -10, -10, -10, 16, 16, 16, 15.875, 15.8125, 15.6875, 15.53125, 15.53125, 15.46875, 15.455357, 15.229167, 15.205357, 15.25, 15.3125, 15.4375, 15.5, 15.5, 15.5, 15.5, 15.5, 15.5625, 15.625, 15.75, 15.875, 15.9375, 16, 16.1875, 16.4375, 16.625, 16.8125, 16.75, 16.625, 16.5, 16.3125, 16.1875, 16.125, 16.125, 16.125, 16.1875, 16.208334, 16.470238, 16.9, -10, -10, -10, -10, -10, -10, -10, -10, -10, -10, -10, -10, -10, -10, -10, 45, 44.833336, 45.5625, 45.799103, 45.888393, 45.822918, 45.458332, 45, 45, 45, 45.3125, 45.25, 45.1875, 45.0625, 44.90625, 44.875, 44.875, 44.875, 45, 44.9375, 44.928574, 44.848213, 44.714283, 44.401787, 44.214287, 44.125, 44.0625, 43.866074, 43.270836, 42.946426, 42.714287, 42.8125, 42.8125, 42.8125, 42.5625, 42.276787, 42.125, 41.875, 41.625, 41.375, 41.125, 40.9375, 40.8125, 40.625, 40.375, 40.125, 40.1875, 40.129463, 39.986607, 39.607143, 38.337502, 38.258926, 38.044643, 38.3125, 38.285713, 38.125, 37.830357, 37.428574, 36.9375, 36.8125, 36.6875, 36.75, 36.660713, 36.348213, 36.071426, 35.6875, 35.5, 35.276787, 35.125, 35.0625, 34.964287, 34.84375, 34.8125, 34.6875, 34.34375, 33.946426, 33.486607, 33.21875, 33.0625, 32.875, 32.75, 32.5625, 32.3125, 32.0625, 31.705357, 31.4375, 31.1875, 30.852678, 30.266369, 29.857143, 29.392857, 29.15625, 29.277777, 6.9047618, 6.9285712, 7.2091837, 8.9499998, 10.005952, 10.375, 10.375, 10.458333, 10.5, 10.541667, 10.943452, 11.982142, 12.130102, 12.438775, 12.428572, 12.458333, 12.895833, 13.214286, 13.53125, 13.78125, 13.96875, 14.1875, 14.4375, 14.6875, 14.9375, 14.875, 14.870536, 14.982143, 15.116072, 15.25, 15.28125, 15.4375, 15.5625, 15.75, 15.9375, 16, 16, 16, 16.0625, 16.265625, 16.515625, 16.765625, 16.953125, 17, 17, -10, -10, -10, -10, -10, -10, -10, -10, -10, -10, -10, -10, -10, 40, 39.916664, 39.6875, 39.375, 39.080357, 39, 39.125, 39.375, 39.5, 39.625, 39.767857, 40.083332, 40.366074, 40.5, 40.589287, 40.8125, 41, 41.375, 41.625, 41.8125, 41.8125, 41.892857, 42.145832, 42.366074, 42.794643, 43, 43.25, 43.375, 43.4375, 43.625, 43.8125, 44.0625, 44.375, 44.625, 44.875, 45.125, 45.3125, 45.5, 45.75, 45.9375, 46.125, 46.25, 46.3125, 46.375, 46.5, 46.6875, 46.875, 47.169643, 47.392857, 47.833332, 48.116074, 48.375, 48.633926, 48.9375, 49.125, 49.375, 49.535713, 49.75, 49.875, 50, 50.125, 50.3125, 50.5625, 50.8125, 51.169643, 51.375, 51.5, 51.6875, 51.875, 52, 52.21875, 52.370537, 52.575893, 52.59375, 52.860119, 53.178574, 53.511906, 53.57143, 53.78125, 53.84375, 54.165176, 54.677082, 54.741074, 54.9375, 55.125, 55.526787, 56, 56.375, 56.625, 56.75, 56.8125, 56.875, 56.9375, 57, 57.125, 57.375, 57.625, 57.875, 58.196426, 58.645832, 58.770832, 58.875, 58.9375, 59.0625, 59.4375, 59.625, 59.8125, 60.017857, 60.3125, 60.598213, 60.875, 60.9375, 61.25, 61.5, 61.8125, 62.0625, 62.15625, 62.46875, 62.941963, 63.147324, 63.25, 63.383926, 63.668751, 63.741074, 64.041664, 64.270836, 64.4375
15, 15.0625, 15.0625, 15.125, 15.25, 15.25, 15.1875, 15.125, 15.125, 15.125, 15.1875, 15.375, 15.4375, 15.580357, 15.857143, 16.116072, 16.4375, 16.5625, 16.6875, 16.5625, 16.375, 16.3125, 16.1875, 16.125, 16.125, 16.125, 16.125, 16.125, 16.125, 16.415178, 16.758333, -10, -10, -10, -10, -10, -10, -10, -10, -10, -10, -10, -10, -10, -10, 45.5, 45.333332, 45.166668, 45.5625, 45.790176, 45.799107, 45.549107, 45.415176, 45, 45, 45, 45.1875, 45.166668, 45.125, 45.0625, 44.96875, 44.9375, 44.9375, 44.875, 44.964287, 44.9375, 44.75893, 44.75, 44.571426, 44.294643, 44.151787, 44, 43.9375, 43.803574, 43.416668, 43.071426, 42.848213, 42.541668, 42.5, 42.4375, 42.25, 42.026787, 41.875, 41.625, 41.4375, 41.25, 41, 40.75, 40.455357, 40.25, 39.973213, 39.642857, 39.633926, 39.566963, 39.361607, 39.0625, 38.150002, 38.008926, 37.866074, 37.991074, 37.848213, 37.75, 37.455357, 37.116074, 36.625, 36.5, 36.3125, 36.4375, 36.410713, 36.142857, 35.883926, 35.5625, 35.3125, 35.089287, 34.9375, 34.9375, 34.875, 34.71875, 34.75, 34.4375, 33.947918, 33.642857, 33.20982, 33.0625, 32.90625, 32.65625, 32.53125, 32.25, 32, 31.8125, 31.5625, 31.3125, 31.0625, 30.665178, 29.873512, 29.34375, 28.882441, 28.75, 12, 10.194444, 10.333333, 10.642858, 11.333333, 11.469388, 11.785714, 11.785714, 11.75, 11.785714, 11.803572, 12.112245, 12.90625, 13.035714, 13.116072, 12.520833, 12.458333, 12.583333, 12.995536, 13.375, 13.6875, 13.9375, 14.25, 14.5, 14.75, 14.9375, 14.8125, 14.870536, 15.017858, 15.116072, 15.25, 15.21875, 15.375, 15.5625, 15.75, 15.9375, 16, 16, 16, 16.0625, 16.265625, 16.515625, 16.765625, 16.953125, 17, 17, -10, -10, -10, -10, -10, -10, -10, -10, -10, -10, -10, -10, 38.875, 39.375, 39.202381, 38.849998, 38.741074, 38.616074, 38.6875, 38.875, 39.125, 39.3125, 39.5, 39.6875, 39.875, 40.125, 40.25, 40.339287, 40.5625, 40.75, 41.125, 41.375, 41.5, 41.5, 41.580357, 41.833332, 42.116074, 42.482143, 42.6875, 42.875, 42.9375, 43.0625, 43.25, 43.544643, 43.8125, 44.125, 44.375, 44.625, 44.875, 45.0625, 45.25, 45.5, 45.6875, 45.875, 46, 46.125, 46.3125, 46.544643, 46.75, 46.8125, 46.919643, 47.098213, 47.604164, 47.919647, 48.1875, 48.455353, 48.9375, 49.0625, 49.3125, 49.348213, 49.5625, 49.75, 49.875, 50.0625, 50.3125, 50.5625, 50.8125, 51.0625, 51.25, 51.375, 51.5625, 51.75, 51.75, 51.90625, 52.183037, 52.558037, 52.638393, 52.776787, 53.071426, 53.595238, 53.75, 53.90625, 53.78125, 53.977676, 54.534225, 54.669647, 54.875, 55.0625, 55.401787, 55.8125, 56.1875, 56.375, 56.625, 56.75, 56.9375, 57.125, 57.107143, 57.174999, 57.491074, 57.678574, 57.9375, 58.125, 58.375, 58.5625, 58.75, 58.875, 59.125, 59.666668, 59.928574, 60.053574, 60.005356, 60.303574, 60.491074, 60.8125, 60.875, 61.25, 61.5, 61.75, 62, 62.09375, 62.433037, 62.941963, 63.147324, 63.25, 63.375, 63.5625, 63.763393, 63.96875, 63.96875, 64.080353, 64.583336, 64.741074, 64.90625, 65.071426, 65.5, 65.732147, 65.96875, 66, 29.571428, 29.9375, 29.946428, 30.3125, 30.375, 30.5625, 30.4375, 30.25, 30.125, 30.125, 30.25, 30.5625, 30.785713, 30.830357, 31.080357, 31.1875, 31.333332, -10, -10, -10, -10, -10, -10, -10, -10, -10, -10, -10, -10, -10, -10, -10, -10, 16, 16, 15.9375, 15.6875, 15.5625, 15.3125, 15.125, 15.125, 15, 15.0625, 15, 14.9375, 14.9375, 14.875, 14.9375, 15, 15, 14.9375, 14.875, 14.8125, 14.8125, 14.875, 15.0625, 15.1875, 15.392857, 15.732143, 15.991072, 16.3125, 16.5, 16.625, 16.5, 16.3125, 16.125, 16, 16, 16, 16, 16, 16, 16, 16.290178, 16.541668, -10, -10, -10, -10, -10, -10, -10, -10, -10, -10, -10, -10, -10, -10, 45.5, 45.25, 45.333332, 45.4375, 45.65625, 45.629463, 45.424107, 45.227676, 45, 45, 45.0625, 45.0625, 45.0625, 45.0625, 44.9375, 44.964287, 45.035713, 45, 44.9375, 44.839287, 44.8125, 44.642857, 44.875, 44.67857, 44.357143, 44.235119, 43.821426, 43.758926, 43.6875, 43.625, 43.357143, 42.952377, 42.488094, 42.3125, 42.1875, 41.991074, 41.651787, 41.5625, 41.375, 41.3125, 41.1875, 40.9375, 40.625, 40.205357, 39.9375, 39.660713, 39.267857, 39.196426, 39.129463, 38.861607, 38.660713, 38.0625, 37.758926, 37.6875, 37.678574, 37.535713, 37.4375, 37.142857, 36.875, 36.5, 36.3125, 36.125, 36.125, 36.125, 35.9375, 35.6875, 35.4375, 35.125, 34.892857, 34.625, 34.625, 34.5625, 34.46875, 34.4375, 34.125, 33.697918, 33.392857, 33.08482, 32.96875, 32.78125, 32.53125, 32.34375, 32.026787, 31.541666, 31.392857, 31.1875, 31.0625, 30.875, 30.477678, 29.686012, 29.1875, 28.63492, 12, 12, 11.380952, 11.571428, 11.908164, 12.571428, 12.535714, 12.8125, 12.741072, 12.364583, 12.395833, 12.520833, 12.758928, 12.90625, 12.9375, 12.803572, 12.208333, 12.208333, 12.395833, 12.870536, 13.357143, 13.6875, 13.9375, 14.25, 14.5, 14.75, 14.875, 14.75, 14.799107, 14.910714, 14.9375, 15.0625, 14.90625, 15.089286, 15.419643, 15.678572, 15.9375, 16, 16, 16, 16, 16.15625, 16.40625, 16.65625, 16.90625, 17, 17, 17.125, -10, -10, -10, -10, -10, -10, -10, -10, -10, -10, -10, 38.583332, 38.875, 38.681545, 38.203571, 38.334824, 38.272324, 38.4375, 38.5625, 38.8125, 39, 39.1875, 39.4375, 39.625, 39.8125, 39.9375, 40.125, 40.375, 40.625, 40.9375, 41.1875, 41.3125, 41.4375, 41.5625, 41.75, 42, 42.294643, 42.5625, 42.625, 42.625, 42.75, 42.9375, 43.401787, 43.6875, 44, 44.1875, 44.4375, 44.6875, 44.875, 45.0625, 45.3125, 45.5625, 45.6875, 45.75, 45.8125, 46.0625, 46.526787, 46.8125, 46.875, 46.8125, 46.973213, 47.479164, 47.794647, 48.0625, 48.267853, 48.6875, 48.821426, 49.075001, 48.883926, 49.166668, 49.520832, 49.803574, 50, 50.25, 50.5, 50.75, 51.0625, 51.25, 51.4375, 51.5625, 51.75, 51.6875, 51.65625, 51.950893, 52.453869, 52.629463, 52.8125, 53.026787, 53.541664, 53.6875, 53.875, 53.6875, 53.883926, 54.440475, 54.669647, 54.9375, 55.125, 55.419643, 55.6875, 56, 56.125, 56.375, 56.833332, 57.116074, 57.375, 57.285717, 57.224998, 57.607147, 57.732147, 58, 58.125, 58.375, 58.5625, 58.75, 58.875, 59.125, 59.666668, 59.866074, 59.928574, 59.898212, 60.324402, 60.544647, 60.875, 60.875, 61.25, 61.4375, 61.625, 61.875, 61.9375, 62.339287, 62.910713, 63.116074, 63.25, 63.375, 63.5, 63.59375, 63.78125, 63.78125, 63.955353
