-10, -10, -10, -10, -10, -10, -10, -10, -10, -10, -10, -10, -10, -10, -10, -10, -10, -10, -10, -10, -10, -10, -10, -10, -10, -10, -10, -10, -10, -10, -10, -10, -10, -10, -10, -10, -10, -10, -10, -10, -10, -10, 96.80555, 95.78334, 95.413689, 94.9375, 94.366074, 93.39286, 92.380951, 91.392853, 90.523811, 89.791664, 88.833328, 88.125, 87.401779, 86.785706, 85.979164, 85.050591, 84.401787, 83.705353, 82.333336, 81.071426, 80.107147, 78.910713, 78.154762, 76.238098, 75.486397, 74.663261, 74.265305, 73.023811, 72.47142, 71.008163, 70.169647, 69.633926, 68.982147, 68.119049, 67.279762, 66.696426, 66.142853, 65.83036, 65.211311, 64.580353, 63.779762, 61.999996, 61.464287, 61, 60.625, 59.833336, 58.785713, 57.148811, 56.464283, 55.857143, 55.205357, 54.05357, 53.142857, 52.401787, 51.776787, 51.098213, 49.988094, 49.50893, 49.0625, 48.232143, 47.357143, 46.678574, 45.880951, 44.791668, 43.690479, 42.955357, 42.050594, 41.339287, 40.705357, 39.872025, 39.154762, 37.666664, 37.071426, 36.544643, 35.678574, 34.607143, 33.511902, 32.630955, 32.071426, 31.625, 31.178572, 29.666668, 28.982143, 28.029762, 27.163691, 26.172619, 25.267857, 24.598213, 23.672619, 22.803572, 21.907738, 21.133928, 20.339285, 19.67857, 19.0625, 17.558334, 16.565477, 15.866072, 15.125, 14.357142, 13.678572, 12.979167, 12.276785, 10.767857, 10.071428, 9.354167, 9.0714283, 9, 9, 9, 8.875, 8.75, 8.6875, 8.6875, 8.8125, 8.9375, 9, 9.125, 9.125, 9.125, 9.125, 9, 9, 9, 9, 9, 9, 9, 9, 9, 9.1875, 9.4375, 9.6875, 9.9375, 10, 10.1875, 10.25, 10.25, 10.25, 9.875, 9.9017859, 10.169643, 10.410715, 10.75, 11, 11.125, 11.25, 11.4375, 11.375, 11.4375, 11.5625, 11.375, 11.3125, 11.1875, 10.875, 10.6875, 10.241072, 9.4970236, 9.0982141, 8.875, 8.875, 8.9375, 9, 9, 9, 8.9375, 8.875, 9.0297613, 9.5555544, -10, -10, -10, -10, -10, -10, -10, -10, -10, -10, -10, -10, -10, -10, -10, -10, -10, -10, -10, -10, -10, -10, -10, -10, -10, -10, -10, -10, -10, -10, -10, -10, -10, -10, -10, -10, -10, -10, -10, -10, -10, -10, -10, -10, -10, -10, -10, -10, -10, -10, -10, -10, -10, -10, -10, -10, -10, -10, -10, -10, -10, -10, -10, -10, -10, -10, -10, -10, -10, -10, -10, -10, -10, -10, -10, -10, -10, -10, -10, -10, -10, -10, -10, -10, -10, -10, -10, -10, -10, -10, 67.354164, 67.5625, 67.71875, 67.90625, 68, 68, 67.9375, 67.833328, -10, -10, -10, -10, -10, -10, -10, -10, -10, -10, -10, -10, -10, -10, -10, -10, -10, -10, -10, -10, -10, -10, -10, -10, -10, -10, -10, -10, -10, -10, -10, -10, -10, -10, -10, -10, -10, -10, -10, -10, -10, -10, -10, -10, -10, -10, -10, -10, -10, -10, -10, -10, -10, -10, -10, -10, -10, -10, -10, -10, -10, -10, -10, -10, -10, -10, -10, -10, -10, -10, -10, -10, -10, -10, -10, -10, -10, -10, -10, -10, -10, -10, -10, -10, -10, -10, -10, -10, -10, -10, -10, -10, -10, -10, -10, -10, -10, -10, -10, -10, -10, -10, -10, -10, -10, -10, -10, -10, -10, 97.333328, 96.14286, 95.565483, 94.875, 94.25, 93.309525, 92.047623, 91.321426, 90.550598, 89.854164, 88.895828, 88.133926, 87.401779, 86.785706, 86.133926, 85.008926, 84.214287, 83.446426, 82.351189, 81.107147, 79.940475, 78.952377, 77.947617, 75.958336, 75.071426, 74.339287, 73.619041, 72.622444, 71.825516, 70.810715, 69.773811, 69.276787, 68.763397, 68.007439, 67.217262, 66.696426, 66.142853, 65.83036, 65.202377, 64.434525, 63.779762, 62.124996, 61.464287, 60.821426, 60.375, 59.583336, 58.764877, 57.113094, 56.392857, 55.75, 55.196426, 54.017857, 53.17857, 52.549107, 51.99107, 51.142857, 49.988094, 49.44643, 48.991074, 48.398811, 47.5, 46.574406, 45.738094, 44.916668, 43.750004, 43.133926, 42.193455, 41.214287, 40.49107, 39.830357, 39.154762, 37.895832, 37.214287, 36.553574, 35.642857, 34.773811, 33.726189, 32.69643, 32.071426, 31.571428, 30.886906, 29.57143, 28.910713, 27.791668, 27.133928, 26.172619, 25.205357, 24.419643, 23.494047, 22.928572, 22.041666, 21.217262, 20.235119, 19.535713, 18.9375, 17.708334, 16.648809, 15.886905, 14.875, 14.071428, 13.428572, 13, 12.401785, 11.184525, 10.226191, 9.4702387, 9.1339283, 9, 9, 9, 8.875, 8.75, 8.6875, 8.6875, 8.8125, 8.9375, 9, 9.125, 9.125, 9.125, 9.125, 9, 9, 9, 9, 9, 9, 9, 9, 9, 9.125, 9.375, 9.625, 9.875, 10, 10.25, 10.375, 10.4375, 10.4375, 10.125, 10.151786, 10.419643, 10.660715, 10.9375, 11.0625, 11.0625, 11.125, 11.25, 11.25, 11.375, 11.5625, 11.348214, 11.214286, 11.125, 10.875, 10.8125, 10.419643, 9.5386906, 9.1696424, 8.9375, 8.9375, 9, 9, 9, 9, 8.875, 8.78125, 8.833333, -10, -10, -10, -10, -10, -10, -10, -10, -10, -10, -10, -10, -10, -10, -10, -10, -10, -10, -10, -10, -10, -10, -10, -10, -10, -10, -10, -10, -10, -10, -10, -10, -10, -10, -10, -10, -10, -10, -10, -10, -10, -10, -10, -10, -10, -10, -10, -10, -10, -10, -10, -10, -10, -10, -10, -10, -10, -10, -10, -10, -10, -10, -10, -10, -10, -10, -10, -10, -10, -10, -10, -10, -10, -10, -10, -10, -10, -10, -10, -10, -10, -10, -10, -10, -10, -10, -10, -10, -10, -10, -10, 67.020836, 67.25, 67.40625, 67.65625, 67.8125, 67.875, 67.875, 67.972221, -10, -10, -10, -10, -10, -10, -10, -10, -10, -10, -10, -10, -10, -10, -10, -10, -10, -10, -10, -10, -10, -10, -10, -10, -10, -10, -10, -10, -10, -10, -10, -10, -10, -10, -10, -10, -10, -10, -10
-10, -10, -10, -10, -10, -10, -10, -10, -10, -10, -10, -10, -10, -10, -10, -10, -10, -10, -10, -10, -10, -10, -10, -10, -10, -10, -10, -10, -10, -10, -10, -10, -10, -10, -10, -10, -10, -10, -10, -10, -10, -10, 97.791664, 96.300003, 95.779762, 94.9375, 94.3125, 93.488098, 92.217262, 91.404762, 90.59227, 89.925591, 89.122025, 88.133926, 87.383926, 86.723206, 86.196426, 85.1875, 84.154762, 83.375, 82.48214, 80.916664, 79.821426, 78.910713, 77.757141, 76.166672, 75.166664, 74.375, 73.321426, 72.327377, 71.709824, 70.864288, 69.75, 69.196426, 68.665176, 68.123512, 67.360123, 66.529762, 66.04464, 65.741074, 65.202377, 64.458328, 63.821426, 62.208332, 61.482147, 60.592262, 60.071434, 59.270836, 58.541664, 57.142857, 56.42857, 55.875, 55.3125, 54.113094, 53.42857, 52.799107, 51.907738, 51.044643, 49.916668, 49.36607, 48.821426, 48.220242, 47.541668, 46.645832, 45.654762, 45, 43.666668, 43.071426, 42.247025, 41.321426, 40.407738, 39.767857, 39.133926, 38.008926, 37.214287, 36.446426, 35.702381, 34.916668, 33.738094, 32.660713, 31.964285, 31.446428, 30.699406, 29.559525, 28.803572, 27.684525, 27.071428, 26.163691, 25.205357, 24.419643, 23.577381, 23, 22.104166, 21.226191, 20.163691, 19.357141, 18.767857, 17.666668, 16.690475, 16.029762, 15.0625, 14.3125, 13.607141, 13.071428, 12.413691, 11.267857, 10.297619, 9.5327387, 9.1964283, 9, 9, 9, 8.875, 8.75, 8.625, 8.5625, 8.6875, 8.8125, 8.9375, 9.0625, 9.0625, 9.0625, 9.0625, 9, 9, 9, 9, 9, 9, 9, 9, 9, 9.0625, 9.3125, 9.5625, 9.8125, 10, 10.1875, 10.375, 10.5, 10.5625, 10.4375, 10.4375, 10.5625, 10.794643, 11.0625, 11.125, 11.125, 11.1875, 11.1875, 11.25, 11.3125, 11.375, 11.223214, 11.089286, 11.0625, 10.9375, 10.875, 10.482143, 9.6190472, 9.2678566, 9, 9, 9, 9, 9, 9, 8.875, 8.78125, 8.770833, -10, -10, -10, -10, -10, -10, -10, -10, -10, -10, -10, -10, -10, -10, -10, -10, -10, -10, -10, -10, -10, -10, -10, -10, -10, -10, -10, -10, -10, -10, -10, -10, -10, -10, -10, -10, -10, -10, -10, -10, -10, -10, -10, -10, -10, -10, -10, -10, -10, -10, -10, -10, -10, -10, -10, -10, -10, -10, -10, -10, -10, -10, -10, -10, -10, -10, -10, -10, -10, -10, -10, -10, -10, -10, -10, -10, -10, -10, -10, -10, -10, -10, -10, -10, -10, -10, -10, -10, -10, -10, 66, 66.645836, 66.904762, 67.302086, 67.584824, 67.8125, 67.875, 67.9375, 68.104164, 68.5, -10, -10, -10, -10, -10, -10, -10, -10, -10, -10, -10, -10, -10, -10, -10, -10, -10, -10, -10, -10, -10, -10, -10, -10, -10, -10, -10, -10, -10, -10, -10, -10, -10, -10, -10, -10, -10, -10, -10, -10, -10, -10, -10, -10, -10, -10, -10, -10, -10, -10, -10, -10, -10, -10, -10, -10, -10, -10, -10, -10, -10, -10, -10, -10, -10, -10, -10, -10, -10, -10, -10, -10, -10, -10, -10, -10, -10, -10, -10, -10, -10, -10, -10, -10, -10, -10, -10, -10, -10, -10, -10, -10, -10, -10, -10, -10, -10, -10, -10, -10, -10, -10, -10, -10, -10, -10, -10, -10, 97.523804, 96.349998, 95.708336, 95.071426, 94.4375, 93.738098, 92.354172, 91.654762, 90.84227, 89.925591, 89.247025, 88.050591, 87.392853, 86.758926, 86.113091, 85.125, 84.145836, 83.386909, 82.398811, 81.041664, 79.821426, 78.946426, 77.5, 76.208336, 75.238091, 74.553574, 73.279762, 72.184525, 71.53125, 70.964287, 70.041672, 69.446426, 68.724701, 68.290176, 67.494049, 66.610123, 66.10714, 65.75, 65.410713, 64.708328, 63.849998, 62.249996, 61.410713, 60.25893, 59.64286, 58.979168, 58.333332, 57.214287, 56.279762, 55.830357, 55.276787, 54.297619, 53.75, 53.129463, 51.931549, 51.00893, 50, 49.357143, 48.714287, 48.041668, 47.5, 46.645832, 45.654762, 45, 43.666668, 43.071426, 42.455357, 41.571426, 40.666668, 39.833332, 39.133926, 37.925594, 37.142857, 36.375, 35.678574, 34.916668, 33.82143, 32.732143, 32.026787, 31.392857, 30.520834, 29.619049, 28.875, 27.601191, 27, 26.267857, 25.276785, 24.42857, 23.577381, 23, 22.104166, 21.226191, 20.163691, 19.285713, 18.660713, 17.833334, 16.886904, 16.244049, 15, 14.348214, 13.642857, 12.925595, 12.270833, 11.413691, 10.404761, 9.6130953, 9.2589283, 9, 9, 9, 8.9375, 8.875, 8.8125, 8.8125, 8.875, 8.9375, 9, 9, 9, 9, 9, 9, 9, 9, 9, 9, 9, 9, 9, 9, 9, 9.25, 9.5, 9.75, 10, 10.125, 10.375, 10.5625, 10.625, 10.6875, 10.6875, 10.75, 10.875, 11, 11, 11.0625, 11.294643, 11.294643, 11.25, 11.1875, 11.0625, 10.973214, 10.839286, 10.875, 10.8125, 10.71875, 10.325893, 9.5699406, 9.2366066, 9, 9, 9, 9, 9, 9, 8.875, 8.78125, 8.770833, -10, -10, -10, -10, -10, -10, -10, -10, -10, -10, -10, -10, -10, -10, -10, -10, -10, -10, -10, -10, -10, -10, -10, -10, -10, -10, -10, -10, -10, -10, -10, -10, -10, -10, -10, -10, -10, -10, -10, -10, -10, -10, -10, -10, -10, -10, -10, -10, -10, -10, -10, -10, -10, -10, -10, -10, -10, -10, -10, -10, -10, -10, -10, -10, -10, -10, -10, -10, -10, -10, -10, -10, -10, -10, -10, -10, -10, -10, -10, -10, -10, -10, -10, -10, -10, -10, -10, -10, -10, -10, 66, 66.333336, 66.592262, 67.083336, 67.473221, 67.75, 67.875, 68.0625, 68.25, 68.44445, -10, -10, -10, -10, -10, -10, -10, -10, -10, -10, -10, -10, -10, -10, -10, -10, -10, -10, -10, -10, -10, -10, -10, -10, -10, -10, -10, -10, -10, -10, -10, -10, -10, -10, -10, -10, -10, -10
-10, -10, -10, -10, -10, -10, -10, -10, -10, -10, -10, -10, -10, -10, -10, -10, -10, -10, -10, -10, -10, -10, -10, -10, -10, -10, -10, -10, -10, -10, -10, -10, -10, -10, -10, -10, -10, -10, -10, -10, -10, -10, 96.388885, 95.933334, 95.5625, 95.133926, 94.625, 94.047623, 92.59584, 91.625, 90.806549, 90.071426, 89.497025, 88.113091, 87.5, 86.866074, 86.029755, 85.279762, 84.324409, 83.407745, 82.494049, 81.380951, 79.964287, 79.232147, 77.809525, 76.5, 75.529755, 74.574409, 73.345245, 72.464287, 71.816963, 71.214287, 70.166672, 69.392853, 68.617554, 68.21875, 67.660713, 66.788696, 66.002975, 65.553574, 65.160713, 64.395828, 63.421425, 62.059521, 61.232143, 60.01786, 59.172619, 58.633926, 58.0625, 57.339287, 56.494049, 55.788689, 55.20536, 54.380951, 53.8125, 53.07589, 51.761906, 50.866074, 50.125, 49.5, 48.848213, 48.196426, 47.642857, 46.833332, 45.678574, 45.071426, 43.928574, 43.154758, 42.5, 41.642857, 40.773811, 39.666664, 38.919643, 37.788689, 37.107143, 36.375, 35.64286, 34.791668, 33.678574, 32.752975, 32.017857, 31.226191, 30.050596, 29.357143, 28.678572, 27.559523, 26.928572, 26.1875, 25.348213, 24.464285, 23.523809, 22.892857, 22.25, 21.369047, 20.101191, 19.17857, 18.473213, 17.892857, 16.958332, 16.306549, 15.008928, 14.419643, 13.75, 12.842262, 12.208333, 11.342261, 10.113094, 9.5178576, 9.1875, 9, 9, 9, 9, 9, 9, 9, 9, 9, 9, 9, 9.0625, 9.125, 9.1875, 9.1875, 9.125, 9.0625, 9, 9, 9, 9, 9, 9, 9, 9.1875, 9.4375, 9.6875, 9.9375, 10.0625, 10.25, 10.4375, 10.53125, 10.71875, 10.78125, 10.84375, 11, 11.0625, 11.0625, 11.125, 11.294643, 11.232143, 11.125, 11, 10.875, 10.848214, 10.776786, 10.875, 10.741072, 10.385417, 9.96875, 9.4032736, 9.1651783, 9, 9, 9, 9, 9, 8.9375, 8.8125, 8.78125, 8.875, 9.2666664, -10, -10, -10, -10, -10, -10, -10, -10, -10, -10, -10, -10, -10, -10, -10, -10, -10, -10, -10, -10, -10, -10, -10, -10, -10, -10, -10, -10, -10, -10, -10, -10, -10, -10, -10, -10, -10, -10, -10, -10, -10, -10, -10, -10, -10, -10, -10, -10, -10, -10, -10, -10, -10, -10, -10, -10, -10, -10, -10, -10, -10, -10, -10, -10, -10, -10, -10, -10, -10, -10, -10, -10, -10, -10, -10, -10, -10, -10, -10, -10, -10, -10, -10, -10, -10, -10, -10, -10, -10, 66, 66.166672, 66.383926, 66.958336, 67.410721, 67.6875, 67.875, 68.0625, 68.25, 68.333336, -10, -10, -10, -10, -10, -10, -10, -10, -10, -10, -10, -10, -10, -10, -10, -10, -10, -10, -10, -10, -10, -10, -10, -10, -10, -10, -10, -10, -10, -10, -10, -10, -10, -10, -10, -10, -10, -10, -10, -10, -10, -10, -10, -10, -10, -10, -10, -10, -10, -10, -10, -10, -10, -10, -10, -10, -10, -10, -10, -10, -10, -10, -10, -10, -10, -10, -10, -10, -10, -10, -10, -10, -10, -10, -10, -10, -10, -10, -10, -10, -10, -10, -10, -10, -10, -10, -10, -10, -10, -10, -10, -10, -10, -10, -10, -10, -10, -10, -10, -10, -10, -10, -10, -10, -10, -10, -10, -10, 96.047615, 95.800003, 95.473213, 95.196426, 94.741074, 94.047623, 92.97084, 92.017853, 90.952377, 90.241074, 89.613091, 88.125, 87.535713, 86.866074, 85.874992, 85.321426, 84.241074, 83.416672, 82.494049, 81.047615, 79.773804, 78.928574, 77.802383, 76.714287, 75.529755, 74.547623, 73.336319, 72.428574, 71.741074, 71.241074, 70.449402, 69.511902, 68.630951, 68.080353, 67.535713, 66.654762, 65.776787, 65.241074, 64.794647, 64.050598, 62.992859, 61.869045, 61.125, 60.008926, 59.101189, 58.467262, 57.791668, 57.205357, 56.413689, 55.788689, 55.059525, 54.380951, 53.883926, 53.023811, 51.726192, 50.991074, 50.267857, 49.625, 48.764881, 48.071426, 47.517857, 47, 45.666668, 45.071426, 44.074409, 43.154758, 42.42857, 41.714287, 40.880951, 39.791664, 38.752975, 37.583328, 36.928574, 36.36607, 35.64286, 34.541668, 33.464287, 32.732143, 32.080357, 31.238096, 30.050596, 29.285713, 28.625, 27.726189, 27.0625, 26.258928, 25.428572, 24.705357, 23.773809, 22.892857, 22.223213, 21.410713, 20.392857, 19.345238, 18.598213, 17.809523, 17.041666, 16.410713, 15.342261, 14.520832, 13.75, 12.842262, 12.190476, 11.175594, 10.029761, 9.4107141, 9.125, 9, 9, 9, 9, 9, 9, 9, 9, 9, 9, 9, 9.125, 9.25, 9.3125, 9.3125, 9.1875, 9.0625, 9, 9, 9, 9, 9, 9, 9, 9.125, 9.3125, 9.5625, 9.8125, 9.9375, 10.125, 10.25, 10.40625, 10.65625, 10.78125, 10.90625, 11.0625, 11.0625, 11.0625, 11.125, 11.200893, 11.075893, 10.96875, 10.84375, 10.6875, 10.8125, 10.8125, 10.803572, 10.470239, 9.9568453, 9.5401783, 9.2366066, 9.09375, 8.9375, 8.875, 8.875, 8.875, 8.9375, 8.9375, 8.875, 8.875, 9.0625, 9.288888, -10, -10, -10, -10, -10, -10, -10, -10, -10, -10, -10, -10, -10, -10, -10, -10, -10, -10, -10, -10, -10, -10, -10, -10, -10, -10, -10, -10, -10, -10, -10, -10, -10, -10, -10, -10, -10, -10, -10, -10, -10, -10, -10, -10, -10, -10, -10, -10, -10, -10, -10, -10, -10, -10, -10, -10, -10, -10, -10, -10, -10, -10, -10, -10, -10, -10, -10, -10, -10, -10, -10, -10, -10, -10, -10, -10, -10, -10, -10, -10, -10, -10, -10, -10, -10, -10, -10, -10, -10, 66.0625, 66.208336, 66.352676, 66.949402, 67.517853, 67.803574, 68, 68.125, 68.125, 68.1875, 67.833328, -10, -10, -10, -10, -10, -10, -10, -10, -10, -10, -10, -10, -10, -10, -10, -10, -10, -10, -10, -10, -10, -10, -10, -10, -10, -10, -10, -10, -10, -10, -10, -10, -10, -10, -10, -10, -10
-10, -10, -10, -10, -10, -10, -10, -10, -10, -10, -10, -10, -10, -10, -10, -10, -10, -10, -10, -10, -10, -10, -10, -10, -10, -10, -10, -10, -10, -10, -10, -10, -10, -10, -10, -10, -10, -10, -10, -10, -10, -10, 95.791664, 95.75, 95.508926, 95.303574, 94.449402, 93.761902, 92.65834, 91.642853, 90.851181, 90.169647, 89.648811, 88.291664, 87.678574, 87.053574, 85.964279, 85.071426, 84.193451, 83.363098, 82.494049, 81.047615, 79.702377, 78.75, 77.707138, 76.547623, 75.321426, 74.297623, 73.315475, 72.39286, 71.678574, 71.125, 70.4375, 69.476189, 68.559525, 67.892853, 67.321426, 66.446426, 65.491074, 64.928574, 64.366074, 63.550594, 62.492859, 61.660713, 61.125, 60.300598, 59.154758, 58.422615, 57.622025, 57.133926, 56.333332, 55.547619, 54.773811, 54.276787, 53.75, 52.943451, 51.880951, 51.098213, 50.410713, 49.8125, 48.788692, 48.071426, 47.455357, 46.892857, 45.750004, 44.988098, 44.157738, 43.279758, 42.55357, 41.547619, 40.89286, 39.791664, 38.607143, 37.511902, 36.773811, 36.294643, 35.333336, 34.220238, 33.443455, 32.8125, 32.25, 31.309525, 30.059525, 29.285713, 28.625, 27.726189, 27.0625, 26.113094, 25.357143, 24.705357, 24, 22.892857, 22.196428, 21.464285, 20.571428, 19.440475, 18.705357, 17.726191, 17.083334, 16.089287, 15.011905, 14.145832, 13.553572, 12.833334, 12.357143, 11.574405, 10.113094, 9.4285717, 9.0625, 9, 9, 9, 9, 9, 9, 9, 9, 9, 9, 9, 9.125, 9.25, 9.3125, 9.3125, 9.1875, 9.0625, 9, 9, 9, 9, 9, 9.0625, 9.0625, 9.125, 9.25, 9.4375, 9.6875, 9.875, 10.0625, 10.125, 10.28125, 10.53125, 10.65625, 10.84375, 11, 10.973214, 11, 11.0625, 11.138393, 11.075893, 10.90625, 10.78125, 10.625, 10.75, 10.8125, 10.741072, 10.282739, 9.6622028, 9.2901783, 9.09375, 9.03125, 8.9375, 8.875, 8.875, 8.875, 8.9375, 8.875, 8.8125, 8.8125, 9.0625, 9.3000002, -10, -10, -10, -10, -10, -10, -10, -10, -10, -10, -10, -10, -10, -10, 37.5, 37.166664, 37.416664, 37.875, 38.714287, 39.42857, 39.75, 40.25, 40.333332, -10, -10, -10, -10, -10, -10, -10, -10, -10, -10, -10, -10, -10, -10, -10, -10, -10, -10, -10, -10, -10, -10, -10, -10, -10, -10, -10, -10, -10, -10, -10, -10, -10, -10, -10, -10, -10, -10, -10, -10, -10, -10, -10, -10, -10, -10, -10, -10, -10, -10, -10, -10, -10, -10, -10, -10, -10, -10, -10, -10, -10, -10, -10, -10, -10, -10, 66.083336, 66.277779, 66.40625, 66.816071, 67.446426, 67.803574, 68.0625, 68.125, 68, 67.985123, 68.031746, -10, -10, -10, -10, -10, -10, -10, -10, -10, -10, -10, -10, -10, -10, -10, -10, -10, -10, -10, -10, -10, -10, -10, -10, -10, -10, -10, -10, -10, -10, -10, -10, -10, -10, -10, -10, -10, -10, -10, -10, -10, -10, -10, -10, -10, -10, -10, -10, -10, -10, -10, -10, -10, -10, -10, -10, -10, -10, -10, -10, -10, -10, -10, -10, -10, -10, -10, -10, -10, -10, -10, -10, -10, -10, -10, -10, -10, -10, -10, -10, -10, -10, -10, -10, -10, -10, -10, -10, -10, -10, -10, -10, -10, -10, -10, -10, -10, -10, -10, -10, -10, -10, -10, -10, -10, -10, -10, 96, 95.833336, 95.75, 95.339287, 94.095238, 93.404755, 92.414291, 91.113091, 90.422623, 90.044647, 89.678574, 88.291664, 87.571434, 86.9375, 85.976189, 84.988091, 84.130951, 83.404762, 82.785713, 81.130951, 79.910713, 78.649994, 77.607147, 76.547623, 75.3125, 74.261902, 73.607147, 72.910713, 72.081627, 71.574997, 70.6875, 69.619049, 68.684525, 68.017853, 67.217262, 66.339287, 65.241074, 64.633926, 63.991074, 63.113094, 62.214287, 61.55357, 61.125, 60.300598, 59.154758, 58.360115, 57.514881, 57.125, 56.5625, 55.726189, 54.696426, 54.205357, 53.678574, 52.979164, 52.047619, 51.3125, 50.660713, 50.071426, 48.854168, 48.071426, 47.392857, 46.785713, 45.833336, 44.821426, 44.169647, 43.342258, 42.607143, 41.464287, 40.82143, 39.904762, 38.565475, 37.678574, 36.836311, 36.270832, 35.148811, 33.970238, 33.339287, 32.705357, 32.1875, 31.363096, 30.238096, 29.226191, 28.482143, 27.702379, 27.0625, 26.113094, 25.357143, 24.705357, 24, 22.892857, 22.050594, 21.464285, 20.678572, 19.452381, 18.741072, 17.726191, 16.994049, 15.666667, 14.869047, 13.976191, 13.5, 12.916667, 12.428572, 11.470238, 10.041666, 9.4107141, 9.0625, 9, 9, 9, 9, 9, 9, 9, 9, 9, 9, 9, 9.125, 9.25, 9.3125, 9.3125, 9.1875, 9.0625, 9, 9, 8.9375, 8.9375, 8.9375, 9.0625, 9.1875, 9.25, 9.375, 9.5, 9.6875, 9.875, 10, 9.9375, 10.120536, 10.450893, 10.575893, 10.84375, 11, 11.098214, 11.25, 11.3125, 11.21875, 11.09375, 10.96875, 10.84375, 10.8125, 10.875, 10.9375, 10.866072, 10.33631, 9.5476198, 9.2053566, 9, 9, 8.9375, 8.875, 8.875, 8.875, 8.9375, 8.875, 8.8125, 8.8125, 9.0625, 9.3000002, -10, -10, -10, -10, -10, -10, -10, -10, -10, -10, -10, -10, -10, -10, -10, 37.111111, 37.277775, 37.67857, 38.698414, 39.380951, 39.75, 40.25, 40.333332, -10, -10, -10, -10, -10, -10, -10, -10, -10, -10, -10, -10, -10, -10, -10, -10, -10, -10, -10, -10, -10, -10, -10, -10, -10, -10, -10, -10, -10, -10, -10, -10, -10, -10, -10, -10, -10, -10, -10, -10, -10, -10, -10, -10, -10, -10, -10, -10, -10, -10, -10, -10, -10, -10, -10, -10, -10, -10, -10, -10, -10, -10, -10, -10, -10, -10, -10, -10, 66.46875, 66.828568, 67.446426, 67.794647, 68.0625, 68.0625, 67.875, 67.714287, 67.773811, 67.899994, -10, -10, -10, -10, -10, -10, -10, -10, -10, -10, -10, -10, -10, -10, -10, -10, -10, -10, -10, -10, -10, -10, -10, -10, -10, -10, -10, -10, -10, -10, -10, -10, -10, -10, -10, -10
-10, -10, -10, -10, -10, -10, -10, -10, -10, -10, -10, -10, -10, -10, -10, -10, -10, -10, -10, -10, -10, -10, -10, -10, -10, -10, -10, -10, -10, -10, -10, -10, -10, -10, -10, -10, -10, -10, -10, -10, -10, -10, 96.541664, 96.285713, 95.8125, 95.276787, 93.916664, 93.011902, 92.25, 90.979591, 90.321426, 89.982147, 89.535721, 88.266663, 87.542862, 87.020836, 86.059525, 85.023804, 84.023811, 83.404762, 82.565475, 80.875, 79.660713, 78.328568, 77.276787, 76.369049, 75.092262, 74.321426, 73.892853, 73.661217, 73.261902, 72.116669, 71.041664, 70.005951, 68.875, 68.142853, 67.050598, 66.125, 65.372025, 64.913689, 64.098221, 63.193451, 62.226189, 61.452381, 61.125, 60.336311, 59.279758, 58.413689, 57.285713, 56.821426, 56.3125, 55.821426, 54.684525, 54.276787, 53.866074, 53.336311, 52.238094, 51.491074, 50.785713, 50.142853, 48.666668, 47.928574, 47.3125, 46.723213, 45.952381, 44.541668, 43.848217, 43.196426, 42.5625, 41.39286, 40.714287, 40.071426, 38.541664, 37.714287, 36.693451, 35.967262, 34.827381, 33.928574, 33.357143, 32.767857, 32.25, 31.529762, 30.379763, 29.154762, 28.303572, 27.598213, 26.955357, 26.050594, 25.410715, 24.883928, 24.095238, 23.071428, 22.166666, 21.488094, 20.845238, 19.25, 18.571428, 17.520832, 16.869049, 15.604167, 14.672619, 13.797619, 13.28125, 12.90625, 12.428572, 11.273809, 10.047619, 9.4330359, 9.09375, 9, 9, 9, 9, 9, 9, 9, 9, 9, 9, 9, 9.0625, 9.125, 9.125, 9.125, 9.0625, 9, 9, 9, 8.875, 8.875, 8.875, 9, 9.1875, 9.3125, 9.4375, 9.5625, 9.75, 9.875, 9.9375, 9.8125, 9.9017859, 10.178572, 10.502976, 10.803572, 11, 11.098214, 11.25, 11.3125, 11.28125, 11.21875, 11.21875, 11.21875, 11.125, 11.125, 11.0625, 10.866072, 10.407739, 9.8095245, 9.3005953, 9.0714283, 9, 8.9375, 8.875, 8.875, 8.875, 8.9375, 8.9375, 8.875, 8.8125, 9, 9.083333, -10, -10, -10, -10, -10, -10, -10, -10, -10, -10, -10, -10, -10, -10, -10, 37.333332, 37.35833, 37.608929, 38.523811, 39.119045, 39.669643, 40.1875, 40.375, -10, -10, -10, -10, -10, -10, -10, -10, -10, -10, -10, -10, -10, -10, -10, -10, -10, -10, -10, -10, -10, -10, -10, -10, -10, -10, -10, -10, -10, -10, -10, -10, -10, -10, -10, -10, -10, -10, -10, -10, -10, -10, -10, -10, -10, -10, -10, -10, -10, -10, -10, -10, -10, -10, -10, -10, -10, -10, -10, -10, -10, -10, -10, -10, -10, -10, -10, -10, 66.46875, 66.778572, 67.428574, 67.785721, 68.0625, 68.0625, 67.875, 67.714287, 67.773811, 67.933327, -10, -10, -10, -10, -10, -10, -10, -10, -10, -10, -10, -10, -10, -10, -10, -10, -10, -10, -10, -10, -10, -10, -10, -10, -10, -10, -10, -10, -10, -10, -10, -10, -10, -10, -10, -10, -10, -10, -10, -10, -10, -10, -10, -10, -10, -10, -10, -10, -10, -10, -10, -10, -10, -10, -10, -10, -10, -10, -10, -10, -10, -10, -10, -10, -10, -10, -10, -10, -10, -10, -10, -10, -10, -10, -10, -10, -10, -10, -10, -10, -10, -10, -10, -10, -10, -10, -10, -10, -10, -10, -10, -10, -10, -10, -10, -10, -10, -10, -10, -10, -10, -10, -10, -10, -10, 98, 96.941666, 96.452385, 95.866074, 95.276787, 93.916664, 93.095238, 92.208336, 90.971428, 90.529762, 89.946426, 89.607147, 88.266663, 87.542862, 87.020836, 86.178574, 84.898804, 84.035713, 83.333336, 82.297623, 80.833336, 79.476189, 78.257141, 77.258926, 76.404762, 75.175598, 74.535713, 74.151779, 73.872108, 73.25, 72.375595, 71.029762, 70.208336, 69.20536, 68.571426, 67.321434, 66.363091, 65.598213, 65.163689, 64.410721, 63.586308, 62.354763, 61.434525, 61.125, 60.380955, 59.375, 58.580357, 57.327381, 56.8125, 56.3125, 55.75, 54.684525, 54.276787, 53.9375, 53.598213, 52.321426, 51.535713, 50.785713, 50.205353, 48.92857, 48.011902, 47.366074, 46.723213, 45.869045, 44.398811, 43.750004, 43.232143, 42.574402, 41.321426, 40.642857, 40.008926, 38.779758, 37.815475, 36.800598, 35.976189, 34.642857, 33.928574, 33.166668, 32.651787, 32.125, 31.508928, 30.504763, 29.029762, 28.107143, 27.410713, 26.830357, 26.041666, 25.339287, 24.642857, 23.845238, 23.071428, 22.193453, 21.505951, 20.773809, 18.916668, 18.214285, 17.354166, 16.806549, 15.613095, 14.547619, 13.839286, 13.34375, 12.861607, 12.321428, 11.261905, 10.005952, 9.4330359, 9.09375, 9, 9, 9, 9, 9, 9, 9, 9, 9, 9, 9, 9, 9, 9.0625, 9.125, 9.1875, 9.1875, 9.125, 9.0625, 8.875, 8.875, 8.875, 9, 9.1875, 9.375, 9.5625, 9.6875, 9.875, 9.9375, 9.9375, 9.8125, 9.8392859, 10.116072, 10.440476, 10.741072, 11, 11.160714, 11.3125, 11.4375, 11.5, 11.5, 11.5, 11.4375, 11.25, 11.125, 11.0625, 10.9375, 10.741072, 10.166667, 9.3839283, 9, 8.875, 8.875, 8.9375, 9, 9, 9, 8.9375, 8.875, 8.75, 8.875, 8.916666, -10, -10, -10, -10, -10, -10, -10, -10, -10, -10, -10, -10, -10, -10, -10, 37.5, 37.383331, 37.408928, 38.273811, 38.761906, 39.357143, 39.875, 40.291664, 40.666668, -10, -10, -10, -10, -10, -10, -10, -10, -10, -10, -10, -10, -10, -10, -10, -10, -10, -10, -10, -10, -10, -10, -10, -10, -10, -10, -10, -10, -10, -10, -10, -10, -10, -10, -10, -10, -10, -10, -10, -10, -10, -10, -10, -10, -10, -10, -10, -10, -10, -10, -10, -10, -10, -10, -10, -10, -10, -10, -10, -10, -10, -10, -10, -10, -10, -10, -10, 66.5, 66.800003, 67.446426, 67.773811, 68, 68.0625, 67.9375, 67.776787, 67.857147, 67.949997, -10, -10, -10, -10, -10, -10, -10, -10, -10, -10, -10, -10, -10, -10, -10, -10, -10, -10, -10, -10, -10, -10, -10, -10, -10, -10, -10, -10, -10, -10, -10, -10, -10, -10, -10, -10
-10, -10, -10, -10, -10, -10, -10, -10, -10, -10, -10, -10, -10, -10, -10, -10, -10, -10, -10, -10, -10, -10, -10, -10, -10, -10, -10, -10, -10, -10, -10, -10, -10, -10, -10, -10, -10, -10, -10, -10, -10, 97.5, 97.10833, 96.523811, 95.699402, 95.098221, 94.083336, 93.172615, 92, 90.941666, 90.485115, 90.008926, 89.678574, 88.183334, 87.471428, 86.860123, 85.714287, 84.755951, 83.928574, 83.125, 82.083336, 80.750008, 79.511902, 78.435715, 77.5, 76.654762, 75.342262, 74.642853, 74.160713, 73.709526, 73.25, 72.375595, 71.029762, 70.279762, 69.3125, 68.633926, 67.39286, 66.800591, 66.098213, 65.517853, 64.732147, 63.982143, 62.646427, 61.351192, 60.857143, 60.068455, 59.375, 58.6875, 57.497021, 56.883926, 56.321426, 55.75, 54.684525, 54.276787, 54.0625, 53.785713, 52.399998, 51.589287, 50.82143, 50.026787, 48.940475, 48.011902, 47.428574, 46.830357, 45.702377, 44.339287, 43.714287, 43.214287, 42.407738, 41.238098, 40.535713, 39.9375, 38.696426, 37.744049, 36.883926, 36.038689, 34.880951, 34.142857, 33.354168, 32.776787, 32.133926, 31.580357, 30.683334, 29.058334, 28.035715, 27.339285, 26.767857, 26.1875, 25.339287, 24.535715, 23.702379, 23.142857, 22.116072, 21.452381, 20.666666, 18.750002, 18, 17.3125, 16.848213, 15.89881, 14.482143, 13.758929, 13.15625, 12.611607, 11.892857, 10.726191, 9.8154764, 9.3526783, 9.09375, 9, 9, 9, 9, 9, 9, 9, 9, 9, 9, 9, 9, 9.0625, 9.1875, 9.3125, 9.375, 9.3125, 9.1875, 9.0625, 8.875, 8.875, 8.875, 8.9375, 9.1875, 9.4375, 9.75, 9.9375, 10.0625, 10.0625, 9.9375, 9.8125, 9.7767859, 9.9910717, 10.377976, 10.678572, 10.9375, 11.1875, 11.375, 11.5625, 11.6875, 11.6875, 11.625, 11.4375, 11.142857, 11, 10.9375, 10.9375, 10.928572, 10.52381, 9.8214283, 9.2448978, 9.041667, 8.875, 8.8125, 8.875, 8.875, 8.9375, 9, 8.9375, 8.84375, 8.96875, 9.0476189, -10, -10, -10, -10, -10, -10, -10, -10, -10, -10, -10, -10, -10, -10, -10, 37.5, 37.383331, 37.408928, 38.202381, 38.654762, 39.263393, 39.75, 40.208332, -10, -10, -10, -10, -10, -10, -10, -10, -10, -10, -10, -10, -10, -10, -10, -10, -10, -10, -10, -10, -10, -10, -10, -10, -10, -10, -10, -10, -10, -10, -10, -10, -10, -10, -10, -10, -10, -10, -10, -10, -10, -10, -10, -10, -10, -10, -10, -10, -10, -10, -10, -10, -10, -10, -10, -10, -10, -10, -10, -10, -10, -10, -10, -10, -10, -10, -10, -10, -10, -10, 67.401787, 67.648811, 67.84375, 67.96875, 67.9375, 67.8125, 67.6875, 67.737503, -10, -10, -10, -10, -10, -10, -10, -10, -10, -10, -10, -10, -10, -10, -10, -10, -10, -10, -10, -10, -10, -10, -10, -10, -10, -10, -10, -10, -10, -10, -10, -10, -10, -10, -10, -10, -10, -10, -10, -10, -10, -10, -10, -10, -10, -10, -10, -10, -10, -10, -10, -10, -10, -10, -10, -10, -10, -10, -10, -10, -10, -10, -10, -10, -10, -10, -10, -10, -10, -10, -10, -10, -10, -10, -10, -10, -10, -10, -10, -10, -10, -10, -10, -10, -10, -10, -10, -10, -10, -10, -10, -10, -10, -10, -10, -10, -10, -10, -10, -10, -10, -10, -10, -10, -10, 97.375, 97.23333, 96.583336, 95.470238, 94.919647, 94.25, 93.279762, 92.119049, 91.191666, 90.708328, 90.133926, 89.565475, 88.26667, 87.632149, 87.110123, 85.928574, 84.755951, 83.821426, 82.964287, 81.904762, 80.708336, 79.553574, 78.619049, 77.75, 76.904762, 75.565475, 74.541672, 73.892853, 73.15374, 72.857147, 72.008926, 70.761902, 70.136909, 69.479172, 68.616074, 67.577377, 66.836304, 66.178566, 65.625, 64.794647, 63.99107, 62.717857, 61.458336, 60.919643, 60.223217, 59.44643, 58.767857, 57.604164, 56.883926, 56.276787, 55.678574, 54.851192, 54.455353, 54.1875, 53.857147, 52.399998, 51.51786, 50.64286, 49.776787, 48.875, 48.011902, 47.491074, 46.9375, 45.55238, 44.172619, 43.464287, 42.964287, 42.166664, 41.133926, 40.357143, 39.830357, 38.809525, 37.702381, 36.85714, 36.017857, 34.994049, 34.285713, 33.541668, 32.800594, 32.133926, 31.517857, 30.504763, 29.117857, 28.142857, 27.196428, 26.625, 26.053572, 25.184525, 24.535715, 23.747023, 23.214285, 22.15774, 21.380953, 20.40476, 18.666668, 17.883928, 17.205357, 16.8125, 16.178572, 14.583333, 13.892858, 13.209822, 12.528274, 11.821428, 10.601191, 9.7440481, 9.2901783, 9.03125, 9, 9, 9, 9, 9, 9, 9, 9, 9, 9, 9, 9, 9.125, 9.3125, 9.4375, 9.5, 9.375, 9.1875, 9.0625, 8.9375, 8.9375, 8.9375, 8.9375, 9.125, 9.4375, 9.8571434, 10.0625, 10.125, 10.026786, 9.875, 9.8125, 9.8125, 9.8839283, 10.333333, 10.678572, 11.107143, 11.375, 11.5, 11.625, 11.75, 11.8125, 11.8125, 11.75, 11.517857, 11.214286, 11.25, 11.008928, 10.964286, 10.794643, 10.1875, 10.030612, 9.354167, 8.9464283, 8.7053566, 8.75, 8.75, 8.875, 9, 8.9375, 8.84375, 8.96875, 9.1517859, 10.5375, -10, -10, -10, -10, -10, -10, -10, -10, -10, -10, -10, -10, -10, -10, 37.5, 37.466667, 37.525002, 38.142857, 38.583332, 39.200893, 39.625, 40.125, -10, -10, -10, -10, -10, -10, -10, -10, -10, -10, -10, -10, -10, -10, -10, -10, -10, -10, -10, -10, -10, -10, -10, -10, -10, -10, -10, -10, -10, -10, -10, -10, -10, -10, -10, -10, -10, -10, -10, -10, -10, -10, -10, -10, -10, -10, -10, -10, -10, -10, -10, -10, -10, -10, -10, -10, -10, -10, -10, -10, -10, -10, -10, -10, -10, -10, -10, -10, -10, -10, 67.419647, 67.636902, 67.78125, 67.96875, 68, 68, 68, 68, 68, -10, -10, -10, -10, -10, -10, -10, -10, -10, -10, -10, -10, -10, -10, -10, -10, -10, -10, -10, -10, -10, -10, -10, -10, -10, -10, -10, -10, -10, -10, -10, -10, -10, -10, -10
-10, -10, -10, -10, -10, -10, -10, -10, -10, -10, -10, -10, -10, -10, -10, -10, -10, -10, -10, -10, -10, -10, -10, -10, -10, -10, -10, -10, -10, -10, -10, -10, -10, -10, -10, -10, -10, -10, -10, -10, -10, 96.875, 96.816666, 96.235123, 95.470238, 94.919647, 94.095238, 93.279762, 92.145836, 91.263092, 90.979164, 90.276779, 89.458336, 88.202385, 87.607147, 87.089287, 86.116074, 84.934525, 83.75, 82.672615, 81.696426, 80.625, 79.803574, 78.666672, 77.866074, 77.083336, 75.869049, 74.863098, 73.75, 72.970238, 72.491074, 71.538689, 70.559525, 70.116074, 69.681549, 68.574402, 67.690475, 66.872017, 66.005951, 65.354164, 64.6875, 63.931545, 62.676193, 61.604168, 60.982143, 60.366074, 59.44643, 58.821426, 57.895832, 57.1875, 56.526787, 55.8125, 55.077381, 54.633926, 54.1875, 53.82143, 52.274998, 51.375, 50.45536, 49.598213, 49, 48.145832, 47.57143, 47.0625, 45.588097, 44.047619, 43.285713, 42.714287, 41.979164, 41.0625, 40.339287, 39.830357, 39.038689, 37.916664, 37.10714, 36.267857, 35.244049, 34.535713, 33.5, 32.729164, 32.008926, 31.330357, 30.476191, 29.260714, 28.392857, 27.217262, 26.660715, 26.053572, 25.122025, 24.428572, 23.830357, 23.214285, 21.937502, 21.214287, 20.071428, 18.833334, 18.098215, 17.339285, 16.794643, 16, 14.601191, 13.991072, 13.357143, 12.455357, 11.678572, 10.547619, 9.6726189, 9.2589283, 9, 9.0625, 9.0625, 9.0625, 9.0625, 9, 9, 9, 9, 9, 9.0625, 9.0625, 9.0625, 9.1875, 9.3125, 9.4375, 9.5, 9.375, 9.1875, 9.0625, 9, 9, 9, 9, 9.1875, 9.5625, 10.017858, 10.25, 10.232143, 9.9196434, 9.8303566, 9.875, 10.107143, 10.3125, 10.5625, 10.875, 11.294643, 11.5625, 11.75, 11.875, 11.9375, 11.9375, 11.875, 11.678572, 11.330357, 11.428572, 11.294643, 11.133928, 11.089286, 10.928572, 10.520833, 10.448979, 9.666667, 9.0892849, 8.7678566, 8.75, 8.75, 8.875, 9, 9, 8.96875, 9.09375, 9.3898811, 10.358334, -10, -10, -10, -10, -10, -10, -10, -10, -10, -10, -10, -10, -10, -10, 37.5, 37.504166, 37.639286, 38.25, 38.678574, 39.15625, 39.5, 39.916668, -10, -10, -10, -10, -10, -10, -10, -10, -10, -10, -10, -10, -10, -10, -10, -10, -10, -10, -10, -10, -10, -10, -10, -10, -10, -10, -10, -10, -10, -10, -10, -10, -10, -10, -10, -10, -10, -10, -10, -10, -10, -10, -10, -10, -10, -10, -10, -10, -10, -10, -10, -10, -10, -10, -10, -10, -10, -10, -10, -10, -10, -10, -10, -10, -10, -10, -10, -10, -10, -10, 67.4375, 67.624992, 67.71875, 67.96875, 68, 68, 68, 68, 67.916664, -10, -10, -10, -10, -10, -10, -10, -10, -10, -10, -10, -10, -10, -10, -10, -10, -10, -10, -10, -10, -10, -10, -10, -10, -10, -10, -10, -10, -10, -10, -10, -10, -10, -10, -10, -10, -10, -10, -10, -10, -10, -10, -10, -10, -10, -10, -10, -10, -10, -10, -10, -10, -10, -10, -10, -10, -10, -10, -10, -10, -10, -10, -10, -10, -10, -10, -10, -10, -10, -10, -10, -10, -10, -10, -10, -10, -10, -10, -10, -10, -10, -10, -10, -10, -10, -10, -10, -10, -10, -10, -10, -10, -10, -10, -10, -10, -10, -10, -10, -10, -10, -10, -10, -10, 96.625, 96.666664, 96.330353, 95.458336, 94.928574, 94.059517, 93.113091, 92.044647, 91.363098, 90.991074, 90.288696, 89.315475, 88.190475, 87.571426, 87.089287, 86.205353, 85.273804, 83.738098, 82.636902, 81.821426, 80.583336, 79.952377, 78.738098, 77.8125, 76.976189, 76.098213, 75.005951, 73.678574, 72.964287, 72.303574, 71.288689, 70.535713, 70.080353, 69.556549, 68.336311, 67.315475, 66.598213, 65.863098, 64.979164, 64.276787, 63.467258, 62.601192, 61.791668, 61.169643, 60.580357, 59.488094, 58.821426, 58.125, 57.330357, 56.535713, 55.705357, 55.05357, 54.625, 54.125, 53.714283, 52.066666, 51.196426, 50.3125, 49.348213, 48.642857, 47.955357, 47.455357, 46.991074, 45.671425, 44.148811, 43.071434, 42.392857, 41.708332, 40.883926, 40.160713, 39.705357, 38.904762, 38.020836, 37.178574, 36.267857, 35.357143, 34.678574, 33.833332, 32.824409, 32.142857, 31.446428, 30.559523, 29.635714, 28.630951, 27.404762, 26.785715, 26.0625, 25.122025, 24.5, 23.901787, 22.964285, 21.732143, 21.071428, 20.071428, 19.166666, 18.455357, 17.505951, 16.857143, 15.845238, 14.642857, 14.053572, 13.4375, 12.5625, 11.595238, 10.47619, 9.6309528, 9.2589283, 9, 9.0625, 9.0625, 9.0625, 9.0625, 9, 8.96875, 8.90625, 8.84375, 8.84375, 9, 9.1696434, 9.1875, 9.3125, 9.3125, 9.3125, 9.3125, 9.1875, 9.0625, 9, 9, 9, 9, 9, 9.25, 9.625, 10.080358, 10.3125, 10.169643, 9.8571434, 9.8303566, 9.9821434, 10.294643, 10.5, 10.71875, 11.03125, 11.388393, 11.65625, 11.8125, 11.8125, 11.8125, 11.75, 11.6875, 11.553572, 11.267857, 11.3125, 11.357143, 11.196428, 11.151786, 11.0625, 10.875, 10.616072, 9.9345236, 9.2767849, 8.8303566, 8.75, 8.75, 8.875, 9, 9, 9.03125, 9.15625, 9.5446424, 10.26875, -10, -10, -10, -10, -10, -10, -10, -10, -10, -10, -10, -10, -10, 38, 37.5, 37.604164, 37.901787, 38.44643, 38.866074, 39.3125, 39.59375, 39.885418, -10, -10, -10, -10, -10, -10, -10, -10, -10, -10, -10, -10, -10, -10, -10, -10, -10, -10, -10, -10, -10, -10, -10, -10, -10, -10, -10, -10, -10, -10, -10, -10, -10, -10, -10, -10, -10, -10, -10, -10, -10, -10, -10, -10, -10, -10, -10, -10, -10, -10, -10, -10, -10, -10, -10, -10, -10, -10, -10, -10, -10, -10, -10, -10, -10, -10, -10, -10, -10, -10, 67.3125, 67.499992, 67.625, 67.90625, 67.90625, 67.875, 67.8125, 67.8125, 67.8125, 67.666664, -10, -10, -10, -10, -10, -10, -10, -10, -10, -10, -10, -10, -10, -10, -10, -10, -10, -10, -10, -10, -10, -10, -10, -10, -10, -10, -10, -10, -10, -10, -10, -10, -10, -10
-10, -10, -10, -10, -10, -10, -10, -10, -10, -10, -10, -10, -10, -10, -10, -10, -10, -10, -10, -10, -10, -10, -10, -10, -10, -10, -10, -10, -10, -10, -10, -10, -10, -10, -10, -10, -10, -10, -10, -10, -10, 96.75, 96.75, 96.4375, 95.541664, 95, 94.122017, 93.142853, 92.336311, 91.392853, 91, 90.163696, 89.190475, 88.35714, 87.559525, 87.125, 86.372025, 85.375, 83.476189, 82.505951, 81.678574, 80.642853, 80.023811, 78.588097, 77.5, 76.714287, 76.116074, 74.898811, 73.714287, 73.008926, 72.428574, 71.476189, 70.630951, 70.258926, 69.806549, 68.702385, 67.522621, 66.535713, 65.684525, 64.9375, 64.339287, 63.547619, 62.559525, 62.035713, 61.4375, 60.892857, 59.446426, 58.821426, 58.169643, 57.330357, 56.571426, 55.705357, 55.05357, 54.625, 54, 53.535713, 51.791664, 51, 50.133926, 49.339283, 48.607143, 47.955357, 47.455357, 46.991074, 45.754761, 44.291668, 42.940475, 42.142857, 41.446426, 40.705357, 39.982143, 39.526787, 38.946426, 38.092262, 37.25, 36.163689, 35.357143, 34.723213, 33.904762, 32.720238, 32.071426, 31.428572, 30.559523, 29.857141, 28.839287, 27.583334, 26.919643, 25.958334, 25.050594, 24.482141, 23.901787, 22.964285, 21.732143, 21.071428, 20.107143, 19.25, 18.598215, 17.630951, 16.928572, 15.767857, 14.851191, 14.321428, 13.75, 12.666667, 11.773809, 10.72619, 9.6964283, 9.2678566, 8.9375, 8.9375, 8.9910717, 9.229167, 9.3125, 9.25, 9.09375, 9.03125, 9.03125, 9.0255108, 9.3571434, 9.4196434, 9.375, 9.3125, 9.25, 9.125, 9.125, 9.0625, 9, 9, 9, 9, 9, 9, 9.25, 9.625, 10.017858, 10.25, 10.107143, 9.8571434, 9.9553566, 10.169643, 10.544643, 10.75, 10.90625, 11.15625, 11.450893, 11.59375, 11.625, 11.5, 11.4375, 11.3125, 11.375, 11.428572, 11.3125, 11.5, 11.607143, 11.383928, 11.276786, 11.125, 10.8125, 10.5625, 10.080357, 9.4642849, 9.0803566, 8.9375, 8.875, 8.9375, 9, 9, 8.9375, 9, 9.3303566, 9.9875002, -10, -10, -10, -10, -10, -10, -10, -10, -10, -10, -10, -10, -10, 38, 37.5, 37.520832, 37.776787, 38.276787, 38.723213, 39.21875, 39.53125, 39.885418, 40.354164, 40.666668, -10, -10, -10, -10, -10, -10, -10, -10, -10, -10, -10, -10, -10, -10, -10, -10, -10, -10, -10, -10, -10, -10, -10, -10, -10, -10, -10, -10, -10, -10, -10, -10, -10, -10, -10, -10, -10, -10, -10, -10, -10, -10, -10, -10, -10, -10, -10, -10, -10, -10, -10, -10, -10, -10, -10, -10, -10, -10, -10, -10, -10, -10, -10, -10, -10, -10, -10, -10, 67.25, 67.416664, 67.5625, 67.875, 67.875, 67.8125, 67.75, 67.75, 67.770836, 67.666664, -10, -10, -10, -10, -10, -10, -10, -10, -10, -10, -10, -10, -10, -10, -10, -10, -10, -10, -10, -10, -10, -10, -10, -10, -10, -10, -10, -10, -10, -10, -10, -10, -10, -10, -10, -10, -10, -10, -10, -10, -10, -10, -10, -10, -10, -10, -10, -10, -10, -10, -10, -10, -10, -10, -10, -10, -10, -10, -10, -10, -10, -10, -10, -10, -10, -10, -10, -10, -10, -10, -10, -10, -10, -10, -10, -10, -10, -10, -10, -10, -10, -10, -10, -10, -10, -10, -10, -10, -10, -10, -10, -10, -10, -10, -10, -10, -10, -10, -10, -10, -10, -10, -10, 97, 96.650002, 96.33036, 95.583328, 95.071426, 94.184517, 93.142853, 92.336311, 91.392853, 90.991074, 90.056549, 89.232147, 88.41964, 87.577377, 87.125, 86.479164, 85.779762, 83.5, 82.398811, 81.419647, 80.494049, 79.919647, 78.647621, 77.416664, 76.607147, 75.901787, 74.928574, 73.75, 73.071426, 72.4375, 71.714279, 70.732147, 70.330353, 69.776787, 68.761909, 67.629761, 66.630951, 65.791664, 65.0625, 64.589287, 63.869045, 62.666668, 62.071426, 61.4375, 60.892857, 59.517857, 58.928574, 58.294643, 57.580357, 56.85714, 55.872025, 55.17857, 54.541668, 53.875, 53.119045, 51.636906, 50.892857, 50.1875, 49.517857, 48.547619, 47.883926, 47.392857, 46.919643, 45.738098, 44.55357, 43.261902, 42.247025, 41.508926, 40.476189, 39.839287, 39.375, 38.8125, 38.205357, 37.172615, 36.101189, 35.348213, 34.723213, 33.904762, 32.636902, 32, 31.428572, 30.675594, 30.026785, 28.946428, 27.904762, 27.133928, 26.101191, 25.205357, 24.55357, 23.964287, 22.955357, 21.84524, 21.214285, 20.440475, 19.571428, 18.744049, 17.738094, 17, 15.571428, 14.821428, 14.3125, 13.75, 12.583333, 11.702381, 10.892857, 9.8303566, 9.3482141, 9.0625, 9.125, 9.3482151, 9.666667, 9.8125, 9.6785717, 9.260417, 9.1026783, 9.1026783, 9.6998301, 9.6904764, 9.5863094, 9.5178566, 9.375, 9.3125, 9.1875, 9.125, 9.0625, 9, 9, 9, 9, 9, 9.0625, 9.3125, 9.625, 9.9732141, 10.25, 10.232143, 10.142857, 10.267857, 10.482143, 10.794643, 11, 11.09375, 11.21875, 11.34375, 11.40625, 11.3125, 11.1875, 11.125, 11, 11.1875, 11.178572, 11, 11.25, 11.357143, 11.375, 11.375, 11.1875, 10.875, 10.625, 10.205357, 9.7053566, 9.3303566, 9.125, 9, 9, 9, 9, 8.875, 8.875, 9.1428566, 9.875, -10, -10, -10, -10, -10, -10, -10, -10, -10, -10, -10, -10, -10, -10, 37.5, 37.520832, 37.714287, 38.169643, 38.598213, 39.09375, 39.46875, 39.885418, 40.347218, -10, -10, -10, -10, -10, -10, -10, -10, -10, -10, -10, -10, -10, -10, -10, -10, -10, -10, -10, -10, -10, -10, -10, -10, -10, -10, -10, -10, -10, -10, -10, -10, -10, -10, -10, -10, -10, -10, -10, -10, -10, -10, -10, -10, -10, -10, -10, -10, -10, -10, -10, -10, -10, -10, -10, -10, -10, -10, -10, -10, -10, -10, -10, -10, -10, -10, -10, -10, -10, 67, 67.166664, 67.3125, 67.6875, 67.75, 67.6875, 67.5625, 67.5625, 67.5625, 67.6875, -10, -10, -10, -10, -10, -10, -10, -10, -10, -10, -10, -10, -10, -10, -10, -10, -10, -10, -10, -10, -10, -10, -10, -10, -10, -10, -10, -10, -10, -10, -10, -10, -10, -10
-10, -10, -10, -10, -10, -10, -10, -10, -10, -10, -10, -10, -10, -10, -10, -10, -10, -10, -10, -10, -10, -10, -10, -10, -10, -10, -10, -10, -10, -10, -10, -10, -10, -10, -10, -10, -10, -10, -10, -10, -10, 97.5, 96.800003, 96.428574, 95.583328, 95.071426, 94.330353, 93.226189, 92.232147, 91.321426, 90.857147, 89.83036, 89.232147, 88.446426, 87.666664, 87.1875, 86.470238, 85.369049, 83.333336, 82.273811, 81.491074, 80.619049, 80.0625, 78.730949, 77.380951, 76.428574, 75.598213, 74.535713, 73.571426, 72.928574, 72.375, 71.767853, 70.76786, 70.205353, 69.5625, 68.821426, 67.772621, 66.559525, 65.857147, 65.125, 64.839287, 64.214287, 62.958332, 62.24107, 61.446426, 60.714287, 59.505951, 58.892857, 58.357143, 57.642857, 56.91964, 55.880951, 55.10714, 54.434525, 53.875, 53.047615, 51.636906, 50.857143, 50.1875, 49.517857, 48.547619, 47.738094, 47.25, 46.732143, 45.666668, 44.80357, 43.583332, 42.476192, 41.633926, 40.392857, 39.785713, 39.375, 39, 38.526787, 37.267857, 36.172619, 35.276787, 34.61607, 34.035713, 32.458332, 31.857143, 31.366072, 30.782738, 30.050594, 28.904762, 27.821428, 27.0625, 26.038691, 25.205357, 24.55357, 23.964287, 22.946428, 21.958334, 21.357141, 20.857143, 19.738094, 18.886906, 17.979166, 17.214285, 15.821428, 15, 14.392857, 13.821428, 12.821428, 11.803572, 11.071428, 10, 9.4285717, 9.1875, 9.25, 9.6428576, 10.041667, 10.428572, 10.116072, 9.697917, 9.6026783, 9.4642859, 10.105655, 9.8779764, 9.7321424, 9.7886906, 9.7410717, 9.75, 9.5625, 9.4375, 9.375, 9.375, 9.3571434, 9.166667, 9.0714283, 9.0714283, 9.395833, 9.6071434, 9.8125, 10.0625, 10.25, 10.3125, 10.5, 10.6875, 10.919643, 11.0625, 11.125, 11.09375, 11.09375, 11.15625, 11.21875, 11.0625, 10.9375, 10.875, 10.75, 10.9375, 11, 11.0625, 11.3125, 11.4375, 11.4375, 11.375, 11.1875, 10.875, 10.6875, 10.392857, 10.0625, 9.7053566, 9.5, 9.25, 9.125, 9.125, 9.1875, 9.1607141, 9.1875, 9.4464283, 9.958333, -10, -10, -10, -10, -10, -10, -10, -10, -10, -10, -10, -10, -10, -10, 37.5, 37.583332, 37.75, 38.125, 38.544643, 39.03125, 39.427082, 39.958332, 40.347218, -10, -10, -10, -10, -10, -10, -10, -10, -10, -10, -10, -10, -10, -10, -10, -10, -10, -10, -10, -10, -10, -10, -10, -10, -10, -10, -10, -10, -10, -10, -10, -10, -10, -10, -10, -10, -10, -10, -10, -10, -10, -10, -10, -10, -10, -10, -10, -10, -10, -10, -10, -10, -10, -10, -10, -10, -10, -10, -10, -10, -10, -10, -10, -10, -10, -10, -10, -10, -10, 66.833336, 67, 67.166664, 67.53125, 67.65625, 67.59375, 67.5, 67.5, 67.5625, 67.770828, 68, -10, -10, -10, -10, -10, -10, -10, -10, -10, -10, -10, -10, -10, -10, -10, -10, -10, -10, -10, -10, -10, -10, -10, -10, -10, -10, -10, -10, -10, -10, -10, -10, -10, -10, -10, -10, -10, -10, -10, -10, -10, -10, -10, -10, -10, -10, -10, -10, -10, -10, -10, -10, -10, -10, -10, -10, -10, -10, -10, -10, -10, -10, -10, -10, -10, -10, -10, -10, -10, -10, -10, -10, -10, -10, -10, -10, -10, -10, -10, -10, -10, -10, -10, -10, -10, -10, -10, -10, -10, -10, -10, -10, -10, -10, -10, -10, -10, -10, -10, -10, -10, -10, 97.833336, 96.800003, 96.35714, 95.559525, 95.0625, 94.4375, 93.583336, 92.125008, 91.071426, 90.491074, 89.684517, 89.1875, 88.517853, 87.836311, 87.366074, 86.445236, 85.154762, 83.416664, 82.14286, 81.41964, 80.848213, 80.348213, 78.859528, 77.351181, 76.285713, 75.348213, 74.285713, 73.571426, 72.809525, 72.3125, 71.758926, 70.76786, 70.205353, 69.5625, 68.880951, 68.064285, 66.516663, 65.690475, 65.25, 65.0625, 64.651787, 63.369045, 62.220238, 61.29464, 60.517853, 59.610115, 59.080357, 58.61607, 57.779762, 57.098213, 56.122025, 55.285713, 54.514881, 53.9375, 53.047615, 51.720234, 51, 50.366074, 49.538689, 48.583332, 47.738094, 47.1875, 46.625, 45.458332, 44.595242, 43.645832, 42.523811, 41.529762, 40.392857, 39.892857, 39.5625, 39.205357, 38.464287, 37.232143, 36.163689, 35.348213, 34.723213, 34.098213, 32.684525, 32.035713, 31.270834, 30.723215, 29.943453, 28.988096, 27.883928, 27.07143, 26.038691, 25.276785, 24.625, 23.75, 23.053572, 22.101191, 21.535713, 20.761906, 19.678572, 18.779762, 18.0625, 17.285715, 15.863094, 15, 14.455357, 13.928572, 12.892857, 11.845238, 11.142857, 10.333333, 9.8571424, 9.75, 9.8125, 10.205358, 10.604167, 10.8125, 10.741072, 10.416667, 10.446428, 10.806122, 11.011905, 10.503402, 10.142858, 10.351191, 10.241072, 10.25, 10.125, 10.0625, 10.0625, 10.0625, 9.9821434, 9.729167, 9.5714283, 9.5714283, 9.895833, 10.044643, 10.1875, 10.375, 10.5, 10.6875, 10.9375, 11.125, 11.3125, 11.3125, 11.3125, 11.25, 11.1875, 11.25, 11.1875, 11, 10.875, 10.875, 10.8125, 11, 11.0625, 11.125, 11.375, 11.4375, 11.5, 11.375, 11.1875, 11, 10.875, 10.75, 10.5, 10.205357, 10.0625, 9.875, 9.5, 9.5, 9.75, 9.6607141, 9.6875, 9.875, 10.208333, -10, -10, -10, -10, -10, -10, -10, -10, -10, -10, -10, -10, -10, -10, 37.5, 37.583332, 37.6875, 38.0625, 38.440475, 39, 39.444443, -10, -10, -10, -10, -10, -10, -10, -10, -10, -10, -10, -10, -10, -10, -10, -10, -10, -10, -10, -10, -10, -10, -10, -10, -10, -10, -10, -10, -10, -10, -10, -10, -10, -10, -10, -10, -10, -10, -10, -10, -10, -10, -10, -10, -10, -10, -10, -10, -10, -10, -10, -10, -10, -10, -10, -10, -10, -10, -10, -10, -10, -10, -10, -10, -10, -10, -10, -10, -10, -10, -10, -10, 66.944443, 67.135414, 67.46875, 67.65625, 67.625, 67.5, 67.479164, 67.587502, 67.604164, 67.799995, -10, -10, -10, -10, -10, -10, -10, -10, -10, -10, -10, -10, -10, -10, -10, -10, -10, -10, -10, -10, -10, -10, -10, -10, -10, -10, -10, -10, -10, -10, -10, -10, -10
-10, -10, -10, -10, -10, -10, -10, -10, -10, -10, -10, -10, -10, -10, -10, -10, -10, -10, -10, -10, -10, -10, -10, -10, -10, -10, -10, -10, -10, -10, -10, -10, -10, -10, -10, -10, -10, -10, -10, -10, -10, 98.208336, 97.050003, 96.303574, 95.571426, 95.125, 94.5625, 93.797623, 92.000008, 91.148804, 90.544647, 89.809517, 89.3125, 88.580353, 87.991066, 87.4375, 86.611908, 85.238091, 83.89286, 82.315475, 81.66964, 81.098213, 80.348213, 79.051193, 77.434525, 76.321426, 75.276779, 74.499992, 73.839287, 73.086304, 72.229164, 71.54464, 70.726189, 70.133926, 69.229164, 68.452377, 67.839287, 66.516663, 65.752975, 65.196426, 64.892853, 64.571426, 63.547619, 62.267857, 61.276787, 60.410713, 59.839287, 59.223213, 58.508926, 57.815475, 57.133926, 56.133926, 55.321426, 54.514881, 54.0625, 53.119049, 51.845234, 51.17857, 50.544643, 49.642857, 48.690475, 47.57143, 46.991074, 46.375, 45.354164, 44.416668, 43.705357, 42.666668, 41.541664, 40.5, 40.0625, 39.8125, 39.473213, 38.464287, 37.19643, 36.267857, 35.419643, 34.785713, 33.943455, 32.797619, 32.285713, 31.502975, 30.556547, 29.764879, 28.967262, 27.946428, 27.07143, 26.151787, 25.348215, 24.642857, 23.75, 23.044643, 22.214285, 21.535713, 20.654762, 19.738094, 18.851191, 17.979166, 17.214285, 15.967262, 15.071428, 14.473213, 13.928572, 13.03869, 11.916666, 11.214286, 10.75, 10.473213, 10.669643, 10.875, 11.205359, 11.104167, 11.205357, 11.116072, 11.166667, 11.397959, 11.591836, 11.529761, 11.380952, 11.333333, 11.105441, 11.132653, 10.9375, 10.875, 11, 11.035714, 11.071428, 10.979592, 10.690476, 10.581633, 10.653061, 10.833333, 10.919643, 10.875, 10.830357, 10.875, 11.0625, 11.3125, 11.5, 11.625, 11.5, 11.5, 11.4375, 11.375, 11.5, 11.4375, 11.25, 11.1875, 11.1875, 11.1875, 11.375, 11.375, 11.4375, 11.5, 11.4375, 11.5, 11.3125, 11.1875, 11.125, 11, 10.9375, 10.8125, 10.642857, 10.821428, 10.785714, 10.916667, 11, 10.785714, 10.790816, 10.821428, 10.785714, 10.735119, -10, -10, -10, -10, -10, -10, -10, -10, -10, -10, -10, -10, -10, -10, 37.75, 37.833332, 37.875, 38.125, 38.333332, -10, -10, -10, -10, -10, -10, -10, -10, -10, -10, -10, -10, -10, -10, -10, -10, -10, -10, -10, -10, -10, -10, -10, -10, -10, -10, -10, -10, -10, -10, -10, -10, -10, -10, -10, -10, -10, -10, -10, -10, -10, -10, -10, -10, -10, -10, -10, -10, -10, -10, -10, -10, -10, -10, -10, -10, -10, -10, -10, -10, -10, -10, -10, -10, -10, -10, -10, -10, -10, -10, -10, -10, -10, -10, -10, 67.05555, 67.53125, 67.6875, 67.625, 67.5, 67.416664, 67.462502, 67.5, 67.724998, -10, -10, -10, -10, -10, -10, -10, -10, -10, -10, -10, -10, -10, -10, -10, -10, -10, -10, -10, -10, -10, -10, -10, -10, -10, -10, -10, -10, -10, -10, -10, -10, -10, -10, -10, -10, -10, -10, -10, -10, -10, -10, -10, -10, -10, -10, -10, -10, -10, -10, -10, -10, -10, -10, -10, -10, -10, -10, -10, -10, -10, -10, -10, -10, -10, -10, -10, -10, -10, -10, -10, -10, -10, -10, -10, -10, -10, -10, -10, -10, -10, -10, -10, -10, -10, -10, -10, -10, -10, -10, -10, -10, -10, -10, -10, -10, -10, -10, -10, -10, -10, -10, 98.291672, 97.150002, 96.375, 95.589279, 95.125, 94.625, 93.976196, 92.000008, 91.285713, 90.616074, 89.979164, 89.383926, 88.589287, 87.91964, 87.196426, 86.183334, 84.809525, 83.976189, 82.291664, 81.785713, 81.205353, 80.202377, 78.908333, 77.580353, 76.470238, 75.247017, 74.535713, 73.883926, 73.09523, 72, 71.29464, 70.696426, 69.979164, 69.050591, 68.348213, 67.73214, 66.599998, 65.669647, 65.142853, 64.758926, 64.345238, 63.619045, 62.410717, 61.297615, 60.517853, 60.008926, 59.401783, 58.467262, 57.610119, 56.788689, 55.758926, 55.008926, 54.410713, 54.0625, 53.348213, 52.059521, 51.42857, 50.502975, 49.57143, 48.82143, 47.392857, 46.785713, 46.133926, 45.333332, 44.309525, 43.598213, 42.714287, 41.291664, 40.523811, 40.133926, 39.9375, 39.598213, 38.476189, 37.19643, 36.267857, 35.482143, 34.892857, 33.860123, 33.035713, 32.5, 31.440475, 30.404762, 29.577379, 28.895834, 27.9375, 27.07143, 26.151787, 25.348215, 24.642857, 23.75, 22.815477, 22.071428, 21.392857, 20.467262, 19.559523, 18.857143, 17.879166, 17.309523, 16.092262, 15.25, 14.553572, 14, 13.267857, 12.130952, 11.526786, 11.25, 11.510203, 11.959184, 12.107142, 12.265306, 11.583334, 11.830357, 11.571428, 11.875, 12.125, 12.294643, 12.258928, 12.142858, 11.976191, 11.645833, 11.616072, 11.625, 11.625, 11.723214, 11.8125, 11.875, 11.794643, 11.880952, 11.897959, 12.040816, 12.190476, 12.204082, 11.8125, 11.580357, 11.5625, 11.5625, 11.75, 11.9375, 12.0625, 12, 11.9375, 11.8125, 11.6875, 11.8125, 11.8125, 11.75, 11.75, 11.6875, 11.625, 11.625, 11.625, 11.75, 11.75, 11.8125, 11.875, 11.6875, 11.6875, 11.625, 11.428572, 11.3, 11.357143, 11.25, 11.375, 11.3125, 11.571428, 11.714286, 11.75, 11.734694, 11.780612, 11.669643, 11.726191, 13.1, -10, -10, -10, -10, -10, -10, -10, -10, -10, -10, -10, -10, -10, 38, 38, 38, 38.125, 38.208332, -10, -10, -10, -10, -10, -10, -10, -10, -10, -10, -10, -10, -10, -10, -10, -10, -10, -10, -10, -10, -10, -10, -10, -10, -10, -10, -10, -10, -10, -10, -10, -10, -10, -10, -10, -10, -10, -10, -10, -10, -10, -10, -10, -10, -10, -10, -10, -10, -10, -10, -10, -10, -10, -10, -10, -10, -10, -10, -10, -10, -10, -10, -10, -10, -10, -10, -10, -10, -10, -10, -10, -10, -10, -10, -10, -10, 67.625, 67.5625, 67.5, 67.4375, 67.354164, 67.400002, 67.375, 67.474998, 67.333328, -10, -10, -10, -10, -10, -10, -10, -10, -10, -10, -10, -10, -10, -10, -10, -10, -10, -10, -10, -10, -10, -10, -10, -10, -10, -10, -10, -10, -10, -10, -10, -10
-10, -10, -10, -10, -10, -10, -10, -10, -10, -10, -10, -10, -10, -10, -10, -10, -10, -10, -10, -10, -10, -10, -10, -10, -10, -10, -10, -10, -10, -10, -10, -10, -10, -10, -10, -10, -10, -10, -10, -10, -10, 97.916672, 97.083336, 96.339287, 95.535706, 95.017853, 94.5625, 93.95536, 92.113098, 91.357147, 90.6875, 90.1875, 89.633926, 88.848213, 87.830353, 86.928574, 85.826187, 84.755951, 84.035713, 82.625, 81.880951, 81.205353, 79.89286, 78.848816, 77.580353, 76.613098, 75.175591, 74.571426, 74, 73.327377, 72.25, 71.54464, 70.946426, 70.016663, 68.929169, 68.038689, 67.517853, 66.787498, 65.991074, 65.309517, 64.758926, 64.291672, 63.785713, 62.625, 61.434521, 60.696426, 60.25, 59.651783, 58.654762, 57.589287, 56.726189, 55.604168, 55.008926, 54.446426, 53.979168, 53.348213, 52.279762, 51.511902, 50.547619, 49.5, 48.714287, 47.476189, 46.848213, 46.080353, 45.226189, 44.392857, 43.514881, 42.797619, 41.125, 40.464287, 39.955357, 39.6875, 39.223213, 38.083332, 37.154762, 36.375, 35.494049, 34.857143, 33.788692, 33.285713, 32.705357, 31.511904, 30.297619, 29.55357, 28.9375, 28.25, 27.285715, 26.285715, 25.357143, 24.642857, 23.75, 22.815477, 22.071428, 21.392857, 20.431549, 19.392857, 18.714285, 17.816666, 17.416666, 16.104166, 15.285715, 14.553572, 14, 13.321428, 12.485119, 12.026786, 11.9375, 12.1875, 12.852041, 13.035714, 13.168367, 13.069446, 12.770408, 13, 12.6875, 12.875, 12.9375, 12.9375, 12.8125, 12.6875, 12.4375, 12.3125, 12.4375, 12.607143, 12.767857, 12.666667, 12.571428, 12.5, 12.821428, 13.12245, 13.285714, 13.285714, 13.142858, 12.785714, 12.520408, 12.571428, 12.333333, 12.4, 12.696428, 12.6875, 12.6875, 12.5625, 12.5, 12.4375, 12.5625, 12.5625, 12.4375, 12.375, 12.3125, 12.25, 12.3125, 12.3125, 12.3125, 12.1875, 12.196428, 12.4375, 12.3125, 12.4375, 12.3125, 12.053572, 11.8625, 11.919643, 11.9375, 12.1875, 12.071428, 12.4375, 12.5, 12.4375, 12.375, 12.401786, 12.693878, 12.877551, 13.400001, 14, -10, -10, -10, -10, -10, -10, -10, -10, -10, -10, -10, -10, 38, 38, 38, 38, 38, -10, -10, -10, -10, -10, -10, -10, -10, -10, -10, -10, -10, -10, -10, -10, -10, -10, -10, -10, -10, -10, -10, -10, -10, -10, -10, -10, -10, -10, -10, -10, -10, -10, -10, -10, -10, -10, -10, -10, -10, -10, -10, -10, -10, -10, -10, -10, -10, -10, -10, -10, -10, -10, -10, -10, -10, -10, -10, -10, -10, -10, -10, -10, -10, -10, -10, -10, -10, -10, -10, -10, -10, -10, -10, -10, -10, -10, 67.53125, 67.510414, 67.4375, 67.291664, 67.337502, 67.1875, 67.287498, 67.30555, -10, -10, -10, -10, -10, -10, -10, -10, -10, -10, -10, -10, -10, -10, -10, -10, -10, -10, -10, -10, -10, -10, -10, -10, -10, -10, -10, -10, -10, -10, -10, -10, -10, -10, -10, -10, -10, -10, -10, -10, -10, -10, -10, -10, -10, -10, -10, -10, -10, -10, -10, -10, -10, -10, -10, -10, -10, -10, -10, -10, -10, -10, -10, -10, -10, -10, -10, -10, -10, -10, -10, -10, -10, -10, -10, -10, -10, -10, -10, -10, -10, -10, -10, -10, -10, -10, -10, -10, -10, -10, -10, -10, -10, -10, -10, -10, -10, -10, -10, -10, -10, 97.595238, 97.083336, 96.190475, 95.392853, 94.830353, 94.3125, 93.660713, 92.184525, 91.5, 90.875, 90.375, 89.821426, 89.026779, 87.642853, 86.607147, 85.547615, 84.577377, 83.928574, 82.791672, 81.785713, 81, 79.64286, 78.898804, 77.824402, 76.738098, 75.279762, 74.642853, 74.142853, 73.369049, 72.357147, 71.73214, 71.232147, 70.099998, 69.045242, 68.145836, 67.434525, 67.008926, 66.336311, 65.476189, 64.821426, 64.175598, 63.458336, 62.583328, 61.523808, 60.946426, 60.4375, 59.672619, 58.583332, 57.380955, 56.511906, 55.416668, 55, 54.553574, 54.122025, 53.193451, 52.285713, 51.440475, 50.431549, 49.559525, 48.857143, 47.5, 46.848213, 45.925598, 45.267857, 44.517857, 43.702381, 43.035713, 41.375, 40.642857, 39.872025, 39.508926, 39.00893, 38.083332, 37.261906, 36.270832, 35.386906, 34.732143, 33.726192, 33.205357, 32.526787, 31.5, 30.261904, 29.55357, 28.9375, 28.258928, 27.172619, 26.214285, 25.276785, 24.571428, 24, 23.020834, 22.214285, 21.464285, 20.431549, 19.392857, 18.714285, 17.816666, 17.261904, 16.217262, 15.473215, 14.741072, 14.142857, 13.5625, 13.026785, 12.767857, 12.8125, 13.0625, 13.526786, 13.6875, 13.741072, 13.738096, 13.581633, 13.571428, 13.607142, 13.5625, 13.6875, 13.625, 13.4375, 13.330357, 13.333333, 13.030612, 13.5, 13.979592, 14.020408, 13.604167, 13.224489, 13.25, 13.5, 14.301021, 14.357142, 14.0625, 13.9375, 13.428572, 13.163264, 13.785714, 13.595238, 13.275, 13.724489, 13.642858, 13.75, 13.607142, 13.535714, 13.464286, 13.5, 13.571428, 13.535714, 13.3125, 13.3125, 13.223214, 13.142857, 13.142857, 13.0625, 12.9375, 12.946428, 13.285714, 13.25, 13.392858, 13.25, 13.132653, 12.914286, 12.979592, 12.964286, 13.142858, 13.458333, 13.428572, 13.375, 13.3125, 13.339286, 13.4375, 13.801021, 14.020409, 13.692857, 14.133334, -10, -10, -10, -10, -10, -10, -10, -10, -10, -10, -10, -10, 38, 38, 38, 38, 38.041668, -10, -10, -10, -10, -10, -10, -10, -10, -10, -10, -10, -10, -10, -10, -10, -10, -10, -10, -10, -10, -10, -10, -10, -10, -10, -10, -10, -10, -10, -10, -10, -10, -10, -10, -10, -10, -10, -10, -10, -10, -10, -10, -10, -10, -10, -10, -10, -10, -10, -10, -10, -10, -10, -10, -10, -10, -10, -10, -10, -10, -10, -10, -10, -10, -10, -10, -10, -10, -10, -10, -10, -10, -10, -10, -10, -10, -10, 67.5, 67.520828, 67.5625, 67.4375, 67.375, 67.34375, 67.34375, 67.385414, 67.583336, -10, -10, -10, -10, -10, -10, -10, -10, -10, -10, -10, -10, -10, -10, -10, -10, -10, -10, -10, -10, -10, -10, -10, -10, -10, -10, -10, -10, -10, -10, -10
-10, -10, -10, -10, -10, -10, -10, -10, -10, -10, -10, -10, -10, -10, -10, -10, -10, -10, -10, -10, -10, -10, -10, -10, -10, -10, -10, -10, -10, -10, -10, -10, -10, -10, -10, -10, -10, -10, -10, -10, -10, 97.708336, 97.083336, 96.190475, 95.392853, 94.767853, 94.1875, 93.517853, 92.476189, 91.630951, 91.071426, 90.5, 89.883926, 89.10714, 87.785713, 86.535721, 85.505951, 84.369049, 83.642853, 82.726189, 81.678574, 80.690475, 79.571426, 78.821426, 77.741074, 76.738098, 75.458328, 74.857147, 74.184525, 73.404762, 72.398811, 71.803574, 71.25, 70.099998, 69.191071, 68.288689, 67.622025, 67.151787, 66.273811, 65.511902, 64.928574, 64.300598, 63.601189, 62.625, 61.595238, 61.116074, 60.553574, 59.69643, 58.791664, 57.273811, 56.404762, 55.458336, 55.071426, 54.616074, 54.059525, 52.967262, 52.285713, 51.395832, 50.324406, 49.464287, 48.67857, 47.559525, 46.919643, 46.050598, 45.455357, 44.529762, 43.738098, 43.035713, 41.458332, 40.714287, 39.934525, 39.508926, 38.928574, 38.166664, 37.184525, 36.208332, 35.306545, 34.55357, 33.702381, 33.133926, 32.339287, 31.214285, 30.25, 29.55357, 28.964287, 27.946428, 26.958334, 26.080357, 25.330357, 24.67857, 24.0625, 23.029762, 22.214285, 21.464285, 20.431549, 19.321428, 18.535715, 17.792856, 17.261904, 16.279762, 15.651787, 14.973213, 14.455357, 14.0625, 13.892857, 13.863095, 13.958333, 14.1875, 14.3125, 14.3125, 14.3125, 14.3125, 14.25, 14.3125, 14.375, 14.5, 14.5625, 14.5625, 14.375, 14.330357, 14.666666, 14.863095, 15.166667, 15.158164, 15.214286, 15.083334, 15.255952, 15.333333, 15.541667, 15.37245, 15.125, 14.9375, 14.75, 15, 14.958333, 14.821428, 14.70238, 14.564285, 14.760203, 14.678572, 14.785714, 14.678572, 14.642858, 14.678572, 14.75, 14.724489, 14.321428, 14.238095, 14.416666, 14.459184, 14.341836, 14.270408, 13.955357, 13.761905, 13.857142, 13.964286, 14.080357, 14.1875, 13.973214, 13.830358, 13.957143, 13.767857, 14, 14.107142, 14.142858, 14.25, 14.285714, 14.178572, 14.280612, 14.448979, 14.428572, 14.285714, 14.071428, 13.933333, -10, -10, -10, -10, -10, -10, -10, -10, -10, -10, -10, -10, 38, 38, 38, 38, 38.041668, 38.375, 38.5, -10, -10, -10, -10, -10, -10, -10, -10, -10, -10, -10, -10, -10, -10, -10, -10, -10, -10, -10, -10, -10, -10, -10, -10, -10, -10, -10, -10, -10, -10, -10, -10, -10, -10, -10, -10, -10, -10, -10, -10, -10, -10, -10, -10, -10, -10, -10, -10, -10, -10, -10, -10, -10, -10, -10, -10, -10, -10, -10, -10, -10, -10, -10, -10, -10, -10, -10, -10, -10, -10, -10, -10, -10, -10, -10, 67.125, 67.333328, 67.544647, 67.625, 67.75, 67.71875, 67.65625, 67.59375, 67.833336, -10, -10, -10, -10, -10, -10, -10, -10, -10, -10, -10, -10, -10, -10, -10, -10, -10, -10, -10, -10, -10, -10, -10, -10, -10, -10, -10, -10, -10, -10, -10, -10, -10, -10, -10, -10, -10, -10, -10, -10, -10, -10, -10, -10, -10, -10, -10, -10, -10, -10, -10, -10, -10, -10, -10, -10, -10, -10, -10, -10, -10, -10, -10, -10, -10, -10, -10, -10, -10, -10, -10, -10, -10, -10, -10, -10, -10, -10, -10, -10, -10, -10, -10, -10, -10, -10, -10, -10, -10, -10, -10, -10, -10, -10, -10, -10, -10, -10, -10, -10, 97.785713, 97.233337, 96.166672, 95.428574, 94.767853, 94.125, 93.410713, 92.642853, 91.619049, 91.142853, 90.625, 90.125, 89.428574, 88.178574, 86.714294, 85.726189, 84.309525, 83.5, 82.785713, 81.75, 80.523811, 79.511902, 78.642853, 77.571426, 76.696426, 75.729164, 75.071426, 74.389877, 73.583336, 72.540474, 71.815475, 71.25, 70.004761, 69.119644, 68.288689, 67.729164, 67.33036, 66.523811, 65.761902, 65.1875, 64.705353, 63.738094, 62.696426, 61.595238, 61.1875, 60.598213, 59.589283, 58.833332, 57.125, 56.321426, 55.541668, 55.133926, 54.678574, 54.122025, 53.083336, 52.226189, 51.252975, 50.3125, 49.35714, 48.535713, 47.702381, 47.0625, 46.175598, 45.464283, 44.529762, 43.738098, 43.071426, 41.770832, 40.92857, 40.077381, 39.571426, 38.782738, 38.083332, 37.142857, 36.279762, 35.369045, 34.625, 33.744045, 33.0625, 32.267857, 31.172619, 30.285715, 29.607141, 28.880953, 27.883928, 26.949404, 26.080357, 25.330357, 24.607141, 23.883928, 23.089285, 22.285715, 21.526785, 20.440475, 19.25, 18.464287, 17.892857, 17.157738, 16.422619, 15.919643, 15.455357, 15.142857, 14.9375, 15.178572, 15.601192, 15.625, 15.428572, 15.270408, 14.96875, 14.9375, 14.9375, 15, 15.1875, 15.348214, 15.714286, 15.785714, 15.714286, 15.607142, 15.62755, 15.880952, 15.989797, 16.285715, 16.346939, 16.275511, 16.166666, 16.040815, 16.107143, 16.285715, 16.275511, 16.214285, 15.9375, 15.770833, 15.75, 15.738096, 15.739797, 15.619048, 15.585714, 15.508928, 15.642858, 15.5625, 15.836736, 15.857142, 15.928572, 15.928572, 15.795918, 14.928572, 15.020833, 15.208333, 15.530612, 15.413264, 15.205357, 15.306122, 15.777779, 15.89881, 15.892858, 15.059524, 15.008928, 14.785714, 14.839286, 14.946429, 14.683673, 14.785714, 14.821428, 14.857142, 15.15625, 15.125, 14.9375, 15.026786, 15.433673, 15.321428, 14.884354, 14.095238, 13.911111, -10, -10, -10, -10, -10, -10, -10, -10, -10, -10, -10, -10, 38, 38, 38, 38, 38.041668, 38.345238, 38.666668, -10, -10, -10, -10, -10, -10, -10, -10, -10, -10, -10, -10, -10, -10, -10, -10, -10, -10, -10, -10, -10, -10, -10, -10, -10, -10, -10, -10, -10, -10, -10, -10, -10, -10, -10, -10, -10, -10, -10, -10, -10, -10, -10, -10, -10, -10, -10, -10, -10, -10, -10, -10, -10, -10, -10, -10, -10, -10, -10, -10, -10, -10, -10, -10, -10, -10, -10, -10, -10, -10, -10, -10, -10, -10, -10, 67.166664, 67.583328, 67.648811, 67.776787, 68.044647, 68.084824, 68.21875, 68.15625, 68.1875, -10, -10, -10, -10, -10, -10, -10, -10, -10, -10, -10, -10, -10, -10, -10, -10, -10, -10, -10, -10, -10, -10, -10, -10, -10, -10, -10, -10, -10, -10, -10
-10, -10, -10, -10, -10, -10, -10, -10, -10, -10, -10, -10, -10, -10, -10, -10, -10, -10, -10, -10, -10, -10, -10, -10, -10, -10, -10, -10, -10, -10, -10, -10, -10, -10, -10, -10, -10, -10, -10, -10, -10, 98, 97.550003, 96.333336, 95.607147, 94.9375, 94.196426, 93.431549, 92.529762, 91.619049, 91.267853, 90.821426, 90.125, 89.357147, 88.053574, 86.714294, 85.797623, 84.238098, 83.39286, 82.660713, 81.833336, 80.357147, 79.535713, 78.60714, 77.571426, 76.732147, 76.041664, 75.285713, 74.535713, 73.416672, 72.290474, 71.35714, 70.821426, 69.967262, 69.419647, 68.663689, 68.086304, 67.58036, 66.657738, 65.916664, 65.330353, 64.79464, 63.488094, 62.410713, 61.449406, 61.080357, 60.535713, 59.571426, 58.833332, 57.125, 56.321426, 55.541668, 55.0625, 54.625, 54.205357, 52.928574, 52.047619, 51.294643, 50.455357, 49.598213, 48.726189, 47.660713, 47, 46.166668, 45.392853, 44.351189, 43.714287, 43.071426, 41.770832, 40.92857, 40.077381, 39.633926, 38.836311, 38, 37.017857, 36.154762, 35.535713, 34.830357, 33.934521, 33.020832, 32.205357, 31.017857, 30.214287, 29.589285, 28.880953, 27.883928, 26.949404, 26.151785, 25.508928, 24.630951, 23.883928, 22.943451, 22.214287, 21.446428, 20.297619, 19.392857, 18.607143, 18.017857, 17.229166, 16.714285, 16.375, 16.0625, 16.153061, 16.178572, 16.428572, 16.729593, 16.821428, 16.5, 16.020407, 15.875, 15.732142, 15.696428, 16.285715, 16.535715, 16.683674, 16.821428, 16.785715, 16.607143, 16.591837, 16.819729, 16.886904, 16.991072, 17.125, 17.321428, 17.285715, 17.0625, 17.0625, 17.125, 17.21875, 17.1875, 17.357143, 17.321428, 17.5, 17.5, 16.708334, 16.616072, 16.5, 16.4375, 16.5, 16.5, 16.785715, 16.908163, 16.857143, 16.928572, 17, 16.938776, 16.916666, 16.023809, 16.511904, 16.318453, 16.306122, 16.295918, 16.413265, 16.814627, 16.943878, 16.836735, 16.353741, 16.224489, 16.112246, 16.209185, 16.726191, 16.648809, 16.583334, 16.5, 16.416666, 16.285715, 16.1875, 16.0625, 16.151787, 16.316963, 16.383928, 16.503401, -10, -10, -10, -10, -10, -10, -10, -10, -10, -10, -10, -10, -10, 38, 38, 38, 38, 38.0625, 38.125, 38.321426, 38.6875, -10, -10, -10, -10, -10, -10, -10, -10, -10, -10, -10, -10, -10, -10, -10, -10, -10, -10, -10, -10, -10, -10, -10, -10, -10, -10, -10, -10, -10, -10, -10, -10, -10, -10, -10, -10, -10, -10, -10, -10, -10, -10, -10, -10, -10, -10, -10, -10, -10, -10, -10, -10, -10, -10, -10, -10, -10, -10, -10, -10, -10, -10, -10, -10, -10, -10, -10, -10, -10, -10, -10, -10, -10, -10, -10, -10, 67.666664, 67.711311, 67.901787, 68.169647, 68.34375, 68.65625, 68.53125, 68.568451, 69.041672, -10, -10, -10, -10, -10, -10, -10, -10, -10, -10, -10, -10, -10, -10, -10, -10, -10, -10, -10, -10, -10, -10, -10, -10, -10, -10, -10, -10, -10, -10, -10, -10, -10, -10, -10, -10, -10, -10, -10, -10, -10, -10, -10, -10, -10, -10, -10, -10, -10, -10, -10, -10, -10, -10, -10, -10, -10, -10, -10, -10, -10, -10, -10, -10, -10, -10, -10, -10, -10, -10, -10, -10, -10, -10, -10, -10, -10, -10, -10, -10, -10, -10, -10, -10, -10, -10, -10, -10, -10, -10, -10, -10, -10, -10, -10, -10, -10, -10, -10, 98.375, 97.675003, 96.553574, 95.857147, 95.1875, 94.446426, 93.452385, 92.565483, 91.619049, 91.267853, 90.767853, 89.75, 88.964279, 87.928574, 86.678574, 85.684525, 84.238098, 83.4375, 82.785713, 82.214287, 80.416672, 79.607147, 78.66964, 77.678574, 76.857147, 76.160713, 75.446426, 74.705353, 73.851189, 72.433334, 71.398811, 70.642853, 70.026787, 69.199409, 68.449409, 68.044647, 67.571426, 66.666664, 66.1875, 65.580353, 64.598213, 63.529762, 62.446426, 61.395832, 60.955357, 60.392857, 59.505951, 58.833332, 57.5, 56.75, 55.666668, 55.035713, 54.4375, 53.883926, 52.904766, 52.083332, 51.419643, 50.642857, 49.538689, 48.654758, 47.744045, 47.0625, 46.392857, 45.642853, 44.309525, 43.642857, 43, 41.729168, 40.92857, 40.223213, 39.705357, 38.907738, 38.0625, 36.94643, 36.267857, 35.571426, 34.788689, 33.726189, 32.886906, 32.026787, 30.946428, 30.205357, 29.589285, 28.943453, 27.955357, 26.991072, 26.1875, 25.508928, 24.630951, 23.883928, 22.714285, 21.928572, 21.089287, 20.214285, 19.410713, 18.714285, 18.205357, 17.75, 17.330357, 17.1875, 16.714285, 17.321428, 17.392857, 17.607143, 17.607143, 17.857143, 18.1875, 18.032738, 17.979166, 17.833334, 17.666666, 17.571428, 17.785715, 17.862246, 17.928572, 17.785715, 17.508928, 17.34898, 17.92687, 18.107143, 18.071428, 18.107143, 18.142857, 17.9375, 17.9375, 18, 18, 18.03125, 18.25, 18.285715, 18.321428, 18.321428, 18.357143, 17.952381, 17.846939, 17.785715, 17.714285, 17.714285, 17.714285, 17.785715, 17.979593, 18, 17.8125, 17.875, 17.969387, 17.785715, 17.930555, 17.751699, 17.282738, 17.133928, 17.0625, 17.438776, 17.494049, 17.607143, 17.729593, 17.353743, 17.534014, 17.47279, 17.384354, 17.525511, 17.448978, 17.464285, 17.464285, 17.357143, 17.321428, 17.285715, 17.214285, 17.285715, 17.357143, 17.469387, 16.933334, -10, -10, -10, -10, -10, -10, -10, -10, -10, -10, -10, -10, -10, -10, 38, 38, 38, 38, 38, 38.205357, 38.770832, 39.571426, 39.875, 40.267857, 40.666664, -10, -10, -10, -10, -10, -10, -10, -10, -10, -10, -10, -10, -10, -10, -10, -10, -10, -10, -10, -10, -10, -10, -10, -10, -10, -10, -10, -10, -10, -10, -10, -10, -10, -10, -10, -10, -10, -10, -10, -10, -10, -10, -10, -10, -10, -10, -10, -10, -10, -10, -10, -10, -10, -10, -10, -10, -10, -10, -10, -10, -10, -10, -10, -10, -10, -10, -10, -10, -10, -10, -10, -10, 67.75, 67.773811, 68.026787, 68.357147, 68.6875, 69.333336, 69.303574, 69.288689, 69.25, 69.033333, -10, -10, -10, -10, -10, -10, -10, -10, -10, -10, -10, -10, -10, -10, -10, -10, -10, -10, -10, -10, -10, -10, -10, -10, -10, -10, -10, -10, -10
-10, -10, -10, -10, -10, -10, -10, -10, -10, -10, -10, -10, -10, -10, -10, -10, -10, -10, -10, -10, -10, -10, -10, -10, -10, -10, -10, -10, -10, -10, -10, -10, -10, -10, -10, -10, -10, -10, -10, -10, 98.5, 98.09523, 97.300003, 96.491074, 95.928574, 95.223213, 94.258926, 93.238098, 92.315483, 91.59523, 91.196426, 90.616074, 89.229164, 88.428574, 87.464287, 86.607147, 85.559525, 84.404762, 83.413696, 82.821426, 82.214287, 80.416672, 79.607147, 78.767853, 78.10714, 77.083336, 76.26786, 75.410713, 74.752975, 73.601189, 72.457146, 71.470238, 70.666664, 70.026787, 69.053574, 68.377975, 67.982147, 67.616074, 66.979164, 66.473213, 65.830353, 64.73214, 63.333332, 62.446426, 61.092262, 60.535713, 59.964287, 59.214287, 58.6875, 57.71875, 57.026787, 55.863094, 55.178574, 54.5625, 53.717262, 52.916668, 52.083332, 51.419643, 50.642857, 49.538689, 48.726192, 47.851189, 47.125, 46.410713, 45.642853, 44.538689, 43.785713, 43.083332, 41.770832, 40.92857, 40.223213, 39.705357, 38.907738, 38.0625, 36.94643, 36.339287, 35.6875, 34.800594, 33.761902, 32.886906, 32.026787, 30.946428, 30.276785, 29.696428, 29.041666, 28.276787, 27.217262, 26.208332, 25.455357, 24.559523, 23.654762, 22.5, 21.75, 21.017857, 20.267857, 19.589285, 19.017857, 18.625, 18.321428, 18.438776, 18.357143, 18.440475, 18.321428, 18.321428, 18.556122, 18.790815, 18.839285, 19.053572, 18.946428, 18.946428, 18.857143, 18.714285, 18.75, 18.857143, 18.87755, 18.964285, 18.6875, 18.867346, 19.361904, 19.105442, 19.178572, 18.9375, 18.9375, 18.9375, 18.875, 18.6875, 18.928572, 18.928572, 18.946428, 19.107143, 18.9375, 19, 19.03125, 19.0625, 18.976192, 18.887756, 18.857143, 18.75, 18.678572, 18.607143, 18.571428, 18.544643, 18.785715, 18.785715, 18.821428, 18.714285, 18.642857, 18.678572, 18.596939, 18.369047, 18.158163, 17.830357, 17.955357, 18.035713, 18.1875, 18.232143, 18.050594, 18.564627, 18.630953, 18.354166, 18.366072, 18.3125, 18.3125, 18.3125, 18.3125, 18.34375, 18.071428, 18, 18.026785, 18.171875, 18.15, -10, -10, -10, -10, -10, -10, -10, -10, -10, -10, -10, -10, -10, -10, -10, 38, 38, 38, 38, 38.0625, 38.392857, 39.127975, 39.630951, 39.916668, 40.261906, 40.611111, 40.875, -10, -10, -10, -10, -10, -10, -10, -10, -10, -10, -10, -10, -10, -10, -10, -10, -10, -10, -10, -10, -10, -10, -10, -10, -10, -10, -10, -10, -10, -10, -10, -10, -10, -10, -10, -10, -10, -10, -10, -10, -10, -10, -10, -10, -10, -10, -10, -10, -10, -10, -10, -10, -10, -10, -10, -10, -10, -10, -10, -10, -10, -10, -10, -10, -10, -10, -10, -10, -10, -10, -10, 68, 67.888885, 68.035713, 68.309525, 68.75, 69.3125, 69.428574, 69.605354, 69.1875, 69.155556, -10, -10, -10, -10, -10, -10, -10, -10, -10, -10, -10, -10, -10, -10, -10, -10, -10, -10, -10, -10, -10, -10, -10, -10, -10, -10, -10, -10, -10, -10, -10, -10, -10, -10, -10, -10, -10, -10, -10, -10, -10, -10, -10, -10, -10, -10, -10, -10, -10, -10, -10, -10, -10, -10, -10, -10, -10, -10, -10, -10, -10, -10, -10, -10, -10, -10, -10, -10, -10, -10, -10, -10, -10, -10, -10, -10, -10, -10, -10, -10, -10, -10, -10, -10, -10, -10, -10, -10, -10, -10, -10, -10, -10, -10, -10, -10, -10, 97.699997, 97.647621, 97.066666, 96.407738, 95.875, 95.223213, 94.258926, 93.166672, 92.136909, 91.571426, 91.125, 90.5, 88.875, 88.10714, 87.142853, 86.357147, 85.446426, 84.571426, 83.431549, 82.89286, 82.214287, 80.654762, 79.708328, 79.017853, 78.392853, 77.166672, 76.3125, 75.48214, 74.860123, 73.434525, 72.535713, 71.636902, 70.800591, 70.3125, 69.34375, 68.596725, 68.075897, 67.508926, 66.955353, 66.464287, 65.830353, 64.696426, 63.166668, 62.23214, 61.133926, 60.598213, 60.035713, 59.226189, 58.741074, 58.072918, 57.45536, 56.07143, 55.285713, 54.508926, 53.547619, 52.738098, 52.0625, 51.383926, 50.714287, 49.717262, 48.82143, 47.958332, 47.1875, 46.419643, 45.642853, 44.610115, 43.892857, 43.154762, 41.666664, 40.92857, 40.330357, 39.848213, 38.907738, 38.098213, 37.217262, 36.589287, 35.666668, 34.622025, 33.696426, 32.886906, 32.017857, 31.059523, 30.276785, 29.660713, 29.125, 28.339287, 27.226191, 26.244047, 25.540178, 24.595238, 23.672619, 22.428572, 21.642857, 21.017857, 20.446428, 19.955357, 19.589287, 19.410713, 19.258928, 19.642857, 19.535715, 19.448978, 19.535715, 18.964285, 19.455357, 19.660713, 19.65625, 19.84375, 19.78125, 19.75, 19.59375, 19.40625, 19.34375, 19.4375, 19.5, 19.821428, 19.857143, 19.938776, 20.167347, 20.057821, 19.8125, 19.776787, 20.051022, 20.051022, 20.071428, 19.75, 19.8125, 19.607143, 19.642857, 19.785715, 19.785715, 20, 19.9375, 20, 19.875, 19.75, 19.580357, 19.571428, 19.3125, 19.3125, 19.3125, 19.4375, 19.5, 19.5, 19.5625, 19.5, 19.375, 19.375, 19.303572, 19.104166, 18.982143, 18.484694, 18.830357, 18.785713, 18.8125, 18.875, 18.946428, 19.333334, 19.458334, 19.65476, 19.352678, 19.5, 19.607143, 19.62245, 19.448978, 19.484694, 19.708334, 19.791666, 19.875, 19.158482, 18.775, -10, -10, -10, -10, -10, -10, -10, -10, -10, -10, -10, -10, -10, -10, -10, 38, 38, 38, 38.0625, 38.1875, 38.508926, 39.190475, 39.598213, 39.875, 40.196426, 40.520832, 40.75, 41, 41.071426, 40.900002, -10, -10, -10, -10, -10, -10, -10, -10, -10, -10, -10, -10, -10, -10, -10, -10, -10, -10, -10, -10, -10, -10, -10, -10, -10, -10, -10, -10, -10, -10, -10, -10, -10, -10, -10, -10, -10, -10, -10, -10, -10, -10, -10, -10, -10, -10, -10, -10, -10, -10, -10, -10, -10, -10, -10, -10, -10, -10, -10, -10, -10, -10, -10, -10, -10, -10, -10, -10, -10, -10, -10, -10, 68.821426, 69.25, 69.366074, 69.542854, 69.104164, 69.116669, -10, -10, -10, -10, -10, -10, -10, -10, -10, -10, -10, -10, -10, -10, -10, -10, -10, -10, -10, -10, -10, -10, -10, -10, -10, -10, -10, -10, -10
-10, -10, -10, -10, -10, -10, -10, -10, -10, -10, -10, -10, -10, -10, -10, -10, -10, -10, -10, -10, -10, -10, -10, -10, -10, -10, -10, -10, -10, -10, -10, -10, -10, -10, -10, -10, -10, -10, -10, -10, 98, 97.816666, 97.095238, 96.407738, 95.875, 95.223213, 94.258926, 93.154762, 92.25, 91.571426, 91, 90.241074, 88.767853, 88.10714, 87.309517, 86.5, 85.616074, 84.964279, 83.860123, 82.934525, 82.178574, 80.821426, 79.976189, 79.446426, 78.583336, 77.291672, 76.208336, 75.48214, 74.95536, 73.559525, 72.714287, 71.970238, 71.104164, 70.5, 69.260414, 68.638397, 68.040176, 67.279762, 66.714287, 66.392853, 65.875, 64.85714, 63.630951, 62.363094, 61.285713, 60.705357, 60.160713, 59.351189, 58.657742, 58.227676, 57.633934, 56.238094, 55.464287, 54.633926, 53.464287, 52.82143, 52.125, 51.330353, 50.607143, 49.654762, 48.809525, 48.041668, 47.366074, 46.428574, 45.75, 44.788689, 44.0625, 43.238094, 41.791664, 41.071426, 40.625, 40.10714, 38.854168, 38.145832, 37.217262, 36.526787, 35.559525, 34.559525, 33.675594, 33, 32.089287, 31.226191, 30.235119, 29.607141, 29.0625, 28.348215, 27.113096, 26.172619, 25.433035, 24.428572, 23.458332, 22.386906, 21.642857, 21.080357, 20.75, 20.4375, 20.276787, 20.5051, 20.474489, 20.678572, 20.571428, 20.520407, 20.571428, 20.791666, 20.663265, 20.897959, 20.566963, 20.549107, 20.415178, 20.28125, 20.25, 20.1875, 20.25, 20.375, 20.4375, 20.5625, 20.857143, 20.758928, 20.950001, 20.758928, 20.633928, 20.660715, 21.265306, 21.193878, 21.2449, 21.071428, 21.035715, 21.416666, 21.416666, 21.458334, 21.416666, 21.071428, 21.071428, 21.035715, 20.928572, 20.6875, 20.517857, 20.178572, 20.071428, 20.357143, 20.166666, 20.196428, 20.321428, 20.583334, 20.678572, 20.5625, 20.3125, 19.928572, 20.1875, 20.25, 20.433672, 20.428572, 20.091837, 19.666666, 19.5, 19.561224, 19.946428, 20.333334, 20.395834, 20.702379, 20.647959, 20.642857, 20.75, 20.729593, 20.267857, 20.448978, 20.392857, 20.392857, 20.464285, 20.198978, 19.608334, -10, -10, -10, -10, -10, -10, -10, -10, -10, -10, -10, -10, -10, -10, 38, 38, 38, 38, 38.125, 38.375, 38.732143, 39.377975, 39.741074, 40.044643, 40.321426, 40.625, 40.75, 41, 41.190475, 41.266666, -10, -10, -10, -10, -10, -10, -10, -10, -10, -10, -10, -10, -10, -10, -10, -10, -10, -10, -10, -10, -10, -10, -10, -10, -10, -10, -10, -10, -10, -10, -10, -10, -10, -10, -10, -10, -10, -10, -10, -10, -10, -10, -10, -10, -10, -10, -10, -10, -10, -10, -10, -10, -10, -10, -10, -10, -10, -10, -10, -10, -10, -10, -10, -10, -10, -10, -10, -10, -10, -10, -10, -10, 69, 69.25, 69.428574, 69.578568, 69.104164, 69.074997, 68.666672, -10, -10, -10, -10, -10, -10, -10, -10, -10, -10, -10, -10, -10, -10, -10, -10, -10, -10, -10, -10, -10, -10, -10, -10, -10, -10, -10, -10, -10, -10, -10, -10, -10, -10, -10, -10, -10, -10, -10, -10, -10, -10, -10, -10, -10, -10, -10, -10, -10, -10, -10, -10, -10, -10, -10, -10, -10, -10, -10, -10, -10, -10, -10, -10, -10, -10, -10, -10, -10, -10, -10, -10, -10, -10, -10, -10, -10, -10, -10, -10, -10, -10, -10, -10, -10, -10, -10, -10, -10, -10, -10, -10, -10, -10, -10, -10, 97.625, 97.566666, 97.148811, 96.395828, 95.875, 95.014877, 94.008926, 93.133926, 92.285713, 91.678574, 91.0625, 90.241074, 88.964279, 88.261902, 87.26786, 86.428574, 85.574402, 84.964279, 83.851189, 82.642853, 81.89286, 80.904762, 79.928574, 79.383926, 78.357147, 77.291672, 76.089287, 75.428574, 74.821426, 73.333336, 72.714287, 72.053574, 71.318451, 70.357147, 69.409225, 68.790176, 68.227676, 67.360123, 66.776787, 66.330353, 65.875, 65.35714, 64.095238, 62.494049, 61.428574, 60.705357, 60.178574, 59.458332, 58.574406, 58.102676, 57.336311, 56.238094, 55.553574, 54.821426, 53.559525, 52.928574, 52.1875, 51.348213, 50.607143, 49.738094, 48.880951, 47.958336, 47.303574, 46.410713, 45.75, 45.026787, 44.092262, 43.238094, 41.708332, 41, 40.5625, 39.880951, 38.604168, 37.958332, 37.145832, 36.517857, 35.630955, 34.726189, 33.94643, 33.154762, 32.154762, 31.226191, 30.235119, 29.607141, 29, 28.276785, 27.07143, 26.136906, 25.433035, 24.428572, 23.458332, 22.678572, 22.098213, 21.6875, 21.5625, 21.142857, 21.653063, 21.552721, 21.408163, 21.3125, 21.392857, 21.367346, 21.5, 21.535715, 21.581633, 21.806122, 21.683672, 21.330357, 21.196428, 21.0625, 21.0625, 21.125, 21.1875, 21.428572, 21.5, 21.4375, 21.625, 21.75, 21.8125, 21.75, 21.5625, 21.660715, 22.265306, 22.265306, 22.316328, 22.285715, 22.25, 22.392857, 22.464285, 22.5, 22.464285, 22.25, 22.107143, 21.841837, 21.642857, 21.5, 21.37755, 21.625, 21.75, 21.551022, 21.39966, 21.443878, 21.196428, 21.809525, 21.846939, 21.821428, 21.714285, 21.833334, 21.642857, 21.75, 21.734694, 21.581633, 21.510204, 21.708334, 21.875, 21.976191, 21.291666, 21.714285, 21.678572, 21.892857, 21.857143, 21.857143, 21.928572, 21.801022, 21.267857, 21.205357, 21.1875, 21.125, 21.171875, 21.002232, 20.77619, -10, -10, -10, -10, -10, -10, -10, -10, -10, -10, -10, -10, -10, -10, 37.916668, 37.958332, 37.96875, 37.9375, 38.089287, 38.553574, 38.982143, 39.544643, 39.9375, 40.232143, 40.5, 40.6875, 40.875, 41.1875, 41.392857, 41.512501, 42.375, 42.458336, -10, -10, -10, -10, -10, -10, -10, -10, -10, -10, -10, -10, -10, -10, -10, -10, -10, -10, -10, -10, -10, -10, -10, -10, -10, -10, -10, -10, -10, -10, -10, -10, -10, -10, -10, -10, -10, -10, -10, -10, -10, -10, -10, -10, -10, -10, -10, -10, -10, -10, -10, -10, -10, -10, -10, -10, -10, -10, -10, -10, -10, -10, -10, -10, -10, -10, -10, -10, -10, -10, 69.0625, 68.958328, 69.03125, 69.118752, 68.8125, 68.724998, 68.333336, -10, -10, -10, -10, -10, -10, -10, -10, -10, -10, -10, -10, -10, -10, -10, -10, -10, -10, -10, -10, -10, -10, -10, -10, -10, -10, -10, -10
-10, -10, -10, -10, -10, -10, -10, -10, -10, -10, -10, -10, -10, -10, -10, -10, -10, -10, -10, -10, -10, -10, -10, -10, -10, -10, -10, -10, -10, -10, -10, -10, -10, -10, -10, -10, -10, -10, -10, -10, 98, 97.900002, 97.452385, 96.499992, 95.875, 95.041664, 94.205353, 93.276779, 92.428566, 91.785706, 91.133926, 90.163689, 89.172623, 88.476189, 87.226189, 86.25, 85.324402, 84.785713, 83.910713, 82.464287, 81.75, 81, 79.916664, 79.321426, 78.241074, 77.279762, 76.125, 75.535713, 74.928574, 73.625, 73.035721, 72.267853, 71.651787, 70.440475, 69.742561, 69.075897, 68.299103, 67.351189, 66.714287, 66.3125, 65.875, 65.202377, 64.220238, 62.452381, 61.732143, 61.0625, 60.553574, 59.833332, 58.595242, 57.991074, 57.166672, 56.166664, 55.535713, 54.821426, 53.788692, 53.071426, 52.258926, 51.428574, 50.785713, 49.75, 48.916664, 47.958336, 47.366074, 46.517853, 45.666672, 44.964287, 43.9375, 43.154758, 41.812496, 41.071426, 40.508926, 39.773811, 38.541668, 38, 37.4375, 36.613098, 35.702381, 34.809525, 34.089287, 33.297619, 32.092262, 31.196428, 30.008928, 29.428572, 28.875, 28.276785, 26.94643, 26.178572, 25.424107, 24.392857, 23.625, 22.946428, 22.580357, 22.3125, 22.571428, 22.875, 22.673471, 22.264881, 21.964287, 21.955357, 22.083334, 22.178572, 22.375, 22.46875, 22.53125, 22.65625, 22.566963, 22.330357, 22.196428, 22.0625, 22.214285, 22.25, 22.357143, 22.464285, 22.693878, 22.5, 22.928572, 22.928572, 22.928572, 22.857143, 22.821428, 22.918367, 22.982143, 23.204082, 23.2449, 23.285715, 23.285715, 23.392857, 23.357143, 23.357143, 23.321428, 23.142857, 22.84375, 22.611607, 22.4375, 22.107143, 22.020407, 22.375, 22.821428, 22.765306, 22.471088, 22.479593, 22.438776, 22.880953, 22.989796, 23, 22.964285, 22.857143, 22.857143, 22.928572, 22.892857, 22.821428, 22.857143, 22.892857, 23, 23.051022, 23.041666, 22.857143, 22.75, 22.946428, 22.78125, 22.78125, 22.84375, 22.669643, 22.510204, 22.142857, 22.285715, 22, 22.0625, 22.080357, 22.119049, -10, -10, -10, -10, -10, -10, -10, -10, -10, -10, -10, -10, -10, -10, 37.875, 37.916664, 37.9375, 37.96875, 38.183037, 38.709824, 39.138393, 39.6875, 40.125, 40.419643, 40.75, 40.9375, 41.125, 41.4375, 41.705357, 41.887501, 42.5, 42.555557, 42.595238, -10, -10, -10, -10, -10, -10, -10, -10, -10, -10, -10, -10, -10, -10, -10, -10, -10, -10, -10, -10, -10, -10, -10, -10, -10, -10, -10, -10, -10, -10, -10, -10, -10, -10, -10, -10, -10, -10, -10, -10, -10, -10, -10, -10, -10, -10, -10, -10, -10, -10, -10, -10, -10, -10, -10, -10, -10, -10, -10, -10, -10, -10, -10, -10, -10, -10, -10, -10, -10, 69.1875, 69.091667, 68.924103, 68.861603, 68.6875, 68.5625, 68.5625, -10, -10, -10, -10, -10, -10, -10, -10, -10, -10, -10, -10, -10, -10, -10, -10, -10, -10, -10, -10, -10, -10, -10, -10, -10, -10, -10, -10, -10, -10, -10, -10, -10, -10, -10, -10, -10, -10, -10, -10, -10, -10, -10, -10, -10, -10, -10, -10, -10, -10, -10, -10, -10, -10, -10, -10, -10, -10, -10, -10, -10, -10, -10, -10, -10, -10, -10, -10, -10, -10, -10, -10, -10, -10, -10, -10, -10, -10, -10, -10, -10, -10, -10, -10, -10, -10, -10, -10, -10, -10, -10, -10, -10, -10, -10, -10, 98, 97.75, 97.464287, 96.562492, 96, 95.104164, 94.285706, 93.41964, 92.35714, 91.75, 91.071426, 90.154762, 89.285706, 88.476189, 87.154762, 86.321426, 85.288689, 84.785713, 83.885712, 82.25, 81.5, 80.595238, 79.779762, 79.1875, 78.1875, 77.446426, 76.184525, 75.601189, 74.678574, 73.720238, 73.14286, 72.410713, 71.839287, 70.5, 69.845238, 69.1875, 68.205353, 67.386902, 66.758926, 66.375, 65.9375, 65.238091, 64.386902, 62.666668, 61.773811, 61.071426, 60.5625, 60.1875, 58.952381, 57.970238, 57.059525, 56.145832, 55.571426, 55, 53.958336, 53.142857, 52.339287, 51.60714, 50.809525, 49.75, 49.0625, 48.029766, 47.446426, 46.696426, 45.761909, 45.071426, 43.854168, 43.154758, 42.032738, 41.083332, 40.36607, 39.523811, 38.625, 38.026787, 37.321426, 36.363098, 35.577381, 34.541668, 33.946426, 33.172619, 32.092262, 31.196428, 30.008928, 29.428572, 28.875, 28.047619, 26.803572, 26.071428, 25.330357, 24.428572, 23.910713, 23.5625, 23.544643, 23.62245, 23.547619, 23.581633, 23.37245, 22.943451, 22.632654, 22.591837, 23.145834, 23.241072, 23.535715, 23.535715, 23.607143, 23.714285, 23.770407, 23.724489, 23.683674, 23.642857, 23.535715, 23.5, 23.3125, 23.375, 23.765306, 24.041666, 23.928572, 23.928572, 23.928572, 23.857143, 23.857143, 23.897961, 23.875, 23.875, 23.901787, 23.9375, 23.9375, 23.9375, 23.8125, 23.75, 23.71875, 23.65625, 23.59375, 23.424107, 23.5, 23.75, 23.875, 23.875, 23.714285, 23.419643, 23.268709, 23.295918, 23.326532, 23.520834, 23.678572, 23.8125, 23.8125, 23.75, 23.8125, 23.875, 23.875, 24.071428, 24.142857, 24.25, 24.125, 24.0625, 24.081633, 24, 23.892857, 24, 24, 23.928572, 23.928572, 23.785715, 23.678572, 23.642857, 23.678572, 23.571428, 23.5, 23.535715, 23.428572, 24.375, 24.333332, -10, -10, -10, -10, -10, -10, -10, -10, -10, -10, -10, -10, 37.75, 37.833332, 37.875, 37.90625, 38.084824, 38.763393, 39.27232, 39.875, 40.583332, 40.910713, 41.25, 41.4375, 41.535713, 41.6875, 42.098213, 42.366074, 42.625, 42.666668, 42.813492, 43.464287, 43.799999, -10, -10, -10, -10, -10, -10, -10, -10, -10, -10, -10, -10, -10, -10, -10, -10, -10, -10, -10, -10, -10, -10, -10, -10, -10, -10, -10, -10, -10, -10, -10, -10, -10, -10, -10, -10, -10, -10, -10, -10, -10, -10, -10, -10, -10, -10, -10, -10, -10, -10, -10, -10, -10, -10, -10, -10, -10, -10, -10, -10, -10, -10, -10, -10, -10, -10, -10, 69.1875, 69.12738, 68.924103, 68.754463, 68.5625, 68.4375, 68.5625, 69.333336, -10, -10, -10, -10, -10, -10, -10, -10, -10, -10, -10, -10, -10, -10, -10, -10, -10, -10, -10, -10, -10, -10, -10, -10, -10, -10, -10
-10, -10, -10, -10, -10, -10, -10, -10, -10, -10, -10, -10, -10, -10, -10, -10, -10, -10, -10, -10, -10, -10, -10, -10, -10, -10, -10, -10, -10, -10, -10, -10, -10, -10, -10, -10, -10, -10, -10, -10, 97.625, 97.416664, 97.160713, 96.458328, 96, 95.104164, 94.297615, 93.306549, 92.285713, 91.732147, 91.071426, 90.217262, 89.392853, 88.309525, 87.095245, 86.214279, 85.226189, 84.476189, 83.528564, 82.166672, 81.327377, 80.532738, 79.654762, 79.008926, 78.247025, 77.571426, 76.309525, 75.708336, 74.75, 73.803566, 73.214287, 72.446426, 71.589287, 70.178574, 69.741074, 69.1875, 68.050591, 67.5, 66.875, 66.5, 66, 65.184517, 64.130951, 62.75, 61.726192, 61.071426, 60.5625, 60.1875, 58.952381, 57.898811, 56.943451, 56.133926, 55.464287, 54.892857, 54.041668, 53.205357, 52.348213, 51.60714, 50.809525, 49.75, 49.0625, 47.94643, 47.339287, 46.803574, 45.750004, 45.071426, 43.708336, 43.071426, 42.136902, 41.226189, 40.42857, 39.514881, 38.821426, 38.133926, 37.404762, 36.25893, 35.434525, 34.354168, 33.776787, 33.101189, 32.083336, 31.196428, 30.008928, 29.357143, 28.75, 27.797619, 26.738094, 26.0625, 25.375, 24.834822, 24.53125, 24.34375, 24.693878, 24.62245, 24.291666, 24.321428, 24.107143, 23.880951, 24.380951, 24.470238, 24.488096, 24.596939, 24.571428, 24.464285, 24.464285, 24.5, 24.642857, 24.785715, 24.857143, 24.857143, 24.642857, 24.535715, 24.5, 24.535715, 24.801022, 24.892857, 25, 24.75, 24.75, 24.6875, 24.857143, 24.857143, 24.553572, 24.4375, 24.4375, 24.4375, 24.5, 24.4375, 24.4375, 24.5, 24.418367, 24.428572, 24.625, 24.724489, 24.607143, 24.642857, 24.75, 24.632654, 24.2875, 24.270834, 23.985121, 24.030611, 24.035715, 24.544643, 24.392857, 24.734694, 24.75, 24.75, 24.928572, 24.8125, 25, 25, 25.142857, 25.285715, 25.321428, 25.142857, 24.946428, 24.8125, 24.75, 24.75, 24.964285, 24.6875, 24.75, 24.928572, 24.964285, 25, 25, 24.892857, 24.75, 24.714285, 24.619049, 24.916666, 24.888887, 25.5, 25.5, -10, -10, -10, -10, -10, -10, -10, -10, -10, -10, 37.666668, 37.833332, 37.875, 37.90625, 38.084824, 38.763393, 39.34375, 40, 40.833332, 41.116074, 41.5, 41.75, 41.973213, 42.125, 42.491074, 42.616074, 42.75, 42.8125, 42.985119, 43.559525, 43.950001, 44.416664, -10, -10, -10, -10, -10, -10, -10, -10, -10, -10, -10, -10, -10, -10, -10, -10, -10, -10, -10, -10, -10, -10, -10, -10, -10, -10, -10, -10, -10, -10, -10, -10, -10, -10, -10, -10, -10, -10, -10, -10, -10, -10, -10, -10, -10, -10, -10, -10, -10, -10, -10, -10, -10, -10, -10, -10, -10, -10, -10, -10, -10, -10, -10, -10, -10, 68.25, 69.044647, 69.06488, 68.924103, 68.691963, 68.5, 68.4375, 68.666664, 69.269844, -10, -10, -10, -10, -10, -10, -10, -10, -10, -10, -10, -10, -10, -10, -10, -10, -10, -10, -10, -10, -10, -10, -10, -10, -10, -10, -10, -10, -10, -10, -10, -10, -10, -10, -10, -10, -10, -10, -10, -10, -10, -10, -10, -10, -10, -10, -10, -10, -10, -10, -10, -10, -10, -10, -10, -10, -10, -10, -10, -10, -10, -10, -10, -10, -10, -10, -10, -10, -10, -10, -10, -10, -10, -10, -10, -10, -10, -10, -10, -10, -10, -10, -10, -10, -10, -10, -10, -10, -10, -10, -10, -10, -10, -10, -10, 97.5625, 97.291664, 97.013397, 96.434525, 96, 95.3125, 94.547615, 93.327385, 92.321426, 91.732147, 91.071426, 90.288689, 89.571426, 88.309525, 87.261902, 86.172623, 85.309525, 84.476189, 83.308334, 82.083336, 81.148811, 80.532738, 79.845238, 79.175591, 78.538696, 77.571426, 76.428574, 75.699409, 74.714287, 73.886902, 73.276787, 72.39286, 71.446426, 70.25, 69.776787, 69.25, 68.050591, 67.5, 66.875, 66.291664, 65.821426, 64.997017, 63.979164, 62.904762, 61.833336, 61.142857, 60.580357, 60.1875, 58.952381, 57.898811, 57.089287, 56.205353, 55.48214, 54.892857, 54.1875, 53.348213, 52.535713, 51.547615, 50.666668, 49.797619, 49.133926, 47.988094, 47.375, 46.803574, 45.750004, 44.833332, 43.678574, 43.071426, 42.366074, 41.440475, 40.67857, 39.910713, 39.142857, 38.330357, 37.488094, 36.154762, 35.291668, 34.166668, 33.607143, 33.017857, 32.1875, 31.279762, 29.904762, 29.214285, 28.625, 27.726191, 26.904762, 26.3125, 25.75, 25.379463, 25.21875, 25.392857, 25.586735, 25.479593, 24.979166, 24.946428, 24.8125, 25.137756, 25.510204, 25.617346, 25.797621, 25.780613, 25.4375, 25.34375, 25.34375, 25.34375, 25.46875, 25.625, 25.857143, 25.785715, 25.62755, 25.642857, 25.5, 25.566328, 25.607143, 25.794643, 25.875, 25.8125, 25.75, 25.821428, 25.625, 25.625, 25.428572, 25.1875, 25.1875, 25.125, 25.25, 25.035715, 25.035715, 25.142857, 26.041666, 26.011904, 25.785715, 25.785715, 25.642857, 25.5, 25.5625, 25.428572, 25.35, 25.395834, 24.809525, 26.017859, 26.083334, 25.979593, 25.306122, 25.408163, 25.416666, 25.392857, 25.642857, 25.714285, 25.857143, 25.857143, 26.035715, 26.214285, 26.285715, 26.306122, 26.188776, 26.061224, 25.761904, 25.517857, 25.5625, 25.5625, 25.6875, 25.964285, 26.142857, 26.285715, 26.285715, 26.142857, 25.928572, 25.785715, 25.714285, 25.607143, 25.595236, 25.916666, 26, 26.75, -10, -10, -10, -10, -10, -10, -10, -10, -10, -10, 37.875, 37.90625, 37.96875, 38.183037, 38.772324, 39.379463, 40, 40.958332, 41.241074, 41.6875, 41.875, 42.160713, 42.3125, 42.678574, 42.803574, 42.9375, 43.03125, 43.214287, 43.544643, 43.962502, 44.402775, 44.708336, -10, -10, -10, -10, -10, -10, -10, -10, -10, -10, -10, -10, -10, -10, -10, -10, -10, -10, -10, -10, -10, -10, -10, -10, -10, -10, -10, -10, -10, -10, -10, -10, -10, -10, -10, -10, -10, -10, -10, -10, -10, -10, -10, -10, -10, -10, -10, -10, -10, -10, -10, -10, -10, -10, -10, -10, -10, -10, -10, -10, -10, -10, -10, 67.625, 68, 68.638397, 68.773216, 68.75, 68.660713, 68.5625, 68.625, 68.9375, 69.139885, 69.166672, -10, -10, -10, -10, -10, -10, -10, -10, -10, -10, -10, -10, -10, -10, -10, -10, -10, -10, -10, -10, -10, -10, -10, -10, -10, -10
