35.4375, 35.1875, 34.75, 34.4375, 34, 33.5625, 33.3125, 33.0625, 32.75, 32.5, 32.25, 31.75, 31.5, 31.25, 30.9375, 30.6875, 30.4375, 30, 29.491072, 29.005953, 28.571428, 28.5, 28.5, 28.25, 27.986607, 27.549107, 27.09375, 26.90625, 26.875, 26.589285, 25.958332, 25.848213, 25.383926, 24.973213, 24.535715, 24.1875, 23.875, 23.75, 23.5625, 23.375, 23.3125, 22.875, 22.517857, 22.1875, 21.6875, 21.4375, 21.1875, 20.8125, 20.5625, 20.3125, 19.8125, 19.5, 19.25, 18.875, 18.625, 18.375, 18.125, 17.75, 17.5, 17.25, 17, 16.75, 16.4375, 16.089287, 15.625, 15.3125, 15.026786, 14.625, 14.375, 14.0625, 13.625, 13.3125, 12.821428, 12.375, 12.1875, 12, 11.75, 11.5625, 11.3125, 10.8125, 10.517857, 10.1875, 9.6875, 9.4375, 9.125, 8.875, 8.6875, 8.6875, 9, 9.4464283, 9.75, 10, 9.8125, 9.75, 9.8928566, 10.127976, 10.089286, 9.8303566, 9.625, 9.5, 9.4375, 9.5625, 9.6875, 9.75, 10, 10, 10, 9.9375, 9.90625, 9.90625, 9.90625, 10, 10.09375, 9.9464283, 9.6785717, 9.6071424, 9.625, 9.8125, 10, 10, 10, 10.0625, 10.035714, 9.9642859, 10, 9.9375, 9.8125, 9.8392859, 10.151786, 10.160715, 10.25, 10.125, 10, 10, 9.9375, 9.875, 9.875, 9.75, 9.75, 9.75, 9.9464283, 10.375, 10.5, 10.6875, 10.6875, 10.875, 11.205358, 11.4375, 11.625, 11.5625, 11.714286, 12.107143, 12.517859, 12.8125, 13.09375, 13.34375, 13.625, 13.861607, 14.03125, 14.0625, 13.90625, 13.897322, 13.84375, 13.875, 13.75, 12.476191, 9.083333, 7.8214283, 7.0625, 7.0625, 7, 7.125, 7.3125, 7.2946429, 7.0803571, 7.0089283, 7, 7.291667, 7.4508929, 7.7991071, 7.7098217, 7.75, 7.4285717, 7.1041665, 7.0803571, 6.9107141, 6.9017859, 6.9375, 6.8125, 6.9375, 6.9375, 6.9375, 7, 6.9375, 6.9375, 6.75, 6.625, 6.5, 6.375, 6.5, 6.625, 6.6875, 6.75, 6.625, 6.375, 6.25, 6.0625, 5.9375, 5.9642859, 6.1696429, 6.3035717, 6.3125, 6.3125, 6.3125, 6.3125, 6.4166665, -10, -10, -10, -10, -10, -10, -10, -10, -10, -10, -10, -10, -10, -10, -10, -10, -10, -10, -10, -10, -10, -10, -10, -10, -10, -10, -10, -10, -10, -10, -10, -10, -10, 41.799999, -10, -10, -10, -10, -10, 44.208332, 44.09375, 44.107143, 44.4375, 44.5625, 44.875, 45.0625, 44.950893, 44.552082, 44.34375, 44.34375, 44.598213, 45.229168, 45.489799, 45.685711, 45.386906, 45.214287, 45, 9.333333, 8.958333, 8.9434528, 8.875, 9.0625, 9.1875, 9.375, 9.625, 9.75, 9.9375, 10, 9.9375, 9.875, 9.7678566, 9.8125, 9.8125, 9.8125, 9.875, 9.9375, 9.875, 10, 10.125, 10.1875, 10.25, 10.1875, 10, 10, 10, 9.8125, 9.7142859, 9.6875, 9.6875, 9.9375, 10.1875, 10.1875, 10.1875, 10.1875, 10.25, 10.4375, 10.625, 10.915178, 11.364583, 11.575893, 11.84375, 12, 12.1875, 12.285714, 12.214286, 12.1875, 12, -10, -10, -10, -10, -10, -10, -10, -10, -10, -10, -10, -10, -10, -10, -10, -10, -10, -10, -10, -10, -10, -10, -10, -10, -10, -10, -10, -10, -10, 42.208332, 42.033333, 42, 41.75, 41.5, 41.125, 40.6875, 40.4375, 40.125, 39.678574, 39.330357, 38.9375, 38.517857, 38.375, 38.098213, 37.964287, 37.928574, 37.517857, 37.1875, 36.693455, 36.383926, 36.125, 36, 35.625, 35.375, 35.0625, 34.625, 34.375, 33.875, 33.5, 33.25, 33, 32.8125, 32.5625, 32.3125, 31.8125, 31.5, 31.25, 30.875, 30.625, 30.375, 29.9375, 29.553572, 29.041666, 28.571428, 28.4375, 28.3125, 28.0625, 27.861607, 27.53125, 27.15625, 27.03125, 26.875, 26.544643, 25.934523, 25.830357, 25.383926, 24.973213, 24.535715, 24.1875, 23.875, 23.678572, 23.375, 23.25, 23.1875, 22.875, 22.517857, 22.25, 21.75, 21.5, 21.25, 20.8125, 20.5625, 20.3125, 19.8125, 19.5, 19.25, 18.8125, 18.5625, 18.3125, 18.0625, 17.75, 17.5, 17.25, 16.9375, 16.6875, 16.375, 16.026787, 15.625, 15.375, 15.0625, 14.625, 14.375, 13.9375, 13.5625, 13.25, 12.821428, 12.4375, 12.25, 12.0625, 11.8125, 11.625, 11.375, 10.9375, 10.580357, 10.3125, 9.8125, 9.5, 9.1875, 8.9375, 8.8125, 8.8125, 9.09375, 9.4330359, 9.71875, 9.96875, 9.8125, 9.75, 9.8303566, 10.002976, 9.9642859, 9.8125, 9.6875, 9.625, 9.625, 9.6875, 9.75, 9.8125, 10, 9.9285717, 9.666667, 9.5089283, 9.4776783, 9.739583, 9.8348217, 10, 10.15625, 10.008928, 9.6785717, 9.5446424, 9.5, 9.6875, 9.9375, 10, 10, 10.03125, 9.9732141, 9.8392859, 9.8928566, 10, 9.9375, 10.053572, 10.294643, 10.267857, 10.3125, 10.1875, 10.0625, 10.125, 10.1875, 10.25, 10.1875, 10.0625, 10, 9.9375, 10.196428, 10.625, 10.75, 10.9375, 10.875, 10.9375, 11.160714, 11.375, 11.5625, 11.6875, 11.9375, 12.285714, 12.589287, 12.705357, 12.9375, 13.1875, 13.575893, 13.75, 13.635417, 13.540178, 13.383928, 13.636905, 13.741072, 13.875, 13.75, 11.533333, 9, 7.75, 7, 7, 7.0625, 7.25, 7.5625, 7.7321429, 7.5386901, 7.2172623, 7.1071429, 7.416667, 7.6116071, 8.0133934, 8.0848217, 8.0446434, 7.5952377, 7.1755948, 7.1428571, 7.0357141, 7.0892859, 7.125, 6.9375, 7, 6.9375, 6.9375, 6.9375, 6.8125, 6.75, 6.625, 6.625, 6.625, 6.625, 6.75, 6.8125, 6.875, 6.9375, 6.8125, 6.625, 6.5, 6.25, 6.125, 6.0625, 6.125, 6.28125, 6.40625, 6.46875, 6.46875, 6.375, 6.333333, -10, -10, -10, -10, -10, -10, -10, -10, -10, -10, -10, -10, -10, -10, -10, -10, -10, -10, -10, -10, -10, -10, -10, -10, -10, -10, -10, -10, -10, -10, -10, -10, -10, 42.125, -10, -10, -10, 45, 44.916664, 44.34375, 44.21875, 44.232143, 44.5, 44.6875, 44.9375, 45.03125, 44.982143, 44.583332, 44.5, 44.46875, 44.607143, 44.875, 45.178574, 45.474998, 45.303574, 45.232143, 45.083332, 9.375, 9.166666, 9.0892859, 8.9375, 9.125, 9.25, 9.5, 9.6875, 9.6875, 9.8125, 9.75, 9.75, 9.8125, 9.75, 9.75, 9.8125, 9.8125, 9.875, 9.9375, 9.875, 9.875, 10.125, 10.1875, 10.25, 10.25, 10, 10, 10, 9.75, 9.6785717, 9.7232141, 9.75, 10.125, 10.25, 10.1875, 10.125, 9.9375, 10, 10.1875, 10.3125, 10.665178, 11.114583, 11.325893, 11.65625, 11.875, 12.1875, 12.285714, 12.214286, 12.1875, 11.916667, -10, -10, -10
35.375, 35, 34.5625, 34.3125, 33.875, 33.553574, 33.1875, 33, 32.8125, 32.625, 32.375, 31.875, 31.5, 31.1875, 30.75, 30.5, 30.25, 29.8125, 29.5, 29.125, 28.625, 28.4375, 28.1875, 27.875, 27.642857, 27.375, 27.0625, 26.9375, 26.75, 26.428572, 25.872023, 25.767857, 25.446426, 25.017857, 24.559523, 24.196428, 23.9375, 23.741072, 23.4375, 23.3125, 23.1875, 22.875, 22.517857, 22.1875, 21.6875, 21.4375, 21.1875, 20.8125, 20.5625, 20.3125, 19.875, 19.5625, 19.3125, 18.8125, 18.5, 18.25, 18, 17.75, 17.5, 17.25, 16.875, 16.625, 16.375, 16, 15.625, 15.375, 14.9375, 14.5625, 14.3125, 13.8125, 13.5, 13.25, 12.928572, 12.5625, 12.375, 12.125, 11.8125, 11.625, 11.375, 10.9375, 10.580357, 10.3125, 9.8125, 9.5, 9.1875, 8.9375, 8.875, 8.875, 9.15625, 9.5133934, 9.8169641, 10.03125, 9.875, 9.6875, 9.7053566, 9.708333, 9.7321434, 9.75, 9.625, 9.6875, 9.6875, 9.75, 9.8125, 9.875, 10, 9.9285717, 9.666667, 9.5089283, 9.4776783, 9.739583, 9.8348217, 10, 10.15625, 10.008928, 9.6785717, 9.4821424, 9.375, 9.5625, 9.8125, 9.9375, 10, 10.03125, 9.9107141, 9.7142859, 9.7857141, 9.9375, 9.875, 10.053572, 10.232143, 10.267857, 10.3125, 10.1875, 10.125, 10.25, 10.375, 10.4375, 10.3125, 10.1875, 10.0625, 10, 10.267857, 10.75, 10.875, 11.125, 11, 11, 11.1875, 11.4375, 11.625, 11.8125, 12, 12.223214, 12.464287, 12.580357, 12.8125, 13.125, 13.544643, 13.65625, 13.416667, 13.258928, 13.165178, 13.516369, 13.709822, 13.90625, 13.75, 12.476191, 9, 7.75, 7, 7.0625, 7.1875, 7.5, 7.875, 8.1696434, 8.0386906, 7.6369047, 7.4196429, 7.666667, 7.7366071, 8.2633934, 8.3973217, 8.3392859, 7.8452377, 7.4255948, 7.3928571, 7.3482141, 7.4017859, 7.4375, 7.25, 7.2857141, 7.0803571, 7.0089283, 7, 6.9375, 6.9375, 6.9375, 6.9375, 6.9375, 7, 7.0625, 7.1875, 7.25, 7.25, 7.208333, 6.6666665, 6.5833335, 6.3333335, 6.1666665, 6.0833335, 6.1666665, 6.78125, 6.90625, 7.03125, 6.989583, 6.3333335, 6.2222219, -10, -10, -10, -10, -10, -10, -10, -10, -10, -10, -10, -10, -10, -10, -10, -10, -10, -10, -10, -10, -10, -10, -10, -10, -10, -10, -10, -10, -10, -10, -10, -10, -10, 42.375, 43.142857, 44.083336, 44.714287, 45, 44.916664, 44.46875, 44.302082, 44.357143, 44.5625, 44.6875, 44.8125, 44.71875, 44.5625, 44.375, 44.428574, 44.635418, 44.75, 44.9375, 45, 45.125, 45.125, 45.125, 45.111111, 9.25, 9.166666, 9.125, 9, 9.1875, 9.3125, 9.5625, 9.6875, 9.625, 9.625, 9.5714283, 9.916667, 10.020833, 9.9553566, 9.9464283, 9.9375, 9.9375, 9.9375, 9.9375, 10, 10.125, 10.375, 10.375, 10.276786, 10.1875, 9.9375, 9.9375, 9.9375, 9.8125, 9.8392859, 9.9107141, 9.875, 10.0625, 10.0625, 9.9375, 9.9375, 9.8125, 9.875, 10.0625, 10.125, 10.383928, 10.619047, 11.044643, 11.4375, 11.75, 12.0625, 12.223214, 12.151786, 12.125, 11.916667, -10, -10, -10, -10, -10, -10, -10, -10, -10, -10, -10, -10, -10, -10, -10, -10, -10, -10, -10, -10, -10, -10, -10, -10, -10, -10, -10, -10, 42, 42.333332, 42.375, 42.3125, 42.0625, 41.535713, 41.0625, 40.5625, 40.3125, 39.9375, 39.678574, 39.1875, 38.541668, 38.160713, 38.0625, 37.910713, 37.901787, 37.803574, 37.38393, 36.916664, 36.363094, 36.133926, 35.9375, 35.875, 35.625, 35.375, 35, 34.5625, 34.3125, 33.9375, 33.616074, 33.25, 33.0625, 32.8125, 32.625, 32.375, 31.9375, 31.5625, 31.25, 30.75, 30.4375, 30.25, 29.848213, 29.517857, 29.133928, 28.625, 28.4375, 28.1875, 27.8125, 27.580357, 27.3125, 27, 26.875, 26.625, 26.241072, 25.622023, 25.517857, 25.321426, 24.92857, 24.452381, 24.142857, 23.9375, 23.803572, 23.4375, 23.25, 23, 22.6875, 22.4375, 22.125, 21.6875, 21.4375, 21.1875, 20.875, 20.625, 20.375, 20, 19.625, 19.375, 18.875, 18.5, 18.25, 18, 17.75, 17.5, 17.1875, 16.75, 16.5, 16.25, 15.9375, 15.625, 15.375, 14.875, 14.5, 14.25, 13.75, 13.5, 13.25, 13, 12.75, 12.5, 12.25, 11.8125, 11.625, 11.375, 10.9375, 10.580357, 10.3125, 9.875, 9.5625, 9.25, 9, 8.875, 8.875, 9.15625, 9.5133934, 9.8169641, 10.03125, 9.90625, 9.71875, 9.71875, 9.59375, 9.6607141, 9.6875, 9.625, 9.6875, 9.8125, 9.875, 9.9375, 10, 10, 9.9285717, 9.666667, 9.5089283, 9.4776783, 9.739583, 9.8348217, 9.96875, 10.0625, 9.9375, 9.75, 9.5892859, 9.5, 9.625, 9.8125, 9.9375, 10, 10.03125, 9.9107141, 9.7142859, 9.7857141, 9.9375, 9.875, 9.9910717, 10.107143, 10.142857, 10.1875, 10.125, 10.1875, 10.375, 10.5, 10.5625, 10.375, 10.1875, 10.0625, 10.03125, 10.299107, 10.78125, 10.90625, 11.125, 11, 11.0625, 11.3125, 11.5625, 11.8125, 11.9375, 12.089286, 12.321428, 12.388393, 12.564732, 12.71875, 13.09375, 13.482143, 13.515625, 13.166667, 12.946428, 12.915178, 13.364583, 13.647322, 13.90625, 13.535714, 11.888889, 8.9523811, 7.875, 7.4375, 7.3928571, 7.7232141, 7.9375, 8.3928566, 8.59375, 8.6949406, 8.2931547, 8.0758934, 8.0625, 8.0803576, 8.4821434, 8.7857141, 8.9142857, 8.4880953, 7.9863939, 8.0803576, 8.0982141, 8.0267859, 8, 7.8125, 7.7857141, 7.6428571, 7.5446429, 7.3214283, 7.1785717, 7.125, 7.1875, 7.3125, 7.4375, 7.541667, 7.1666665, 7.3333335, 7.3333335, 7.3333335, 7.3611107, -10, -10, -10, -10, -10, -10, 7.0416665, 7.2083335, 7.375, 7.5333328, -10, -10, -10, -10, -10, -10, -10, -10, -10, -10, -10, -10, -10, -10, -10, -10, -10, -10, -10, -10, 40, 39.916664, 39.875, 39.625, 39.5, -10, -10, -10, -10, -10, -10, -10, -10, 42.75, 42.875, 42.625, 43.190475, 44.055557, -10, -10, -10, 44.625, 44.302082, 44.440475, 44.625, 44.6875, 44.75, 44.53125, 44.34375, 44.28125, 44.397324, 44.666668, 44.8125, 45, 45.125, 45.25, 45.25, 45.1875, 9, 9.25, 9.166666, 9.125, 9, 9.125, 9.25, 9.4375, 9.5, 9.5, 9.5, 9.5089283, 9.916667, 10.020833, 10.017857, 10.008928, 10, 10, 9.9375, 9.9375, 10, 10.1875, 10.4375, 10.5, 10.464286, 10.3125, 10.0625, 10, 9.9375, 9.875, 9.9642859, 10.035714, 10, 10.0625, 9.9375, 9.8125, 9.8125, 9.75, 9.8839283, 10.1875, 10.1875, 10.375, 10.5, 10.6875, 11.125, 11.5, 11.875, 12.098214, 12.026786, 12.0625, 11.916667, -10, -10, -10
35.4375, 35.026787, 34.625, 34.4375, 34.1875, 33.803574, 33.330357, 33.125, 32.875, 32.6875, 32.4375, 32, 31.5625, 31.25, 30.8125, 30.5625, 30.375, 29.973213, 29.535713, 29.133928, 28.625, 28.375, 28.125, 27.75, 27.5625, 27.3125, 27, 26.8125, 26.5, 26.0625, 25.580357, 25.4375, 25.223213, 24.910713, 24.443453, 24.142857, 24, 23.928572, 23.5625, 23.375, 23.0625, 22.6875, 22.4375, 22.125, 21.6875, 21.4375, 21.1875, 20.875, 20.625, 20.375, 20, 19.625, 19.375, 18.875, 18.4375, 18.080357, 17.8125, 17.5625, 17.375, 17.0625, 16.625, 16.375, 16.125, 15.8125, 15.5625, 15.3125, 14.8125, 14.5, 14.25, 13.75, 13.5, 13.25, 12.9375, 12.6875, 12.4375, 12.1875, 11.8125, 11.5625, 11.3125, 10.9375, 10.625, 10.375, 10, 9.625, 9.375, 9.1875, 9.125, 9.2232141, 9.40625, 9.7008934, 9.8794641, 10.03125, 10.03125, 9.90625, 9.96875, 9.96875, 10.035714, 10.125, 10.125, 10.1875, 10.3125, 10.3125, 10.3125, 10.25, 10.125, 9.9910717, 9.666667, 9.5714283, 9.5714283, 9.833333, 9.9285717, 10, 10, 9.9375, 9.875, 9.8125, 9.8125, 9.8660717, 9.8125, 9.9375, 9.9375, 10.03125, 10, 9.9375, 10.035714, 10.25, 10.125, 10.151786, 10.0625, 10.035714, 10.0625, 10.0625, 10.1875, 10.375, 10.5, 10.625, 10.5, 10.375, 10.3125, 10.28125, 10.549107, 11.03125, 11.15625, 11.375, 11.1875, 11.1875, 11.375, 11.5625, 11.75, 11.875, 11.964286, 12.133928, 12.21875, 12.520088, 12.6875, 13.125, 13.450893, 13.466518, 13.229167, 12.883928, 12.852678, 13.239583, 13.566965, 13.84375, 13.642857, 11.555556, 9.5374155, 8.5, 8.3125, 8.875, 8.5357141, 8.6875, 9.0178566, 9.15625, 9.3735113, 9.3467264, 9.1130953, 9.208333, 9.0476189, 8.8928576, 9.3571434, 9.3517857, 8.9970236, 9.3809519, 8.8928576, 8.9285717, 8.75, 8.625, 8.5625, 8.4107141, 8.4489794, 8.4081631, 8.0089283, 7.6326532, 7.5357141, 7.5714288, 7.90625, 8, 8.125, -10, -10, -10, -10, -10, -10, -10, -10, -10, -10, -10, -10, -10, -10, -10, -10, -10, -10, -10, -10, -10, -10, -10, -10, -10, -10, -10, -10, -10, -10, -10, -10, -10, -10, 40, 40, 39.944443, 39.916668, 39.75, 39.666668, -10, -10, -10, -10, -10, -10, 42, 42.166664, 42.5, 42.67857, 42.958332, 43.25, 43.958336, -10, -10, -10, -10, 44.145832, 44.208332, 44.303574, 44.4375, 44.4375, 44.34375, 44.09375, 44.03125, 44.084824, 44.291668, 44.4375, 44.625, 44.8125, 45.0625, 45.125, 45.125, 45.111111, 9.125, 9.166666, 9.125, 9.0625, 9.125, 9.125, 9.25, 9.25, 9.3125, 9.375, 9.4464283, 9.916667, 10.020833, 10.017857, 10.008928, 10, 10, 10, 10.0625, 10.125, 10.25, 10.4375, 10.4375, 10.464286, 10.375, 10.125, 10.0625, 9.9375, 9.9375, 10.089286, 10.160714, 10.125, 10.1875, 10.0625, 10, 10.0625, 10, 10.133928, 10.4375, 10.4375, 10.5625, 10.625, 10.75, 11.133928, 11.625, 11.875, 12.0625, 11.9375, 11.9375, 11.833333, -10, -10, -10, -10, -10, -10, -10, -10, -10, -10, -10, -10, -10, -10, -10, -10, -10, -10, -10, -10, -10, -10, -10, -10, -10, -10, -10, -10, -10, 42.208332, 42.291668, 42.1875, 41.9375, 41.473213, 41, 40.625, 40.375, 39.875, 39.517857, 39.125, 38.416668, 38.267857, 38.044643, 37.705357, 37.633926, 37.3125, 36.991074, 36.604168, 36.258926, 36.125, 36.125, 36.125, 35.919643, 35.395832, 35.026787, 34.75, 34.625, 34.392857, 33.928574, 33.392857, 33.1875, 32.875, 32.75, 32.5625, 32.178574, 31.604166, 31.330357, 30.9375, 30.6875, 30.455357, 30.035713, 29.535713, 29.258928, 28.785713, 28.455357, 28.196428, 27.75, 27.5, 27.25, 26.9375, 26.6875, 26.4375, 26.0625, 25.616072, 25.229166, 25.080357, 24.892857, 24.497023, 24.267857, 24.0625, 24, 23.75, 23.5, 23.1875, 22.6875, 22.4375, 22.125, 21.6875, 21.4375, 21.1875, 20.9375, 20.6875, 20.4375, 20.0625, 19.625, 19.375, 18.9375, 18.5, 18.142857, 17.8125, 17.5, 17.3125, 17, 16.625, 16.375, 16.125, 15.8125, 15.5625, 15.3125, 14.8125, 14.5, 14.1875, 13.6875, 13.5, 13.25, 13, 12.8125, 12.5, 12.25, 11.8125, 11.5, 11.25, 10.875, 10.625, 10.375, 10.0625, 9.75, 9.625, 9.5625, 9.5625, 9.7232141, 9.875, 10.107143, 10.160714, 10.1875, 10.15625, 10.03125, 10.15625, 10.28125, 10.473214, 10.625, 10.625, 10.625, 10.625, 10.5625, 10.5625, 10.5, 10.3125, 10.1875, 10.0625, 10.071428, 10.2, 10.071428, 10.071428, 10, 10.0625, 10.125, 10.1875, 10.25, 10.428572, 10.241072, 10.125, 10.1875, 10.25, 10.4375, 10.4375, 10.4375, 10.455357, 10.5, 10.375, 10.3125, 10.125, 10, 10, 10, 10.125, 10.25, 10.25, 10.339286, 10.419643, 10.428572, 10.5, 10.53125, 10.790178, 11.15625, 11.34375, 11.5625, 11.375, 11.3125, 11.375, 11.4375, 11.5625, 11.5625, 11.526786, 11.669642, 12.052083, 12.555803, 12.8125, 13.1875, 13.40625, 13.484375, 13.5, 13.3125, 13.28125, 13.40625, 13.638393, 13.84375, 13.571428, 11.833334, 10.666666, 10.166667, 9.7857141, 9.8214283, 9.7551022, 9.7857141, 9.9846935, 9.78125, 10.040178, 10.596939, 10.9375, 11.125, 10.875, 10.400001, 10.316327, 10.218368, 10.163264, 10.142858, 9.9285717, 9.6607141, 9.4553566, 9.2589283, 9.1875, 9.1607141, 9.1428566, 9.3673468, 9.2602034, 9.3690481, 9.208333, 9, 8.78125, 8.8125, 8.875, -10, -10, -10, -10, -10, -10, -10, -10, -10, -10, -10, -10, -10, -10, -10, -10, -10, -10, -10, -10, -10, -10, -10, -10, -10, -10, -10, -10, -10, -10, -10, -10, -10, -10, 40, 40.083332, 40.083332, 40.125, 40.0625, 40.0625, -10, -10, -10, -10, 41.6875, 41.75, 41.916668, 42.111111, 42.375, 42.508926, 42.895832, 43.1875, 43.716667, -10, -10, -10, -10, 43.854164, 43.683334, 43.75, 43.821426, 44.083332, 44.080357, 43.84375, 43.78125, 43.772324, 44.041668, 44.25, 44.4375, 44.5625, 44.75, 44.8125, 44.8125, 44.777775, 9.2857141, 9.5, 9.4375, 9.375, 9.34375, 9.40625, 9.53125, 9.4464283, 9.6428576, 9.8839283, 9.7797623, 10.166667, 10.145833, 10.205357, 10.196428, 10.25, 10.285714, 10.276786, 10.375, 10.3125, 10.4375, 10.5, 10.5, 10.589286, 10.5, 10.3125, 10.1875, 10, 10.0625, 10.125, 10.125, 10.125, 10.1875, 10.25, 10.3125, 10.4375, 10.4375, 10.508928, 10.75, 10.75, 10.8125, 10.875, 11, 11.321428, 11.75, 11.875, 12, 11.875, 11.875, 11.833333, -10, -10, -10
35.270832, 35.026787, 34.875, 34.6875, 34.455357, 33.9375, 33.517857, 33.25, 32.875, 32.75, 32.5625, 32.178574, 31.622025, 31.392857, 31, 30.75, 30.517857, 30.098213, 29.598213, 29.383928, 28.973213, 28.580357, 28.321428, 27.875, 27.5625, 27.3125, 27, 26.6875, 26.4375, 26.0625, 25.678572, 25.229166, 25.017857, 24.848213, 24.517857, 24.321428, 24.125, 24, 23.75, 23.5, 23.1875, 22.6875, 22.5, 22.25, 21.875, 21.625, 21.3125, 21, 20.6875, 20.4375, 20, 19.5625, 19.3125, 18.9375, 18.5625, 18.205357, 17.875, 17.5, 17.3125, 16.9375, 16.5625, 16.3125, 16.0625, 15.875, 15.625, 15.375, 14.875, 14.5, 14.1875, 13.6875, 13.5, 13.25, 13, 12.875, 12.5625, 12.3125, 11.875, 11.5, 11.3125, 11.125, 11.035714, 10.875, 10.464286, 10.3125, 10.1875, 10.125, 10.321428, 10.57653, 10.642858, 10.607143, 10.5625, 10.5625, 10.71875, 10.535714, 10.90625, 11.09375, 11.160714, 11.1875, 11.1875, 11.125, 11.0625, 11, 11, 10.9375, 10.875, 10.571428, 10.464286, 10.510203, 10.657143, 10.474489, 10.474489, 10.392858, 10.464286, 10.642858, 10.75, 11.125, 11.125, 10.991072, 10.8125, 10.75, 10.75, 10.9375, 11, 11.0625, 11.0625, 11, 10.9375, 10.642858, 10.489797, 10.416667, 10.321428, 10.25, 10.375, 10.5, 10.321428, 10.459184, 10.732143, 10.741072, 10.8125, 10.84375, 11.09375, 11.34375, 11.59375, 11.75, 11.625, 11.5, 11.5, 11.5, 11.5, 11.5, 11.401786, 11.5625, 12.230655, 12.743303, 13, 13.25, 13.34375, 13.421875, 13.5, 13.4375, 13.4375, 13.5625, 13.732143, 13.875, 13.508928, 12.238096, 11.714286, 11.142858, 11.035714, 10.892858, 10.598214, 10.714286, 10.580357, 10.732142, 10.727678, 11.446428, 11.889285, 11.984694, 11.928572, 11.05, 11.265306, 10.679167, 10.642857, 10.625, 10.5625, 10.535714, 10.392857, 10.258928, 9.8928576, 9.8928576, 10.3125, 10.285714, 10.469388, 10.387755, 10.142858, 10, 9.8928576, 9.6875, 9.8125, -10, -10, -10, -10, -10, -10, -10, -10, -10, -10, -10, -10, -10, -10, -10, -10, -10, -10, -10, -10, -10, -10, -10, -10, -10, -10, -10, -10, -10, -10, -10, -10, -10, -10, 40, 40.333332, 40.375, 40.375, 40.375, 40.479168, 41.321426, 41.4375, 41.4375, 41.1875, 41.541668, 41.666668, 41.875, 42.083332, 42.125, 42.258926, 42.708332, 42.99107, 43.383335, -10, -10, -10, -10, 43.6875, 43.433334, 43.42857, 43.510201, 43.833332, 43.892857, 43.78125, 43.78125, 43.78125, 43.875, 44, 44.125, 44.3125, 44.5625, 44.6875, 44.6875, 44.75, 10.333333, 9.958333, 9.84375, 9.78125, 9.75, 9.78125, 9.90625, 10.458333, 10.75, 10.508928, 10.395833, 10.464286, 10.275511, 10.404761, 10.625, 10.75, 10.723214, 10.745536, 10.84375, 10.642857, 10.645833, 10.946428, 11.008928, 11.107142, 11.1875, 10.9375, 10.535714, 10.4375, 10.375, 10.3125, 10.3125, 10.375, 10.5625, 10.75, 10.875, 11, 11, 11.008928, 11.125, 11.0625, 11.0625, 11.125, 11.25, 11.508928, 11.875, 11.9375, 12, 11.875, 11.875, 11.833333, -10, -10, -10, -10, -10, -10, -10, -10, -10, -10, -10, -10, -10, -10, -10, -10, -10, -10, -10, -10, -10, -10, -10, -10, -10, -10, -10, -10, 42, 42, 42, 41.875, 41.553574, 41.151787, 40.8125, 40.5, 40.375, 39.875, 39.455357, 39.080357, 38.6875, 38.491074, 38.086311, 37.589287, 37.321426, 37.0625, 36.8125, 36.75, 36.491074, 36.1875, 36.053574, 35.642857, 35.523811, 35.145832, 34.964287, 34.875, 34.6875, 34.455357, 33.9375, 33.517857, 33.25, 32.875, 32.75, 32.5, 32.053574, 31.497025, 31.267857, 30.9375, 30.75, 30.455357, 30.0625, 29.642857, 29.4375, 29.098213, 28.705357, 28.446428, 28, 27.580357, 27.3125, 27.0625, 26.8125, 26.5625, 26.25, 25.866072, 25.354166, 25.080357, 24.875, 24.625, 24.4375, 24.25, 24.0625, 23.75, 23.5, 23.25, 22.8125, 22.625, 22.375, 21.9375, 21.625, 21.3125, 21, 20.6875, 20.4375, 19.9375, 19.5, 19.25, 18.9375, 18.625, 18.267857, 17.9375, 17.5, 17.3125, 16.9375, 16.5625, 16.3125, 16.0625, 15.875, 15.625, 15.375, 14.875, 14.5, 14.1875, 13.75, 13.5625, 13.3125, 13.0625, 12.9375, 12.625, 12.4375, 12.1875, 11.910714, 11.8125, 11.8125, 11.723214, 11.5625, 11.690475, 11.107142, 11.035714, 10.90625, 11.03125, 11.316964, 11.4375, 11.607143, 11.5, 11.4375, 11.75, 12, 11.75, 11.875, 11.875, 11.875, 11.875, 11.875, 11.8125, 11.8125, 11.607142, 11.535714, 11.75, 12.125, 12.125, 12.214286, 12.3, 12.047619, 11.964286, 12, 12.041667, 12.208333, 12.291667, 12.107142, 11.9375, 11.741072, 11.714286, 11.642858, 11.678572, 11.6875, 11.75, 11.8125, 11.8125, 11.75, 11.6875, 12, 11.809525, 11.041667, 10.946428, 10.875, 10.9375, 11.0625, 11.178572, 11.265306, 11.294643, 11.366072, 11.5, 11.5625, 11.8125, 11.973214, 12.089286, 12.25, 12.0625, 11.9375, 11.8125, 11.776786, 11.857143, 11.919643, 11.571428, 11.839286, 12.511905, 12.946428, 13.25, 13.4375, 13.5, 13.59375, 13.6875, 13.6875, 13.6875, 13.75, 13.857143, 13.9375, 13.723215, 12.895834, 12.482142, 12.214286, 11.8125, 11.6875, 11.625, 11.625, 11.321428, 11.607143, 11.488095, 11.979167, 12.533333, 12.625, 12.625, 12.05, 11.928572, 11.29762, 11.357142, 11.25, 11.357142, 11.547619, 11.698979, 11.581633, 11.666667, 11.583333, 11.392858, 11.285714, 11.392858, 11.428572, 11.321428, 11.214286, 10.78125, 10.6875, 10.770833, 12.125, 12.321428, 12.428572, 12.6, -10, -10, -10, -10, -10, -10, -10, -10, -10, -10, -10, -10, -10, -10, -10, -10, -10, -10, -10, -10, -10, -10, -10, -10, -10, -10, -10, -10, -10, -10, -10, 40.583332, 40.625, 40.625, 40.6875, 40.8125, 41.214283, 41.291668, 41.291668, 41.041668, 41.28125, 41.392857, 41.708332, 41.928574, 42, 42.071426, 42.520832, 42.752975, 43.17778, -10, -10, -10, 43.5, 43.604168, 43.224998, 43.3125, 43.383926, 43.520832, 43.642857, 43.65625, 43.59375, 43.71875, 43.84375, 43.9375, 44, 44.0625, 44.34375, 44.5, 44.625, 44.75, 10.714286, 10.458333, 10.34375, 10.28125, 10.25, 10.28125, 10.607142, 10.892858, 11.25, 11.489797, 11.345238, 11.151786, 11.601192, 11.652778, 11.428572, 11.571428, 11.348214, 11.308036, 11.40625, 11.330357, 11.156463, 11.696428, 11.696428, 12.333333, 11.875, 11.6875, 12.083333, 11.3125, 10.928572, 10.928572, 10.904761, 11.166667, 11.3125, 11.5, 11.8125, 11.734694, 11.785714, 11.714286, 11.571428, 11.5, 11.428572, 11.469388, 11.821428, 11.946428, 12.25, 12.25, 12.25, 12.125, 12.125, 12.083333, -10, -10, -10
35.145832, 34.9375, 34.8125, 34.5625, 34.205357, 33.75, 33.375, 33.125, 32.8125, 32.6875, 32.5, 32.053574, 31.497025, 31.267857, 30.875, 30.625, 30.330357, 29.9375, 29.625, 29.4375, 29.160713, 28.830357, 28.571428, 28.1875, 27.705357, 27.375, 27.125, 26.875, 26.625, 26.375, 25.991072, 25.416666, 25.205357, 25, 24.8125, 24.625, 24.375, 24.125, 23.75, 23.5, 23.25, 22.8125, 22.625, 22.375, 21.9375, 21.625, 21.3125, 21, 20.6875, 20.4375, 20, 19.5625, 19.3125, 19, 18.6875, 18.4375, 18.125, 17.6875, 17.4375, 17, 16.5625, 16.3125, 16.0625, 15.9375, 15.6875, 15.4375, 15, 14.5625, 14.25, 13.875, 13.625, 13.375, 13.1875, 13.0625, 12.8125, 12.75, 12.625, 12.410714, 12.607142, 12.714286, 12.719388, 12.642858, 12.413264, 12.071428, 11.71875, 11.84375, 12.03125, 12.316964, 12.642858, 12.836736, 12.75, 12.714286, 12.857142, 12.928572, 12.964286, 13, 12.6875, 12.625, 12.625, 12.625, 12.75, 12.785714, 13.041667, 13.041667, 12.892858, 12.928572, 13.035714, 13.183673, 13.236734, 12.802721, 12.704082, 12.714286, 12.821428, 13, 13.035714, 13.071428, 13.071428, 13, 12.392858, 12.5625, 12.5625, 12.625, 12.625, 12.625, 12.5, 12.571428, 12.535714, 12.5, 12.37245, 12.119048, 12.010203, 11.928572, 12, 12.071428, 12, 11.943878, 12.025511, 11.834822, 12, 12.357142, 12.607142, 12.598214, 12.651786, 12.75, 12.625, 12.625, 12.53125, 12.495536, 12.801021, 12.801021, 12.916667, 12.526786, 13.074405, 13.303572, 13.5, 13.5625, 13.625, 13.75, 13.875, 14, 14, 14, 14, 14, 13.866072, 13.479167, 13.258928, 12.9375, 12.75, 12.892858, 12.857142, 12.928572, 13.25, 13.015306, 12.333334, 12.54762, 13.283333, 13.25, 13.366072, 13.242857, 12.720239, 12.777779, 12.791667, 13, 13.208333, 13.148808, 12.867347, 12.82653, 12.714286, 12.75, 12.416667, 12.1875, 12.142857, 12.285714, 12.107142, 12.066327, 12.051021, 12.061225, 12.214286, 12.75, 12.880952, 12.952381, 13.066667, -10, -10, -10, -10, -10, -10, -10, -10, -10, -10, -10, -10, -10, -10, -10, -10, -10, -10, -10, -10, -10, -10, -10, -10, -10, -10, -10, -10, -10, -10, -10, 40.777775, 40.875, 40.875, 40.875, 41, 41.098213, 41.15625, 41.28125, 41.15625, 41.138393, 41.192856, 41.636902, 41.857143, 42, 42, 42.1875, 42.395832, -10, -10, -10, -10, 43.666668, 43.666668, 43.349998, 43.321426, 43.196426, 43.163689, 43.205357, 43.34375, 43.513393, 43.78125, 44.03125, 44.125, 44.125, 44.1875, 44.40625, 44.5625, 44.6875, 44.75, 11, 10.833333, 10.708333, 10.625, 10.583333, 10.708333, 10.875, 11.208333, 12.142858, 12.32313, 12.430554, 12.327381, 12.586736, 12.437075, 12.285714, 12.125, 12.098214, 11.933036, 11.96875, 12.163264, 12.59127, 12.795918, 12.867347, 13.035714, 12.964286, 12.857142, 12.964286, 12.714286, 12.833333, 12.958333, 12.736111, 12.404762, 12.464286, 12.571428, 12.892858, 13.214286, 13.333333, 13.291667, 13.166667, 13.208333, 13.25, 13.095238, 12.696428, 12.6875, 12.75, 12.75, 12.75, 12.6875, 12.714286, 12.8, -10, -10, -10, -10, -10, -10, -10, -10, -10, -10, -10, -10, -10, -10, -10, -10, -10, -10, -10, -10, -10, -10, -10, -10, -10, -10, -10, -10, 42, 42.125, 42.083332, 41.9375, 41.553574, 41.151787, 40.75, 40.375, 40.25, 39.8125, 39.4375, 39.044643, 38.75, 38.428574, 38.166668, 37.901787, 37.346428, 37.44643, 37.125, 37.125, 36.803574, 36.3125, 35.991074, 35.392857, 35.229168, 35.125, 34.875, 34.6875, 34.375, 34.0625, 33.6875, 33.375, 33.125, 32.8125, 32.625, 32.375, 31.875, 31.455357, 31.1875, 30.8125, 30.5625, 30.3125, 29.9375, 29.625, 29.375, 29.125, 28.9375, 28.678572, 28.166666, 27.651785, 27.3125, 27.1875, 27, 26.75, 26.455357, 26.125, 25.75, 25.5, 25.25, 25, 24.6875, 24.4375, 24.1875, 23.75, 23.5, 23.25, 22.8125, 22.625, 22.375, 21.9375, 21.625, 21.3125, 21, 20.6875, 20.4375, 20, 19.5625, 19.3125, 19, 18.6875, 18.4375, 18.1875, 17.75, 17.5, 17, 16.5, 16.25, 16, 15.9375, 15.6875, 15.4375, 15.0625, 14.6875, 14.4375, 14.1875, 13.90625, 13.65625, 13.53125, 13.40625, 13.3125, 13.375, 13.375, 13.612245, 13.683673, 13.62755, 13.357143, 13.28125, 13.174107, 13, 12.642858, 13.020833, 13.535714, 13.719388, 13.857142, 14.015306, 14.035714, 13.791667, 14.107142, 14.071428, 14.071428, 14.071428, 13.943878, 13.619048, 13.510203, 13.428572, 13.535714, 13.678572, 13.892858, 14.035714, 13.642858, 13.75, 14.125, 14.214286, 14.169643, 13.583334, 13.520408, 13.571428, 13.607142, 13.9375, 13.875, 13.8125, 14, 13.964286, 14.083333, 13.785714, 13.714286, 13.714286, 13.714286, 13.785714, 13.5625, 13.25, 13.285714, 13.285714, 13.193878, 12.935374, 12.842262, 12.976191, 13.086736, 12.991072, 12.75, 12.678572, 12.714286, 12.678572, 12.821428, 13.327381, 13.642858, 13.719388, 13.67347, 13.857142, 13.785714, 13.892858, 13.785714, 13.744898, 13.87245, 13.765306, 13.714286, 13.653061, 13.741072, 14, 14.107143, 14.0625, 14.0625, 14.0625, 14.1875, 14.25, 14.1875, 14.125, 14.0625, 14, 14, 14, 14.044643, 13.875, 13.964286, 13.928572, 13.928572, 14.035714, 14.142858, 14.12245, 14.027779, 14.111112, 14.209524, 14.204082, 14.428572, 14.285714, 13.738095, 13.809525, 13.714286, 13.857142, 14, 13.964286, 13.928572, 13.892858, 13.821428, 13.821428, 13.958333, 13.5, 13.205357, 13.1875, 12.785714, 12.744898, 13.301021, 13.346939, 13.464286, 13.607142, 13.683673, 13.602041, 13.425, 14.166666, -10, -10, -10, -10, -10, -10, -10, -10, -10, -10, -10, -10, -10, -10, -10, -10, -10, -10, -10, -10, -10, -10, -10, -10, -10, -10, -10, -10, -10, -10, -10, 41, 40.9375, 40.875, 40.9375, 40.973213, 41, 41.1875, 41.1875, 41.232143, 41.317856, 41.699402, 41.857143, 41.9375, 41.964287, 42.232143, 42.358334, -10, -10, -10, -10, 43.5625, 43.708336, 43.65625, 43.65625, 43.5625, 43.205357, 43.1875, 43.34375, 43.544643, 43.875, 44.09375, 44.125, 44.1875, 44.3125, 44.53125, 44.75, 44.875, 44.916668, -10, -10, -10, -10, -10, -10, -10, -10, 14.208333, 14.363095, 14.416667, 14.184525, 13.669643, 13.413691, 13.1875, 13.053572, 12.8125, 12.78125, 12.825893, 13.017857, 13.578232, 13.633928, 13.696428, 13.8125, 13.678572, 13.4875, 13.954082, 13.811225, 13.857142, 13.964286, 13.773809, 13.619048, 13.607142, 13.4375, 13.928572, 13.969388, 14, 13.964286, 13.857142, 13.964286, 14.071428, 13.903061, 13.867347, 13.75, 13.714286, 13.714286, 13.714286, 13.4375, 13.464286, 13.771429, -10, -10, -10
35.1875, 34.8125, 34.5625, 34.3125, 34, 33.6875, 33.375, 33.125, 32.875, 32.625, 32.3125, 31.767857, 31.375, 31.125, 30.8125, 30.5625, 30.3125, 29.9375, 29.6875, 29.5, 29.25, 29.0625, 28.696428, 28.104166, 27.589285, 27.25, 27.125, 27, 26.75, 26.455357, 26.125, 25.75, 25.5, 25.25, 25.0625, 24.75, 24.4375, 24.080357, 23.625, 23.375, 23.1875, 22.8125, 22.5625, 22.3125, 21.8125, 21.5, 21.1875, 20.875, 20.625, 20.375, 20, 19.5625, 19.3125, 19, 18.6875, 18.4375, 18.125, 17.6875, 17.4375, 17, 16.625, 16.375, 16.125, 16, 15.6875, 15.4375, 15.1875, 14.9375, 14.8125, 14.8125, 14.65625, 14.214286, 14.178572, 14.035714, 14.166667, 14.607142, 14.642858, 14.734694, 14.660714, 14.580357, 14.153061, 14, 14.111607, 14.392858, 14.6875, 14.895833, 14.803572, 14.844388, 14.928572, 14.989797, 15, 15.25, 15.035714, 15, 15, 15, 14.908164, 14.479167, 14.383928, 14.035714, 14.178572, 14.5, 14.6875, 14.8125, 15.25, 15.416667, 15.285714, 15.387755, 15.336736, 15.319444, 15.345238, 15.291667, 15.25, 14.964286, 14.75, 14.75, 14.875, 14.916667, 14.875, 15.035714, 14.892858, 14.785714, 14.714286, 14.785714, 14.785714, 15, 15.041667, 15, 14.958333, 14.863095, 14.020833, 13.979167, 14.107143, 14.209822, 14.6875, 14.604167, 14.645833, 14.6875, 14.958333, 15.154762, 14.6875, 14.723214, 14.836734, 14.928572, 14.821428, 14.928572, 14.857142, 14.80102, 14.638393, 14.513393, 14.5, 14.4375, 14.5625, 14.928572, 14.794643, 14.75, 14.75, 14.6875, 14.75, 14.8125, 14.75, 14.5, 14.464286, 14.392858, 14.5, 14.571428, 15.044643, 15.25, 15.132653, 14.79762, 14.79762, 14.7625, 14.830357, 14.919643, 14.880952, 14.95238, 14.833333, 14.857143, 15, 15.178572, 14.976191, 15.035714, 14.75, 14.875, 14.875, 14.6875, 14.5625, 14.5, 14.642858, 14.75, 14.785714, 14.607142, 14.484694, 14.357142, 14.416667, 14.434524, 14.336736, 14.418367, 14.5, 14.5, 14.285714, 14.214286, 14.25, 14.694444, -10, -10, -10, -10, -10, -10, -10, -10, -10, -10, -10, -10, -10, -10, -10, -10, -10, -10, -10, -10, -10, -10, -10, -10, -10, -10, -10, -10, -10, -10, -10, 41, 40.916668, 40.875, 40.875, 40.875, 40.9375, 41.1875, 41.25, 41.294643, 41.380356, 41.699402, 41.857143, 41.90625, 41.870537, 42.098213, 42.233334, -10, -10, -10, -10, 43.4375, 43.625, 43.65625, 43.59375, 43.5, 43.142857, 43.125, 43.34375, 43.607143, 43.9375, 44.09375, 44.1875, 44.3125, 44.5, 44.71875, 44.875, 45, 45, -10, -10, -10, -10, -10, -10, -10, -10, 14.964286, 15.108843, 15.178572, 14.964286, 14.785714, 14.448979, 14.214286, 14.061225, 13.8125, 13.779762, 13.851192, 14.392858, 14.357143, 14.375, 14.375, 14.4375, 14.491072, 14.460714, 14.741072, 14.678572, 14.625, 14.6875, 14.458333, 14.229167, 14.438775, 14.738096, 14.866072, 14.683673, 14.714286, 14.714286, 14.642858, 14.785714, 14.928572, 14.724489, 14.653061, 14.75, 14.666667, 14.666667, 14.964286, 14.821428, 14.780612, 14.819047, -10, -10, -10, -10, -10, -10, -10, -10, -10, -10, -10, -10, -10, -10, -10, -10, -10, -10, -10, -10, -10, -10, -10, -10, -10, -10, -10, -10, -10, 42.125, 42, 41.8125, 41.4375, 41.25, 40.875, 40.625, 40.4375, 40.1875, 39.866074, 39.443455, 39.133926, 38.8125, 38.678574, 38.267857, 37.783928, 37.69643, 37.375, 37.25, 36.875, 36.5625, 36.3125, 35.875, 35.517857, 35.25, 34.8125, 34.625, 34.375, 34.0625, 33.75, 33.375, 33.125, 32.9375, 32.6875, 32.375, 31.785713, 31.375, 31.0625, 30.75, 30.5, 30.25, 29.9375, 29.6875, 29.5, 29.25, 29.0625, 28.696428, 28.166666, 27.758928, 27.375, 27.25, 27.0625, 26.75, 26.455357, 26.125, 25.8125, 25.5625, 25.3125, 25.125, 24.75, 24.375, 23.910713, 23.5, 23.25, 23.0625, 22.6875, 22.4375, 22.1875, 21.75, 21.5, 21.125, 20.75, 20.5, 20.25, 20, 19.625, 19.375, 19, 18.625, 18.375, 18.0625, 17.6875, 17.4375, 17.0625, 16.75, 16.5625, 16.375, 16.3125, 16.125, 15.9375, 15.8125, 15.625, 15.5, 15.75, 15.714286, 15.895833, 15.979167, 15.9375, 15.875, 15.75, 15.714286, 15.785714, 15.862245, 15.698979, 15.839286, 15.729167, 15.535714, 15.678572, 15.785714, 15.928572, 15.928572, 15.660714, 15.625, 15.625, 15.857142, 15.928572, 15.75, 15.8125, 15.8125, 15.8125, 15.732143, 15.690476, 15.653061, 15.916667, 15.934525, 15.571428, 15.714286, 15.714286, 15.857142, 16.020407, 16.273809, 16.367346, 16.346939, 16.238094, 16.295918, 16.357143, 16.392857, 15.958333, 15.875, 16.107143, 16.142857, 16.458334, 16.458334, 16.142857, 16.035715, 15.857142, 15.714286, 15.785714, 15.821428, 15.857142, 15.892858, 15.857142, 15.857142, 15.811225, 15.488095, 15.440476, 15.586736, 15.668367, 15.660714, 15.625, 15.625, 15.660714, 15.857142, 15.989797, 15.892858, 15.928572, 15.857142, 15.928572, 15.857142, 15.6875, 15.65625, 15.59375, 15.53125, 15.40625, 15.375, 15.375, 15.714286, 15.857142, 15.836736, 15.714286, 15.714286, 15.642858, 15.714286, 15.785714, 15.714286, 15.916667, 15.958333, 15.916667, 16.041666, 16.125, 16.158163, 16.178572, 16.096939, 15.541667, 15.541667, 15.6375, 15.642857, 15.875, 15.75, 15.875, 15.875, 15.8125, 15.9375, 15.875, 15.95238, 16, 15.892858, 15.821428, 15.75, 15.4375, 15.375, 15.5, 15.285714, 15.464286, 15.803572, 15.619047, 15.530611, 15.392858, 15.25, 15.265306, 15.346939, 15.178572, 15.3125, 15.107142, 15.035714, 15.035714, 15.3125, 15.270833, 16.75, 16.875, 17.041668, -10, -10, -10, -10, -10, -10, -10, -10, -10, -10, -10, -10, -10, -10, -10, -10, -10, -10, -10, -10, -10, -10, -10, -10, -10, -10, -10, -10, 40.916668, 40.791668, 40.75, 40.75, 40.8125, 40.9375, 41.1875, 41.3125, 41.419643, 41.549999, 41.741074, 41.866074, 41.90625, 41.808037, 42, 42.200001, -10, -10, -10, -10, 43.3125, 43.458332, 43.53125, 43.4375, 43.28125, 42.986607, 42.96875, 43.21875, 43.607143, 43.875, 44, 44.0625, 44.1875, 44.4375, 44.6875, 44.875, 45, 45, -10, -10, -10, -10, -10, -10, -10, -10, 16.142857, 16.166666, 16.160715, 15.875, 15.625, 15.173469, 15.166667, 15.204082, 15.071428, 15.392858, 15.363095, 15.285714, 15.224489, 15, 15, 15.0625, 15.178572, 15.312245, 15.596939, 15.668367, 15.4375, 15.4375, 15.178572, 14.854167, 14.925595, 15.583334, 15.836734, 16.125, 16.083334, 16.178572, 16.391666, 16.303572, 16.386904, 16.291666, 16.25, 16.208334, 16.166666, 16.166666, 15.964286, 15.857142, 15.882652, 15.841666, -10, -10, -10
35.1875, 34.875, 34.75, 34.5, 34.25, 33.875, 33.5, 33.25, 32.9375, 32.6875, 32.3125, 31.785713, 31.4375, 31.0625, 30.705357, 30.5, 30.25, 30, 29.705357, 29.5, 29.25, 29.0625, 28.696428, 28.166666, 27.821428, 27.4375, 27.3125, 27.1875, 26.848213, 26.473213, 26.196428, 25.9375, 25.6875, 25.4375, 25.125, 24.6875, 24.3125, 23.848213, 23.5, 23.3125, 23.107143, 22.642857, 22.383928, 22.125, 21.8125, 21.5625, 21.1875, 20.8125, 20.5, 20.25, 20, 19.625, 19.3125, 18.892857, 18.5625, 18.3125, 18.0625, 17.6875, 17.4375, 17.205357, 17.125, 17, 16.9375, 16.8125, 16.6875, 16.5625, 16.75, 16.714285, 16.678572, 16.821428, 16.803572, 16.767857, 16.875, 16.875, 16.821428, 16.857143, 16.785715, 16.625, 16.660713, 16.795918, 16.683674, 16.589285, 16.625, 16.75, 16.892857, 16.78125, 16.71875, 16.5625, 16.5, 16.5625, 16.660713, 16.75, 16.75, 16.6875, 16.6875, 16.75, 16.732143, 16.809525, 16.82653, 16.785715, 16.801022, 16.642857, 16.714285, 16.5625, 16.5, 16.698978, 17.145834, 17.133928, 17.0625, 17.0625, 17.1875, 17.5, 17.607143, 17.708334, 17.666666, 17.285715, 17.285715, 17.357143, 17.357143, 17.357143, 17.285715, 17.142857, 16.666666, 16.75, 16.8125, 16.875, 16.9375, 16.928572, 16.666666, 16.5, 16.476191, 16.523809, 16.704082, 16.852041, 16.75, 16.678572, 16.40625, 16.4375, 16.625, 16.741072, 16.928572, 16.928572, 16.857143, 16.625, 16.5, 16.4375, 16.375, 16.571428, 16.642857, 16.678572, 16.678572, 16.678572, 16.714285, 16.625, 16.669643, 16.857143, 16.857143, 16.821428, 16.785715, 16.857143, 16.892857, 16.928572, 16.964285, 16.857143, 16.821428, 16.92347, 16.892857, 16.9375, 16.928572, 16.541668, 16.541668, 16.450001, 16.330357, 16.698978, 16.714285, 16.857143, 16.928572, 16.785715, 16.821428, 16.625, 16.6875, 16.75, 16.625, 16.5, 16.4375, 16.3125, 16.3125, 16.642857, 17, 17.291666, 17.326532, 16.394558, 16.258503, 16.383928, 16.25, 16.1875, 16.125, 16.125, 16.1875, 16.791666, 16.916666, 16.892859, 16.476191, 16.343536, 16.916666, 17.083334, 17.361113, 18.125, -10, -10, -10, -10, -10, -10, -10, -10, -10, -10, -10, -10, -10, -10, -10, -10, -10, -10, -10, -10, -10, -10, -10, -10, -10, -10, 40.75, 40.75, 40.604168, 40.625, 40.75, 40.910713, 41.0625, 41.1875, 41.1875, 41.3125, 41.4375, 41.5, 41.6875, 41.763393, 41.745537, 42.0625, 42.283333, -10, -10, -10, -10, 43.0625, 43.10833, 43.081249, 43.107143, 42.96875, 42.96875, 42.96875, 43.28125, 43.59375, 43.78125, 43.84375, 43.90625, 44.0625, 44.375, 44.6875, 44.875, 45, 45, -10, -10, -10, -10, -10, -10, -10, -10, 17.75, 18.333334, 18.236113, 18, 17.666666, 17.315475, 17.125, 16.244047, 16.428572, 16.562925, 16.146259, 16.142857, 15.87755, 15.991072, 15.875, 16, 16.116072, 16.355103, 16.303572, 16.530613, 16.3125, 16.5, 16.241072, 15.639457, 15.680272, 16.479168, 16.714285, 17.107143, 17.071428, 17.153061, 17.299999, 17.188776, 17.224489, 17.071428, 17, 16.928572, 16.857143, 16.785715, 16.75, 16.75, 16.903061, 17.142857, -10, -10, -10, -10, -10, -10, -10, -10, -10, -10, -10, -10, -10, -10, -10, -10, -10, -10, -10, -10, -10, -10, -10, -10, -10, -10, -10, -10, -10, 42, 41.916664, 41.6875, 41.375, 41.1875, 40.9375, 40.75, 40.5625, 40.3125, 39.928574, 39.604168, 39.241074, 38.830357, 38.5625, 38.125, 37.9375, 37.6875, 37.5625, 37.3125, 37.0625, 36.8125, 36.392857, 35.833332, 35.4375, 35.1875, 35, 34.8125, 34.5625, 34.3125, 33.875, 33.5, 33.25, 32.9375, 32.6875, 32.3125, 31.848213, 31.5, 31.125, 30.767857, 30.5625, 30.3125, 30.125, 29.830357, 29.5625, 29.3125, 29, 28.642857, 28.3125, 27.9375, 27.5625, 27.25, 26.9375, 26.5625, 26.267857, 26.008928, 25.8125, 25.5625, 25.3125, 25.0625, 24.6875, 24.3125, 23.848213, 23.5, 23.3125, 23.044643, 22.580357, 22.321428, 22.0625, 21.8125, 21.5625, 21.1875, 20.8125, 20.5625, 20.303572, 19.916666, 19.571428, 19.1875, 18.767857, 18.5, 18.25, 18.125, 17.9375, 17.75, 17.767857, 17.785713, 17.6875, 17.866072, 17.741072, 17.964285, 17.857143, 17.857143, 17.785715, 17.75, 17.821428, 17.625, 17.625, 17.75, 17.8125, 17.75, 17.75, 17.625, 17.5625, 17.625, 17.625, 17.5625, 17.5, 17.5, 17.625, 17.75, 17.8125, 17.5, 17.321428, 17.5, 17.714285, 17.683674, 17.714285, 17.785715, 17.785715, 17.857143, 17.928572, 18, 17.964285, 17.964285, 17.75, 17.732143, 17.785715, 17.785715, 17.714285, 17.916666, 18.053572, 18.09524, 17.919643, 17.9375, 18, 18.0625, 18.428572, 18.571428, 18.535715, 18.535715, 18.357143, 18.25, 18.0625, 18.0625, 18.25, 18.214285, 18.178572, 18.25, 18, 18, 17.928572, 17.928572, 17.918367, 17.416666, 17.321428, 17.178572, 17.321428, 17.5, 17.799107, 17.602678, 17.53125, 17.142857, 17.107143, 17.5, 17.5625, 17.6875, 17.6875, 17.6875, 17.625, 17.25, 17.25, 17.25, 17.321428, 17.666666, 18.035715, 18.035715, 17.954082, 17.714285, 17.714285, 17.714285, 17.857143, 17.857143, 17.857143, 17.714285, 17.75, 17.821428, 17.857143, 17.8125, 17.75, 17.6875, 17.714287, 17.785713, 17.8125, 17.803572, 17.738096, 17.666668, 17.262501, 17.142857, 17.330357, 17.678572, 17.857143, 17.928572, 17.785715, 17.785715, 17.714285, 17.5, 17.5625, 17.5625, 17.607143, 17.321428, 17.458334, 17.5, 17.928572, 18, 18.178572, 18.326532, 18.253967, 17.984125, 17.617346, 17.5, 17.428572, 17.357143, 17.428572, 17.25, 17.892857, 18, 17.943878, 17.761904, 17.081633, 17.321428, 17.464285, 17.895834, 18.5, 18.75, 18.833332, -10, -10, -10, -10, -10, -10, -10, -10, -10, -10, -10, -10, -10, -10, -10, -10, -10, -10, -10, -10, -10, -10, -10, -10, 40.5, 40.5, 40.354168, 40.446426, 40.833332, 41.017857, 41.125, 41.089287, 41, 41.0625, 41.1875, 41.3125, 41.5625, 41.763393, 41.78125, 41.955357, 42.102081, -10, -10, -10, -10, 43, 42.98333, 42.591667, 42.52232, 42.352676, 42.677082, 42.700893, 43.0625, 43.34375, 43.46875, 43.59375, 43.65625, 43.8125, 44.1875, 44.607143, 44.8125, 45, 45, -10, -10, -10, -10, -10, -10, -10, -10, -10, 18.866667, 18.733334, 18.928572, 18.547619, 18.234694, 18.035715, 17.916666, 17.607143, 17.461309, 18.138887, 18.041666, 17.511904, 17.096939, 17, 17.107143, 17.25, 17.160713, 17.25, 17.25, 17.392857, 17.5, 17.525511, 17.539682, 17.611111, 17.604168, 17.776787, 17.9375, 17.875, 17.946428, 18.137501, 18.008928, 18.008928, 17.8125, 17.625, 17.4375, 17.25, 17.205357, 17.447916, 17.602678, 17.852678, 18.40476, -10, -10, -10
35.1875, 35.0625, 34.875, 34.625, 34.375, 33.875, 33.5, 33.25, 32.875, 32.625, 32.3125, 31.955357, 31.625, 31.25, 30.892857, 30.625, 30.375, 30.1875, 29.830357, 29.5, 29.1875, 28.830357, 28.5625, 28.3125, 28.0625, 27.75, 27.428572, 26.916666, 26.50893, 26.205357, 25.946428, 25.75, 25.5, 25.25, 25.0625, 24.6875, 24.375, 24.017857, 23.625, 23.4375, 23.044643, 22.517857, 22.258928, 22, 21.8125, 21.5625, 21.25, 20.9375, 20.75, 20.482143, 19.979166, 19.633928, 19.25, 18.955357, 18.75, 18.625, 18.625, 18.5625, 18.4375, 18.770407, 18.897959, 18.857143, 19.132654, 18.989796, 19.035715, 18.964285, 18.964285, 18.6875, 18.785715, 18.785715, 18.714285, 18.642857, 18.714285, 18.857143, 18.857143, 18.928572, 18.857143, 18.714285, 18.714285, 18.785715, 18.714285, 18.642857, 18.464287, 18.678572, 18.821428, 18.964285, 19.166666, 19.041666, 18.75, 18.75, 18.719387, 18.75, 18.785715, 18.5625, 18.892857, 18.964285, 19.107143, 19.142857, 19.035715, 18.8125, 18.732143, 18.785715, 18.714285, 18.714285, 18.714285, 18.795918, 18.770834, 18.794643, 18.875, 19.214285, 19.357143, 19.25, 19.3125, 19.25, 19.1875, 19, 18.875, 18.875, 18.9375, 19.0625, 18.857143, 19.321428, 19.214285, 19.071428, 19, 19, 18.969387, 18.795918, 18.414965, 18.224489, 18.595238, 19.152779, 19.277779, 18.818027, 18.602041, 18.5, 18.708334, 18.791666, 18.714285, 18.714285, 18.785715, 18.785715, 18.857143, 18.928572, 19.25, 19.458334, 19.375, 19.333334, 19.333334, 19.071428, 19.142857, 19.061224, 18.785715, 18.785715, 18.5, 18.857143, 18.857143, 18.857143, 18.5625, 18.625, 18.464285, 18.464285, 19, 18.857143, 18.642857, 18.673471, 18.7551, 18.785715, 18.857143, 18.785715, 18.5, 18.3125, 18.1875, 18.205357, 18.375, 18.5, 18.625, 18.625, 18.6875, 18.928572, 18.357143, 18.321428, 18.785715, 18.801022, 19, 19.083334, 19.125, 18.964285, 19, 18.9375, 19.035715, 19.074829, 18.843536, 18.724489, 18.642857, 18.5, 18.428572, 18.5, 18.791666, 18.964285, 19.107143, 19.015306, 18.797619, 18.880953, 19, 19.083334, 18.75, 18.75, 19, 19.055555, 19.375, 19.5, -10, -10, -10, -10, -10, -10, -10, -10, -10, -10, -10, -10, -10, -10, -10, -10, -10, -10, -10, -10, -10, -10, 40.5, 40.416668, 40.375, 40.571426, 40.931549, 40.973213, 40.946426, 40.839287, 40.875, 40.973213, 41.0625, 41.25, 41.4375, 41.794643, 42.208332, 42.360119, 42.268749, 41.955357, 41.6875, 41.785713, 42.333336, 42.8125, 42.712502, 42.216667, 42.111607, 41.977676, 42.471725, 42.575893, 42.9375, 43.15625, 43.21875, 43.34375, 43.34375, 43.508926, 44.083332, 44.535713, 44.8125, 45, 45, -10, -10, -10, -10, -10, -10, -10, -10, -10, -10, -10, 19.458334, 19.260416, 19.017857, 19.035715, 18.75, 18.5, 18.440475, 18.690475, 18.642857, 18.357143, 18.204082, 18.214285, 18.357143, 18.464285, 18.464285, 18.428572, 18.080357, 18.0625, 18.125, 18.387756, 18.391157, 18.482992, 18.761906, 18.867346, 18.928572, 18.857143, 18.633928, 18.825001, 18.696428, 18.696428, 18.714285, 18.3125, 18.0625, 17.642857, 17.62755, 18.166666, 18.653061, 18.969387, 19.238096, -10, -10, -10, -10, -10, -10, -10, -10, -10, -10, -10, -10, -10, -10, -10, -10, -10, -10, -10, -10, -10, -10, -10, -10, -10, -10, -10, -10, -10, 42, 42, 41.875, 41.625, 41.375, 41.125, 40.8125, 40.625, 40.241074, 39.75, 39.6875, 39.276787, 38.663689, 38.20536, 37.875, 37.625, 37.5625, 37.5, 37.3125, 37.0625, 36.705357, 36.330357, 35.833332, 35.544643, 35.267857, 35.125, 34.8125, 34.5625, 34.3125, 33.8125, 33.5, 33.25, 32.8125, 32.5625, 32.3125, 32.0625, 31.75, 31.5, 31.125, 30.705357, 30.446428, 30.1875, 29.892857, 29.5625, 29.1875, 28.723213, 28.4375, 28.125, 27.875, 27.6875, 27.366072, 26.916666, 26.57143, 26.205357, 25.883928, 25.625, 25.4375, 25.160713, 24.892857, 24.571428, 24.25, 24, 23.625, 23.4375, 23.044643, 22.517857, 22.258928, 22, 21.8125, 21.5625, 21.3125, 21.0625, 20.9375, 20.794643, 20.354166, 20.071428, 19.5, 19.517857, 19.375, 19.428572, 19.5, 19.535715, 19.5, 19.795918, 19.897959, 19.857143, 20.096939, 19.989796, 20, 19.928572, 19.892857, 19.892857, 19.6875, 19.6875, 19.857143, 19.75, 19.75, 19.892857, 19.892857, 19.928572, 19.857143, 19.714285, 19.785715, 19.928572, 19.892857, 19.821428, 19.780613, 19.75, 19.625, 19.928572, 19.857143, 19.678572, 19.535715, 19.571428, 19.410713, 19.5, 19.5625, 19.714285, 19.857143, 19.964285, 20.107143, 20.178572, 20.035715, 19.928572, 19.857143, 19.785715, 19.5, 19.625, 19.6875, 19.535715, 19.875, 19.875, 20.178572, 20.321428, 20.5, 20.392857, 20.125, 20.0625, 20, 20, 19.928572, 19.75, 19.875, 19.973213, 20.416666, 20.0625, 19.9375, 19.8125, 19.8125, 19.875, 19.794643, 19.471428, 19.02721, 18.836735, 19.303572, 20.09524, 20.130953, 19.559525, 19.401787, 19.571428, 19.535715, 19.607143, 19.714285, 19.678572, 19.785715, 19.785715, 19.857143, 19.964285, 20.071428, 20.25, 20.178572, 20.142857, 20.142857, 19.8125, 20.178572, 20.168367, 20, 19.989796, 19.5, 19.5625, 19.4375, 19.5, 19.607143, 19.75, 20.208334, 20.291666, 20.142857, 20.107143, 19.625, 19.642859, 19.469387, 19.75, 19.75, 19.625, 19.5, 19.464285, 19.285715, 19.017857, 19.1875, 19.3125, 19.5, 19.785715, 19.857143, 19.928572, 20.125, 20.041666, 19.892857, 19.943878, 19.964285, 20.035715, 20, 20, 19.75, 19.875, 20.044643, 19.982143, 19.791666, 19.633928, 19.714285, 19.607143, 19.571428, 19.642857, 19.714285, 19.928572, 19.875, 19.767857, 19.809525, 19.850342, 19.617346, 19.653061, 19.375, 19.375, 19.4375, 19.541666, 19.916666, 20.083334, -10, -10, -10, -10, -10, -10, -10, -10, -10, -10, -10, -10, -10, -10, -10, -10, -10, -10, -10, -10, -10, -10, 40.333332, 40.5, 40.5, 40.633926, 41.020832, 41.071426, 40.946426, 40.901787, 40.875, 40.973213, 41, 41.1875, 41.4375, 41.973213, 42.479164, 42.4375, 42.29018, 42.017857, 41.875, 41.940475, 42.263889, 42.65625, 42.556252, 42.060417, 42.017857, 41.946426, 42.502975, 42.669643, 42.9375, 43.102676, 43.28125, 43.34375, 43.40625, 43.571426, 44.145832, 44.535713, 44.75, 44.84375, 44.791668, -10, -10, -10, -10, -10, -10, -10, -10, -10, -10, -10, -10, 20.047619, 19.952379, 19.785715, 19.5, 19.178572, 19.247023, 19.479166, 19.5, 19.383928, 19.272322, 19.535715, 19.642857, 19.714285, 19.714285, 19.642857, 19.336735, 18.791666, 18.767857, 18.9375, 19.24107, 19.339287, 19.5, 19.482143, 19.5, 19.4375, 19.455357, 19.660713, 19.625, 19.6875, 19.5, 19.25, 18.9375, 19.083334, 19.136904, 19.297619, 19.653061, 19.928572, 19.833334, -10, -10, -10
35.392857, 35.1875, 34.75, 34.5, 34.25, 33.75, 33.5, 33.25, 32.8125, 32.5625, 32.3125, 32.0625, 31.75, 31.5625, 31.232143, 30.705357, 30.383928, 30.0625, 29.8125, 29.5, 29.1875, 28.660713, 28.375, 28, 27.6875, 27.5625, 27.241072, 26.791666, 26.535715, 26.241072, 25.8125, 25.625, 25.357143, 24.952379, 24.714285, 24.446428, 24.1875, 23.9375, 23.5625, 23.3125, 22.875, 22.5, 22.25, 22, 21.75, 21.5, 21.25, 21.0625, 21.125, 21.169643, 20.854166, 20.897959, 20.958334, 20.714285, 20.642857, 20.607143, 20.714285, 20.75, 20.5, 20.8125, 20.785713, 20.928572, 20.803572, 20.803572, 20.875, 20.8125, 20.75, 20.928572, 20.857143, 20.857143, 20.857143, 20.714285, 20.4375, 20.580357, 20.6875, 20.6875, 20.75, 20.7551, 20.7449, 20.928572, 20.857143, 20.857143, 20.816328, 20.75, 20.625, 20.6875, 20.6875, 20.357143, 20.214285, 20.214285, 20.4375, 20.4375, 20.714285, 20.714285, 20.625, 20.964285, 20.875, 20.9375, 21.035715, 20.6875, 20.625, 20.5625, 20.5, 20.821428, 20.928572, 21.291666, 21.214285, 21.285715, 21.392857, 21.5, 21.642857, 21.428572, 21.285715, 21.285715, 21.214285, 21.163265, 21.117346, 20.928572, 21.142857, 21.2551, 21.285715, 21.178572, 20.75, 20.6875, 20.892857, 21, 20.908163, 20.292856, 20.809525, 20.761904, 20.922619, 20.833334, 20.770834, 20.434525, 20.339287, 20.4375, 20.5625, 20.392857, 20.5, 20.392857, 21, 20.928572, 20.75, 20.875, 20.9375, 21.125, 21, 21, 21, 20.9375, 21.125, 21.053572, 21.142857, 21.061224, 20.678572, 20.5, 20.142857, 20.25, 20.285715, 20.708334, 21.25, 21.321428, 21.285715, 21.214285, 21.25, 21.166666, 21.166666, 20.928572, 20.857143, 20.785715, 20.678572, 20.571428, 20.428572, 20.357143, 20.1875, 20.3125, 20.642857, 20.785715, 20.857143, 20.857143, 20.821428, 20.75, 20.785715, 20.669643, 20.75, 20.8125, 20.75, 20.75, 20.625, 20.821428, 20.857143, 20.857143, 20.928572, 20.928572, 20.928572, 20.857143, 20.583334, 20.428572, 20.75, 20.875, 20.9375, 20.848213, 20.8125, 20.770834, 20.401785, 20.383928, 20.25, 20.25, 20.25, 20.428572, 20.5, 20.642857, 21.625, 21.833332, -10, -10, -10, -10, -10, -10, -10, -10, -10, -10, -10, -10, -10, -10, -10, -10, -10, -10, -10, -10, -10, 40.666668, 40.6875, 40.758926, 41.047619, 41.071426, 40.883926, 40.901787, 40.875, 40.973213, 41.0625, 41.3125, 41.5625, 42.116074, 42.691666, 42.375, 42.278275, 42.013393, 41.870537, 41.986607, 42.197918, 42.53125, 42.53125, 42.166668, 42.098213, 42.133926, 42.627975, 42.794643, 42.96875, 43.071426, 43.3125, 43.375, 43.40625, 43.571426, 44.083332, 44.446426, 44.625, 44.65625, 44.541668, -10, -10, -10, -10, -10, -10, -10, -10, -10, -10, -10, -10, 21.416666, 21.805555, 21.555555, 21.25, 20.875, 20.205357, 20.1875, 20.25, 20.617346, 20.535715, 20.607143, 20.678572, 20.75, 20.739796, 20.521427, 20.397961, 19.506802, 19.556122, 19.714285, 20.020407, 20.214285, 20.4375, 20.25, 20.25, 20.1875, 20.267857, 20.473213, 20.375, 20.607143, 20.428572, 20.285715, 20.071428, 19.928572, 20.081633, 20.166666, 20.508928, 20.6875, 20.75, -10, -10, -10, -10, -10, -10, -10, -10, -10, -10, -10, -10, -10, -10, -10, -10, -10, -10, -10, -10, -10, -10, -10, -10, -10, -10, -10, -10, -10, 42.125, 42.049999, 41.830357, 41.571426, 41.3125, 41.0625, 40.75, 40.6875, 40.366074, 40, 39.892857, 39.544643, 39.074402, 38.425594, 38.071426, 37.8125, 37.6875, 37.5625, 37.375, 37.0625, 36.642857, 36.4375, 36.125, 35.75, 35.455357, 35.1875, 34.8125, 34.553574, 34.1875, 33.8125, 33.5, 33.3125, 32.8125, 32.5, 32.25, 32, 31.8125, 31.625, 31.232143, 30.598213, 30.258928, 29.875, 29.6875, 29.4375, 29.0625, 28.660713, 28.375, 28, 27.8125, 27.625, 27.366072, 27.041666, 26.758928, 26.428572, 25.9375, 25.625, 25.357143, 24.889879, 24.589285, 24.321428, 24.0625, 23.875, 23.5625, 23.3125, 22.9375, 22.625, 22.375, 22.1875, 22, 21.875, 21.535715, 21.392857, 21.6875, 21.741072, 21.928572, 21.892857, 21.928572, 21.964285, 21.964285, 22, 22, 21.928572, 22.208334, 22.0051, 21.806122, 21.508928, 21.4375, 21.75, 22.015306, 22.035715, 22.035715, 21.964285, 21.857143, 21.857143, 21.857143, 21.5, 21.4375, 21.580357, 21.75, 21.75, 22.035715, 21.826529, 21.526787, 21.6875, 21.625, 21.857143, 21.836735, 21.678572, 21.678572, 21.642857, 21.571428, 21.875, 21.833334, 21.875, 21.642857, 21.642857, 21.714285, 21.714285, 21.5625, 21.892857, 21.75, 21.8125, 21.8125, 21.6875, 21.625, 21.857143, 21.75, 21.964285, 22.178572, 22.321428, 22.428572, 22.464285, 22.5, 22.464285, 22.571428, 22.321428, 22.142857, 22.178572, 22.142857, 22.091837, 22.081633, 21.964285, 22.214285, 22.362244, 22.25, 22.125, 21.875, 21.964285, 21.928572, 21.964285, 21.887754, 21.538774, 21.693878, 21.653061, 21.683672, 21.520834, 21.395834, 21.229166, 21.303572, 21.714285, 21.821428, 22.041666, 22.166666, 22.083334, 21.964285, 21.964285, 21.964285, 22, 21.8125, 21.8125, 21.6875, 21.6875, 21.892857, 21.928572, 22.107143, 22.107143, 22.107143, 22.025511, 21.714285, 21.785715, 22.041666, 22.25, 22.458334, 22.541666, 22.392857, 22.392857, 22.285715, 22.178572, 22, 21.928572, 21.928572, 21.857143, 21.857143, 21.785715, 21.714285, 21.571428, 21.464285, 21.428572, 21.428572, 21.571428, 21.75, 21.6875, 21.8125, 21.571428, 21.535715, 21.464285, 21.464285, 21.6875, 21.928572, 21.857143, 21.714285, 21.785715, 21.5, 21.5625, 21.6875, 22, 22.071428, 22.071428, 22, 21.892857, 22.125, 22.125, 21.892857, 21.928572, 22, 21.969387, 21.928572, 21.880953, 21.276785, 21.010204, 20.964285, 21.291666, 21.642857, 21.571428, 21.3125, 21.4375, 22.083334, 22.222221, 22.5, -10, -10, -10, -10, -10, -10, -10, -10, -10, -10, -10, -10, -10, -10, -10, -10, -10, -10, -10, -10, 40.916668, 40.9375, 40.875, 40.928574, 41.071426, 40.92857, 41.0625, 41, 41.035713, 41.0625, 41.25, 41.508926, 42.261902, 42.870239, 42.625, 42.559525, 42.285713, 42.026787, 42.09375, 41.96875, 42.34375, 42.34375, 42.375, 42.464287, 42.5, 42.794643, 42.9375, 42.96875, 43.008926, 43.267857, 43.458332, 43.584824, 43.830357, 44.395832, 44.526787, 44.580357, 44.5, 44.338543, 44.125, -10, -10, -10, -10, -10, -10, -10, -10, -10, -10, -10, -10, 22.266666, 22.297619, 22.071428, 21.821428, 21.556122, 21.535715, 21.607143, 21.724489, 21.642857, 21.607143, 21.375, 21.375, 21.397322, 21.268749, 21.459183, 21.390871, 21.511904, 21.625, 21.779762, 21.75, 21.392857, 21, 21, 21.0625, 21.413265, 21.576529, 21.25, 21.3125, 21.1875, 21.1875, 21.0625, 21, 21.0625, 21.392857, 21.642857, 21.714285, 21.657145, -10, -10, -10
35.455357, 35.1875, 34.875, 34.678574, 34.3125, 33.9375, 33.517857, 33.3125, 32.8125, 32.5, 32.3125, 32, 31.583334, 31.428572, 30.982143, 30.473213, 30.196428, 29.741072, 29.487499, 29.428572, 29.107143, 28.892857, 28.5625, 28.125, 27.875, 27.5625, 27.3125, 27.125, 26.875, 26.535715, 25.892857, 25.571428, 25.294643, 24.889879, 24.526785, 24.258928, 24, 23.8125, 23.5625, 23.375, 23.125, 22.9375, 22.8125, 22.75, 22.625, 22.625, 23.083334, 23.041666, 22.928572, 22.5, 22.642857, 22.642857, 23, 23.25, 23.285715, 23.321428, 23.321428, 23.25, 23.321428, 23.2551, 22.448978, 22.295918, 22.214285, 22.392857, 23.12245, 23.071428, 23, 22.892857, 22.625, 22.625, 22.696428, 22.700001, 22.806122, 22.948978, 23, 23, 23.071428, 22.897959, 22.589287, 22.75, 22.625, 22.6875, 22.6875, 22.5, 22.5625, 22.5625, 22.541666, 22.964285, 22.857143, 22.821428, 22.714285, 22.678572, 22.714285, 22.714285, 22.714285, 22.625, 22.625, 22.625, 22.892857, 22.785715, 22.785715, 22.857143, 22.785715, 22.964285, 23.142857, 23.321428, 23.464285, 23.464285, 23.464285, 23.125, 23.125, 22.9375, 22.8125, 22.875, 22.8125, 22.794643, 22.928572, 23.132654, 23.392857, 23.520407, 23.535715, 23.464285, 23.214285, 23.071428, 22.964285, 22.6875, 22.633928, 22.657145, 22.571428, 22.571428, 22.625, 22.53125, 22.40625, 22.46875, 22.719387, 22.857143, 22.964285, 22.892857, 22.892857, 22.821428, 22.928572, 23.051022, 23.071428, 23.142857, 23, 22.857143, 22.785715, 22.857143, 22.928572, 23, 22.9375, 22.9375, 23, 22.928572, 22.857143, 22.892857, 22.892857, 23.071428, 23.214285, 23.25, 23.25, 23.214285, 23, 23, 22.875, 22.75, 22.651787, 22.5625, 22.5625, 22.625, 22.857143, 22.75, 22.458334, 22.458334, 22.458334, 22.625, 23, 23, 23, 23.208334, 23.166666, 23.166666, 23.208334, 22.892857, 22.892857, 22.892857, 22.857143, 22.75, 22.428572, 22.5, 22.875, 23.071428, 23.071428, 23.035715, 23, 22.928572, 23.071428, 23.142857, 23.142857, 22.916666, 22.714285, 22.910713, 23.071428, 22.708334, 22.561224, 22.797617, 22.958334, 23.041666, 22.892857, 22.765306, 22.448978, 22.330357, 22.4375, 22.541666, 22.916666, 23.333332, -10, -10, -10, -10, -10, -10, -10, -10, -10, -10, -10, -10, -10, -10, -10, -10, -10, -10, -10, 41, 41, 40.75, 40.76786, 40.99107, 40.919643, 41.125, 41, 40.9375, 40.9375, 41.0625, 41.383926, 42.199402, 42.572617, 42.354168, 42.517857, 42.276787, 42.151787, 42.28125, 42.15625, 42.53125, 42.53125, 42.625, 42.75, 42.75, 42.9375, 43, 42.96875, 43.071426, 43.330357, 43.583332, 43.772324, 44.008926, 44.4375, 44.535713, 44.580357, 44.46875, 44.260418, 44.277775, -10, -10, -10, -10, -10, -10, -10, -10, -10, -10, -10, -10, -10, 23.190475, 22.942858, 23.083332, 22.724489, 22.571428, 22.571428, 22.415178, 22.40625, 22.4375, 22.196428, 22.160715, 22.186224, 22.331249, 22.223215, 22.22789, 22.295918, 22.392857, 22.489796, 22.428572, 22.142857, 21.821428, 21.841837, 22.178572, 22.551022, 22.482143, 22.241072, 22.291666, 22.25, 22.392857, 22.306122, 22.25, 22.25, 22.428572, 22.678572, 22.714285, 22.450001, -10, -10, -10, -10, -10, -10, -10, -10, -10, -10, -10, -10, -10, -10, -10, -10, -10, -10, -10, -10, -10, -10, -10, -10, -10, -10, -10, -10, -10, 42.625, 42.383335, 42.017857, 41.589287, 41.3125, 40.973213, 40.580357, 40.446426, 40.1875, 40.0625, 39.830357, 39.5625, 39.303574, 38.729168, 38.446426, 38.1875, 37.9375, 37.75, 37.5, 37.25, 36.8125, 36.5, 36.125, 35.625, 35.375, 35.0625, 34.875, 34.678574, 34.3125, 34.0625, 33.642857, 33.4375, 32.9375, 32.589287, 32.375, 32, 31.538691, 31.303572, 30.8125, 30.455357, 30.1875, 29.678572, 29.424999, 29.428572, 29.169643, 29.125, 28.75, 28.3125, 28.0625, 27.6875, 27.428572, 26.979166, 26.696428, 26.410715, 25.892857, 25.633928, 25.294643, 24.916666, 24.571428, 24.3125, 24.125, 24, 23.875, 23.8125, 23.6875, 23.5625, 23.5, 23.714285, 23.678572, 23.785715, 23.892857, 23.892857, 24, 24.166666, 24.208334, 24.208334, 24.178572, 24.321428, 24.392857, 24.464285, 24.357143, 24.214285, 24.321428, 24.290815, 24.345238, 24.255951, 24.125, 24.083334, 24.051022, 23.8125, 23.75, 23.625, 23.714285, 23.714285, 23.867346, 24.050001, 24.020407, 24.153061, 24.071428, 24, 23.875, 23.948978, 23.836735, 23.928572, 23.75, 23.785715, 23.785715, 23.642857, 23.714285, 23.785715, 24.083334, 24, 23.928572, 23.75, 23.6875, 23.928572, 23.666666, 23.666666, 23.928572, 23.6875, 23.625, 23.5625, 23.625, 23.714285, 23.7449, 23.979593, 23.989796, 23.875, 23.9375, 24, 24.0625, 24.0625, 24.0625, 24, 24, 23.9375, 23.642857, 23.714285, 23.642857, 23.551022, 24, 24.275511, 24.392857, 24.428572, 24.392857, 24.357143, 24.178572, 24.035715, 23.892857, 23.5625, 23.625, 23.857143, 23.795918, 23.523809, 23.510204, 23.479593, 23.535715, 23.75, 23.790815, 23.857143, 23.75, 23.6875, 23.6875, 23.625, 23.75, 23.919643, 24.142857, 24.285715, 24.107143, 23.892857, 23.928572, 23.964285, 23.875, 23.9375, 24, 23.875, 24.071428, 24.035715, 23.928572, 23.964285, 23.8125, 23.9375, 24.0625, 24.0625, 23.9375, 23.875, 23.8125, 23.928572, 23.821428, 23.714285, 23.401787, 23.375, 23.5, 23.928572, 24.071428, 24, 24.208334, 24.125, 24.041666, 24.166666, 24, 24, 24.071428, 24.107143, 24.071428, 24.071428, 24, 23.892857, 23.857143, 23.857143, 23.928572, 24.071428, 24.375, 24.375, 24.107143, 24.071428, 24.035715, 23.875, 23.9375, 23.875, 23.9375, 23.9375, 24.035715, 24.291666, 24.291666, 24.035715, 23.8125, 23.892857, 23.867346, 23.928572, 24.071428, 24.035715, 23.964285, 23.765306, 23.37755, 23.37755, 23.1875, 23.3125, 23.375, 23.777777, -10, -10, -10, -10, -10, -10, -10, -10, -10, -10, -10, -10, -10, -10, -10, -10, -10, -10, -10, 41.083332, 41.0625, 40.75, 40.616074, 40.669643, 40.607143, 40.8125, 40.875, 40.875, 40.9375, 41, 41.258926, 41.895832, 42.301788, 42.3125, 42.508926, 42.366074, 42.276787, 42.46875, 42.3125, 42.5625, 42.5625, 42.65625, 42.75, 42.8125, 43, 43.035713, 43.09375, 43.1875, 43.205357, 43.547619, 43.816963, 44.125, 44.5625, 44.660713, 44.705357, 44.625, 44.4375, 44.364582, -10, -10, -10, -10, -10, -10, -10, -10, -10, -10, -10, -10, -10, 24.944445, 24.894445, 24.297619, 23.833332, 23.4375, 23.34375, 23.28125, 23.25, 23.5, 23.729166, 23.854166, 23.869047, 23.457142, 23.133928, 23.116072, 23.1875, 23.25, 23.3125, 23.25, 22.75, 22.5, 22.520407, 23.357143, 23.647959, 23.688776, 23.489796, 23.476191, 23.535715, 23.535715, 23.484694, 23.392857, 23.285715, 23.392857, 23.571428, 23.714285, 23.75238, -10, -10, -10
35.3125, 34.9375, 34.8125, 34.616074, 34.1875, 34.0625, 33.642857, 33.4375, 33.0625, 32.714287, 32.5, 32.0625, 31.494047, 31.241072, 30.75, 30.455357, 30.3125, 29.839287, 29.505356, 29.5, 29.107143, 29.125, 28.75, 28.375, 28.25, 27.8125, 27.553572, 26.979166, 26.571428, 26.294643, 25.892857, 25.571428, 25.3125, 25.0625, 24.8125, 24.6875, 24.625, 24.392857, 24.5625, 24.5625, 24.4375, 24.571428, 24.607143, 24.678572, 24.821428, 25, 24.9375, 24.714285, 24.785715, 25.214285, 25.142857, 25.142857, 25.178572, 25.285715, 25.1875, 25.25, 25.1875, 24.857143, 25.1875, 25.448978, 25.367346, 25.326529, 25.25, 24.875, 24.693878, 24.642857, 24.571428, 24.75, 24.857143, 24.785715, 24.867346, 25.085714, 25.056122, 25.142857, 24.8125, 24.75, 24.75, 24.892857, 24.857143, 24.928572, 24.785715, 24.785715, 24.785715, 24.678572, 24.75, 24.821428, 24.892857, 24.928572, 24.928572, 24.928572, 24.928572, 25, 25.166666, 25.166666, 24.928572, 24.857143, 24.785715, 24.642857, 24.5, 24.4375, 24.464287, 24.732143, 24.954082, 25.071428, 24.9375, 24.9375, 24.9375, 24.875, 24.8125, 24.8125, 25.071428, 25.107143, 25.333334, 25.25, 25.208334, 25.309525, 25.265306, 25.311224, 25.285715, 25.0625, 25.0625, 25.125, 25.0625, 24.9375, 24.571428, 24.928572, 24.928572, 25, 24.867346, 24.166668, 24.188776, 24.193878, 24.583334, 24.964285, 24.598213, 24.53125, 24.53125, 24.642857, 24.642857, 24.714285, 24.857143, 25.086735, 25.107143, 25.178572, 25.107143, 25, 25.142857, 25.142857, 25.142857, 25.142857, 25.071428, 25, 25.071428, 25, 24.928572, 24.892857, 24.6875, 24.75, 24.875, 24.9375, 24.8125, 24.75, 24.625, 24.785715, 24.75, 24.75, 24.709185, 24.678572, 24.785715, 24.928572, 25.071428, 25.035715, 25.035715, 24.964285, 24.892857, 25, 24.75, 24.75, 24.8125, 24.875, 24.8125, 24.75, 24.705357, 24.6875, 24.625, 24.6875, 24.857143, 25, 25.142857, 25.142857, 25.107143, 24.8125, 24.75, 24.928572, 24.964285, 24.928572, 25, 25.071428, 25.142857, 25, 25, 24.916666, 25.071428, 25, 24.964285, 24.928572, 24.875, 24.8125, 24.75, 24.607143, 24.267857, 24.267857, 24.3125, 24.348213, 24.267857, 24.226189, -10, -10, -10, -10, -10, -10, -10, -10, -10, -10, -10, -10, -10, -10, -10, -10, -10, -10, 41.5, 41.166664, 41.0625, 40.6875, 40.544643, 40.63393, 40.678574, 40.918365, 41.166668, 40.958332, 41.008926, 41.044643, 41.321426, 41.895832, 42.151787, 42.375, 42.5625, 42.491074, 42.4375, 42.5, 42.3125, 42.4375, 42.5, 42.6875, 42.919643, 43.0625, 43.25, 43.285713, 43.3125, 43.3125, 43.205357, 43.485119, 43.785713, 44.1875, 44.732143, 44.8125, 44.892857, 44.75, 44.5625, 44.427082, 44.25, -10, -10, -10, -10, -10, -10, -10, -10, -10, -10, -10, -10, 25.833334, 26.02857, 25.65476, 24.583332, 24.625, 24.40625, 24.28125, 24.419643, 24.711735, 24.803572, 24.839285, 24.785715, 24.571428, 24.169643, 24.294643, 23.959183, 24, 24.035715, 24.464285, 24.541666, 24.541666, 24.636904, 24.714285, 24.923468, 24.760204, 24.668367, 24.624149, 24.714285, 24.607143, 24.510204, 24.383928, 24.030611, 24.107143, 24.214285, 24.785715, 24.780954, -10, -10, -10, -10, -10, -10, -10, -10, -10, -10, -10, -10, -10, -10, -10, -10, -10, -10, -10, -10, -10, -10, -10, -10, -10, -10, -10, -10, -10, 42.625, 42.416668, 42.125, 41.705357, 41.4375, 41.098213, 40.705357, 40.383926, 40.125, 40, 39.75, 39.5, 39.25, 38.8125, 38.5625, 38.1875, 37.839287, 37.6875, 37.4375, 37.25, 36.8125, 36.4375, 35.9375, 35.5625, 35.375, 34.982143, 34.729168, 34.4375, 33.987499, 33.991074, 33.625, 33.4375, 33.125, 32.776787, 32.5625, 32.0625, 31.369047, 31.116072, 30.625, 30.375, 30.071428, 29.544643, 29.192856, 29.25, 29.044643, 29.0625, 28.75, 28.375, 28.1875, 27.8125, 27.553572, 26.916666, 26.508928, 26.232143, 25.955357, 25.821428, 25.6875, 25.625, 25.25, 25.214285, 25.285715, 25.799999, 25.892857, 25.923471, 25.5, 25.75, 25.5625, 25.5625, 25.892857, 26, 26.178572, 26.625, 26.666666, 26.080357, 25.875, 25.839287, 25.982143, 26.044643, 26.125, 26.0625, 26, 26.333334, 26.214285, 26.285715, 26.285715, 26.285715, 26.285715, 26.458334, 26.5, 26.458334, 26.333334, 26, 25.857143, 25.857143, 25.758928, 25.950001, 25.892857, 25.8125, 25.5, 25.4375, 25.5, 25.5625, 25.625, 25.6875, 25.625, 25.6875, 25.6875, 25.857143, 25.625, 25.625, 25.6875, 25.6875, 25.6875, 25.892857, 25.928572, 26, 26, 26, 25.928572, 25.928572, 25.928572, 25.5625, 25.5625, 25.4375, 25.401787, 25.836735, 25.918367, 26, 26, 25.964285, 25.928572, 25.6875, 25.625, 25.892857, 26, 26, 26, 25.928572, 25.892857, 26.051022, 26.204082, 25.991072, 25.9375, 25.875, 25.8125, 25.9375, 26.178572, 26.142857, 26.375, 26, 26, 26.071428, 25.938776, 25.972223, 26.005951, 26.050596, 26.1875, 25.875, 25.6875, 25.357143, 25.357143, 25.321428, 25.625, 25.964285, 26, 25.857143, 25.8125, 25.875, 25.8125, 25.964285, 26.107143, 26.107143, 26.107143, 26.107143, 25.8125, 25.75, 25.875, 25.875, 25.8125, 25.75, 25.857143, 25.785715, 25.857143, 25.928572, 25.857143, 25.857143, 25.5625, 25.5625, 25.5625, 25.5625, 25.765306, 25.75, 25.821428, 25.75, 25.9375, 26, 26, 25.875, 25.75, 25.75, 25.6875, 25.625, 25.625, 25.6875, 25.6875, 25.625, 25.580357, 25.5, 25.571428, 25.678572, 25.5, 25.6875, 25.875, 25.875, 25.8125, 25.6875, 25.625, 25.857143, 26, 26.071428, 26.107143, 26.142857, 26.107143, 26.333334, 26.333334, 26.291666, 26, 25.892857, 25.857143, 25.785715, 25.625, 25.6875, 25.6875, 25.669643, 25.724489, 25.653061, 25.714285, 25.683672, 25.267857, 25.163689, 26.125, 26.25, 26.125, 26.083332, -10, -10, -10, -10, -10, -10, -10, -10, -10, -10, -10, -10, -10, -10, 41.444443, 41.229164, 41.0625, 40.625, 40.455357, 40.464287, 40.75, 41.530613, 41.425594, 40.958332, 40.9375, 40.982143, 41.357143, 41.8125, 42.098213, 42.3125, 42.625, 42.598213, 42.580357, 42.642857, 42.4375, 42.375, 42.330357, 42.491074, 42.982143, 43.339287, 43.535713, 43.42857, 43.375, 43.3125, 43.1875, 43.276787, 43.607143, 44.053574, 44.589287, 44.8125, 45, 44.84375, 44.640625, 44.427082, 44.166668, 43.875, -10, -10, -10, -10, -10, -10, -10, -10, -10, -10, -10, 27.666666, 27.371428, 27.023808, 26.777777, 26.142857, 25.767857, 25.625, 25.711735, 25.765306, 25.839285, 25.65625, 25.53125, 25.3125, 25.397959, 25.709185, 25.988096, 26.083334, 25.916666, 25.571428, 25.392857, 25.428572, 25.545918, 25.785715, 25.938776, 25.571428, 25.816328, 25.850338, 25.892857, 25.785715, 25.642857, 25.724489, 25.988096, 26.041666, 26.083334, 25.857143, 25.904764, -10, -10, -10
35.3125, 34.857143, 34.541668, 34.125, 33.737499, 33.866074, 33.607143, 33.4375, 33.080357, 32.714287, 32.4375, 31.991072, 31.410713, 31.1875, 30.75, 30.5625, 30.1875, 29.532738, 29.214285, 29.071428, 28.9375, 28.875, 28.625, 28.3125, 28.125, 27.875, 27.616072, 27.041666, 26.714285, 26.575001, 26.383928, 26.392857, 26.25, 26.1875, 26.583334, 26.666666, 27.041666, 27.333334, 27.214285, 27.280613, 27.375, 27.071428, 27, 26.857143, 27, 27.071428, 27.285715, 27.571428, 27.571428, 27.448978, 26.857141, 26.732143, 27.107143, 26.919643, 27.285715, 27, 26.875, 27.071428, 26.883928, 26.904764, 26.918367, 26.928572, 27.166666, 27.428572, 27.428572, 27.357143, 27.214285, 27, 26.857143, 26.928572, 26.964285, 27, 27, 26.625, 26.4375, 26.375, 26.4375, 26.5, 26.5625, 26.5625, 26.785715, 26.857143, 26.857143, 26.857143, 26.785715, 26.714285, 26.714285, 26.714285, 26.857143, 26.6875, 26.75, 26.875, 26.875, 26.90625, 26.84375, 26.78125, 26.928572, 26.785715, 26.785715, 26.678572, 26.62245, 26.669643, 26.741072, 26.8125, 26.8125, 26.6875, 26.857143, 26.785715, 26.714285, 26.625, 26.8125, 26.875, 26.678572, 26.625, 26.589285, 26.90625, 26.90625, 26.875, 26.8125, 26.8125, 26.75, 27.214285, 27.357143, 27.285715, 27.285715, 27.071428, 26.964285, 26.8125, 26.696428, 26.833332, 26.826532, 26.846939, 26.964285, 27.035715, 26.964285, 27.1875, 27.1875, 27.125, 27.166666, 27, 26.964285, 26.75, 26.6875, 26.6875, 26.6875, 26.75, 26.9375, 27, 26.785715, 27, 26.8125, 26.75, 27.035715, 27.107143, 27.107143, 27.035715, 26.892857, 26.625, 26.75, 26.875, 27.071428, 27, 26.785715, 26.714285, 26.785715, 26.857143, 26.928572, 26.928572, 26.75, 26.875, 27, 27.178572, 27.071428, 26.892857, 26.785715, 26.714285, 26.642857, 26.642857, 26.5, 26.75, 26.75, 26.678572, 26.663265, 26.5, 26.214285, 26.321428, 26.25, 26.625, 26.6875, 26.625, 26.625, 26.5625, 26.5625, 26.625, 26.75, 26.8125, 27.071428, 27.178572, 27.214285, 27, 27, 27, 26.916666, 26.571428, 26.571428, 26.5, 26.5, 27.107143, 27, 26.964285, 26.928572, 26.857143, 26.897959, 26.668365, 26.352039, 26.187075, 26.5, 26.666666, 26.75, 26.566666, 27.166666, 27.138891, -10, -10, -10, -10, -10, -10, -10, -10, -10, -10, -10, 41.5, 41.444443, 41.229164, 41.0625, 40.6875, 40.580357, 40.651787, 40.9375, 41.67347, 41.488094, 40.958332, 40.9375, 40.982143, 41.294643, 41.6875, 42, 42.357143, 42.75, 42.821426, 42.598213, 42.598213, 42.3125, 42.1875, 42.174107, 42.334824, 42.888393, 43.308037, 43.535713, 43.36607, 43.3125, 43.125, 43, 43.089287, 43.419643, 43.928574, 44.464287, 44.75, 44.9375, 44.8125, 44.65625, 44.40625, 44.1875, 43.916668, 43.458336, -10, -10, -10, -10, -10, -10, -10, -10, -10, -10, 28, 28.380951, 28.166668, 27.880953, 27.428572, 27.035715, 26.75, 26.658163, 26.658163, 26.678572, 26.4375, 26.3125, 26.1875, 26.459185, 26.816328, 26.918367, 26.928572, 26.678572, 26.392857, 26.125, 26.25, 26.4375, 26.6875, 27.061224, 26.928572, 27.061224, 26.802721, 26.770407, 26.75, 26.704082, 26.790817, 26.918367, 26.857143, 26.928572, 26.857143, 26.857143, -10, -10, -10, -10, -10, -10, -10, -10, -10, -10, -10, -10, -10, -10, -10, -10, -10, -10, -10, -10, -10, -10, -10, -10, -10, -10, -10, -10, -10, 42.375, 42.25, 42, 41.6875, 41.5, 41.25, 40.9375, 40.517857, 40.1875, 39.875, 39.625, 39.375, 39.1875, 38.8125, 38.5625, 38.0625, 37.544643, 37.321426, 37.125, 37, 36.6875, 36.375, 35.875, 35.625, 35.357143, 34.8125, 34.497025, 34.0625, 33.737499, 33.803574, 33.482143, 33.3125, 32.955357, 32.625, 32.3125, 31.803572, 31.232143, 31.0625, 30.6875, 30.5625, 30.1875, 29.595238, 29.276785, 29.071428, 28.9375, 28.75, 28.5, 28.25, 28.0625, 27.9375, 27.75, 27.4375, 27.267857, 27.200001, 27.071428, 27.205357, 27.125, 27.392857, 27.535715, 27.714285, 28.071428, 28.321428, 28.321428, 28.280613, 28.25, 28.25, 28.25, 28.178572, 28.178572, 28.214285, 28.392857, 28.642857, 28.642857, 28.484694, 28.380951, 27.908163, 28.107143, 28.158163, 28.357143, 28.357143, 28.0625, 28.0625, 28.071428, 28.777779, 28.809525, 28.833334, 28.708334, 28.428572, 28.1875, 28.0625, 27.9375, 27.75, 27.625, 27.892857, 27.928572, 27.928572, 27.928572, 27.714285, 27.642857, 27.714285, 27.693878, 27.547619, 27.591837, 27.571428, 27.714285, 27.857143, 27.928572, 28, 27.928572, 27.857143, 27.785715, 27.714285, 27.821428, 27.821428, 27.821428, 27.892857, 27.857143, 27.892857, 27.892857, 27.821428, 27.821428, 27.75, 27.75, 27.75, 27.678572, 27.857143, 27.928572, 27.943878, 27.6875, 27.625, 27.625, 27.598213, 27.761904, 27.5, 27.9375, 28.214285, 28.416666, 28.416666, 28.333334, 27.90625, 27.90625, 27.875, 28.035715, 28.035715, 28.208334, 28.142857, 28.25, 28.178572, 28, 27.8125, 27.6875, 27.625, 27.625, 27.895834, 27.866072, 27.830357, 27.8125, 27.78125, 27.982143, 28.017857, 28.017857, 27.892857, 27.857143, 27.625, 27.5625, 27.5625, 27.625, 27.785715, 27.625, 27.75, 27.8125, 28.035715, 28.333334, 28.142857, 28.035715, 28.035715, 28.035715, 28.071428, 28.071428, 28, 27.928572, 27.857143, 27.964285, 28.071428, 28.071428, 28.071428, 27.928572, 27.964285, 28.035715, 28.071428, 28.107143, 28.035715, 28.035715, 28.071428, 28.142857, 28.142857, 28, 27.785715, 27.7449, 27.836735, 27.544643, 27.321428, 27.321428, 27.392857, 27.964285, 27.857143, 27.795918, 27.714285, 27.916666, 28.041666, 27.958334, 27.75, 27.75, 27.75, 27.785715, 27.785715, 27.785715, 27.785715, 27.928572, 28, 28.107143, 28.142857, 28.107143, 28.333334, 28.333334, 28.416666, 28.375, 28.291666, 28.25, 28.125, 28.125, 28.071428, 28, 28, 28, 27.928572, 27.723213, 27.49107, 27.276785, 26.841837, 27.125, 27.142857, 27.392857, 27.694445, 28.299999, 28.566669, 29.083332, -10, -10, -10, -10, -10, -10, -10, -10, -10, -10, -10, -10, 41.194443, 41, 40.75, 40.767857, 40.9375, 41.25, 41.714287, 41.613094, 41.020832, 40.9375, 40.982143, 41.232143, 41.5625, 41.875, 42.294643, 42.758926, 42.821426, 42.535713, 42.410713, 42.15625, 42.0625, 42.049107, 42.209824, 42.825893, 43.245537, 43.473213, 43.330357, 43.1875, 42.9375, 42.875, 42.875, 43.09375, 43.59375, 44.120537, 44.53125, 44.8125, 44.633926, 44.270832, 44, 43.6875, 43.5625, 43.138889, 42.535713, 42.375, 42.333336, -10, -10, -10, -10, -10, -10, -10, -10, 28.722221, 28.895834, 28.964285, 28.535715, 28.178572, 27.857143, 27.482143, 27.482143, 27.4375, 27.375, 27.169643, 27.137756, 27.151787, 27.50893, 27.741072, 27.642857, 27.392857, 27.142857, 27.035715, 27.035715, 27.401787, 27.625, 27.741072, 27.928572, 28.061224, 27.639881, 27.674107, 27.428572, 27.994898, 27.522961, 27.897322, 27.78125, 27.78125, 27.625, 27.809525, -10, -10, -10
35.330357, 34.839287, 34.622025, 34.125, 33.924999, 33.866074, 33.482143, 33.25, 32.767857, 32.4375, 32.125, 31.741072, 31.339287, 31.1875, 30.875, 30.6875, 30.1875, 29.622025, 29.383928, 29.1875, 29.1875, 28.9375, 28.75, 28.625, 28.4375, 28.326532, 28.285715, 28.071428, 28.315475, 28.266668, 28.474489, 28.591837, 28.392857, 28.428572, 28.375, 28.5, 28.8125, 29, 29.0625, 29.089287, 29.125, 29.357143, 29.285715, 29.178572, 29.107143, 29.178572, 29.357143, 29.3125, 29.3125, 29.142857, 29.147959, 28.928572, 28.9375, 29.275511, 29.464285, 29.535715, 29.357143, 29.214285, 29.153061, 29.452381, 29.551022, 29.642857, 29.607143, 29.5, 29.1875, 28.785715, 28.642857, 28.5, 28.666666, 28.571428, 28.642857, 28.642857, 28.642857, 28.928572, 28.928572, 29, 28.979593, 28.261904, 28.306122, 28.25, 28.625, 28.6875, 28.6875, 28.928572, 28.892857, 28.857143, 28.714285, 28.642857, 28.714285, 28.714285, 28.785715, 28.857143, 28.857143, 28.892857, 28.892857, 28.59375, 28.65625, 28.6875, 28.464285, 28.5, 28.928572, 29, 29, 28.908163, 28.785715, 28.785715, 28.857143, 28.897959, 28.976191, 29.416666, 29.285715, 29.464285, 29.428572, 29.464285, 29.392857, 29.357143, 29.321428, 29.285715, 29.285715, 29.285715, 29.214285, 29, 29.0625, 29, 28.714285, 28.571428, 28.5, 28.428572, 28.5, 29.273809, 29.132654, 29.020407, 28.892857, 28.6875, 28.75, 28.875, 28.875, 28.75, 28.5, 28.625, 28.357143, 28.392857, 28.928572, 28.928572, 28.857143, 28.857143, 28.857143, 28.928572, 29.071428, 29.071428, 29, 29.071428, 29.107143, 29, 28.785715, 28.9375, 29.035715, 29, 29.035715, 29.107143, 29.107143, 29.035715, 29, 29.071428, 29.214285, 29.285715, 29.214285, 29.214285, 29.214285, 29.25, 29.125, 29.0625, 28.875, 28.6875, 28.651787, 29.12245, 29.091837, 29.232141, 29.136904, 29.166666, 29.035715, 28.964285, 28.964285, 28.821428, 28.857143, 28.928572, 28.857143, 28.821428, 28.785715, 28.785715, 28.857143, 28.857143, 28.857143, 28.857143, 28.892857, 28.928572, 29, 28.8125, 28.75, 29, 29, 29.071428, 29.142857, 29.107143, 29.107143, 29.035715, 28.964285, 28.8125, 28.75, 28.75, 28.75, 28.625, 28.598213, 28.455357, 28.62245, 28.791666, 28.535715, 28.205357, 28.428572, 28.571428, 28.714285, 28.904764, 29.388887, 29.833332, -10, -10, -10, -10, -10, -10, -10, -10, -10, -10, -10, -10, 41, 40.875, 40.8125, 40.8125, 40.928574, 41.07143, 41.17857, 40.866074, 40.803574, 40.8125, 40.982143, 41.25, 41.6875, 42.107143, 42.571426, 42.696426, 42.410713, 42.379463, 42.25, 42.15625, 42.080357, 42.022324, 42.433037, 42.98661, 43.29464, 43.205357, 43.0625, 42.8125, 42.75, 42.8125, 43.09375, 43.59375, 44.049107, 44.40625, 44.5625, 44.258926, 43.860119, 43.625, 43.3125, 43.21875, 43.010418, 42.565475, 42.541668, 42.555557, -10, -10, -10, -10, -10, -10, -10, -10, -10, 29.645834, 29.520834, 29.1875, 29.142857, 28.75, 28.428572, 28.392857, 28.15625, 28.428572, 28.138393, 27.780613, 27.964285, 28.464287, 28.625, 29, 28.958334, 28.916666, 28.75, 28.541666, 28.390306, 28.773809, 28.741072, 28.916666, 29.022322, 28.791666, 29.020407, 29.291666, 29.071428, 29.226191, 28.928572, 28.785715, 28.65625, 28.5, 28.5, -10, -10, -10, -10, -10, -10, -10, -10, -10, -10, -10, -10, -10, -10, -10, -10, -10, -10, -10, -10, -10, -10, -10, -10, -10, -10, -10, -10, -10, 42.5, 42.333332, 42.1875, 41.75, 41.5625, 41.3125, 40.9375, 40.580357, 40.125, 39.642857, 39.375, 39.125, 39, 38.75, 38.544643, 38.07143, 37.598213, 37.267857, 37.125, 36.9375, 36.625, 36.25, 35.705357, 35.5, 35.142857, 34.732143, 34.642857, 34.25, 34.1875, 33.875, 33.5, 33.125, 32.580357, 32.3125, 32, 31.741072, 31.464287, 31.3125, 31.0625, 30.9375, 30.616072, 30.229166, 30.008928, 29.8125, 29.6875, 29.4375, 29.3125, 29.25, 29.1875, 29.886904, 30.083334, 30.041666, 30.178572, 29.966667, 29.7551, 29.867346, 29.678572, 29.416666, 29.714285, 29.714285, 29.857143, 29.6875, 29.8125, 29.9375, 30, 30, 29.901787, 29.8125, 29.75, 29.875, 30, 30.0625, 30.0625, 30.0625, 30.004463, 29.830357, 29.955357, 30.214285, 30.357143, 30.535715, 30.5, 30.464285, 30.133928, 30.333334, 30.357143, 30.375, 30.3125, 30.428572, 30.392857, 30.583334, 30.541666, 30.5, 30.416666, 30.375, 30.291666, 30.208334, 30.208334, 30, 30.142857, 30.214285, 30.265306, 30.277777, 30.261904, 30.166666, 29.857143, 29.857143, 29.785715, 29.928572, 29.928572, 29.928572, 29.5625, 29.4375, 29.4375, 29.4375, 29.5, 29.5625, 29.625, 29.65625, 29.65625, 29.59375, 29.875, 29.928572, 30.291666, 30.333334, 30, 30.035715, 29.964285, 29.669643, 29.5625, 29.785715, 29.857143, 29.897959, 29.976191, 30.214285, 30.25, 30.428572, 30.392857, 30.410715, 30.375, 30.339285, 30.303572, 30.25, 30.214285, 30.178572, 29.9375, 29.9375, 30, 30.178572, 30.416666, 30.375, 30.25, 30.125, 30.25, 30.309525, 30.204082, 30.091837, 29.857143, 29.5625, 29.625, 29.6875, 29.6875, 29.75, 30.011904, 29.928572, 30.166666, 30.232141, 30, 30, 30, 29.8125, 29.8125, 29.8125, 29.875, 29.8125, 29.75, 29.8125, 30, 30.107143, 30.375, 30, 29.923471, 29.892857, 29.78125, 29.96875, 29.96875, 29.90625, 30.035715, 30.107143, 30.285715, 30.357143, 30.285715, 30.214285, 30.142857, 30.107143, 30.178572, 30.071428, 29.892857, 29.785715, 29.816328, 30.193878, 30.270407, 30.270407, 30.260204, 30.178572, 30.142857, 30, 29.928572, 29.892857, 29.8125, 29.875, 29.8125, 29.625, 29.526787, 29.826529, 29.857143, 29.928572, 29.928572, 29.897959, 29.857143, 29.979593, 29.6875, 29.75, 29.6875, 29.75, 29.75, 29.8125, 29.9375, 29.9375, 29.9375, 29.8125, 29.625, 29.625, 29.5625, 29.5625, 29.5625, 29.5, 29.473213, 29.653061, 29.795916, 29.857143, 29.821428, 29.734694, 29.178572, 29.5625, 29.6875, 29.8125, 29.854166, 30.388887, -10, -10, -10, -10, -10, -10, -10, -10, -10, -10, -10, -10, 41, 41, 40.9375, 40.875, 40.6875, 40.678574, 40.964287, 40.973213, 41.0625, 41.0625, 41.0625, 41.25, 41.5625, 41.919643, 42.321426, 42.535713, 42.455357, 42.486607, 42.5, 42.40625, 42.229168, 42.09375, 42.183037, 42.647324, 43.008926, 43.125, 43.125, 43, 42.875, 42.9375, 43.15625, 43.59375, 43.977676, 44.28125, 44.3125, 43.738098, 43.377975, 43.241074, 43.25, 43.041668, 42.791668, 42.565475, 42.40625, 42.555557, -10, -10, -10, -10, -10, -10, -10, -10, -10, 30.309525, 30.395834, 30.080357, 29.875, 29.4375, 29.357143, 29.09375, 29.03125, 29.21875, 29.479593, 29.684525, 29.75, 29.658163, 29.892857, 29.928572, 29.946428, 29.892857, 29.714285, 29.607143, 29.388393, 29.916668, 30.061224, 30.375, 30.137756, 29.952379, 30.081633, 30.178572, 30.214285, 30.193878, 30, 29.821428, 29.75, 29.5, 29.5, -10, -10, -10
35.142857, 34.794643, 34.705357, 34.3125, 34.142857, 33.8125, 33.4375, 33.125, 32.6875, 32.375, 32.0625, 31.8125, 31.714287, 31.5, 31.25, 31.0625, 30.8125, 30.6875, 30.5625, 30.4375, 30.3125, 30.125, 30.357143, 30.392857, 30.428572, 30.760204, 30.964285, 30.892857, 31.030613, 30.979593, 31.015306, 31.071428, 30.857143, 31.041666, 30.785715, 30.75, 30.892857, 30.625, 30.6875, 31.071428, 31.035715, 30.8125, 30.776787, 30.75, 30.535715, 30.714285, 30.955357, 30.955357, 30.875, 30.8125, 31, 30.928572, 30.964285, 30.839287, 31.004463, 31.1875, 31.25, 31.357143, 31.285715, 31.0625, 31.125, 31.125, 31.125, 31.285715, 31.25, 31.357143, 31.428572, 31.428572, 31.357143, 31.214285, 31, 30.959185, 31.12245, 31.204082, 31.392857, 31.428572, 31.418367, 31.238096, 31.153061, 31.071428, 31.035715, 31, 30.75, 30.875, 30.875, 30.875, 30.892857, 30.714285, 30.4375, 30.4375, 30.5, 30.5, 30.714285, 30.714285, 30.785715, 30.821428, 30.964285, 31.035715, 31.107143, 31.142857, 31, 31.045918, 30.887501, 30.678572, 30.714285, 30.642857, 30.714285, 30.535713, 30.666666, 31.008928, 30.928572, 31.25, 31.142857, 31.125, 31.125, 31.1875, 31, 30.928572, 31.0625, 31, 31.142857, 31.142857, 31.285715, 31.357143, 31.428572, 31.357143, 31.214285, 31.035715, 31.142857, 31.145834, 31.116072, 31.008928, 30.674999, 30.836735, 30.642857, 30.7449, 30.714285, 30.75, 31.010204, 31.142857, 31.142857, 31.12755, 30.964285, 30.964285, 30.964285, 30.964285, 30.928572, 30.928572, 30.964285, 30.75, 30.75, 30.75, 30.6875, 31, 31.071428, 31, 30.776787, 30.535715, 30.84375, 31.142857, 31.142857, 31.107143, 30.875, 30.9375, 31, 31, 30.9375, 30.875, 30.8125, 30.75, 30.8125, 30.75, 30.785715, 30.821428, 30.837303, 31.211311, 31.435377, 31.280611, 31.188776, 31.107143, 30.9375, 30.875, 30.875, 31.071428, 31.071428, 31, 30.857143, 30.714285, 30.526787, 30.723213, 30.75, 31.035715, 30.964285, 30.660713, 30.625, 30.732143, 30.6875, 30.892857, 30.785715, 30.785715, 30.785715, 30.598213, 30.852041, 30.892857, 30.821428, 30.785715, 30.375, 30.34375, 30.28125, 30.34375, 30.607143, 30.571428, 30.714285, 30.785715, 31.0051, 31.107143, 31, 30.938776, 30.958334, 30.714285, 30.714285, 30.5, 30.5625, 30.666666, 31.75, 32, 32, 32, -10, -10, -10, -10, -10, -10, -10, -10, 41, 41, 40.9375, 40.875, 40.6875, 40.741074, 41.089287, 41.223213, 41.4375, 41.4375, 41.4375, 41.5, 41.5625, 41.776787, 42.178574, 42.428574, 42.5625, 42.59375, 42.6875, 42.59375, 42.447918, 42.3125, 42.339287, 42.803574, 43.133926, 43.375, 43.4375, 43.3125, 43.125, 43.125, 43.28125, 43.71875, 44.040176, 44.21875, 44.125, 43.425598, 43.065475, 42.991074, 43.104168, -10, -10, -10, 42.458332, -10, -10, -10, -10, -10, -10, -10, -10, -10, -10, 32.25, 31.444445, 31.020407, 30.821428, 30.392857, 30.081633, 30.28125, 30.15625, 30.5, 30.596939, 30.62245, 30.678572, 30.775511, 30.928572, 30.928572, 30.8125, 30.8125, 30.625, 30.678572, 30.714285, 30.916668, 31.025511, 31.071428, 30.78125, 30.75, 30.8125, 30.875, 30.875, 30.875, 30.6875, 30.5625, 30.53125, 30.7551, 30.809523, -10, -10, -10, -10, -10, -10, -10, -10, -10, -10, -10, -10, -10, -10, -10, -10, -10, -10, -10, -10, -10, -10, -10, -10, -10, -10, -10, -10, -10, 42.375, 42.25, 42.0625, 41.625, 41.375, 41.0625, 40.875, 40.625, 40.25, 39.892857, 39.625, 39.366074, 38.916668, 38.589287, 38.419643, 38.13393, 37.892857, 37.571426, 37.267857, 37, 36.625, 36.25, 35.767857, 35.5, 35.098213, 34.866074, 34.6875, 34.3125, 34.080357, 33.75, 33.4375, 33.125, 32.75, 32.375, 32.1875, 32.0625, 32.125, 32.0625, 31.982143, 31.794643, 31.5, 31.375, 31.125, 31.0625, 30.9375, 31.071428, 31.295918, 31.630951, 31.729593, 31.696428, 31.776787, 31.6875, 31.776787, 31.794643, 31.794643, 32.035713, 31.892857, 31.821428, 31.678572, 31.607143, 31.714285, 31.785715, 31.892857, 32.07143, 31.8125, 31.6875, 31.852041, 31.857143, 32.291668, 32.541668, 32.163265, 32.091835, 31.8125, 32.035713, 32.160713, 31.875, 31.607143, 31.673471, 31.852039, 32, 32.07143, 32.1875, 32.32143, 32.25, 32.285713, 32.125, 32.125, 32.125, 32.125, 32.25, 32.3125, 32.25, 32.125, 31.9375, 31.75, 31.714287, 31.857143, 31.991072, 32.392857, 32.464287, 32.535713, 32.1875, 32.0625, 31.9375, 32, 31.964285, 31.928572, 32, 32, 32, 31.892857, 31.75, 31.678572, 31.678572, 31.714285, 31.714285, 31.714285, 31.714285, 31.785715, 31.857143, 31.964285, 31.8125, 31.875, 31.875, 31.8125, 31.883928, 32.121429, 31.938776, 31.857143, 31.321428, 31.428572, 31.367346, 31.696428, 31.821428, 32.375, 32, 31.955357, 31.875, 31.875, 31.9375, 32.333332, 32.416668, 32.0625, 32.125, 32.25, 32.25, 32.392857, 32.392857, 32.42857, 32.125, 31.9375, 31.875, 32, 32.125, 32.392857, 32.275509, 31.737499, 31.979593, 31.5625, 31.714287, 31.392857, 31.6875, 32.081631, 32.17857, 32.214287, 31.955357, 31.75, 31.8125, 31.8125, 32.07143, 32, 31.928572, 31.969387, 31.857143, 31.928572, 31.892857, 31.6875, 31.8125, 31.875, 31.75, 31.887756, 32.125, 31.910715, 31.982143, 31.982143, 31.946428, 31.964285, 31.964285, 31.8125, 31.8125, 31.75, 31.75, 31.625, 31.625, 31.6875, 31.625, 31.5625, 31.6875, 32.472225, 32.476192, 32.327381, 32.151787, 31.795918, 31.714285, 32.17857, 32.17857, 32.142857, 32.107143, 32.107143, 32.035713, 32, 31.928572, 31.959185, 32.040813, 31.892857, 31.892857, 31.821428, 31.535713, 31.714285, 31.836735, 31.785715, 31.857143, 31.785715, 31.785715, 31.785715, 31.7551, 31.651787, 31.75, 31.6875, 31.6875, 31.571428, 31.308037, 31.316963, 31.34375, 31.46875, 31.678572, 31.892857, 31.928572, 32.091835, 32.107143, 31.964285, 32, 31.974489, 31.791666, 31.708334, 31.321428, 31.357143, 31.387756, 32.233334, 32.476192, 32.416668, 32.583332, 32.75, -10, -10, -10, -10, -10, -10, -10, 41, 41, 40.9375, 40.875, 40.6875, 40.803574, 41.214287, 41.473213, 41.8125, 41.875, 41.9375, 42, 42, 42.151787, 42.419643, 42.647324, 42.8125, 42.875, 43, 42.90625, 42.822918, 42.6875, 42.683037, 43.147324, 43.383926, 43.59375, 43.6875, 43.5, 43.3125, 43.3125, 43.4375, 43.875, 44.133926, 44.1875, 43.9375, 43.291668, 43.200893, 43.241074, 43.5625, -10, -10, -10, -10, -10, -10, -10, -10, -10, -10, 34.375, 34.25, 34.1875, 34.0625, 33.142857, 33.222221, 33.220238, 33.083332, 32.583332, 32.047619, 31.553572, 31.339285, 31.446428, 31.625, 31.598213, 31.5625, 31.589287, 31.625, 31.785715, 31.928572, 31.857143, 31.75, 31.857143, 31.938776, 31.895834, 31.991072, 31.9375, 31.8125, 31.625, 31.651787, 31.723213, 31.71875, 31.571428, 31.428572, 31.392857, 31.666666, 32.0051, 32.047619, -10, -10, -10
35.25, 35.026787, 34.6875, 34.3125, 33.955357, 33.6875, 33.5, 33.3125, 33.0625, 32.75, 32.6875, 32.418369, 32.5, 32.75, 32.669643, 32.658165, 32.5, 32.3125, 32.160713, 31.892857, 31.75, 31.75, 32.010204, 32.845238, 32.908165, 32.892857, 32.589287, 32.5625, 32.589287, 32.979591, 32.732143, 32.75, 32.6875, 32.6875, 32.535713, 32.4375, 32.387756, 32.908165, 33, 33.035713, 32.892857, 32.785713, 32.836735, 32.964287, 33.25, 33.408165, 32.996601, 32.972786, 33.042858, 32.964287, 33.153061, 33.07143, 33.291668, 33.351192, 33.541668, 33.541668, 33.541668, 33.214287, 33, 33.107143, 33.142857, 33.25, 33.25, 33.285713, 33.25, 33.125, 33.125, 33, 32.875, 32.6875, 32.5, 32.7449, 32.908165, 33.168369, 33.42857, 33.5, 33.607143, 33.42857, 33.214287, 32.875, 32.75, 32.6875, 33, 32.875, 32.875, 32.875, 32.75, 32.785713, 32.82143, 32.892857, 32.964287, 32.964287, 32.92857, 32.92857, 33, 32.8125, 32.8125, 32.8125, 32.75, 32.6875, 32.964287, 33.117348, 33.228573, 33.081631, 32.92857, 33.083332, 33.25, 33.107143, 32.867348, 32.938774, 33.142857, 33.07143, 33.020409, 32.92857, 32.92857, 33.07143, 33.214287, 33.125, 33.42857, 33.5, 33.5, 33.42857, 33.535713, 33.42857, 33.357143, 33, 32.8125, 33, 33.107143, 33.25, 33.392857, 33.290813, 32.971428, 33.183674, 32.908165, 33.030613, 33.208332, 33, 32.946426, 33.0625, 33, 32.892857, 32.964287, 33.107143, 33.142857, 32.9375, 32.8125, 32.6875, 32.723213, 32.857143, 32.92857, 32.857143, 32.785713, 32.82143, 32.82143, 32.785713, 32.908165, 33.035713, 32.535713, 32.642857, 32.607143, 32.607143, 32.8125, 32.75, 32.6875, 32.5, 32.5, 32.5, 32.473213, 32.5, 32.5, 32.4375, 32.642857, 32.785713, 33.190479, 33.297619, 33.333336, 33.260204, 33.416668, 33.375, 33.07143, 33.107143, 33.07143, 33.035713, 32.8125, 32.75, 32.92857, 32.92857, 32.979591, 33.091835, 33, 32.535713, 32.464287, 32.598213, 32.785713, 32.607143, 32.785713, 32.6875, 32.92857, 33, 32.791668, 32.797619, 32.815479, 33.17857, 33.035713, 33, 32.785713, 32.637756, 32.719387, 32.642857, 32.75, 32.857143, 33.07143, 33.07143, 33.17857, 32.875, 32.6875, 32.8125, 32.883926, 33.416668, 33.458332, 33.375, 33.208332, 33.154762, 32.737499, 32.919643, 32.875, 33, 33.166668, 33.833336, -10, -10, -10, -10, 41, 41, 41, 41, 41, 41, 40.9375, 41.151787, 41.544643, 41.901787, 42.3125, 42.4375, 42.5, 42.625, 42.5625, 42.714287, 42.982143, 43.147324, 43.3125, 43.34375, 43.40625, 43.25, 43.193455, 43.223213, 43.21875, 43.53125, 43.5625, 43.71875, 43.75, 43.625, 43.5, 43.5, 43.696426, 44.1875, 44.348213, 44.4375, 44.1875, 43.729168, 43.705357, 43.741074, 44.104168, -10, -10, -10, -10, -10, -10, -10, 34.166664, 34.125, 34.125, 34.416668, 34.416668, 34.458332, 34.291668, 33.84375, 34.035713, 34.045918, 33.92857, 33.535713, 33.112247, 32.857143, 32.375, 32.214287, 32.357143, 32.969387, 32.857143, 32.589287, 32.5625, 32.5625, 32.6875, 32.82143, 32.785713, 32.892857, 33, 33.07143, 33.07143, 32.964287, 32.714287, 32.375, 32.401787, 32.535713, 32.65625, 33.229168, 33.1875, 33.229168, 33.25, 33.0051, 33.047619, -10, -10, -10, -10, -10, -10, -10, -10, -10, -10, -10, -10, -10, -10, -10, -10, -10, -10, -10, -10, -10, -10, -10, -10, -10, -10, -10, -10, -10, 42.25, 42.083332, 41.8125, 41.4375, 41.1875, 40.9375, 40.8125, 40.5625, 40.3125, 40.125, 39.875, 39.616074, 39.041668, 38.526787, 38.3125, 38.125, 37.875, 37.5625, 37.035713, 36.6875, 36.375, 36.1875, 36, 35.8125, 35.4375, 35.151787, 34.75, 34.3125, 33.955357, 33.8125, 33.6875, 33.625, 33.5625, 33.3125, 33.375, 33.934525, 34.083332, 34.035713, 34.122448, 33.642857, 33.458332, 33.714287, 33.540813, 33.708332, 33.666668, 33.666668, 33.922619, 33.988094, 34.015308, 33.92857, 33.7449, 33.75, 33.836735, 33.989796, 33.732143, 33.6875, 33.5625, 33.714287, 33.612244, 33.57143, 34.029762, 33.872448, 33.964287, 33.75, 33.6875, 33.625, 33.6875, 34.107143, 34.125, 34.294643, 33.710884, 33.687073, 34.292858, 33.875, 34.188774, 34.07143, 34.035713, 34.122448, 34.285713, 34.32143, 34.125, 33.9375, 33.875, 33.875, 33.9375, 34.125, 34.42857, 34.464287, 34.357143, 34.25, 34, 33.8125, 33.8125, 33.75, 33.892857, 34.051022, 33.919643, 34.053574, 34.1875, 34.1875, 34.392857, 34.357143, 34.25, 34.17857, 33.875, 33.75, 33.8125, 33.8125, 33.8125, 33.75, 33.625, 33.5625, 33.862244, 34.035713, 34.17857, 34.17857, 34.214287, 34.142857, 34.107143, 34.035713, 33.892857, 33.892857, 33.785713, 33.785713, 33.92857, 34.040813, 33.878571, 33.7551, 33.714287, 33.765308, 34, 33.948978, 33.903061, 33.696426, 33.875, 33.875, 33.892857, 33.9375, 33.973213, 34.026787, 34.1875, 34.708332, 34.607143, 34.67857, 34.67857, 34.535713, 34.5, 34.1875, 34.125, 34.0625, 34.142857, 34.107143, 34.107143, 34.142857, 34.0625, 34.035713, 34.085716, 34.336735, 34.158165, 34.193878, 34.107143, 34, 34.07143, 34, 34, 33.964287, 33.92857, 34.07143, 34.07143, 34, 33.857143, 33.5625, 33.660713, 33.625, 33.6875, 33.625, 33.785713, 33.785713, 33.785713, 33.625, 33.75, 33.875, 34.25, 34.208332, 34.125, 34.125, 33.92857, 33.75, 33.6875, 33.25, 33.285713, 33.32143, 33.82653, 33.714287, 33.642857, 33.57143, 33.607143, 33.857143, 34.041668, 34.104168, 34.104168, 34.008926, 34.214287, 34.285713, 33.9375, 33.9375, 33.875, 33.8125, 33.75, 33.6875, 33.92857, 33.92857, 33.6875, 33.75, 33.857143, 34.041668, 34.083332, 33.785713, 33.785713, 33.714287, 33.5625, 33.82143, 33.892857, 33.964287, 34.375, 34.523808, 34.494049, 34.285713, 34.107143, 34, 33.92857, 33.8699, 33.987244, 33.875, 33.875, 33.964287, 34.107143, 34.107143, 34.142857, 33.8125, 33.6875, 33.964287, 34.081631, 34.214287, 34.25, 34.285713, 34.214287, 34.132652, 33.950001, 34.051022, 34, 34.122448, 33.761906, 34.079365, 34.5, 34.766666, -10, -10, -10, 41.166668, 41.083332, 41.0625, 41, 41, 41, 41.25, 41.5, 41.919643, 42.375, 42.607143, 42.8125, 43, 43, 43.214287, 43.419643, 43.522324, 43.5625, 43.53125, 43.46875, 43.3125, 43.495537, 43.566963, 43.625, 43.875, 43.8125, 43.90625, 44.008926, 44.145832, 44.107143, 44.125, 44.196426, 44.5, 44.5625, 44.5625, 44.375, 44.25, 44.25, 44.3125, 44.354168, -10, -10, -10, -10, -10, -10, 34.75, 34.444443, 34.5, 34.583332, 34.75, 34.8125, 34.84375, 34.647324, 34.385418, 34.53125, 34.84375, 34.78125, 34.571426, 34.098213, 34.035713, 34.083332, 34.083332, 34.208332, 34.112244, 34, 33.887756, 33.714287, 33.642857, 33.785713, 33.785713, 33.857143, 34, 34.07143, 34.142857, 34.07143, 33.92857, 33.428574, 33.041668, 33.185375, 33.457481, 33.75, 34.107143, 34.17857, 34.32143, 34.275509, 33.723213, 33.75, -10, -10, -10
