37, 36.6875, 36.1875, 35.9375, 35.5625, 35.4375, 35.0625, 34.705357, 34.5, 34.3125, 34.107143, 33.729168, 33.571426, 33.375, 33.044643, 32.559525, 32.258926, 32, 31.75, 31.625, 31.5, 31.25, 31.25, 31.125, 30.9375, 30.8125, 30.625, 30.5625, 30.5, 30.375, 30.3125, 30.125, 30, 30, 30.0625, 30.0625, 30.0625, 30.0625, 30, 30, 29.9375, 29.9375, 29.794643, 29.651787, 29.6875, 29.732143, 29.75, 29.625, 29.5, 29.25, 29.125, 29.0625, 29, 29, 29, 29, 29, 29, 29, 29, 29, 29, 29, 29, 29, 29, 28.875, 28.625, 28.4375, 28.25, 28.125, 28.25, 28.375, 28.4375, 28.5, 28.625, 28.5, 28.4375, 28.375, 28.1875, 28.1875, 28.1875, 28.1875, 28.125, 28.125, 28.0625, 28.0625, 27.9375, 27.8125, 27.8125, 27.6875, 27.625, 27.4375, 27.375, 27.4375, 27.5625, 27.6875, 27.5, 27.3125, 27.125, 27, 27, 27, 26.9375, 26.9375, 26.9375, 26.9375, 27, 27, 26.9375, 26.8125, 26.6875, 26.625, 26.625, 26.6875, 26.625, 26.4375, 26.25, 26.0625, 26, 26, 26, 26, 26, 26, 26, 26, 26, 26, 25.9375, 25.9375, 25.9375, 25.9375, 26, 25.9375, 25.75, 25.5625, 25.375, 25.1875, 25.125, 25.0625, 25, 25, 25, 25, 25, 25, 25, 25.0625, 25.098213, 25.026787, 25.0625, 25, 24.9375, 24.9375, 24.8125, 24.625, 24.6875, 24.583334, -10, -10, -10, 6, 6, 6.15625, 6.5, 6.7901783, 6.96875, 6.96875, 6.875, 6.84375, 6.9151783, 7.2708335, 7.4017859, 7.4375, 7.5267859, 7.9732146, 8.7857141, 9.5178566, 9.6339283, 9.5, 9.25, 8.875, 8.75, 8.8125, 9, 9.2232141, 9.375, 9.375, 9.3125, 9.3125, 9.3125, 9.25, 9.125, 9, 8.9375, 8.9375, 9, 9.1875, 9.375, 9.625, 9.875, 10.241072, 10.375, 10.330357, 10.223214, 10.09375, 10.477678, 11.200892, 11.620535, 12.080357, 12.303572, 12.794642, 13.425595, 13.772322, 13.96875, 14, 14.0625, 14.1875, 14.25, 14.5, 14.6875, 14.9375, 15.125, 15.25, 15.375, 15.4375, 15.5, 15.5625, 15.758928, 16.125, 16.625, 17.214287, 17.46875, 17.84375, 18.0625, 18.375, 18.90625, 19.566965, 20.151787, 20.633928, 21.217262, 21.522322, 21.977678, 22.614584, 23.026787, 23.375, 23.625, 23.75, 23.9375, 24.125, 24.25, 24.375, 24.625, 24.75, 24.9375, 25.25, 25.5, 25.75, 25.9375, 26, 26.084822, 26.415178, 26.678572, 26.90625, 27.28125, 27.59375, 28.075893, 28.375, 28.4375, 28.5625, 28.535713, 28.571428, 28.839287, 29.071428, 29.645834, 30.026785, 30.3125, 30.5, 30.6875, 30.8125, 30.9375, 31.1875, 31.3125, 31.40625, 31.46875, 31.40625, 31.46875, 31.705357, 31.96875, 32.09375, 32.3125, 32.53125, 32.65625, 32.78125, 32.839287, 33.125, 33.55357, 34.125, 34.589287, 34.875, 34.875, 35.15625, 35.379463, 35.683037, 35.96875, 36.25, 36.5, 36.625, 36.5625, 36.375, 36.0625, 35.875, 35.9375, 36.09375, 36.191963, 36.308037, 36.3125, 36.09375, 36.120537, 36.357143, 36.805557, 37.430557, 37.684525, 38.107143, 38.666668, 39.285717, 39.7551, 40.210884, 40.459187, 40.57143, 40.863094, 40.940475, 40.886906, 40.797619, 40.729168, 40.811012, 41.050594, 40.989799, 38.914684, 38.520832, 37.474998, -10, -10, -10, -10, -10, -10, -10, -10, -10, -10, -10, -10, -10, -10, -10, -10, -10, -10, -10, -10, -10, -10, -10, -10, -10, -10, 37.75, 37.666664, 37.6875, 37.8125, 37.8125, 37.6875, 37.5625, 37.3125, 36.9375, 36.625, 36.125, 35.8125, 35.4375, 35.3125, 34.928574, 34.5625, 34.375, 34.125, 34, 33.75, 33.625, 33.4375, 33.044643, 32.559525, 32.321426, 32.0625, 31.875, 31.8125, 31.6875, 31.4375, 31.375, 31.1875, 30.875, 30.6875, 30.4375, 30.375, 30.375, 30.3125, 30.3125, 30.125, 30, 30, 30.0625, 30.0625, 30.0625, 30.0625, 30, 30, 29.9375, 29.9375, 29.794643, 29.651787, 29.625, 29.607143, 29.625, 29.5, 29.375, 29.1875, 29.0625, 29, 29, 29, 29, 29, 29, 29, 29, 29, 29, 29, 29, 29, 29, 29, 28.875, 28.6875, 28.4375, 28.3125, 28.1875, 28.25, 28.375, 28.3125, 28.375, 28.4375, 28.375, 28.3125, 28.25, 28.125, 28.125, 28.3125, 28.3125, 28.25, 28.25, 28.0625, 28.0625, 27.9375, 27.8125, 27.8125, 27.6875, 27.5625, 27.375, 27.25, 27.25, 27.375, 27.5, 27.375, 27.25, 27.125, 27, 27, 27, 26.9375, 26.9375, 26.9375, 26.9375, 27, 27, 26.875, 26.8125, 26.75, 26.6875, 26.75, 26.8125, 26.75, 26.625, 26.4375, 26.1875, 26.0625, 26, 26, 26, 26, 26, 26, 26, 26, 26, 25.9375, 25.9375, 25.9375, 25.9375, 25.9375, 25.8125, 25.625, 25.5, 25.4375, 25.3125, 25.25, 25.125, 25, 25, 25, 25, 25, 25, 25, 25.0625, 25.035713, 24.964287, 25, 24.9375, 25, 25, 24.875, 24.6875, 24.625, 24.5, 15, 14.833334, 6, 6, 6, 6.1875, 6.5625, 6.8839283, 7.0625, 7.03125, 6.90625, 6.90625, 7.0401783, 7.4583335, 7.5267859, 7.4375, 7.4017859, 7.6607146, 8.4285707, 9.2678566, 9.4821424, 9.4375, 9.25, 9, 8.9375, 9, 9.1875, 9.4107141, 9.6875, 9.8571434, 9.8125, 9.75, 9.625, 9.5, 9.375, 9.1875, 9.0625, 9.0625, 9.0625, 9.25, 9.5, 9.6875, 9.875, 10.125, 10.25, 10.375, 10.303572, 10.214286, 10.616072, 11.285714, 11.714285, 12.174107, 12.4375, 12.776786, 13.291667, 13.584822, 13.71875, 13.8125, 13.9375, 14.125, 14.25, 14.5, 14.6875, 14.9375, 15.125, 15.25, 15.375, 15.4375, 15.5625, 15.6875, 15.883928, 16.25, 16.6875, 17.267857, 17.708334, 18.0625, 18.28125, 18.486607, 18.885416, 19.239796, 19.816328, 20.214285, 21.178572, 21.49375, 22.072916, 22.53125, 22.973213, 23.3125, 23.625, 23.75, 23.9375, 24.1875, 24.375, 24.5625, 24.8125, 24.875, 24.9375, 25.1875, 25.375, 25.5625, 25.75, 25.75, 25.897322, 26.227678, 26.491072, 26.6875, 27.008928, 27.604166, 28.107143, 28.4375, 28.4375, 28.4375, 28.375, 28.571428, 29, 29.321428, 30.020834, 30.339285, 30.625, 30.8125, 30.875, 30.9375, 31, 31.125, 31.1875, 31.21875, 31.21875, 31.15625, 31.28125, 31.580357, 31.84375, 32.03125, 32.1875, 32.40625, 32.53125, 32.71875, 32.8125, 32.946426, 33.357143, 33.9375, 34.401787, 34.6875, 34.8125, 35.15625, 35.486607, 35.825893, 36.15625, 36.4375, 36.6875, 36.8125, 36.6875, 36.4375, 36.125, 35.875, 35.875, 36, 36.160713, 36.339287, 36.53125, 36.53125, 36.65625, 36.78125, 37.297619, 37.904762, 38.229591, 38.642857, 39.238094, 39.795921, 40.1875, 40.428574, 40.455357, 40.446426, 40.32143, 40.125, 40.104168, 39.979168, 39.895832, 39.979168, 39.791668, 39.476192, 38.112247
37, 36.63393, 36.25, 35.875, 35.5, 35.3125, 34.928574, 34.5625, 34.375, 34.125, 34, 33.75, 33.5625, 33.3125, 32.875, 32.517857, 32.3125, 32.125, 32, 32, 31.875, 31.5625, 31.4375, 31.1875, 30.875, 30.6875, 30.5, 30.4375, 30.4375, 30.375, 30.3125, 30.125, 29.9375, 29.875, 29.892857, 30.083334, 30.107143, 30.125, 30.0625, 30, 29.9375, 29.9375, 29.794643, 29.651787, 29.6875, 29.607143, 29.625, 29.5, 29.3125, 29.1875, 29.125, 29.0625, 29.0625, 29, 28.9375, 28.9375, 28.9375, 29, 29, 29, 29, 29, 29, 29, 29, 29, 28.9375, 28.8125, 28.5625, 28.4375, 28.3125, 28.25, 28.3125, 28.25, 28.25, 28.375, 28.4375, 28.375, 28.3125, 28.1875, 28.1875, 28.375, 28.375, 28.3125, 28.25, 28.0625, 28.0625, 27.9375, 27.8125, 27.8125, 27.6875, 27.625, 27.4375, 27.25, 27.1875, 27.1875, 27.25, 27.1875, 27.125, 27.0625, 27, 27, 27, 27, 27, 27, 27, 27, 27, 26.875, 26.875, 26.875, 26.75, 26.75, 26.75, 26.6875, 26.6875, 26.5625, 26.3125, 26.125, 26, 26, 26, 26, 26.0625, 26.125, 26.125, 26.125, 26.0625, 26, 26, 26, 25.9375, 25.8125, 25.625, 25.4375, 25.4375, 25.5, 25.4375, 25.375, 25.1875, 25, 25, 25, 25, 25, 25, 25, 25, 25, 25, 25, 25, 25, 25, 24.8125, 24.6875, 24.5625, 24.416668, 15.166667, 15, 15, 6, 6, 6.15625, 6.46875, 6.7544641, 6.96875, 7.03125, 6.90625, 6.96875, 7.1026783, 7.4583335, 7.4821429, 7.375, 7.3125, 7.4196429, 8.2142859, 9.0803566, 9.3571424, 9.375, 9.25, 9.125, 9.1875, 9.3125, 9.5, 9.6875, 10, 10.232143, 10.25, 10.125, 9.9375, 9.75, 9.625, 9.4375, 9.25, 9.25, 9.21875, 9.28125, 9.46875, 9.6071434, 9.958333, 10.303572, 10.5, 10.625, 10.616072, 10.589286, 10.991072, 11.514882, 11.892857, 12.03125, 12.1875, 12.464286, 12.979167, 13.303572, 13.46875, 13.625, 13.8125, 14.0625, 14.25, 14.4375, 14.625, 14.875, 15.0625, 15.1875, 15.25, 15.25, 15.375, 15.5, 15.758928, 16.125, 16.5, 17.035715, 17.520834, 17.90625, 18.125, 18.258928, 18.5, 17.651785, 17.904762, 18.25, -10, 21.449999, 22.055555, 22.583334, 23.285713, 23.5, 23.75, 23.8125, 24, 24.3125, 24.5625, 24.8125, 25, 25.0625, 25.125, 25.3125, 25.4375, 25.5, 25.5625, 25.5, 25.709822, 26.040178, 26.303572, 26.5, 26.767857, 27.5625, 28.035715, 28.3125, 28.375, 28.4375, 28.5, 28.8125, 29.125, 29.446428, 30.083334, 30.339285, 30.5, 30.6875, 30.75, 30.875, 31, 31.125, 31.125, 31.09375, 31.09375, 31.03125, 31.21875, 31.580357, 31.78125, 31.96875, 32.0625, 32.28125, 32.40625, 32.674107, 32.973213, 33.196426, 33.6875, 33.9375, 34.383926, 34.625, 34.875, 35.28125, 35.611607, 35.96875, 36.34375, 36.5625, 36.75, 36.8125, 36.6875, 36.4375, 36.1875, 36, 35.9375, 36, 36.25, 36.5, 36.71875, 36.84375, 36.84375, 37.058037, 37.555061, 38.229168, 38.638393, 39.040176, 39.645832, 40.111607, 40.508926, 40.685715, 40.32143, 39.918365, 39.698978, 39.714287, 39.69643, 39.589287, 39.44643, 39.410713, 39.142857, 38.801022, 37.718754, 37.654762, 37.758331, -10, -10, -10, -10, -10, -10, -10, -10, -10, -10, -10, -10, -10, -10, -10, -10, -10, -10, -10, -10, -10, -10, -10, -10, -10, -10, 38, 38, 38, 38, 37.875, 37.75, 37.625, 37.375, 37.071426, 36.413689, 36.142857, 35.8125, 35.625, 35.4375, 34.991074, 34.455357, 34.3125, 34.0625, 33.9375, 33.642857, 33.375, 33.125, 32.8125, 32.5625, 32.375, 32.1875, 32, 32, 31.8125, 31.5, 31.375, 31.125, 30.8125, 30.6875, 30.5, 30.4375, 30.5625, 30.4375, 30.375, 30.25, 30, 29.9375, 30.017857, 30.145834, 30.169643, 30.1875, 30.0625, 30, 29.9375, 29.9375, 29.857143, 29.714287, 29.75, 29.607143, 29.5625, 29.4375, 29.25, 29.25, 29.25, 29.25, 29.25, 29.125, 29, 29, 29, 29.0625, 29.0625, 29, 29, 29, 29, 29, 28.9375, 28.875, 28.8125, 28.6875, 28.5625, 28.5, 28.375, 28.3125, 28.3125, 28.25, 28.1875, 28.25, 28.3125, 28.1875, 28.214287, 28.223213, 28.1875, 28.375, 28.3125, 28.25, 28.125, 28, 28, 27.9375, 27.875, 27.875, 27.8125, 27.75, 27.5625, 27.3125, 27.125, 27, 27, 27, 27, 27, 27, 27, 27, 27, 27, 27, 27, 27, 27, 26.875, 26.875, 26.875, 26.6875, 26.6875, 26.6875, 26.6875, 26.8125, 26.6875, 26.4375, 26.1875, 26, 26, 26, 26, 26, 26.0625, 26.0625, 26.0625, 26.0625, 26, 26, 26, 25.875, 25.75, 25.5625, 25.375, 25.4375, 25.5625, 25.5, 25.5, 25.375, 25.125, 25.125, 25.0625, 25, 25, 25, 25, 25, 25, 25, 25, 25, 25, 25, 24.75, 24.5625, 24.4375, 24.250002, 15.25, 15.083333, 15.083333, 6, 6, 6.1354165, 6.375, 6.625, 6.875, 7.03125, 7.03125, 7.15625, 7.28125, 7.4375, 7.5, 7.5, 7.6875, 7.9196429, 8.4017859, 9.1875, 9.4196424, 9.5625, 9.5, 9.4375, 9.5, 9.5, 9.625, 9.75, 10, 10.294643, 10.3125, 10.3125, 10.1875, 9.9375, 9.7250004, 9.6160717, 9.333333, 9.25, 9.21875, 9.3348217, 9.53125, 9.6071434, 10.136905, 10.446428, 10.65625, 10.78125, 10.772322, 10.714286, 11.053572, 11.407739, 11.714285, 11.90625, 11.96875, 12.214286, 12.675595, 13.199405, 13.428572, 13.5625, 13.75, 13.9375, 14.125, 14.3125, 14.4375, 14.625, 14.8125, 14.9375, 15, 15.0625, 15.1875, 15.3125, 15.571428, 15.946428, 16.395834, 16.857143, 17.333334, 17.625, 17.8125, 17.883928, 17.375, 17.040815, 17.163265, 17.535715, -10, -10, -10, -10, 23.660713, 23.75, 23.875, 23.875, 24, 24.3125, 24.5625, 24.8125, 25, 25.0625, 25.125, 25.375, 25.4375, 25.5, 25.46875, 25.21875, 25.446428, 25.988094, 26.375, 26.607143, 26.755358, 27.616072, 27.964287, 28.1875, 28.3125, 28.4375, 28.6875, 29.125, 29.4375, 29.696428, 30.145834, 30.303572, 30.4375, 30.5625, 30.6875, 30.8125, 30.9375, 31.125, 31.1875, 31.25, 31.375, 31.375, 31.5, 31.6875, 31.75, 31.9375, 32.0625, 32.3125, 32.5, 32.705357, 32.973213, 33.1875, 33.5625, 33.8125, 34.258926, 34.5625, 34.75, 35.15625, 35.513393, 36.013393, 36.46875, 36.75, 36.8125, 36.75, 36.625, 36.375, 36.25, 36.1875, 36.125, 36.1875, 36.4375, 36.625, 36.8125, 37, 37, 37.276787, 37.745537, 38.125, 38.5625, 38.946426, 39.552082, 39.973213, 40.392857, 40.685715, 40.151787, 39.532738, 39.226189, 39.150002, 38.912949, 38.819199, 38.694199, 39.057293, 38.888393, 38.65625, 37.819942
37.071426, 36.458332, 36.205357, 35.875, 35.625, 35.4375, 34.928574, 34.392857, 34.25, 34, 33.9375, 33.642857, 33.375, 33.125, 32.8125, 32.5625, 32.375, 32.1875, 32.125, 32.125, 31.875, 31.517857, 31.3125, 31.0625, 30.8125, 30.6875, 30.5, 30.4375, 30.5625, 30.4375, 30.375, 30.25, 30, 29.9375, 30.017857, 30.145834, 30.169643, 30.1875, 30.0625, 30, 30, 30, 30, 30, 29.9375, 29.6875, 29.5625, 29.375, 29.1875, 29.3125, 29.375, 29.4375, 29.4375, 29.25, 29.125, 29.125, 29.125, 29.1875, 29.125, 29, 29, 29, 29, 29, 28.875, 28.75, 28.625, 28.5, 28.5, 28.4375, 28.375, 28.375, 28.375, 28.375, 28.3125, 28.25, 28.25, 28.1875, 28.214287, 28.223213, 28.125, 28.1875, 28.125, 28.125, 28.125, 28.0625, 28.0625, 28.0625, 28, 27.9375, 27.9375, 27.875, 27.625, 27.4375, 27.1875, 27, 27, 27, 27, 27, 27, 27, 27, 27, 27, 27.0625, 27.0625, 27.0625, 27.0625, 26.9375, 26.875, 26.8125, 26.625, 26.5, 26.5, 26.5, 26.625, 26.5625, 26.375, 26.1875, 26, 26, 26, 26, 25.9375, 25.9375, 25.90625, 25.90625, 25.96875, 25.96875, 26, 26, 25.875, 25.75, 25.5625, 25.3125, 25.3125, 25.4375, 25.4375, 25.5625, 25.5625, 25.3125, 25.25, 25.125, 25, 25, 25, 25, 25, 25, 25, 25, 24.9375, 24.9375, 24.9375, 24.6875, 24.5625, 24.4375, 24.250002, 15.375, 15.166666, 15.0625, 14.833334, 6, 6.1041665, 6.3125, 6.5625, 6.8125, 6.96875, 6.9375, 7, 7.125, 7.375, 7.5625, 7.625, 7.8125, 8.0982141, 8.7946434, 9.3303566, 9.5982141, 9.6875, 9.75, 9.75, 9.8125, 9.8125, 9.8839283, 10.125, 10.3125, 10.669643, 10.5625, 10.5, 10.3125, 9.9285717, 9.6499996, 9.7946434, 9.5744047, 9.5, 9.46875, 9.5848217, 9.8258934, 9.9196434, 10.386905, 10.508928, 10.59375, 10.59375, 10.65625, 10.839286, 11.169643, 11.366072, 11.642857, 12, 12.0625, 12.25, 12.258928, 12.699405, 13.095239, 13.3125, 13.5625, 13.6875, 13.875, 14.0625, 14.1875, 14.3125, 14.5625, 14.75, 14.875, 15, 15.0625, 15.125, 15.3125, 15.633928, 16.252977, 16.607143, 17.145834, 17.3125, 17.455357, 17.607143, 17.208332, 16.589285, 16.607141, 17.083334, -10, -10, -10, -10, 23.875, 23.9375, 24, 24, 24.0625, 24.3125, 24.5625, 24.8125, 24.9375, 25.026787, 25.160713, 25.3125, 25.4375, 25.375, 25.3125, 25.1875, 25.446428, 26.208332, 26.553572, 26.678572, 26.592857, 27.5, 27.82143, 28.125, 28.3125, 28.5625, 28.919643, 29.375, 29.6875, 29.875, 30.0625, 30.125, 30.1875, 30.3125, 30.5, 30.6875, 30.875, 31.0625, 31.1875, 31.3125, 31.5, 31.625, 31.75, 31.875, 31.875, 32.0625, 32.1875, 32.4375, 32.625, 32.767857, 32.973213, 33.125, 33.5, 33.75, 34.1875, 34.4375, 34.6875, 35.0625, 35.491074, 36.190475, 36.616074, 36.875, 36.875, 36.75, 36.6875, 36.5, 36.5, 36.5625, 36.5, 36.5625, 36.6875, 36.75, 36.875, 37, 36.9375, 37.178574, 37.69643, 38.125, 38.5625, 38.946426, 39.520832, 39.803574, 40.267857, 40.623215, 40.25, 39.720238, 39.476189, 39.462502, 39.118305, 38.694199, 38.569199, 38.989586, 38.930805, 38.75, 38.090775, 37.977676, 38.020832, -10, -10, -10, -10, -10, -10, -10, -10, -10, -10, -10, -10, -10, -10, -10, -10, -10, -10, -10, -10, -10, -10, -10, -10, -10, -10, 37.833332, 37.791668, 37.854168, 37.8125, 37.6875, 37.625, 37.4375, 37.3125, 37.196426, 36.520832, 36.267857, 35.9375, 35.625, 35.4375, 34.9375, 34.517857, 34.3125, 34.0625, 33.9375, 33.642857, 33.4375, 33.1875, 32.875, 32.580357, 32.3125, 32.125, 32.0625, 32.0625, 31.8125, 31.455357, 31.25, 31, 30.875, 30.8125, 30.625, 30.5, 30.5, 30.3125, 30.25, 30.25, 30.0625, 30, 30.080357, 30.145834, 30.169643, 30.1875, 30, 29.9375, 29.9375, 29.9375, 30, 30, 30, 29.8125, 29.6875, 29.5, 29.3125, 29.4375, 29.5625, 29.625, 29.5625, 29.25, 29.0625, 29.0625, 29.0625, 29.1875, 29.125, 29, 29, 29, 29, 29, 28.875, 28.75, 28.5625, 28.375, 28.375, 28.25, 28.3125, 28.4375, 28.4375, 28.5, 28.375, 28.25, 28.1875, 28.125, 28.151787, 28.160713, 28.125, 28.125, 28.0625, 28.0625, 28.0625, 28.0625, 28.0625, 28.0625, 28, 27.875, 27.875, 27.875, 27.625, 27.5, 27.25, 27, 27, 27, 27, 27, 27, 27, 27, 27, 27, 27.0625, 27.0625, 27.0625, 27.0625, 27, 26.9375, 26.8125, 26.625, 26.4375, 26.375, 26.375, 26.4375, 26.375, 26.3125, 26.1875, 26.0625, 26.0625, 26, 26, 25.9375, 25.875, 25.870537, 25.941963, 25.96875, 26.03125, 26, 26, 25.875, 25.75, 25.5625, 25.3125, 25.25, 25.375, 25.4375, 25.5625, 25.625, 25.375, 25.25, 25.125, 25, 25, 25, 25, 25.0625, 25.0625, 25.0625, 25.0625, 24.9375, 24.9375, 24.9375, 24.6875, 24.5625, 24.5, 24.333334, 15.625, 15.416666, 15.3125, 14.833334, 6, 6.0729165, 6.2901783, 6.65625, 6.84375, 7.03125, 6.9375, 6.9375, 7.0625, 7.3125, 7.5625, 7.6875, 7.875, 8.2232141, 8.9732141, 9.5, 9.75, 9.875, 10, 10.0625, 10.1875, 10.25, 10.321428, 10.625, 10.75, 10.919643, 10.604167, 10.446428, 10.3125, 9.9285717, 9.4416666, 9.6071434, 9.3869047, 9.4375, 9.53125, 9.7098217, 9.9508934, 10.107143, 10.485119, 10.410714, 10.53125, 10.513393, 10.65625, 10.875, 11.0625, 11.1875, 11.464285, 12, 11.9375, 12.017857, 11.946428, 12.324405, 12.845239, 13.125, 13.4375, 13.625, 13.875, 14.0625, 14.1875, 14.3125, 14.5, 14.75, 14.875, 15, 15, 15, 15.15625, 15.462053, 16.081102, 16.381697, 16.734375, 16.9375, 17.1875, 17.321428, 16.791666, 16.589285, 16.544641, 17.083334, 17.514286, -10, -10, -10, 23.666666, 23.857143, 24, 24, 24.125, 24.375, 24.625, 24.875, 24.875, 24.991074, 25.196426, 25.25, 25.5, 25.375, 25.375, 25.375, 25.633928, 26.458332, 26.803572, 26.991072, 26.833929, 27.458334, 27.69643, 27.875, 28.0625, 28.357143, 28.961309, 29.375, 29.625, 29.75, 29.875, 30, 30.125, 30.25, 30.5, 30.6875, 30.875, 31.0625, 31.25, 31.4375, 31.6875, 31.9375, 32, 32.0625, 32.0625, 32.125, 32.3125, 32.5625, 32.75, 32.955357, 33.160713, 33.3125, 33.625, 33.8125, 34.25, 34.5625, 34.8125, 35.125, 35.383926, 36.011902, 36.574402, 36.866074, 36.875, 36.75, 36.75, 36.625, 36.6875, 36.8125, 36.75, 36.8125, 36.875, 36.875, 36.9375, 37, 36.866074, 36.966072, 37.642857, 38.151787, 38.6875, 39.125, 39.5625, 39.8125, 40.205357, 40.694641, 40.773808, 40.327381, 39.985119, 39.730354, 39.22768, 38.772324, 38.629463, 38.851192, 38.870537, 38.6875, 38.330357
37.196426, 36.520832, 36.267857, 35.9375, 35.625, 35.4375, 35, 34.580357, 34.375, 34.125, 34, 33.705357, 33.5625, 33.3125, 33, 32.767857, 32.4375, 32.1875, 32.0625, 31.9375, 31.6875, 31.392857, 31.1875, 31, 30.9375, 30.9375, 30.6875, 30.5, 30.375, 30.125, 30.125, 30.1875, 30.125, 30.125, 30.1875, 30.0625, 30.0625, 30.0625, 29.9375, 29.9375, 29.9375, 29.9375, 30, 30, 30, 29.875, 29.8125, 29.6875, 29.5625, 29.6875, 29.6875, 29.6875, 29.5625, 29.1875, 29.089287, 29.160713, 29.125, 29.25, 29.125, 29, 29, 29, 29, 28.9375, 28.8125, 28.6875, 28.5, 28.3125, 28.3125, 28.1875, 28.1875, 28.375, 28.375, 28.4375, 28.375, 28.1875, 28.0625, 28, 28.026787, 28.098213, 28.0625, 28.0625, 28, 28, 28, 28, 28, 28, 28, 27.875, 27.8125, 27.75, 27.5, 27.375, 27.1875, 27, 27, 27, 27, 27, 27, 27, 27, 27, 27, 27.0625, 27.0625, 27.0625, 27.0625, 27, 26.9375, 26.8125, 26.625, 26.4375, 26.3125, 26.25, 26.3125, 26.25, 26.25, 26.1875, 26.0625, 26.0625, 26, 26, 25.875, 25.75, 25.745537, 25.816963, 25.90625, 26.03125, 26, 26, 25.9375, 25.8125, 25.6875, 25.5, 25.375, 25.5, 25.5625, 25.6875, 25.75, 25.5, 25.3125, 25.125, 25, 25, 25, 25, 25.0625, 25.0625, 25.0625, 25.0625, 24.9375, 24.9375, 24.875, 24.625, 24.4375, 24.4375, 24.333334, 15.75, 15.5, 15.395834, 6, 6, 6.0416665, 6.2678571, 6.75, 6.875, 7.09375, 7, 7, 7.125, 7.3125, 7.4375, 7.5625, 7.75, 8.2142859, 9.0446434, 9.6071434, 9.875, 10.125, 10.3125, 10.4375, 10.625, 10.625, 10.696428, 11, 11.0625, 11.160714, 10.583334, 10.392857, 10.25, 9.8660717, 9.3166666, 9.4196434, 9.1994047, 9.3125, 9.4375, 9.7410717, 10.044643, 10.25, 10.4375, 10.232143, 10.459822, 10.441964, 10.65625, 10.8125, 10.875, 10.9375, 11.151785, 11.6875, 11.6875, 11.705357, 11.633928, 12.074405, 12.77381, 13.169643, 13.5, 13.6875, 13.875, 14.0625, 14.1875, 14.3125, 14.5, 14.75, 14.875, 15, 14.9375, 14.875, 14.96875, 15.258928, 15.877977, 16.147322, 16.4375, 16.53125, 16.75, 16.955357, 16.75, 16.767857, 16.879463, 17.440477, 18.009523, 19.25, 19.660713, 20.571428, 23.333332, 23.714287, 24, 24.0625, 24.1875, 24.4375, 24.6875, 24.875, 24.875, 24.991074, 25.133926, 25.125, 25.4375, 25.3125, 25.4375, 25.5625, 25.821428, 26.708332, 27.053572, 27.241072, 27.012499, 27.4375, 27.642857, 27.8125, 28, 28.294643, 28.898809, 29.25, 29.53125, 29.65625, 29.78125, 30.03125, 30.25, 30.375, 30.625, 30.75, 30.875, 31.0625, 31.3125, 31.5625, 31.8125, 32.0625, 32.125, 32.125, 32.125, 32.25, 32.4375, 32.6875, 33, 33.1875, 33.3125, 33.5, 33.6875, 33.8125, 34.1875, 34.5, 34.75, 35.125, 35.383926, 36.011902, 36.574402, 36.866074, 36.9375, 36.875, 36.875, 36.8125, 36.875, 37, 36.973213, 36.892857, 36.892857, 36.875, 36.9375, 37, 36.928574, 37.064285, 37.723213, 38.258926, 38.71875, 39.15625, 39.53125, 39.78125, 40.196426, 40.732143, 41.202381, 41.023811, 40.363945, 39.783928, 39.408165, 38.887756, 38.598213, 38.744049, 38.839287, 38.65625, 38.361607, 38.15625, 37.916668, -10, -10, -10, -10, -10, -10, -10, -10, -10, -10, -10, -10, -10, -10, -10, -10, -10, -10, -10, -10, -10, -10, -10, -10, -10, -10, -10, 37.541668, 37.6875, 37.625, 37.75, 37.6875, 37.4375, 37.375, 37.1875, 36.8125, 36.5625, 36.1875, 35.75, 35.4375, 35, 34.580357, 34.3125, 34.0625, 34, 33.75, 33.625, 33.375, 33, 32.767857, 32.4375, 32.1875, 32.125, 31.9375, 31.6875, 31.392857, 31.125, 31, 31, 31, 30.8125, 30.5625, 30.3125, 30.0625, 30, 30.0625, 30.0625, 30.0625, 30.0625, 30, 30, 30, 29.9375, 29.9375, 29.9375, 29.9375, 30, 30, 30, 29.9375, 29.9375, 29.875, 29.8125, 29.875, 29.75, 29.625, 29.4375, 29.0625, 29.026787, 29.098213, 29.0625, 29.1875, 29.125, 29.0625, 29.0625, 29.0625, 29, 28.9375, 28.8125, 28.6875, 28.5, 28.375, 28.3125, 28.1875, 28.1875, 28.25, 28.25, 28.25, 28.1875, 28.0625, 28, 28.0625, 28.0625, 28.0625, 28.0625, 28, 28, 28, 27.9375, 27.9375, 27.9375, 27.9375, 28, 27.875, 27.741072, 27.5, 27.3125, 27.1875, 27.1875, 27.0625, 27.125, 27.125, 27.0625, 27.0625, 27, 27, 27, 27, 27, 27.0625, 27.0625, 27.0625, 27.0625, 27, 26.9375, 26.8125, 26.6875, 26.4375, 26.25, 26.1875, 26.1875, 26.1875, 26.25, 26.1875, 26.0625, 26.0625, 26, 26, 25.9375, 25.8125, 25.808037, 25.879463, 25.90625, 26.03125, 26, 26, 26, 25.875, 25.75, 25.625, 25.5, 25.625, 25.75, 25.8125, 25.75, 25.5, 25.25, 25.0625, 25, 25, 25, 25, 25.0625, 25.0625, 25.0625, 25.0625, 24.9375, 24.9375, 24.8125, 24.625, 24.5, 24.5, 24.500002, 15.875, 15.583333, 15.5, 6.1666665, 6.0833335, 6.0625, 6.2455359, 6.84375, 6.90625, 7.15625, 7, 7, 7.125, 7.25, 7.25, 7.2767859, 7.4910717, 7.9285717, 8.8571434, 9.4821434, 9.8125, 10.125, 10.3125, 10.5, 10.8125, 10.982143, 11.133928, 11.5, 11.5, 11.473214, 10.770834, 10.392857, 10.1875, 9.8035717, 9.3416672, 9.3035717, 9.1785717, 9.4375, 9.5625, 9.8125, 10.044643, 10.3125, 10.383928, 10.276786, 10.553572, 10.535714, 10.75, 10.875, 10.875, 10.9375, 11.080357, 11.4375, 11.4375, 11.392857, 11.375, 11.669643, 12.636906, 13.160714, 13.5625, 13.75, 13.9375, 14, 14.125, 14.3125, 14.544643, 14.75, 14.875, 14.9375, 14.84375, 14.8125, 14.84375, 15.03125, 15.419643, 15.625, 15.96875, 16.15625, 16.4375, 16.705357, 16.625, 16.830357, 17.09375, 17.690477, 18.340477, 19.404762, 19.773809, 20.571428, 23, 23.571428, 24, 24.125, 24.25, 24.5, 24.75, 24.875, 24.875, 24.991074, 25.133926, 25.0625, 25.4375, 25.3125, 25.4375, 25.6875, 25.866072, 26.510416, 26.825893, 27.040178, 26.93125, 27.321428, 27.589287, 27.75, 27.9375, 28.169643, 28.711309, 28.9375, 29.21875, 29.40625, 29.638393, 30.03125, 30.375, 30.5, 30.75, 30.75, 30.75, 30.9375, 31.125, 31.4375, 31.75, 32, 32.125, 32.125, 32.125, 32.25, 32.4375, 32.6875, 33.0625, 33.3125, 33.5, 33.6875, 33.8125, 33.9375, 34.25, 34.5625, 34.8125, 35, 35.196426, 35.946426, 36.529762, 36.866074, 37, 37, 37, 37, 37, 37.125, 37.071426, 36.785713, 36.785713, 36.75, 36.875, 37, 36.866074, 36.939285, 37.49107, 38.071426, 38.5625, 39.0625, 39.5, 39.75, 40.1875, 40.607143, 41.309525, 41.375, 40.785713, 40.217262, 39.767857, 39.25, 39.098213, 38.702381, 38.732143, 38.53125, 38.397324
37.125, 36.75, 36.5, 36.1875, 35.875, 35.625, 35.3125, 34.892857, 34.625, 34.375, 34.1875, 33.9375, 33.75, 33.4375, 33.125, 32.830357, 32.5, 32.25, 32.0625, 31.875, 31.625, 31.375, 31.125, 31, 31, 31, 30.8125, 30.5625, 30.3125, 30.0625, 30.0625, 30.125, 30.125, 30.125, 30.0625, 30, 30, 30, 29.9375, 29.9375, 29.9375, 29.9375, 30, 30, 30, 30, 30, 30, 30, 29.9375, 29.75, 29.5, 29.25, 28.9375, 28.901787, 28.973213, 28.9375, 29.0625, 29.0625, 29.0625, 29.0625, 29.0625, 29, 28.9375, 28.875, 28.8125, 28.625, 28.5625, 28.4375, 28.25, 28.25, 28.1875, 28.125, 28.125, 28.0625, 28, 28, 28, 28, 28, 28, 28, 28, 28, 27.875, 27.875, 27.875, 27.875, 28, 27.875, 27.678572, 27.375, 27.1875, 27.0625, 27.125, 27.0625, 27.125, 27.125, 27.0625, 27.0625, 27, 27, 27.0625, 27.125, 27.125, 27.125, 27.0625, 27, 27, 27, 27, 26.9375, 26.75, 26.5, 26.25, 26.125, 26.1875, 26.1875, 26.25, 26.1875, 26.0625, 26.0625, 26, 26, 26, 25.9375, 25.964287, 26.035713, 26, 26.0625, 26, 26, 26, 25.875, 25.8125, 25.75, 25.6875, 25.8125, 25.8125, 25.8125, 25.625, 25.375, 25.1875, 25, 25, 25, 25, 24.9375, 24.9375, 24.9375, 24.9375, 25.0625, 25.035713, 24.964287, 24.875, 24.6875, 24.625, 24.625, 24.666668, 16, 15.75, 15.75, 6.25, 6.166667, 6.125, 6.2857141, 7, 7, 7.1875, 6.875, 6.8125, 6.8125, 6.9464283, 7.1458335, 7.2678576, 7.6785717, 8.125, 8.7946434, 9.3392859, 9.625, 10, 10.1875, 10.5, 10.875, 11.107143, 11.25, 11.4375, 11.4375, 11.348214, 10.833334, 10.455357, 10.25, 9.9375, 9.479167, 9.3125, 9.1875, 9.4375, 9.625, 9.8125, 9.9375, 10.125, 10.258928, 10.276786, 10.678572, 10.785714, 10.9375, 11, 10.9375, 10.9375, 11.071428, 11.25, 11.25, 11.267857, 11.375, 11.678572, 12.532739, 13.098214, 13.544643, 13.8125, 14, 14, 14.1875, 14.5, 14.732143, 14.767857, 14.830357, 14.723214, 14.486607, 14.383928, 14.352678, 14.677083, 14.991072, 15.21875, 15.5, 15.78125, 16.044643, 16.263393, 16.34375, 16.6875, 17.138393, 17.714287, 18.440477, 19.386906, 19.758928, 20.571428, 22.666666, 23.428572, 24, 24.1875, 24.34375, 24.53125, 24.78125, 24.84375, 24.875, 25.026787, 25.098213, 25.125, 25.4375, 25.4375, 25.5625, 25.75, 25.875, 26.15625, 26.46875, 26.71875, 26.84375, 27.1875, 27.410713, 27.5625, 27.8125, 28.026787, 28.479166, 28.6875, 28.90625, 29.09375, 29.459822, 30.114584, 30.553572, 30.75, 30.9375, 30.875, 30.8125, 30.9375, 31.0625, 31.375, 31.6875, 31.875, 32.0625, 32.0625, 32.0625, 32.25, 32.4375, 32.6875, 33.0625, 33.375, 33.625, 33.875, 34.0625, 34.1875, 34.4375, 34.6875, 34.9375, 35.1875, 35.482143, 35.988094, 36.476189, 36.741074, 36.875, 36.875, 36.9375, 36.9375, 36.9375, 37.125, 37.008926, 36.723213, 36.723213, 36.6875, 36.875, 37, 36.991074, 37.099998, 37.571426, 38.071426, 38.5, 38.9375, 39.3125, 39.625, 40.0625, 40.526787, 41.273811, 41.5, 40.964287, 40.154762, 39.803574, 39.625, 39.455357, 38.785713, 38.705357, 38.4375, 38.410713, 38.112499, 38.216667, -10, -10, -10, -10, -10, -10, -10, -10, -10, -10, -10, -10, -10, -10, -10, -10, -10, -10, -10, -10, -10, -10, -10, -10, -10, -10, 38, 37.75, 37.833336, 37.8125, 37.9375, 37.8125, 37.5625, 37.375, 37, 36.6875, 36.5, 36.25, 36.0625, 35.875, 35.625, 35.267857, 34.991074, 34.541668, 34.258926, 34, 33.75, 33.4375, 33.1875, 32.9375, 32.625, 32.375, 32.125, 31.875, 31.625, 31.375, 31.125, 31, 31, 30.9375, 30.75, 30.5, 30.3125, 30.125, 30.1875, 30.1875, 30.125, 30.125, 30, 30, 30, 30, 30, 30, 30, 30, 30, 30, 30, 30, 30, 30, 30, 29.875, 29.625, 29.375, 29.125, 28.9375, 28.964287, 29.035713, 29, 29.0625, 29.0625, 29.0625, 29.0625, 29.0625, 29, 28.9375, 28.875, 28.8125, 28.625, 28.625, 28.5625, 28.375, 28.3125, 28.125, 28, 28, 28, 28, 28, 28, 28, 28, 28, 28, 28, 28, 27.875, 27.875, 27.875, 27.875, 28, 27.875, 27.616072, 27.25, 27.0625, 26.9375, 27.0625, 27.125, 27.25, 27.25, 27.1875, 27.125, 27, 27, 27.0625, 27.1875, 27.1875, 27.1875, 27.125, 27, 27, 27, 27, 26.9375, 26.75, 26.5, 26.25, 26.125, 26.25, 26.25, 26.25, 26.1875, 26, 26, 26, 26, 26.0625, 26.125, 26.1875, 26.1875, 26.125, 26.0625, 26, 26, 26, 25.9375, 25.9375, 25.9375, 25.9375, 26, 25.9375, 25.9375, 25.6875, 25.4375, 25.25, 25, 25, 25, 25, 24.9375, 24.875, 24.875, 24.875, 25, 25.035713, 24.964287, 24.875, 24.75, 24.75, 24.75, 24.833334, 16, 15.833334, 15.833334, 6.25, 6.166667, 6.125, 6.2857141, 7, 7, 7.125, 6.75, 6.625, 6.5625, 6.6964283, 6.9583335, 7.1428576, 7.6160717, 8.125, 8.7232141, 9.1696434, 9.5, 9.9375, 10.160714, 10.4375, 10.8125, 10.982143, 11.1875, 11.375, 11.3125, 11.241072, 10.854167, 10.508928, 10.3125, 9.9732141, 9.6517859, 9.5625, 9.4375, 9.625, 9.75, 9.8125, 9.8125, 9.9553566, 10.306547, 10.491072, 10.866072, 10.928572, 11, 11, 11, 11, 11.09375, 11.15625, 11.21875, 11.34375, 11.5625, 11.928572, 12.720239, 13.223214, 13.607143, 13.8125, 13.9375, 13.9375, 14.0625, 14.25, 14.508928, 14.553572, 14.580357, 14.535714, 14.299107, 14.196428, 14.133928, 14.473958, 14.725447, 14.890625, 15.078125, 15.21875, 15.3125, 15.65625, 15.96875, 16.4375, 17.075893, 17.714287, 18.416668, 19.515875, 19.821428, 20.571428, 22.999998, 23.57143, 24, 24.25, 24.375, 24.541666, 24.71875, 24.760416, 24.875, 25.0625, 25.125, 25.25, 25.5, 25.625, 25.6875, 25.875, 25.9375, 26.09375, 26.34375, 26.40625, 26.59375, 27, 27.392857, 27.6875, 28, 28.241072, 28.5625, 28.6875, 28.84375, 28.995537, 29.370535, 29.936012, 30.535715, 30.741072, 30.9375, 30.875, 30.8125, 30.9375, 31.0625, 31.375, 31.625, 31.6875, 31.875, 31.875, 32, 32.5, 32.5625, 32.776787, 33.0625, 33.25, 33.571426, 34.020832, 34.241074, 34.4375, 34.625, 34.875, 35.125, 35.3125, 35.669643, 36.166668, 36.42857, 36.6875, 36.8125, 36.8125, 36.9375, 36.9375, 36.9375, 37.125, 37.008926, 36.723213, 36.723213, 36.6875, 36.875, 37, 37.0625, 37.3125, 37.6875, 38.142857, 38.4375, 38.8125, 39.125, 39.544643, 40.0625, 40.544643, 41.075893, 41.415176, 40.92857, 39.99107, 39.732143, 39.5625, 39.473213, 39.017857, 38.8125, 38.424999, 38.526787
36.75, 36.5, 36.4375, 36.25, 36.1875, 36.0625, 35.741074, 35.247025, 34.866074, 34.416668, 34.196426, 34, 33.75, 33.4375, 33.1875, 32.875, 32.625, 32.375, 32.125, 31.875, 31.625, 31.375, 31.125, 31, 31, 30.875, 30.6875, 30.4375, 30.25, 30.125, 30.25, 30.25, 30.1875, 30.1875, 30, 30, 30, 30, 30, 30, 30, 30, 30, 30, 30, 30, 30, 30, 30, 29.8125, 29.5625, 29.375, 29.1875, 29.125, 29.125, 29.0625, 29, 29.0625, 29.125, 29.125, 29.125, 29.0625, 29, 29, 28.9375, 28.875, 28.6875, 28.6875, 28.6875, 28.5, 28.4375, 28.1875, 28, 28, 28, 28, 28, 28, 28, 28, 28, 28, 28, 28, 27.9375, 27.9375, 27.9375, 27.9375, 28, 27.875, 27.678572, 27.3125, 27.1875, 27.0625, 27.125, 27.25, 27.375, 27.375, 27.3125, 27.1875, 27, 27, 27.0625, 27.1875, 27.1875, 27.1875, 27.125, 27, 27, 27, 27, 26.9375, 26.75, 26.5, 26.25, 26.125, 26.1875, 26.1875, 26.25, 26.25, 26.1875, 26.1875, 26.125, 26.0625, 26.0625, 26.125, 26.1875, 26.1875, 26.125, 26.0625, 26, 26, 26, 26.0625, 26.0625, 26.0625, 26.0625, 25.9375, 25.875, 25.875, 25.6875, 25.5, 25.3125, 25.0625, 25, 25, 25, 24.9375, 24.875, 24.875, 24.875, 25, 25.035713, 24.964287, 24.875, 24.75, 24.75, 24.75, 24.833334, 16, 15.916667, 15.916667, 6.25, 6.166667, 6.1875, 6.4017859, 7.0357141, 7.0625, 7.125, 6.75, 6.5625, 6.5, 6.6339283, 6.9583335, 7.2053576, 7.6785717, 8.1339283, 8.6517859, 9, 9.375, 9.8125, 10.071428, 10.3125, 10.625, 10.794643, 11, 11.125, 11, 10.875, 10.6875, 10.5, 10.4375, 10.160714, 9.9017859, 9.875, 9.75, 9.875, 10, 9.9375, 9.9375, 10.080357, 10.458333, 10.741072, 11, 11.0625, 11.125, 11.125, 11.125, 11.125, 11.21875, 11.40625, 11.504464, 11.71875, 11.9375, 12.178572, 12.791667, 13.116072, 13.419643, 13.625, 13.8125, 13.875, 14, 14.125, 14.383928, 14.428572, 14.517857, 14.473214, 14.174107, 14, 13.915178, 14.208333, 14.397322, 14.5, 14.625, 14.8125, 14.9375, 15.28125, 15.65625, 16.0625, 16.669643, 17.294643, 17.771429, -10, -10, -10, 23.333332, 23.714287, 24, -10, -10, -10, 24.59375, 24.677082, 24.8125, 25.071428, 25.3125, 25.4375, 25.6875, 25.8125, 25.8125, 26, 26, 26.09375, 26.28125, 26.28125, 26.53125, 26.9375, 27.392857, 27.6875, 28, 28.25, 28.770834, 28.857143, 28.96875, 29.058037, 29.370535, 29.873512, 30.410715, 30.553572, 30.75, 30.6875, 30.625, 30.75, 30.875, 31.294643, 31.5, 31.59375, 31.71875, 31.78125, 31.96875, 32.5, 32.6875, 32.946426, 33.125, 33.339287, 33.74107, 34.199406, 34.491074, 34.6875, 34.8125, 35.0625, 35.3125, 35.375, 35.732143, 36.166668, 36.410713, 36.625, 36.75, 36.6875, 36.75, 36.8125, 36.75, 36.875, 36.848213, 36.705357, 36.767857, 36.8125, 36.9375, 37, 37.0625, 37.3125, 37.6875, 38.142857, 38.375, 38.625, 38.892857, 39.440475, 39.928574, 40.419643, 40.84375, 41.28125, 41.17857, 40.3125, 40.044643, 39.8125, 39.723213, 39.375, 39.125, 38.737499, 38.776787, 38.344643, 38.633331, -10, -10, -10, -10, -10, -10, -10, -10, -10, -10, -10, -10, -10, -10, -10, -10, -10, -10, -10, -10, -10, -10, -10, -10, -10, -10, 37.791668, 37.966667, 37.9375, 38.0625, 38, 37.8125, 37.5625, 37.160713, 36.520832, 36.25, 36.25, 36.160713, 36.017857, 35.875, 35.553574, 35.166668, 34.803574, 34.416668, 34.196426, 34.0625, 33.8125, 33.5, 33.25, 32.875, 32.625, 32.375, 32.125, 31.9375, 31.6875, 31.4375, 31.1875, 31, 30.9375, 30.75, 30.5, 30.25, 30.125, 30.0625, 30.25, 30.25, 30.1875, 30.1875, 30, 30, 30, 30, 30, 30, 30, 30, 30, 30, 30, 29.9375, 29.964287, 30.035713, 30, 29.875, 29.553572, 29.299999, 29.303572, 29.232143, 29.25, 29.125, 29, 29.125, 29.1875, 29.1875, 29.1875, 29.0625, 29, 29, 29, 29, 28.875, 28.875, 28.875, 28.616072, 28.375, 28.1875, 27.9375, 28.0625, 28.0625, 28.0625, 28.125, 28.0625, 28.0625, 28.0625, 28, 28, 28, 28, 28, 28, 28, 28, 28, 27.875, 27.75, 27.5, 27.375, 27.25, 27.125, 27.3125, 27.3125, 27.3125, 27.3125, 27.125, 27, 27, 27.0625, 27.1875, 27.1875, 27.1875, 27.125, 27, 27, 27, 27, 26.9375, 26.75, 26.5, 26.25, 26.0625, 26.0625, 26.0625, 26.125, 26.1875, 26.25, 26.3125, 26.25, 26.1875, 26.125, 26.125, 26.1875, 26.1875, 26.125, 26, 25.9375, 25.9375, 25.9375, 26.0625, 26.0625, 26.0625, 26, 25.8125, 25.6875, 25.6875, 25.5625, 25.4375, 25.3125, 25.0625, 25, 25, 25, 24.9375, 24.875, 24.875, 24.875, 25, 25.035713, 24.964287, 24.9375, 24.75, 24.75, 24.75, 24.75, 16, 16, 16, 6.125, 6.0833335, 6.1875, 6.5178566, 7.0714283, 7.125, 7.125, 6.75, 6.5625, 6.5, 6.6339283, 7.0208335, 7.2410717, 7.5625, 8, 8.5089283, 8.8125, 9.1875, 9.5625, 9.8839283, 10.125, 10.375, 10.5, 10.625, 10.6875, 10.625, 10.5, 10.4375, 10.375, 10.375, 10.223214, 10.026786, 10.125, 10, 10.0625, 10.125, 9.9375, 10, 10.142857, 10.583333, 10.866072, 11.0625, 11.125, 11.1875, 11.1875, 11.1875, 11.1875, 11.28125, 11.53125, 11.691964, 12.03125, 12.1875, 12.375, 12.6875, 12.875, 13.169643, 13.375, 13.625, 13.8125, 14, 14.125, 14.339286, 14.428572, 14.517857, 14.464286, 13.934525, 13.633928, 13.540178, 13.864583, 14.084822, 14.21875, 14.3125, 14.53125, 14.65625, 15, 15.375, 15.71875, 16.28125, 16.836309, 17.51111, -10, -10, -10, 23.666666, 23.857143, 24, -10, -10, -10, 24.53125, 24.65625, 24.78125, 25.133928, 25.4375, 25.625, 25.84375, 25.875, 25.875, 26, 26, 26.125, 26.1875, 26.1875, 26.4375, 26.875, 27.392857, 27.6875, 28.0625, 28.4375, 28.994049, 29.107143, 29.15625, 29.120537, 29.388391, 29.811012, 30.285715, 30.491072, 30.6875, 30.75, 30.8125, 30.9375, 31.125, 31.482143, 31.625, 31.65625, 31.78125, 31.90625, 32.15625, 32.6875, 32.875, 33.133926, 33.3125, 33.589287, 33.99107, 34.449406, 34.741074, 34.875, 35, 35.25, 35.5, 35.625, 35.919643, 36.125, 36.375, 36.5625, 36.6875, 36.5625, 36.5625, 36.5625, 36.5, 36.5625, 36.625, 36.6875, 36.8125, 36.9375, 37, 37, 37.0625, 37.3125, 37.75, 38.25, 38.4375, 38.625, 38.830357, 39.377975, 39.866074, 40.627975, 40.927082, 41.072918, 40.92857, 40.291668, 40.107143, 39.9375, 39.794643, 39.5, 39.1875, 38.799999, 38.848213
36.761902, 36.291668, 36.258926, 36.098213, 35.955357, 35.732143, 35.19643, 34.872025, 34.491074, 34.166668, 34.071426, 33.9375, 33.75, 33.5, 33.25, 32.875, 32.625, 32.375, 32.125, 31.875, 31.625, 31.375, 31.125, 31, 30.875, 30.625, 30.375, 30.125, 30.0625, 30.0625, 30.1875, 30.1875, 30.125, 30.1875, 30.125, 30.125, 30.125, 30.0625, 30, 30, 30, 30, 30, 30, 29.9375, 29.875, 29.901787, 29.973213, 30, 29.9375, 29.607143, 29.287498, 29.410715, 29.232143, 29.3125, 29.125, 29, 29.1875, 29.3125, 29.3125, 29.3125, 29.125, 29, 29, 29, 29, 28.875, 28.84375, 28.84375, 28.647322, 28.40625, 28.25, 28.0625, 28.1875, 28.1875, 28.25, 28.3125, 28.1875, 28.1875, 28.125, 28, 28, 28, 28, 28.0625, 28.0625, 28.0625, 28.0625, 28, 27.9375, 27.875, 27.625, 27.5625, 27.375, 27.1875, 27.375, 27.3125, 27.3125, 27.3125, 27.125, 27, 27, 27, 27.0625, 27.0625, 27.0625, 27.0625, 27, 27, 27, 27, 26.9375, 26.8125, 26.5625, 26.3125, 26.1875, 26.125, 26.125, 26.1875, 26.25, 26.375, 26.5, 26.4375, 26.3125, 26.1875, 26.125, 26.1875, 26.1875, 26.0625, 25.9375, 25.875, 25.875, 25.9375, 26.0625, 26.0625, 26.0625, 26, 25.75, 25.6875, 25.625, 25.5, 25.4375, 25.25, 25.0625, 25, 25, 25, 25, 25, 25, 25, 25, 25, 24.9375, 24.8125, 24.625, 24.5625, 24.583334, 24.666666, 16, 16, 16, 6, 6, 6.1964283, 6.7797618, 7.1785712, 7.25, 7.1875, 6.875, 6.75, 6.75, 6.8125, 6.9375, 7.0625, 7.3125, 7.78125, 8.3526783, 8.71875, 9.15625, 9.5625, 9.8839283, 10.0625, 10.25, 10.3125, 10.4375, 10.5, 10.4375, 10.3125, 10.1875, 10.1875, 10.25, 10.160714, 10.089286, 10.1875, 10.0625, 10.125, 10.125, 9.9375, 10.0625, 10.267857, 10.708333, 10.991072, 11.125, 11.125, 11.1875, 11.1875, 11.1875, 11.1875, 11.28125, 11.65625, 11.915178, 12.21875, 12.4375, 12.5625, 12.875, 13, 13.125, 13.3125, 13.5625, 13.919643, 14.0625, 14.0625, 14.151786, 14.348214, 14.5, 14.5, 13.875, 13.5625, 13.40625, 13.53125, 13.65625, 13.8125, 13.96875, 14.28125, 14.53125, 14.78125, 15.15625, 15.40625, 15.84375, 16.3125, -10, -10, -10, -10, 24, 24, 24, -10, -10, -10, 24.5, 24.666666, 24.71875, 25.098213, 25.544643, 25.741072, 25.96875, 25.9375, 25.9375, 26.0625, 26.0625, 26.1875, 26.1875, 26.1875, 26.4375, 26.875, 27.464287, 27.75, 28.0625, 28.392857, 28.994049, 29.107143, 29.21875, 29.214287, 29.410713, 29.633928, 30.075893, 30.241072, 30.5, 30.625, 30.75, 31.008928, 31.375, 31.669643, 31.8125, 31.84375, 31.90625, 32.09375, 32.40625, 32.875, 33.125, 33.383926, 33.5625, 33.776787, 34.17857, 34.636906, 34.866074, 35, 35.125, 35.375, 35.625, 35.6875, 35.8125, 36.0625, 36.375, 36.625, 36.75, 36.5625, 36.4375, 36.375, 36.3125, 36.3125, 36.5, 36.625, 36.75, 36.9375, 37, 37.107143, 37.1875, 37.4375, 37.875, 38.375, 38.5625, 38.75, 38.955357, 39.502975, 40.107143, 40.877975, 41.034225, 40.864586, 40.75, 40.416668, 40.366074, 40.241074, 39.854168, 39.571426, 39.25, 38.924999, 38.991074, 38.669643, 38.666668, -10, -10, -10, -10, -10, -10, -10, -10, -10, -10, -10, -10, -10, -10, -10, -10, -10, -10, -10, -10, -10, -10, -10, -10, -10, -10, -10, 38.341667, 38.270832, 38.3125, 38.1875, 37.9375, 37.6875, 37.410713, 36.860115, 36.309525, 36.205357, 35.973213, 35.767857, 35.482143, 34.94643, 34.622025, 34.3125, 34.1875, 34.125, 34, 33.75, 33.5, 33.1875, 32.75, 32.5, 32.25, 32.0625, 31.8125, 31.5625, 31.3125, 31.0625, 31, 30.8125, 30.625, 30.375, 30.125, 30.0625, 30, 30.0625, 30.0625, 30.125, 30.25, 30.3125, 30.3125, 30.25, 30.125, 30, 30, 30, 30, 30, 30, 29.875, 29.8125, 29.839287, 29.910713, 30, 29.9375, 29.544643, 29.224998, 29.517859, 29.410715, 29.5, 29.25, 29.0625, 29.1875, 29.3125, 29.3125, 29.3125, 29.125, 29, 29, 29, 29, 28.875, 28.78125, 28.71875, 28.522322, 28.34375, 28.3125, 28.3125, 28.5, 28.4375, 28.464287, 28.4375, 28.25, 28.25, 28.125, 28, 28, 28, 28, 28.0625, 28.0625, 28.0625, 28.0625, 28, 28, 27.9375, 27.6875, 27.625, 27.375, 27.1875, 27.3125, 27.1875, 27.1875, 27.1875, 27.0625, 27.0625, 27.0625, 27.0625, 27.0625, 27, 27, 27, 27, 27, 27, 27, 27, 26.9375, 26.6875, 26.5, 26.375, 26.1875, 26.1875, 26.1875, 26.1875, 26.4375, 26.625, 26.5625, 26.4375, 26.1875, 26, 26.0625, 26.125, 26.0625, 26, 25.9375, 25.8125, 25.875, 26, 26, 26.0625, 26, 25.75, 25.6875, 25.5625, 25.4375, 25.3125, 25.125, 25, 24.9375, 25, 25, 25, 25, 25, 25, 25, 25, 24.9375, 24.75, 24.5, 24.4375, 24.416668, 16, 16, 16, 16, 6, 6, 6.2678566, 6.9583335, 7.1785712, 7.3125, 7.125, 6.9375, 6.875, 6.875, 6.9375, 6.9375, 7, 7.25, 7.71875, 8.3526783, 8.71875, 9.09375, 9.4375, 9.7232141, 9.9375, 10.125, 10.1875, 10.25, 10.25, 10.1875, 10.125, 10.0625, 10.125, 10.1875, 10.125, 10.125, 10.1875, 10.1875, 10.25, 10.25, 10.125, 10.3125, 10.5, 10.8125, 11.0625, 11.125, 11.125, 11.1875, 11.1875, 11.0625, 11.0625, 11.1875, 11.607143, 11.946428, 12.3125, 12.5, 12.625, 13, 13.125, 13.25, 13.4375, 13.625, 13.919643, 14.125, 14.25, 14.375, 14.5625, 14.75, 14.625, 13.9375, 13.5, 13.21875, 13.15625, 13.21875, 13.375, 13.59375, 14.03125, 14.34375, 14.53125, 14.78125, 14.977678, 15.552083, 15.962499, -10, -10, -10, -10, 24, 24, 24, -10, -10, -10, 24.5, 24.687498, 24.75, 25.098213, 25.544643, 25.741072, 25.96875, 25.9375, 26, 26.125, 26.15625, 26.28125, 26.21875, 26.21875, 26.4375, 26.875, 27.464287, 27.75, 28.0625, 28.383928, 28.869049, 29.044643, 29.21875, 29.25, 29.4375, 29.6875, 29.90625, 30.0625, 30.3125, 30.5, 30.6875, 31.116072, 31.6625, 31.723213, 31.9375, 31.96875, 32.066963, 32.34375, 32.65625, 32.982143, 33.375, 33.669643, 33.875, 34.089287, 34.419643, 34.678574, 34.875, 35, 35.1875, 35.4375, 35.6875, 35.8125, 35.875, 36.0625, 36.401787, 36.625, 36.6875, 36.5, 36.25, 36.125, 36.0625, 36.0625, 36.25, 36.4375, 36.5625, 36.8125, 37, 37.214287, 37.375, 37.625, 37.9375, 38.339287, 38.5625, 38.75, 39.017857, 39.458332, 39.919643, 40.681549, 40.915478, 40.520836, 40.607143, 40.5625, 40.625, 40.616074, 40.166668, 39.821426, 39.5, 39.25, 39.125
36.922615, 36.372025, 36.142857, 35.848213, 35.580357, 35.232143, 34.767857, 34.642857, 34.4375, 34.3125, 34.1875, 34.0625, 33.8125, 33.5625, 33.1875, 32.642857, 32.375, 32.125, 31.9375, 31.8125, 31.5625, 31.3125, 31.125, 31, 30.75, 30.625, 30.4375, 30.1875, 30.25, 30.1875, 30.1875, 30.1875, 30.25, 30.375, 30.5, 30.5625, 30.5, 30.3125, 30.125, 30.0625, 30, 30, 30, 30, 29.875, 29.8125, 29.839287, 29.910713, 30, 29.9375, 29.544643, 29.224998, 29.455359, 29.348215, 29.5, 29.25, 29.125, 29.1875, 29.25, 29.25, 29.25, 29.125, 29, 29, 29, 28.9375, 28.8125, 28.71875, 28.59375, 28.459822, 28.28125, 28.3125, 28.4375, 28.65625, 28.59375, 28.620537, 28.53125, 28.3125, 28.3125, 28.125, 28, 28, 28, 28, 28.0625, 28.0625, 28.0625, 28.125, 28.0625, 28.0625, 27.9375, 27.625, 27.5, 27.25, 27.125, 27.1875, 27.0625, 27.0625, 27.0625, 27, 27.125, 27.125, 27.0625, 27.026787, 26.9375, 27, 27.0625, 27.0625, 27.0625, 27, 27, 27, 27, 26.8125, 26.6875, 26.625, 26.375, 26.3125, 26.1875, 26.0625, 26.3125, 26.5625, 26.5625, 26.5, 26.25, 26, 26.125, 26.1875, 26.125, 26.0625, 25.9375, 25.8125, 25.875, 25.9375, 25.9375, 26, 25.9375, 25.8125, 25.75, 25.625, 25.4375, 25.25, 25.0625, 24.9375, 24.9375, 25, 25, 25, 25, 25, 25, 25, 25, 24.9375, 24.8125, 24.5625, 24.5625, 24.541668, 16, 16.25, 16.166666, 16.166666, 6, 6, 6.2366066, 6.8333335, 7.0178571, 7.1875, 7.03125, 6.9375, 6.9375, 6.9375, 7, 7, 7, 7.25, 7.7098217, 8.5372028, 8.8883934, 9.21875, 9.4375, 9.625, 9.875, 10, 10.0625, 10.0625, 10.0625, 10.0625, 10.09375, 10.09375, 10.09375, 10.09375, 10, 10, 10, 10.0625, 10.1875, 10.294643, 10.3125, 10.5, 10.625, 10.875, 11.0625, 11.0625, 11.0625, 11.0625, 11, 10.875, 10.875, 11, 11.419643, 11.785714, 12.1875, 12.645833, 12.866072, 13.25, 13.375, 13.5, 13.625, 13.75, 14.044643, 14.25, 14.4375, 14.5625, 14.6875, 14.75, 14.5625, 13.9375, 13.571428, 13.25, 13.125, 13.0625, 13.125, 13.40625, 13.78125, 14.03125, 14.15625, 14.21875, 14.415178, 14.980655, 15.4625, -10, -10, -10, -10, 24, 24, 24, 24, 24.0625, 24.25, 24.5, 24.708332, 24.8125, 25.089287, 25.419643, 25.678572, 25.90625, 25.9375, 26, 26.125, 26.21875, 26.34375, 26.28125, 26.28125, 26.4375, 26.875, 27.464287, 27.75, 28.125, 28.4375, 28.723213, 29.008928, 29.262501, 29.236607, 29.53125, 29.65625, 29.90625, 30, 30.214287, 30.544643, 30.803572, 31.241072, 31.7875, 31.678572, 31.875, 31.9375, 32.098213, 32.482143, 32.8125, 33.169643, 33.5, 33.8125, 34.125, 34.3125, 34.5625, 34.75, 34.9375, 35.0625, 35.3125, 35.5625, 35.75, 35.9375, 35.9375, 36.0625, 36.357143, 36.5625, 36.5625, 36.4375, 36.1875, 36.0625, 36.125, 36.1875, 36.375, 36.5625, 36.5625, 36.75, 37, 37.321426, 37.5625, 37.875, 38.0625, 38.294643, 38.5, 38.625, 38.8125, 39, 39.419643, 40.369049, 40.683334, 40.333336, 40.357143, 40.3125, 40.4375, 40.491074, 40.104168, 39.758926, 39.5, 39.3125, 39.25, 39.0625, 39.000004, -10, -10, -10, -10, -10, -10, -10, -10, -10, -10, -10, -10, -10, -10, -10, -10, -10, -10, -10, -10, -10, -10, -10, -10, -10, -10, -10, 38.875, 38.75, 38.5625, 38.3125, 37.875, 37.5625, 37.375, 37.026787, 36.497025, 36.142857, 35.6875, 35.5, 35.232143, 34.892857, 34.767857, 34.5625, 34.375, 34.1875, 34.0625, 33.875, 33.6875, 33.303574, 32.622025, 32.321426, 32.0625, 31.9375, 31.75, 31.5, 31.25, 31.0625, 31, 30.75, 30.6875, 30.5625, 30.375, 30.5, 30.375, 30.3125, 30.25, 30.3125, 30.5, 30.6875, 30.75, 30.625, 30.375, 30.1875, 30.125, 30.0625, 30.0625, 30, 30, 29.875, 29.875, 29.875, 29.875, 30, 29.8125, 29.491072, 29.299999, 29.339287, 29.366072, 29.5625, 29.375, 29.3125, 29.25, 29.1875, 29.125, 29.125, 29, 28.9375, 28.9375, 28.875, 28.8125, 28.6875, 28.59375, 28.53125, 28.46875, 28.40625, 28.375, 28.5, 28.59375, 28.53125, 28.558037, 28.40625, 28.25, 28.25, 28.0625, 28, 28, 28, 28, 28.0625, 28.0625, 28.0625, 28.125, 28.0625, 28, 27.875, 27.5625, 27.375, 27.1875, 27.0625, 27.0625, 27, 27, 27, 27, 27.125, 27.125, 27, 26.964287, 26.9375, 27.107143, 27.1875, 27.1875, 27.125, 27, 27, 27, 27, 26.875, 26.8125, 26.8125, 26.625, 26.5, 26.3125, 26.125, 26.3125, 26.5625, 26.5625, 26.5, 26.25, 26, 26.125, 26.1875, 26.125, 26.125, 26, 25.875, 25.9375, 25.9375, 25.9375, 26, 26, 25.875, 25.875, 25.75, 25.5625, 25.375, 25.125, 25, 24.9375, 25, 25, 25, 25, 25, 25, 25, 25, 24.9375, 24.8125, 24.5625, 24.5625, 24.520834, 22.577776, 16.5, 16.354166, 16.333332, 6, 6, 6.1741066, 6.7083335, 6.8571429, 7.0625, 6.96875, 6.9375, 6.9375, 6.9375, 7, 7, 7, 7.25, 7.7008929, 8.7217264, 9.1294641, 9.46875, 9.625, 9.75, 9.9375, 10.0625, 10.125, 10.125, 10.125, 10.0625, 10.09375, 10.09375, 10.09375, 10.09375, 10, 10, 9.9375, 10.0625, 10.25, 10.357143, 10.4375, 10.5625, 10.625, 10.8125, 11, 11, 11, 11, 10.9375, 10.75, 10.75, 10.9375, 11.401786, 11.848214, 12.25, 12.770833, 13.053572, 13.4375, 13.625, 13.75, 13.875, 13.9375, 14.232143, 14.4375, 14.625, 14.75, 14.75, 14.6875, 14.446428, 14.020833, 13.75, 13.5, 13.4375, 13.285714, 13.142857, 13.330357, 13.53125, 13.71875, 13.78125, 13.78125, 14.008928, 14.690476, 15.220833, -10, -10, -10, -10, 24, 24, 24, 24, 24.041666, 24.25, 24.5, 24.729166, 24.84375, 25.089287, 25.419643, 25.678572, 25.9375, 26, 26.0625, 26.1875, 26.34375, 26.46875, 26.40625, 26.40625, 26.5625, 26.982143, 27.526787, 27.8125, 28.125, 28.375, 28.625, 29.008928, 29.325001, 29.361607, 29.65625, 29.71875, 29.9375, 30, 30.214287, 30.544643, 30.772322, 31.178572, 31.733929, 31.741072, 31.8125, 31.901787, 32.035713, 32.464287, 32.8125, 33.169643, 33.5, 33.8125, 34.125, 34.3125, 34.5625, 34.75, 34.9375, 35.0625, 35.25, 35.4375, 35.5625, 35.75, 35.8125, 35.9375, 36.25, 36.4375, 36.4375, 36.375, 36.1875, 36.125, 36.25, 36.375, 36.5, 36.6875, 36.5625, 36.714287, 37.107143, 37.5, 37.8125, 38.0625, 38.125, 38.1875, 38.375, 38.4375, 38.678574, 38.847221, 39.107143, 39.908165, 40.350002, 40.166668, 40.357143, 40.583332, 40.708332, 40.595238, 40.247025, 39.91964, 39.651787, 39.5625, 39.4375
36.785713, 36.455357, 36.071426, 35.625, 35.375, 35.125, 35, 34.8125, 34.625, 34.375, 34.125, 34.0625, 33.9375, 33.75, 33.366074, 32.684525, 32.321426, 32.0625, 31.9375, 31.75, 31.5, 31.25, 31.0625, 31, 30.75, 30.6875, 30.625, 30.5, 30.625, 30.5, 30.375, 30.25, 30.375, 30.5625, 30.6875, 30.75, 30.5625, 30.3125, 30.1875, 30.125, 30.0625, 30.0625, 30, 30, 29.9375, 29.9375, 29.9375, 29.9375, 30, 29.75, 29.4375, 29.3125, 29.232143, 29.428572, 29.625, 29.5, 29.4375, 29.25, 29.0625, 29, 29, 28.9375, 28.9375, 28.9375, 28.803572, 28.5625, 28.5625, 28.544643, 28.5625, 28.5625, 28.5, 28.4375, 28.5, 28.53125, 28.40625, 28.370537, 28.21875, 28.125, 28.125, 28, 28, 28, 28, 28, 28, 28, 28, 28.0625, 28.0625, 28, 27.875, 27.625, 27.375, 27.1875, 27.0625, 27, 27, 27, 27, 27, 27.125, 27.125, 27, 26.964287, 27, 27.169643, 27.25, 27.25, 27.125, 27, 27, 27, 27, 26.9375, 26.9375, 26.9375, 26.8125, 26.6875, 26.5, 26.3125, 26.4375, 26.5625, 26.5, 26.4375, 26.1875, 26, 26.125, 26.1875, 26.1875, 26.1875, 26.0625, 25.875, 25.875, 25.875, 25.875, 26, 25.9375, 25.8125, 25.8125, 25.75, 25.6875, 25.5, 25.25, 25.0625, 24.9375, 25, 25, 25, 25, 25, 25, 25.0625, 25.0625, 25.0625, 25, 24.75, 24.75, 24.6875, 20.493332, 16.75, 16.520832, 16.499998, 6, 6, 6.1026783, 6.4375, 6.625, 6.875, 6.90625, 6.875, 6.875, 6.875, 6.9375, 6.9375, 7, 7.3958335, 7.8660717, 8.9404764, 9.3303566, 9.625, 9.8125, 9.8125, 9.729167, 9.8125, 9.875, 10, 10.0625, 10.0625, 10.09375, 10.09375, 10.09375, 10.03125, 9.875, 9.8125, 9.75, 10, 10.357143, 10.464286, 10.4875, 10.678572, 10.678572, 10.875, 11, 11, 11, 11, 10.9375, 10.75, 10.75, 10.9375, 11.401786, 11.919643, 12.375, 12.895833, 13.241072, 13.5625, 13.8125, 14.0625, 14.125, 14.214286, 14.482143, 14.741072, 14.9375, 15.0625, 15, 14.8125, 14.625, 14.375, 14.125, 13.875, 13.75, 13.629464, 13.424107, 13.549107, 13.5625, 13.53125, 13.53125, 13.46875, 13.758928, 14.619048, 15.1875, -10, -10, -10, -10, 24, 24, 24, 24, 24.03125, 24.1875, 24.4375, 24.6875, 24.90625, 25.125, 25.375, 25.625, 25.875, 26, 26.0625, 26.1875, 26.40625, 26.59375, 26.59375, 26.65625, 26.8125, 27.169643, 27.607143, 27.875, 28.125, 28.383928, 28.75, 29.133928, 29.512501, 29.517857, 29.8125, 29.8125, 30.015625, 30.09375, 30.308037, 30.638393, 30.819197, 31.107143, 31.555357, 31.824406, 31.928572, 32.026787, 32.160713, 32.526787, 32.8125, 33.232143, 33.5, 33.8125, 34.125, 34.375, 34.625, 34.8125, 35, 35.0625, 35.1875, 35.375, 35.5, 35.6875, 35.8125, 35.875, 36.125, 36.3125, 36.375, 36.4375, 36.375, 36.375, 36.5, 36.625, 36.625, 36.75, 36.625, 36.776787, 37.232143, 37.580357, 37.875, 38, 37.9375, 37.955357, 38.270832, 38.4375, 38.741074, 39.309521, 39.459187, 39.741074, 39.992859, 40.0625, 40.401787, 40.744045, 40.770832, 40.630955, 40.517857, 40.205357, 39.818455, 39.705357, 39.5625, 39.473213, 39.166668, -10, -10, -10, -10, -10, -10, -10, -10, -10, -10, -10, -10, -10, -10, -10, -10, -10, -10, -10, -10, -10, -10, -10, -10, -10, -10, -10, 39, 38.750004, 38.5625, 38.25, 37.75, 37.4375, 37.125, 36.6875, 36.4375, 36.0625, 35.625, 35.375, 35.125, 35, 34.8125, 34.5625, 34.3125, 34.0625, 34, 34, 33.8125, 33.491074, 32.809525, 32.383926, 32.125, 31.9375, 31.8125, 31.5625, 31.3125, 31.125, 31, 30.8125, 30.678572, 30.549999, 30.544643, 30.5625, 30.5625, 30.375, 30.3125, 30.4375, 30.625, 30.6875, 30.6875, 30.5, 30.25, 30.1875, 30.125, 30.0625, 30.0625, 30, 30, 30, 30, 30, 30, 30, 29.75, 29.5, 29.375, 29.125, 29.25, 29.4375, 29.375, 29.375, 29.25, 29.0625, 29, 29.0625, 29, 29, 29, 28.803572, 28.5625, 28.625, 28.669643, 28.75, 28.75, 28.5625, 28.375, 28.25, 28.28125, 28.28125, 28.28125, 28.21875, 28.125, 28.0625, 28, 28, 28, 28, 28, 28, 28, 28, 28.0625, 28.0625, 28, 27.9375, 27.75, 27.5, 27.375, 27.1875, 27.0625, 27.0625, 27, 27, 27, 27.0625, 27.0625, 26.9375, 26.839287, 26.875, 27.044643, 27.125, 27.1875, 27.125, 27, 27, 27, 27, 27, 27, 27, 26.9375, 26.8125, 26.6875, 26.5625, 26.5625, 26.5625, 26.4375, 26.3125, 26.125, 26.0625, 26.125, 26.125, 26.125, 26.0625, 26, 25.875, 25.875, 25.875, 25.875, 26, 25.9375, 25.8125, 25.75, 25.75, 25.75, 25.625, 25.4375, 25.1875, 25, 25, 25, 25, 25, 25, 25, 25.0625, 25.0625, 25.0625, 25.0625, 24.875, 24.875, 24.854166, 23.546665, 17, 16.708332, 16.666666, 6.25, 6.1666665, 6.15625, 6.25, 6.4464283, 6.8125, 6.96875, 7, 6.9375, 7.0446429, 7.354167, 7.2142859, 7.3214288, 7.8645835, 8.2723217, 9.239584, 9.6741066, 9.9375, 10.125, 10.044643, 9.7559528, 9.875, 9.9821434, 10.125, 10.1875, 10.125, 10.03125, 10.03125, 10.03125, 9.96875, 9.8125, 9.6875, 9.625, 9.8125, 10.169643, 10.339286, 10.425, 10.678572, 10.741072, 10.9375, 11, 11, 11, 11, 10.9375, 10.8125, 10.8125, 10.9375, 11.366072, 12.065475, 12.491072, 13.020833, 13.303572, 13.571428, 14.020833, 14.303572, 14.4375, 14.589286, 14.919643, 15.178572, 15.25, 15.25, 15.0625, 14.8125, 14.6875, 14.5, 14.3125, 14.125, 14.0625, 13.941964, 13.736607, 13.799107, 13.6875, 13.53125, 13.46875, 13.46875, 13.866072, 14.714286, 15.337501, -10, -10, -10, -10, 24, 24, 24, 24, 24, 24.125, 24.375, 24.625, 24.875, 25.15625, 25.40625, 25.65625, 25.90625, 26, 26, 26.0625, 26.25, 26.4375, 26.5, 26.6875, 26.9375, 27.339287, 27.75, 28.0625, 28.3125, 28.571428, 28.875, 29.196428, 29.575001, 29.642857, 29.9375, 29.9375, 30.140625, 30.21875, 30.433037, 30.763393, 30.944197, 31.0625, 31.330357, 31.833332, 31.928572, 32.089287, 32.25, 32.589287, 32.75, 33.1875, 33.4375, 33.75, 34.1875, 34.5, 34.75, 34.9375, 35.0625, 35.0625, 35.125, 35.3125, 35.4375, 35.625, 35.8125, 35.875, 36.125, 36.3125, 36.375, 36.5, 36.5, 36.5625, 36.75, 36.875, 36.875, 36.9375, 36.8125, 36.964287, 37.357143, 37.660713, 37.9375, 37.9375, 37.8125, 37.830357, 38.145832, 38.348213, 38.633926, 39.360542, 39.632656, 39.90625, 40.111607, 40.40625, 40.696426, 41.119045, 41.020832, 40.755955, 40.642857, 40.330357, 39.997025, 39.830357, 39.75
36.75, 36.4375, 36.125, 35.6875, 35.5, 35.25, 35.125, 34.9375, 34.6875, 34.4375, 34.1875, 34.0625, 33.9375, 33.75, 33.491074, 32.916668, 32.508926, 32.25, 32.0625, 31.875, 31.625, 31.375, 31.125, 31, 30.875, 30.741072, 30.549999, 30.544643, 30.5, 30.5, 30.3125, 30.3125, 30.375, 30.5, 30.5625, 30.4375, 30.25, 30.0625, 30.0625, 30, 30, 30, 29.9375, 30, 30, 30, 30, 30, 30, 29.8125, 29.625, 29.4375, 29.1875, 29.25, 29.3125, 29.3125, 29.375, 29.25, 29.125, 29.125, 29.1875, 29.125, 29.125, 29.0625, 28.803572, 28.625, 28.6875, 28.732143, 28.875, 28.875, 28.75, 28.5625, 28.3125, 28.25, 28.25, 28.1875, 28.1875, 28.125, 28, 28, 28, 28, 28, 28, 28, 28, 28, 28, 28, 27.9375, 27.9375, 27.875, 27.625, 27.5, 27.25, 27.0625, 27.0625, 27, 27, 27, 27, 27, 26.9375, 26.8125, 26.8125, 26.919643, 26.9375, 27.0625, 27.0625, 27, 27, 26.9375, 26.9375, 26.9375, 26.9375, 27, 27, 26.9375, 26.875, 26.8125, 26.6875, 26.5625, 26.375, 26.1875, 26.0625, 26.125, 26.125, 26.125, 26.125, 26, 26, 25.875, 25.875, 25.875, 25.875, 25.9375, 25.8125, 25.625, 25.5, 25.5, 25.625, 25.5625, 25.4375, 25.25, 25, 25, 25, 25, 25, 25, 25, 25.0625, 25.0625, 25.0625, 25.0625, 24.9375, 24.9375, 24.916666, 17.700001, 17, 16.791666, 16.749998, 6.75, 6.6666665, 6.6875, 6.5714288, 6.7244897, 7.3125, 7.3571429, 7.1428571, 7.1041665, 7.3779759, 7.7827382, 8.375, 8.583333, 8.489583, 8.875, 9.541667, 9.9732151, 10.21875, 10.375, 10.232143, 9.8809528, 9.9375, 10.044643, 10.25, 10.3125, 10.3125, 10.1875, 10.125, 10.0625, 9.9375, 9.875, 9.75, 9.75, 9.9375, 10.169643, 10.294643, 10.3625, 10.553572, 10.678572, 10.875, 10.9375, 11, 11, 11, 11, 10.9375, 10.9375, 11.0625, 11.4375, 12.357143, 12.8125, 13.125, 13.375, 13.508928, 13.985119, 14.410714, 14.616072, 14.901786, 15.232143, 15.491072, 15.5625, 15.428572, 15.0625, 14.875, 14.75, 14.6875, 14.5625, 14.5, 14.5625, 14.504464, 14.299107, 14.200893, 14.125, 14.004464, 13.96875, 14.03125, 14.375, 15.369048, 15.900001, -10, -10, -10, -10, 24, 24, 23.9375, 23.9375, 24, 24.098213, 24.375, 24.625, 24.8125, 25.09375, 25.34375, 25.59375, 25.84375, 26, 26, 26.0625, 26.25, 26.4375, 26.5625, 26.75, 27, 27.401787, 27.6875, 28.017857, 28.357143, 28.625, 28.9375, 29.125, 29.4375, 29.625, 29.875, 30, 30.203125, 30.34375, 30.59375, 30.84375, 31.015625, 31.125, 31.330357, 31.895832, 32.053574, 32.32143, 32.4375, 32.607143, 32.6875, 33, 33.3125, 33.5625, 33.875, 34.15625, 34.34375, 34.65625, 34.84375, 34.9375, 35, 35.1875, 35.375, 35.5625, 35.8125, 35.875, 36.125, 36.375, 36.4375, 36.5625, 36.5625, 36.5, 36.6875, 36.8125, 36.8125, 36.9375, 36.9375, 37.151787, 37.544643, 37.803574, 38, 37.875, 37.6875, 37.705357, 38.020832, 38.285713, 38.803574, 39.752975, 40.107143, 40.40625, 40.53125, 40.78125, 41.133926, 41.619045, 41.520832, 41.224705, 41.080357, 40.767857, 40.372025, 40.174107, 40, 39.848213, 39.583332, -10, -10, -10, -10, -10, -10, -10, -10, -10, -10, -10, -10, -10, -10, -10, -10, -10, -10, -10, -10, -10, -10, -10, -10, -10, -10, 37.583336, 38.549999, 38.369049, 38.375, 38.1875, 37.875, 37.607143, 37.041668, 36.705357, 36.375, 36.1875, 35.8125, 35.5625, 35.3125, 35.125, 35, 34.75, 34.5, 34.25, 34.0625, 33.9375, 33.6875, 33.4375, 33.0625, 32.6875, 32.4375, 32.1875, 31.9375, 31.625, 31.375, 31.125, 31, 30.9375, 30.741072, 30.487499, 30.482143, 30.375, 30.5, 30.375, 30.375, 30.375, 30.375, 30.375, 30.25, 30.125, 30.0625, 30.0625, 30, 30, 29.875, 29.875, 29.9375, 29.9375, 30, 30, 30, 30, 29.875, 29.75, 29.5625, 29.3125, 29.25, 29.1875, 29.125, 29.1875, 29.125, 29.0625, 29.1875, 29.3125, 29.3125, 29.3125, 29.1875, 28.928572, 28.75, 28.8125, 28.857143, 28.9375, 28.875, 28.8125, 28.625, 28.375, 28.3125, 28.25, 28.1875, 28.1875, 28.125, 28, 28, 28, 28, 28, 28, 28, 28, 28, 28, 28, 28, 28, 28, 27.8125, 27.625, 27.375, 27.125, 27.0625, 27.0625, 27.0625, 27.0625, 27.0625, 27, 27, 26.875, 26.8125, 26.8125, 26.8125, 26.9375, 27, 27, 27, 26.875, 26.875, 26.875, 26.8125, 26.9375, 26.9375, 26.875, 26.875, 26.8125, 26.625, 26.4375, 26.25, 26.0625, 26, 26.125, 26.125, 26.125, 26.125, 26, 26, 25.875, 25.875, 25.875, 25.875, 25.875, 25.6875, 25.5, 25.3125, 25.3125, 25.4375, 25.375, 25.3125, 25.1875, 25, 25, 25, 25, 25, 25, 25, 25.0625, 25.0625, 25.0625, 25.0625, 25, 25, 25, 24.958334, 18.089285, 17.90476, 16.777777, 7.4285712, 7.333333, 7.4642859, 7.9583335, 8.25, 8.2857141, 8, 7.7857141, 7.7541666, 7.8779759, 8.354167, 8.9540815, 9.3367357, 9.364583, 9.6964283, 10, 10.294643, 10.46875, 10.5625, 10.357143, 9.9434528, 9.875, 9.9821434, 10.25, 10.375, 10.5, 10.375, 10.25, 10.1875, 10.0625, 10.0625, 10, 10, 10.125, 10.294643, 10.419643, 10.4875, 10.678572, 10.803572, 10.9375, 10.9375, 11, 11, 11, 11, 11, 11.0625, 11.25, 11.6875, 12.575893, 13.03125, 13.34375, 13.53125, 13.633928, 14.047619, 14.473214, 14.741072, 15.089286, 15.482143, 15.741072, 15.8125, 15.678572, 15.3125, 15.125, 15, 14.9375, 14.883928, 15.083334, 15.083334, 14.885417, 14.727678, 14.558036, 14.53125, 14.410714, 14.375, 14.508928, 15.104166, 16.011906, 16.5375, 17.666668, -10, -10, -10, 24, 24, 23.875, 23.8125, 23.892857, 24.035713, 24.3125, 24.625, 24.75, 25.03125, 25.28125, 25.53125, 25.78125, 26, 26.0625, 26.1875, 26.375, 26.5625, 26.6875, 26.8125, 27, 27.357143, 27.5625, 27.892857, 28.294643, 28.607143, 28.9375, 29.0625, 29.375, 29.5625, 29.8125, 30, 30.234375, 30.34375, 30.59375, 30.84375, 30.984375, 31.125, 31.258928, 31.645832, 31.9375, 32.440475, 32.544643, 32.625, 32.5625, 32.8125, 33.1875, 33.4375, 33.666668, 34.102676, 34.299107, 34.65625, 34.84375, 34.9375, 35, 35.25, 35.5, 35.75, 36, 36, 36.1875, 36.4375, 36.5, 36.625, 36.5625, 36.5, 36.6875, 36.75, 36.8125, 36.875, 36.875, 37.125, 37.4375, 37.732143, 37.9375, 37.8125, 37.625, 37.642857, 37.958332, 38.348213, 38.875, 39.700893, 40.138393, 40.5625, 40.875, 41.21875, 41.625, 41.910713, 41.8125, 41.683037, 41.5, 41.169643, 40.720238, 40.316963, 40.125
36.660713, 36.375, 36.3125, 36, 35.642857, 35.375, 35.125, 35.0625, 34.8125, 34.5625, 34.3125, 34.0625, 33.9375, 33.6875, 33.4375, 33.125, 32.75, 32.5, 32.25, 31.9375, 31.625, 31.375, 31.125, 31, 31, 30.866072, 30.612499, 30.607143, 30.5, 30.5625, 30.4375, 30.4375, 30.3125, 30.25, 30.3125, 30.160713, 30.026787, 30.0625, 30, 30, 30, 29.875, 29.875, 29.9375, 29.9375, 30, 30, 30, 30, 29.9375, 29.875, 29.6875, 29.4375, 29.25, 29.0625, 29, 29.0625, 29.0625, 29, 29.0625, 29.0625, 29.142857, 28.991072, 29.104166, 29, 29.0625, 29, 28.9375, 28.875, 28.6875, 28.5625, 28.5, 28.375, 28.375, 28.375, 28.25, 28.1875, 28.125, 28, 28, 28, 28, 28, 28, 28, 28, 28, 28, 28, 28, 28, 28, 27.875, 27.6875, 27.4375, 27.125, 27, 27.0625, 27.169643, 27.1875, 27.1875, 27.0625, 27, 26.875, 26.75, 26.75, 26.75, 26.875, 27, 27, 27, 26.8125, 26.8125, 26.8125, 26.6875, 26.875, 26.8125, 26.6875, 26.6875, 26.5625, 26.375, 26.3125, 26.1875, 26.0625, 26.0625, 26.125, 26.125, 26.125, 26.125, 26, 26, 25.9375, 25.9375, 25.9375, 25.9375, 25.875, 25.75, 25.5625, 25.3125, 25.25, 25.25, 25.1875, 25.25, 25.1875, 25.0625, 25.0625, 25, 25, 25, 25, 25, 25, 24.9375, 24.9375, 24.9375, 24.9375, 24.9375, 24.9375, 23.678572, 21.958334, 21.875, 8, 7.75, 7.8166666, 8.197917, 8.7857141, 9.0714283, 9.2602034, 9.3809519, 9.1989794, 9.2190475, 8.7176867, 9.4523811, 9.7053576, 10.044643, 10.09375, 10.375, 10.5, 10.6875, 10.71875, 10.625, 10.419643, 10.151786, 10.125, 10.294643, 10.5, 10.625, 10.6875, 10.5, 10.375, 10.3125, 10.3125, 10.4375, 10.4375, 10.4375, 10.4375, 10.4375, 10.5625, 10.6875, 10.75, 10.9375, 11.0625, 11.0625, 11.125, 11.0625, 11.0625, 11.125, 11.125, 11.1875, 11.3125, 11.65625, 12.5, 13.0625, 13.4375, 13.65625, 13.758928, 14.047619, 14.348214, 14.678572, 15.0625, 15.482143, 15.75, 15.875, 15.803572, 15.5, 15.375, 15.1875, 15.125, 15.133928, 15.458334, 15.743197, 15.354167, 15.258928, 15.089286, 15.1875, 14.969388, 15, 15.383928, 15.916666, 16.654762, 17.237499, 17.777779, -10, -10, -10, 24, 24, 23.8125, 23.6875, 23.785713, 24.119047, 24.357143, 24.6875, 24.75, 24.96875, 25.28125, 25.53125, 25.78125, 26, 26.125, 26.3125, 26.5, 26.6875, 26.75, 26.8125, 26.9375, 27.232143, 27.4375, 27.767857, 28.232143, 28.598215, 28.875, 29.107143, 29.375, 29.625, 29.8125, 30, 30.1875, 30.25, 30.5, 30.75, 30.9375, 31.125, 31.25, 31.4375, 31.758928, 32.377975, 32.482143, 32.5625, 32.5, 32.625, 33.0625, 33.375, 33.604168, 34.102676, 34.299107, 34.65625, 34.90625, 35, 35.125, 35.375, 35.5625, 35.8125, 36, 36, 36.25, 36.5, 36.5625, 36.6875, 36.5, 36.375, 36.4375, 36.375, 36.589287, 37.020832, 37.0625, 37.224998, 37.491074, 37.723213, 37.9375, 37.8125, 37.6875, 37.6875, 37.875, 38.223213, 38.75, 39.575893, 39.950893, 40.491074, 41.125, 41.620537, 42.03125, 42.25, 42.1875, 42.03125, 41.78125, 41.375, 40.94643, 40.486607, 40.25, 40.0625, 40.083332, -10, -10, -10, -10, -10, -10, -10, -10, -10, -10, -10, -10, -10, -10, -10, -10, -10, -10, -10, -10, -10, -10, -10, -10, -10, -10, 37.541668, 37.883335, 37.910713, 38.125, 38, 37.9375, 37.660713, 36.895836, 36.785713, 36.4375, 36.375, 36.125, 35.705357, 35.4375, 35.1875, 35, 34.75, 34.5, 34.25, 34.0625, 33.9375, 33.6875, 33.4375, 33.1875, 32.8125, 32.5625, 32.3125, 31.9375, 31.625, 31.375, 31.125, 31, 31, 30.9375, 30.75, 30.6875, 30.625, 30.5625, 30.46875, 30.3125, 30.15625, 30.03125, 30.125, 30.066963, 29.964287, 30.0625, 30, 30, 30, 29.875, 29.875, 29.9375, 29.9375, 30, 30, 30, 30, 30, 30, 29.8125, 29.5625, 29.3125, 29.0625, 29, 29.0625, 29.0625, 28.9375, 28.9375, 28.8125, 28.333334, 28.678572, 28.791666, 28.8125, 28.9375, 28.9375, 28.875, 28.75, 28.5625, 28.4375, 28.4375, 28.4375, 28.4375, 28.4375, 28.3125, 28.1875, 28.125, 28, 28, 28, 28, 28, 28, 28, 28, 28, 28, 28, 28, 28, 28, 27.9375, 27.75, 27.5625, 27.3125, 27.125, 27.25, 27.357143, 27.3125, 27.3125, 27.125, 27, 26.9375, 26.875, 26.875, 26.875, 26.9375, 27, 27, 27, 26.75, 26.75, 26.75, 26.625, 26.8125, 26.6875, 26.5, 26.4375, 26.375, 26.3125, 26.3125, 26.25, 26.125, 26.0625, 26.0625, 26.0625, 26.0625, 26.0625, 26, 26, 26, 25.9375, 25.9375, 25.9375, 25.8125, 25.75, 25.5, 25.25, 25.125, 25.0625, 25.0625, 25.125, 25.1875, 25.125, 25.125, 25.0625, 25.0625, 25.0625, 25.0625, 25.0625, 25, 24.9375, 24.9375, 24.9375, 24.9375, 24.9375, 24.9375, 24.78125, 23.392857, 23.285715, 22.6, 8.8571424, 8.8285713, 9.3282318, 9.6428576, 9.9234695, 10.290178, 10.676871, 10.581633, 10.695238, 10.930554, 10.617347, 10.549108, 10.763393, 10.75, 10.90625, 10.84375, 10.78125, 10.71875, 10.5625, 10.4375, 10.375, 10.3125, 10.4375, 10.625, 10.75, 10.875, 10.75, 10.625, 10.5625, 10.5625, 10.75, 10.875, 10.9375, 11, 10.9375, 11, 11.0625, 11.125, 11.375, 11.419643, 11.229167, 11.196428, 11.125, 11.1875, 11.25, 11.25, 11.25, 11.375, 11.772322, 12.523809, 13.071428, 13.4375, 13.65625, 13.75, 13.839286, 14.169643, 14.491072, 14.875, 15.294643, 15.5625, 15.8125, 15.866072, 15.6875, 15.625, 15.4375, 15.375, 15.446428, 15.895834, 16.056549, 15.916667, 15.821428, 15.651786, 15.8125, 16.040815, 16.071428, 16.026787, 16.571428, 17.190475, 17.71875, 17.875, -10, -10, -10, 24, 24, 23.8125, 23.6875, 23.785713, 24.119047, 24.294643, 24.625, 24.6875, 24.9375, 25.3125, 25.5625, 25.8125, 26, 26.1875, 26.375, 26.642857, 26.9375, 26.892857, 27, 26.9375, 27.1875, 27.3125, 27.580357, 28.116072, 28.598215, 28.9375, 29.294643, 29.5, 29.75, 29.875, 30, 30.125, 30.125, 30.383928, 30.833334, 30.982143, 31.1875, 31.1875, 31.321428, 31.84226, 32.494045, 32.607143, 32.625, 32.5625, 32.625, 33.0625, 33.375, 33.541668, 33.977676, 34.174107, 34.53125, 34.84375, 35, 35.1875, 35.4375, 35.625, 35.9375, 36.0625, 36.0625, 36.25, 36.375, 36.5, 36.625, 36.5, 36.375, 36.375, 36.375, 36.589287, 37.020832, 37.145832, 37.07917, 37.544643, 37.714287, 37.9375, 37.875, 37.75, 37.6875, 37.866074, 38.395832, 38.92857, 39.59375, 39.736607, 40.183037, 40.989582, 41.526787, 42, 42.21875, 42.25, 42.15625, 41.90625, 41.4375, 40.94643, 40.642857, 40.40625
36.883926, 36.517857, 36.383926, 36.0625, 35.580357, 35.3125, 35.0625, 34.9375, 34.75, 34.5, 34.25, 34.0625, 33.9375, 33.6875, 33.4375, 33.1875, 32.8125, 32.5625, 32.3125, 31.9375, 31.625, 31.375, 31.125, 31, 31, 30.9375, 30.75, 30.6875, 30.5625, 30.4375, 30.28125, 30, 29.924107, 29.96875, 30.0625, 30.129463, 29.964287, 30.0625, 30, 30.0625, 30.0625, 29.9375, 29.9375, 29.9375, 29.9375, 30, 30, 30, 30, 29.9375, 29.875, 29.6875, 29.4375, 29.3125, 29.1875, 29.125, 29.125, 29.0625, 28.875, 28.8125, 28.625, 28.375, 28.366072, 28.479166, 28.5625, 28.6875, 28.75, 28.6875, 28.625, 28.5, 28.375, 28.4375, 28.4375, 28.4375, 28.4375, 28.3125, 28.1875, 28.125, 28, 28, 28, 28, 28, 28, 28, 28, 28, 28, 28, 28, 28, 28, 28, 27.875, 27.6875, 27.4375, 27.1875, 27.25, 27.419643, 27.4375, 27.4375, 27.25, 27.0625, 27, 27, 27, 27, 27, 27, 27, 27, 26.75, 26.75, 26.75, 26.625, 26.75, 26.5625, 26.3125, 26.1875, 26.1875, 26.25, 26.3125, 26.3125, 26.1875, 26.0625, 26, 26, 26, 26, 25.9375, 25.9375, 25.9375, 25.875, 25.9375, 25.9375, 25.875, 25.875, 25.6875, 25.4375, 25.25, 25.0625, 25, 25.0625, 25.125, 25.125, 25.0625, 25, 25, 25, 25.0625, 25.0625, 25, 24.9375, 24.9375, 24.9375, 24.9375, 24.9375, 24.9375, 24.71875, 24.46875, 24.3125, 24, 11.833333, 11.3, 11.435515, 11.354167, 11.434525, 11.349489, 11.605441, 11.632653, 11.728571, 11.678572, 11.688775, 11.780612, 11.638393, 11.526786, 11.5625, 11.4375, 11.142858, 10.964286, 10.785714, 10.875, 10.75, 10.75, 10.875, 11, 11.125, 11.1875, 11.0625, 11, 11, 11.0625, 11.1875, 11.3125, 11.375, 11.4375, 11.4375, 11.4375, 11.5, 11.625, 11.875, 11.919643, 11.666667, 11.508928, 11.375, 11.4375, 11.5, 11.5, 11.5, 11.696428, 12.284225, 12.785714, 13.1875, 13.375, 13.53125, 13.6875, 13.8125, 14.125, 14.4375, 14.75, 15.169643, 15.375, 15.625, 15.8125, 15.875, 15.875, 15.75, 15.625, 15.696428, 16.145834, 16.306549, 16.166668, 16.133928, 16.0625, 16.1875, 16.25, 16.25, 16.392857, 17.25, 17.678572, 18.09375, 18.125, -10, -10, -10, 24, 24, 23.875, 23.75, 23.785713, 24.083334, 24.169643, 24.5, 24.625, 24.875, 25.3125, 25.5625, 25.8125, 26, 26.125, 26.1875, 26.446428, 26.85, 26.714287, 27, 26.875, 27.1875, 27.375, 27.625, 28.071428, 28.544643, 28.875, 29.357143, 29.5625, 29.8125, 29.9375, 30, 30.0625, 30.0625, 30.258928, 30.677084, 30.825893, 31.03125, 31.15625, 31.321428, 31.90476, 32.511906, 32.669643, 32.75, 32.6875, 32.8125, 33.1875, 33.5, 33.729168, 34.071426, 34.267857, 34.5625, 34.857143, 35, 35.1875, 35.446426, 35.833332, 36.178574, 36.25, 36.25, 36.375, 36.375, 36.5625, 36.6875, 36.625, 36.5625, 36.4375, 36.3125, 36.401787, 36.770832, 36.833332, 36.775597, 37.440475, 37.64286, 37.9375, 37.875, 37.8125, 37.75, 37.991074, 38.583332, 39.008926, 39.34375, 39.415176, 40.016369, 40.855656, 41.464287, 41.9375, 42.15625, 42.25, 42.15625, 41.890625, 41.421875, 40.868305, 40.564732, 40.40625, 40.28125, 40.333336, -10, -10, -10, -10, -10, -10, -10, -10, -10, -10, -10, -10, -10, -10, -10, -10, -10, -10, -10, -10, -10, -10, -10, -10, -10, -10, 37.5, 37.833336, 37.946426, 38.125, 38.0625, 37.875, 37.616074, 37.229168, 37.05357, 36.705357, 36.508926, 36.125, 35.598213, 35.3125, 35, 34.8125, 34.6875, 34.4375, 34.25, 34.125, 33.875, 33.625, 33.3125, 33, 32.625, 32.375, 32.1875, 31.9375, 31.6875, 31.4375, 31.1875, 31, 31, 31, 30.8125, 30.6875, 30.5, 30.25, 30.09375, 29.875, 29.861607, 29.96875, 30.0625, 30.129463, 29.964287, 30, 30, 30.1875, 30.25, 30.142857, 30.071428, 30, 30, 30, 30, 30, 30, 29.875, 29.75, 29.5, 29.25, 29.25, 29.25, 29.25, 29.25, 29.125, 28.875, 28.75, 28.4375, 28.125, 28.116072, 28.291666, 28.5, 28.6875, 28.75, 28.6875, 28.625, 28.5625, 28.4375, 28.5625, 28.5625, 28.5, 28.5, 28.3125, 28.1875, 28.125, 28, 28, 28, 28, 28, 28, 28, 28, 28, 28, 28, 28, 28, 28, 28, 27.875, 27.6875, 27.4375, 27.1875, 27.1875, 27.357143, 27.375, 27.375, 27.25, 27.0625, 27, 27, 27, 27, 27, 27, 27, 27, 26.8125, 26.75, 26.75, 26.625, 26.625, 26.4375, 26.1875, 26.125, 26.25, 26.4375, 26.5, 26.4375, 26.25, 26.0625, 26, 26, 26, 26, 25.9375, 25.9375, 25.9375, 25.875, 25.875, 25.875, 25.875, 25.9375, 25.875, 25.625, 25.375, 25.125, 25, 25.0625, 25.125, 25.125, 25.0625, 25, 25, 25, 25.0625, 25.0625, 25, 24.9375, 24.9375, 24.9375, 24.9375, 24.9375, 24.9375, 24.6875, 24.4375, 24.25, 24, 12.857142, 12.485715, 12.605441, 12.265306, 12.09375, 12.102678, 12.364583, 12.357143, 12.375, 12.34375, 12.316964, 12.556122, 12.464286, 12.280612, 12.0625, 11.9375, 12.25, 12.083333, 11.875, 11.535714, 11.5, 11.571428, 11.4375, 11.5625, 11.5625, 11.5625, 11.5625, 11.5625, 11.625, 11.6875, 11.75, 11.8125, 11.875, 11.9375, 11.96875, 12.03125, 12.071428, 12.125, 12.34375, 12.263393, 12.010417, 11.790178, 11.6875, 11.8125, 11.9375, 12, 11.9375, 12.071428, 12.552083, 13.004464, 13.34375, 13.46875, 13.625, 13.8125, 14, 14.3125, 14.5625, 14.8125, 15.107143, 15.3125, 15.5625, 15.75, 15.9375, 16, 15.9375, 15.875, 15.875, 16.0625, 16.223213, 16.25, 16.3125, 16.375, 16.5625, 16.6875, 16.6875, 16.785713, 17.369049, 17.669643, 18.09375, 18.041666, -10, -10, -10, 23.875, 23.833334, 23.8125, 23.75, 23.830357, 24.083334, 24.169643, 24.4375, 24.625, 24.875, 25.3125, 25.5625, 25.8125, 26, 26, 26, 26.258928, 26.778572, 26.821428, 27.125, 27.0625, 27.3125, 27.5, 27.8125, 28.196428, 28.625, 28.9375, 29.419643, 29.625, 29.875, 30, 30, 30, 30, 30.196428, 30.614584, 30.763393, 30.96875, 31.15625, 31.428572, 32.020832, 32.428574, 32.5625, 32.6875, 32.75, 32.9375, 33.25, 33.5625, 33.8125, 33.90625, 34.125, 34.375, 34.732143, 34.90625, 35.0625, 35.3125, 35.958332, 36.38393, 36.5, 36.4375, 36.5, 36.375, 36.5, 36.625, 36.5625, 36.5625, 36.4375, 36.3125, 36.339287, 36.645832, 36.708332, 36.659523, 37.523811, 37.714287, 38, 37.875, 37.8125, 37.75, 37.991074, 38.583332, 39.008926, 39.25, 39.276787, 39.904762, 40.690475, 41.339287, 41.8125, 42.138393, 42.25, 42.09375, 41.756699, 41.390625, 40.899555, 40.765625, 40.65625
37.089287, 36.497025, 36.276787, 35.875, 35.517857, 35.3125, 34.9375, 34.6875, 34.625, 34.375, 34.25, 34.1875, 33.8125, 33.5625, 33.25, 32.875, 32.5625, 32.3125, 32.125, 31.9375, 31.6875, 31.4375, 31.1875, 31, 31, 31, 30.8125, 30.6875, 30.4375, 30.25, 30.15625, 29.9375, 29.986607, 30.03125, 30, 30.09375, 30, 30, 30.0625, 30.25, 30.3125, 30.205357, 30.133928, 30, 30, 30, 30, 30, 29.9375, 29.75, 29.5625, 29.3125, 29.125, 29.25, 29.375, 29.375, 29.375, 29.1875, 28.9375, 28.875, 28.625, 28.375, 28.3125, 28.25, 28.4375, 28.625, 28.75, 28.75, 28.6875, 28.625, 28.5, 28.5625, 28.5, 28.4375, 28.4375, 28.3125, 28.25, 28.25, 28.125, 28.0625, 28.0625, 28, 28, 28, 28, 28, 28, 28, 28, 28, 28, 28, 28, 27.875, 27.6875, 27.5, 27.25, 27.1875, 27.25, 27.25, 27.25, 27.1875, 27.0625, 27, 27, 27, 27, 27, 27, 27, 27, 26.875, 26.8125, 26.75, 26.625, 26.5, 26.3125, 26.125, 26.0625, 26.25, 26.4375, 26.4375, 26.375, 26.1875, 26, 26, 26, 26, 25.9375, 25.875, 25.875, 25.875, 25.875, 25.875, 25.875, 25.8125, 25.875, 25.875, 25.625, 25.4375, 25.1875, 25, 25, 25.0625, 25.0625, 25, 25, 25, 25, 25.0625, 25.0625, 25, 25, 25, 25, 25, 25, 24.9375, 24.6875, 24.4375, 24.1875, 24, 14, 13.6, 13.571428, 13.232143, 13.28125, 13.21875, 13.21875, 13.1875, 13.125, 13.09375, 13.03125, 13.066964, 13.03125, 12.911565, 12.846939, 12.958333, 13.091836, 12.964286, 12.821428, 12.693878, 12.3125, 12.4375, 12.482143, 12.321428, 12.321428, 12.285714, 12.479167, 12.4375, 12.642858, 12.714286, 12.642858, 12.5, 12.5625, 12.625, 12.71875, 12.78125, 12.821428, 12.875, 13.03125, 12.888393, 12.697917, 12.260203, 12.25, 12.428572, 12.464286, 12.75, 12.625, 12.903061, 13.145833, 13.473214, 13.625, 13.625, 13.75, 13.9375, 14.1875, 14.5625, 14.75, 14.875, 15.0625, 15.25, 15.5, 15.75, 15.9375, 16, 16, 16, 16, 16.1875, 16.25, 16.25, 16.25, 16.25, 16.375, 16.5, 16.5, 16.678572, 17.476191, 17.776787, 18.09375, 18.041666, -10, -10, -10, 23.75, 23.75, 23.8125, 23.8125, 23.9375, 24.0625, 24.1875, 24.4375, 24.6875, 24.9375, 25.3125, 25.5625, 25.8125, 25.9375, 25.8125, 25.75, 26.008928, 26.707144, 26.857143, 27.1875, 27.125, 27.375, 27.5625, 27.875, 28.321428, 28.6875, 28.9375, 29.375, 29.5625, 29.8125, 30, 30, 30, 30, 30.133928, 30.489584, 30.575893, 30.71875, 30.90625, 31.178572, 31.770832, 32.178574, 32.375, 32.625, 32.75, 33, 33.25, 33.4375, 33.6875, 33.71875, 34, 34.3125, 34.607143, 34.78125, 34.8125, 34.9375, 35.592262, 36.217262, 36.428574, 36.4375, 36.5, 36.375, 36.4375, 36.5, 36.5, 36.5625, 36.5625, 36.5625, 36.5, 36.4375, 36.520832, 36.622025, 37.470238, 37.723213, 38, 37.9375, 37.875, 37.8125, 37.928574, 38.422619, 38.86607, 39.151787, 39.308037, 39.944939, 40.534225, 41.125, 41.760418, 42.044643, 42.303574, 42.197918, 41.787949, 41.578125, 41.194199, 41.140625, 41.03125, 40.78125, 40.75, -10, -10, -10, -10, -10, -10, -10, -10, -10, -10, -10, -10, -10, -10, -10, -10, -10, -10, -10, -10, -10, -10, -10, -10, -10, -10, 37.541668, 38.150002, 38.214287, 38.3125, 38.1875, 37.75, 37.5, 37.3125, 36.964287, 36.434525, 36.214287, 35.75, 35.455357, 35.25, 34.875, 34.75, 34.75, 34.5, 34.375, 34.25, 33.75, 33.5, 33.1875, 32.8125, 32.5625, 32.3125, 32.0625, 31.8125, 31.5625, 31.3125, 31.125, 31, 31, 31, 30.875, 30.75, 30.5, 30.3125, 30.1875, 30, 30.017857, 30.0625, 30, 30.125, 30.0625, 30.0625, 30.125, 30.25, 30.3125, 30.205357, 30.133928, 30, 30, 30, 29.9375, 29.875, 29.75, 29.5, 29.3125, 29.125, 29, 29.1875, 29.375, 29.375, 29.375, 29.1875, 29, 29, 28.8125, 28.625, 28.5625, 28.5, 28.5625, 28.625, 28.6875, 28.6875, 28.6875, 28.6875, 28.625, 28.6875, 28.625, 28.5625, 28.5, 28.375, 28.3125, 28.3125, 28.1875, 28.0625, 28.0625, 28, 28, 27.9375, 27.875, 27.875, 27.875, 27.9375, 28, 28, 28, 28, 28, 27.8125, 27.5625, 27.3125, 27.0625, 27.0625, 27.1875, 27.25, 27.25, 27.1875, 27.0625, 27, 27, 27, 27, 27, 27, 27, 27, 26.9375, 26.875, 26.75, 26.5625, 26.375, 26.1875, 26.0625, 26.0625, 26.1875, 26.3125, 26.3125, 26.25, 26.125, 26, 26, 26, 26, 25.9375, 25.875, 25.875, 25.875, 25.9375, 25.9375, 25.9375, 25.8125, 25.75, 25.75, 25.5625, 25.4375, 25.25, 25.0625, 25, 25, 25, 24.9375, 24.9375, 24.9375, 24.9375, 25, 25, 25, 25, 25, 25, 25, 25, 24.9375, 24.6875, 24.4375, 24.1875, 24, 14.25, 14.466666, 14.510203, 14.37245, 14.535714, 14.5, 14.571428, 14.535714, 14.041667, 14.25, 13.642858, 13.683673, 13.714286, 14.698413, 14.767858, 14.708333, 14.080357, 13.9375, 13.928572, 13.729592, 13.571428, 13.642858, 13.693878, 14.041667, 14.166667, 14.083333, 13.690476, 13.642858, 13.4375, 13.714286, 13.4375, 13.4375, 13.4375, 13.4375, 13.75, 13.821428, 13.633928, 13.625, 13.65625, 13.53125, 13.53125, 13.895833, 13.958333, 14.166667, 14.089286, 13.734694, 13.581633, 13.446428, 13.770833, 13.928572, 14, 13.9375, 14.125, 14.3125, 14.5625, 14.875, 15, 15.125, 15.3125, 15.4375, 15.625, 15.8125, 15.9375, 16, 16, 16.0625, 16.0625, 16.1875, 16.25, 16.125, 16.125, 16.125, 16.1875, 16.4375, 16.5, 16.785715, 17.517857, 17.8125, 18.125, 18.083334, -10, -10, -10, 23.625, 23.583334, 23.6875, 23.6875, 23.875, 24.0625, 24.25, 24.5, 24.75, 24.9375, 25.25, 25.4375, 25.6875, 25.875, 25.6875, 25.6875, 25.928572, 26.644644, 27, 27.25, 27.25, 27.375, 27.5625, 27.875, 28.3125, 28.5625, 28.8125, 29.1875, 29.375, 29.625, 29.875, 29.9375, 30, 30, 30.125, 30.28125, 30.34375, 30.46875, 30.71875, 30.982143, 31.4375, 31.875, 32.0625, 32.4375, 32.625, 32.875, 33.125, 33.25, 33.4375, 33.53125, 33.8125, 34.1875, 34.544643, 34.71875, 34.75, 34.8125, 35.272106, 35.967262, 36.241074, 36.3125, 36.5, 36.5, 36.5, 36.5, 36.375, 36.446426, 36.625, 36.5625, 36.5, 36.3125, 36.3125, 36.642857, 37.398808, 37.732143, 37.9375, 37.8125, 37.8125, 37.8125, 37.9375, 38.285713, 38.877975, 39.205357, 39.558037, 40.221725, 40.575893, 41.125, 41.729168, 42.075893, 42.491074, 42.555061, 42.207588, 41.932293, 41.587051, 41.421875, 41.25
36.866074, 36.416668, 36.205357, 35.75, 35.455357, 35.25, 34.875, 34.75, 34.6875, 34.4375, 34.3125, 34.1875, 33.8125, 33.625, 33.3125, 32.9375, 32.625, 32.3125, 32, 31.6875, 31.4375, 31.1875, 31.0625, 30.9375, 30.9375, 30.9375, 30.8125, 30.8125, 30.5625, 30.4375, 30.4375, 30.25, 30.25, 30.125, 30, 30.0625, 30.0625, 30.0625, 30.1875, 30.375, 30.4375, 30.330357, 30.196428, 30, 29.9375, 29.875, 29.75, 29.6875, 29.5625, 29.375, 29.25, 29.0625, 29, 29.1875, 29.375, 29.375, 29.375, 29.1875, 29, 29, 28.875, 28.75, 28.75, 28.75, 28.8125, 28.8125, 28.8125, 28.8125, 28.75, 28.75, 28.6875, 28.6875, 28.6875, 28.6875, 28.625, 28.5, 28.375, 28.3125, 28.1875, 28.0625, 28.0625, 28, 28, 27.9375, 27.875, 27.875, 27.8125, 27.8125, 27.875, 27.875, 27.9375, 28, 28, 27.8125, 27.625, 27.375, 27.1875, 27.1875, 27.1875, 27.1875, 27.125, 27.0625, 27, 27, 27, 27, 27, 27, 27, 27, 27, 27, 26.9375, 26.75, 26.5, 26.25, 26.0625, 26, 26.0625, 26.125, 26.1875, 26.1875, 26.125, 26.0625, 26, 26, 26, 26, 25.9375, 25.9375, 25.9375, 25.9375, 26, 25.9375, 25.9375, 25.75, 25.625, 25.5625, 25.4375, 25.4375, 25.3125, 25.1875, 25.0625, 25, 25, 25, 25, 25, 25, 25, 25, 25, 25, 25, 25, 24.9375, 24.9375, 24.875, 24.625, 24.4375, 24.1875, 23.785713, 15.285714, 15.133333, 15.196428, 15.275511, 15.410714, 15.375, 15.517858, 15.5, 15.541667, 15.285714, 15.166667, 15.125, 15.166667, 15.333334, 15.408164, 15.357142, 15.091836, 15, 14.964286, 14.908164, 14.785714, 14.857142, 14.836736, 14.892858, 15.081633, 15.157143, 14.807823, 14.760203, 14.642858, 14.642858, 14.571428, 14.5, 14.5, 14.571428, 14.46875, 14.59375, 14.571428, 14.714286, 14.696428, 14.625, 14.625, 14.589286, 14.698979, 15.095239, 15.056123, 14.642857, 14.224489, 14.214286, 14.321428, 14.428572, 14.5, 14.464286, 14.8125, 14.830357, 14.9375, 15.0625, 15.125, 15.25, 15.4375, 15.625, 15.8125, 15.9375, 16, 16, 16.0625, 16.1875, 16.1875, 16.25, 16.25, 16.125, 16.1875, 16.25, 16.25, 16.5, 16.5625, 16.794643, 17.267857, 17.553572, 17.875, 18, -10, -10, -10, 23.5, 23.5, 23.625, 23.625, 23.875, 24.125, 24.375, 24.625, 24.875, 25.0625, 25.3125, 25.4375, 25.6875, 25.8125, 25.6875, 25.8125, 26.03125, 26.638393, 27.08482, 27.21875, 27.3125, 27.375, 27.5, 27.8125, 28.21875, 28.46875, 28.71875, 28.96875, 29.125, 29.3125, 29.625, 29.8125, 30, 30.125, 30.3125, 30.5, 30.4375, 30.5, 30.625, 30.794643, 31.25, 31.625, 31.8125, 32.25, 32.5, 32.8125, 33.035713, 33.026787, 33.1875, 33.34375, 33.75, 34.125, 34.4375, 34.59375, 34.625, 34.678574, 35.133926, 35.663689, 35.991074, 36.125, 36.375, 36.5, 36.5, 36.5625, 36.375, 36.383926, 36.5625, 36.5, 36.5, 36.3125, 36.3125, 36.642857, 37.398808, 37.732143, 37.875, 37.6875, 37.6875, 37.6875, 37.875, 38.285713, 38.940475, 39.330357, 39.674107, 40.200893, 40.522324, 41.0625, 41.729168, 42.138393, 42.678574, 42.872025, 42.535713, 42.114586, 41.852676, 41.65625, 41.5, 41.3125, 41.166668, -10, -10, -10, -10, -10, -10, -10, -10, -10, -10, -10, -10, -10, -10, -10, -10, -10, -10, -10, -10, -10, -10, -10, -10, -10, -10, 37.666668, 38.066666, 38.05357, 37.955357, 37.696426, 37.375, 37.1875, 37.0625, 36.741074, 36.229168, 35.910713, 35.5, 35.3125, 35.25, 35, 34.9375, 34.8125, 34.5, 34.3125, 34.125, 33.875, 33.6875, 33.4375, 33.0625, 32.6875, 32.3125, 31.875, 31.5, 31.25, 31.0625, 31, 30.875, 30.8125, 30.8125, 30.6875, 30.8125, 30.6875, 30.625, 30.6875, 30.5, 30.4375, 30.25, 30.0625, 30.0625, 30.0625, 30.0625, 30.1875, 30.223213, 30.080357, 30.008928, 29.9375, 29.875, 29.875, 29.8125, 29.625, 29.5, 29.3125, 29.1875, 29.125, 29, 29, 29.125, 29.3125, 29.3125, 29.3125, 29.1875, 29, 29, 28.9375, 28.875, 28.875, 28.875, 28.875, 28.8125, 28.8125, 28.8125, 28.75, 28.75, 28.625, 28.5625, 28.5625, 28.5625, 28.5625, 28.5, 28.375, 28.3125, 28.1875, 28.0625, 28.0625, 28, 28, 27.9375, 27.9375, 27.9375, 27.875, 27.8125, 27.75, 27.75, 27.8125, 27.9375, 28, 27.875, 27.75, 27.5625, 27.4375, 27.4375, 27.375, 27.3125, 27.1875, 27.0625, 27, 27, 27, 27, 27, 27, 27, 27, 27, 26.9375, 26.9375, 26.75, 26.5625, 26.4375, 26.25, 26.1875, 26.125, 26.0625, 26, 26, 26, 26, 26, 26, 26, 26, 25.9375, 25.9375, 25.9375, 25.9375, 26, 26, 26, 25.8125, 25.6875, 25.5625, 25.5, 25.5, 25.375, 25.25, 25.0625, 25, 25, 25, 25, 25, 25, 25, 25, 25, 25, 25, 25, 24.875, 24.875, 24.8125, 24.5625, 24.4375, 24.1875, 23.607143, 18.444445, 16.046259, 16.089287, 16.080357, 16, 16.1875, 16.339287, 16.3125, 16.25, 16.25, 16.214285, 16.107143, 16.071428, 16.041666, 16.107143, 16.125, 15.955357, 15.9375, 15.9375, 16.061224, 15.928572, 15.892858, 15.669643, 15.6875, 15.883928, 15.95, 15.819727, 15.795918, 15.678572, 15.4375, 15.607142, 15.3125, 15.25, 15.566327, 15.544643, 15.918367, 15.928572, 15.857142, 15.785714, 15.714286, 15.5, 15.5, 15.580357, 15.895834, 15.830358, 15.806122, 15.922619, 15.875, 15.958333, 16.041666, 16.041666, 16.041666, 15.821428, 15.580357, 15.357142, 15.392858, 15.428572, 15.75, 15.9375, 16.0625, 16.1875, 16.1875, 16.125, 16.0625, 16.125, 16.3125, 16.3125, 16.4375, 16.4375, 16.3125, 16.4375, 16.4375, 16.375, 16.5625, 16.625, 16.830357, 17.232143, 17.491072, 17.75, 18.052084, 18.366667, -10, -10, 23.5, 23.5, 23.625, 23.625, 23.875, 24.125, 24.375, 24.625, 24.875, 25.125, 25.375, 25.5, 25.75, 25.883928, 26, 26.0625, 26.174107, 26.602678, 26.977676, 27.09375, 27.1875, 27.1875, 27.3125, 27.53125, 27.9375, 28.25, 28.5625, 28.84375, 29, 29.125, 29.4375, 29.6875, 29.9375, 30.1875, 30.375, 30.5625, 30.5625, 30.5625, 30.625, 30.6875, 31.125, 31.5, 31.6875, 32.151787, 32.482143, 32.875, 33.071426, 32.928574, 33.0625, 33.15625, 33.5625, 33.9375, 34.25, 34.46875, 34.625, 34.625, 34.848213, 35.377975, 35.669643, 35.9375, 36.25, 36.5, 36.625, 36.6875, 36.5, 36.383926, 36.4375, 36.375, 36.3125, 36.1875, 36.25, 36.571426, 37.398808, 37.732143, 37.8125, 37.6875, 37.75, 37.857143, 38.0625, 38.410713, 39.002975, 39.392857, 39.75, 40.15625, 40.46875, 41, 41.635418, 41.96875, 42.616074, 42.934525, 42.794643, 42.395836, 42.133926, 41.84375, 41.59375
36.75, 36.4375, 36.017857, 35.5625, 35.3125, 35.1875, 35.0625, 35.0625, 34.875, 34.5625, 34.3125, 34.0625, 33.866074, 33.479168, 33.196426, 32.875, 32.5625, 32.3125, 31.875, 31.354166, 31.125, 30.9375, 31, 30.8125, 30.6875, 30.625, 30.4375, 30.625, 30.5625, 30.5, 30.5625, 30.4375, 30.375, 30.25, 30.125, 30.0625, 30.0625, 30.0625, 30.1875, 30.160713, 29.955357, 29.821428, 29.75, 29.75, 29.8125, 29.741072, 29.375, 29.25, 29.0625, 29, 28.9375, 28.892857, 29, 29.0625, 29.1875, 29.125, 29.125, 29.0625, 29, 28.9375, 28.9375, 28.9375, 28.9375, 29, 28.9375, 28.8125, 28.8125, 28.8125, 28.8125, 28.875, 28.8125, 28.6875, 28.625, 28.5625, 28.5, 28.4375, 28.3125, 28.1875, 28.0625, 28, 28, 28, 28, 28, 28, 28, 27.9375, 27.8125, 27.75, 27.75, 27.8125, 27.9375, 28, 27.9375, 27.875, 27.6875, 27.5625, 27.5, 27.375, 27.3125, 27.1875, 27.0625, 27, 27, 27, 27, 27, 27, 27, 27, 27, 26.9375, 26.9375, 26.8125, 26.6875, 26.625, 26.5, 26.375, 26.25, 26.125, 26, 26, 26, 26, 26, 26, 26, 26, 26, 26, 26, 26, 26, 26, 26, 25.875, 25.75, 25.625, 25.625, 25.5625, 25.5, 25.375, 25.125, 25.0625, 25, 25, 25, 25, 25, 25, 25, 25, 25, 25, 25, 24.8125, 24.8125, 24.8125, 24.5625, 24.5, 24.25, 23.428572, 19.476192, 18.050795, 17.244898, 17.017857, 17.583334, 17.125, 17.214287, 17.125, 17.1875, 17.25, 17.044643, 16.875, 16.8125, 16.6875, 16.75, 16.8125, 16.8125, 17, 17.035715, 16.928572, 16.857143, 16.785715, 16.714285, 16.714285, 16.795918, 16.942858, 16.795918, 16.867346, 16.785715, 16.714285, 16.714285, 16.571428, 16.3125, 16.401787, 16.765306, 16.918367, 16.928572, 16.857143, 16.785715, 16.642857, 16.571428, 16.5, 16.520407, 16.645834, 16.580357, 16.724489, 16.683674, 16.678572, 16.821428, 16.964285, 17.035715, 17.107143, 17.071428, 16.841837, 16.875, 16.708334, 16.464285, 16.34375, 16.46875, 16.46875, 16.5625, 16.59375, 16.625, 16.428572, 16.535715, 16.767857, 16.785715, 17.053572, 16.791666, 16.642857, 16.660713, 16.651787, 16.625, 16.6875, 16.8125, 16.9375, 17.125, 17.375, 17.6875, 18.230656, 18.720634, -10, -10, 23.291666, 23.440477, 23.6875, 23.6875, 23.9375, 24.125, 24.375, 24.625, 24.8125, 25.1875, 25.4375, 25.5625, 25.8125, 25.946428, 26.1875, 26.3125, 26.361607, 26.580357, 26.848213, 26.9375, 27.09375, 27.125, 27.25, 27.53125, 27.982143, 28.3125, 28.625, 28.78125, 28.875, 28.96875, 29.28125, 29.65625, 29.96875, 30.25, 30.5, 30.6875, 30.75, 30.8125, 30.8125, 30.8125, 31.1875, 31.5, 31.6875, 32.089287, 32.419643, 32.8125, 33.008926, 32.928574, 33.0625, 33.21875, 33.633926, 33.90625, 34.15625, 34.3125, 34.571426, 34.8125, 35.089287, 35.482143, 35.678574, 35.9375, 36.25, 36.5, 36.6875, 36.8125, 36.5625, 36.383926, 36.375, 36.25, 36.1875, 36.0625, 36.0625, 36.330357, 37.35714, 37.723213, 37.8125, 37.625, 37.714287, 37.964287, 38.303574, 38.758926, 39.270832, 39.616074, 39.9375, 40.25, 40.5, 41, 41.4375, 41.875, 42.5, 42.955357, 43.151787, 42.770836, 42.508926, 42.013393, 41.6875, 41.4375, 41.25, -10, -10, -10, -10, -10, -10, -10, -10, -10, -10, -10, -10, -10, -10, -10, -10, -10, -10, -10, -10, -10, -10, -10, -10, -10, -10, -10, 38.166664, 38.077381, 37.892857, 37.508926, 37.375, 37.1875, 37, 36.705357, 36.4375, 36.017857, 35.625, 35.330357, 35.1875, 35.0625, 35.0625, 34.8125, 34.5625, 34.3125, 34.0625, 33.928574, 33.479168, 33.196426, 32.8125, 32.5625, 32.3125, 31.9375, 31.479166, 31.1875, 31, 31, 30.8125, 30.6875, 30.625, 30.4375, 30.625, 30.5625, 30.5, 30.5625, 30.4375, 30.375, 30.25, 30.125, 30, 30, 30, 30.125, 30.160713, 29.955357, 29.821428, 29.75, 29.75, 29.8125, 29.678572, 29.375, 29.3125, 29.125, 29.1875, 29.044643, 28.857143, 29, 29, 29.1875, 29.125, 29.125, 29.0625, 29, 28.9375, 28.9375, 28.9375, 28.9375, 29, 29, 28.9375, 28.9375, 28.9375, 28.9375, 29, 28.9375, 28.75, 28.5625, 28.375, 28.25, 28.1875, 28.125, 28.0625, 28, 28, 28, 28, 28, 28.0625, 28.125, 28.125, 28.0625, 27.875, 27.75, 27.75, 27.8125, 27.9375, 28, 28, 27.9375, 27.75, 27.625, 27.4375, 27.25, 27.1875, 27.0625, 27, 27, 27, 27, 27, 27, 27, 27, 27, 27, 26.9375, 26.9375, 26.8125, 26.75, 26.75, 26.6875, 26.5625, 26.375, 26.1875, 26, 26, 26, 26, 26, 26, 26, 26, 26, 26, 26, 26, 26, 26, 26, 25.9375, 25.875, 25.8125, 25.8125, 25.6875, 25.5625, 25.375, 25.125, 25.0625, 25, 25, 25, 25, 25, 25, 25, 25, 25, 25, 25, 24.8125, 24.8125, 24.8125, 24.5625, 24.5, 24.25, 23.25, 20.416668, 19.077551, 18.346939, 18.37755, 18.5, 18.285715, 18.209185, 17.8125, 18.035715, 18.178572, 18.051022, 17.857143, 17.785715, 17.4375, 17.714285, 17.714285, 17.785715, 17.857143, 17.6875, 17.75, 17.6875, 17.625, 17.5625, 17.785715, 17.633928, 17.762501, 17.633928, 17.633928, 17.785715, 17.75, 17.75, 17.571428, 17.428572, 17.494898, 17.658163, 17.846939, 17.928572, 17.785715, 17.714285, 17.375, 17.535715, 17.642857, 17.724489, 17.770834, 17.479593, 17.464285, 17.625, 17.526787, 17.625, 17.75, 17.875, 18.107143, 18.107143, 17.938776, 17.678572, 17.428572, 17.25, 17.142857, 17.03125, 17.15625, 17.132654, 17.46875, 17.714285, 17.958334, 18, 18.125, 18.166666, 17.918367, 17.479166, 17.517857, 17.32653, 17.316326, 17.285715, 17.178572, 17.214285, 17.214285, 17.285715, 17.625, 17.875, 18.459822, 18.915478, 19.75, 20.571428, 23.083332, 23.464287, 23.8125, 23.8125, 24.0625, 24.1875, 24.4375, 24.6875, 24.875, 25.3125, 25.5, 25.6875, 25.875, 25.946428, 26.3125, 26.375, 26.424107, 26.580357, 26.6875, 26.8125, 26.90625, 26.955357, 27.232143, 27.59375, 27.982143, 28.3125, 28.625, 28.71875, 28.9375, 29.03125, 29.34375, 29.71875, 29.96875, 30.3125, 30.5625, 30.75, 30.875, 30.9375, 30.9375, 31, 31.3125, 31.5625, 31.6875, 31.964287, 32.294643, 32.732143, 32.946426, 32.928574, 33.125, 33.28125, 33.758926, 33.96875, 34.09375, 34.1875, 34.392857, 34.8125, 35.089287, 35.544643, 35.678574, 35.9375, 36.25, 36.5, 36.75, 36.9375, 36.75, 36.5625, 36.3125, 36.125, 36, 35.9375, 35.9375, 36.214287, 37.333332, 37.714287, 37.875, 37.678574, 37.639286, 38.017857, 38.366074, 38.875, 39.294643, 39.625, 39.9375, 40.25, 40.5, 41, 41.375, 41.767857, 42.491074, 42.919643, 43.232143, 43.104168, 42.866074, 42.242561, 41.883926
36.455357, 36.25, 35.892857, 35.6875, 35.392857, 35.25, 35.125, 35.0625, 34.8125, 34.5625, 34.3125, 34.0625, 33.928574, 33.416668, 33.133926, 32.6875, 32.4375, 32.25, 31.9375, 31.541666, 31.25, 31.0625, 31, 30.875, 30.75, 30.625, 30.5, 30.625, 30.5625, 30.5, 30.4375, 30.3125, 30.25, 30.1875, 30.125, 30, 30, 30, 30.0625, 30.035713, 29.830357, 29.696428, 29.6875, 29.75, 29.875, 29.741072, 29.5, 29.375, 29.1875, 29.3125, 29.107143, 28.982143, 29.0625, 28.9375, 29.0625, 29, 29, 29, 29, 28.9375, 28.9375, 28.9375, 28.9375, 29, 29, 29, 29, 29, 29, 29, 28.9375, 28.75, 28.5, 28.3125, 28.125, 28.0625, 28.0625, 28, 28, 28, 28, 28, 28.0625, 28.1875, 28.25, 28.25, 28.1875, 28, 27.875, 27.875, 27.875, 27.9375, 28, 28, 27.9375, 27.75, 27.5625, 27.375, 27.1875, 27.125, 27.0625, 27, 27, 27, 27, 27, 27, 27, 27, 27, 27, 26.9375, 26.875, 26.8125, 26.8125, 26.875, 26.875, 26.6875, 26.4375, 26.1875, 26, 26, 26, 26, 26, 26, 26, 26, 26, 26, 26, 26, 26, 25.9375, 25.875, 25.8125, 25.75, 25.8125, 25.875, 25.6875, 25.5625, 25.3125, 25.0625, 25.0625, 25, 25, 25, 25, 25, 25, 25, 25, 25, 25, 24.9375, 24.75, 24.6875, 24.625, 24.4375, 24.375, 24.1875, 23.285715, 20.766668, 19.934525, 19.428572, 19.581633, 19.561224, 19.178572, 18.839287, 18.5625, 18.5625, 18.65625, 18.638393, 18.53125, 18.53125, 18.642857, 18.714285, 18.4375, 18.46875, 18.5, 18.5, 18.5625, 18.714285, 18.714285, 18.714285, 18.785715, 18.785715, 18.785715, 18.785715, 18.785715, 18.857143, 18.928572, 18.928572, 18.321428, 18.142857, 18.401787, 18.544643, 18.616072, 18.6875, 18.5625, 18.5, 18.375, 18.4375, 18.785715, 18.857143, 19, 19.125, 19, 18.607143, 18.308037, 18.34375, 18.4375, 18.857143, 18.75, 18.875, 18.875, 18.464285, 18.285715, 18.071428, 17.892857, 17.928572, 18.21875, 18.851191, 18.714285, 18.714285, 18.678572, 18.698978, 18.835714, 18.724489, 18.678572, 18.369047, 18.484694, 18.773809, 18.809525, 18.833334, 18.708334, 18.666666, 18.666666, 18.666666, 18.5, 18.5, 18.959822, 19.403572, 20.388887, 20.97143, 23.065475, 23.485121, 23.875, 23.875, 24.0625, 24.1875, 24.4375, 24.6875, 24.875, 25.25, 25.375, 25.5625, 25.75, 25.883928, 26.375, 26.4375, 26.455357, 26.611607, 26.65625, 26.84375, 27.03125, 27.080357, 27.419643, 27.71875, 27.950893, 28.21875, 28.53125, 28.803572, 29.169643, 29.34375, 29.59375, 29.78125, 29.90625, 30.125, 30.375, 30.625, 30.9375, 31.0625, 31.125, 31.169643, 31.25, 31.616072, 31.678572, 31.901787, 32.232143, 32.607143, 32.848213, 32.901787, 33.089287, 33.388393, 33.8125, 34.03125, 34.09375, 34.1875, 34.392857, 34.8125, 35.026787, 35.482143, 35.616074, 35.875, 36.25, 36.5, 36.75, 36.875, 36.75, 36.625, 36.4375, 36.3125, 36.1875, 36.0625, 36, 36.267857, 37.187496, 37.642857, 37.875, 37.803574, 37.764286, 38.142857, 38.428574, 38.875, 39.294643, 39.625, 39.9375, 40.25, 40.5, 40.9375, 41.321426, 41.851189, 42.482143, 42.946426, 43.357143, 43.5625, 43.366074, 42.513393, 42.05357, 41.625, 41.5, -10, -10, -10, -10, -10, -10, -10, -10, -10, -10, -10, -10, -10, -10, -10, -10, -10, -10, -10, -10, -10, -10, -10, -10, -10, -10, -10, 38.25, 38.166664, 38.125, 37.75, 37.5, 37.080357, 36.6875, 36.392857, 36.25, 36.0625, 35.875, 35.642857, 35.4375, 35.25, 35.125, 34.8125, 34.5625, 34.3125, 34.0625, 33.928574, 33.479168, 33.196426, 32.75, 32.455357, 32.3125, 32, 31.604166, 31.3125, 31.0625, 31, 30.9375, 30.875, 30.75, 30.625, 30.625, 30.4375, 30.3125, 30.1875, 30.0625, 30.0625, 30.0625, 30.125, 30.0625, 30.0625, 30.0625, 30, 30, 29.9375, 29.875, 29.875, 29.875, 29.875, 29.678572, 29.5, 29.375, 29.25, 29.4375, 29.169643, 29.044643, 29.125, 29, 29.0625, 29, 29, 28.9375, 29, 28.9375, 28.9375, 28.9375, 28.9375, 29, 29, 29, 29, 29, 29, 29, 29, 28.875, 28.6875, 28.5, 28.25, 28.125, 28.0625, 28, 28, 28, 28, 28, 28.125, 28.25, 28.25, 28.25, 28.125, 28, 28, 28, 28, 28, 28, 28, 27.9375, 27.75, 27.491072, 27.174999, 27.107143, 27, 27.0625, 27, 27, 27, 27, 27, 27, 27, 27, 27, 27, 27, 26.9375, 26.875, 26.8125, 26.75, 26.6875, 26.5625, 26.375, 26.1875, 26.0625, 26, 26, 26, 26, 26, 26, 26, 26, 26, 26, 26, 26, 25.9375, 25.8125, 25.6875, 25.625, 25.6875, 25.8125, 25.6875, 25.5625, 25.3125, 25.0625, 25.0625, 25, 25, 25, 25, 25, 25, 25, 25, 25, 25, 24.875, 24.6875, 24.5625, 24.4375, 24.3125, 24.25, 24.125, 23.357143, 21.183334, 20.648809, 20.178572, 20.607143, 20.366072, 19.821428, 19.591837, 19.224489, 19.224489, 19.25, 19.301022, 19.285715, 19.59375, 19.75, 19.785715, 19.375, 19.34375, 19.3125, 19.3125, 19.678572, 19.714285, 19.75, 19.75, 19.785715, 19.785715, 19.785715, 19.785715, 19.5625, 19.821428, 19.892857, 19.821428, 19.958334, 19.833334, 19.5, 19.5, 19.5, 19.571428, 19.571428, 19.642857, 19.607143, 19.678572, 19.821428, 19.821428, 19.928572, 19.964285, 19.979593, 19.285715, 19.209185, 19.214285, 19.5625, 19.6875, 19.6875, 19.75, 19.928572, 20.041666, 20.041666, 19.895834, 19.645834, 19.520834, 19.303572, 19.515306, 19.660715, 19.5625, 19.464285, 19.540815, 19.657145, 19.545918, 19.428572, 19.119047, 19.198978, 19.565475, 19.836735, 19.785715, 19.678572, 19.571428, 19.571428, 19.642857, 19.75, 19.892857, 19.928572, 20.241072, 20.791666, 22.103174, 23.119047, 23.651787, 24, 24, 24.125, 24.25, 24.5, 24.75, 24.9375, 25.1875, 25.25, 25.375, 25.5625, 25.6875, 26.125, 26.3125, 26.375, 26.53125, 26.46875, 26.78125, 27.075893, 27.267857, 27.638393, 27.84375, 27.950893, 28.107143, 28.520834, 28.866072, 29.294643, 29.53125, 29.71875, 29.84375, 29.96875, 30.169643, 30.375, 30.625, 30.875, 31.0625, 31.1875, 31.232143, 31.25, 31.553572, 31.678572, 31.875, 32.1875, 32.482143, 32.71875, 32.84375, 33.01786, 33.491074, 33.928574, 34.15625, 34.15625, 34.21875, 34.392857, 34.875, 35.0625, 35.4375, 35.5625, 35.8125, 36.25, 36.5, 36.75, 36.875, 36.75, 36.625, 36.4375, 36.25, 36.125, 35.9375, 35.875, 36.196426, 37.062496, 37.464287, 37.75, 37.616074, 37.576786, 37.910713, 38.241074, 38.75, 39.169643, 39.5625, 39.84375, 40.1875, 40.5, 40.875, 41.227676, 41.726189, 42.294643, 42.758926, 43.247768, 43.5625, 43.428574, 42.669643, 42.256695
