18, 17.916666, 17.888887, 17.875, 17.625, 17.458332, 8.916667, 8.833333, 8.666667, 8.5, 8.5625, 8.416667, 8.25, 7.875, 7.3482141, 7.125, 6.9375, 6.75, 6.625, 6.4375, 6.25, 6.375, 6.4375, 6.4375, 6.375, 6.1875, 6, 5.9375, 5.9375, 5.9375, 6.125, 6.1875, 6.25, 6.25, 6.125, 6.0625, 6, 6, 6, 6, 6, 6, 6.5714288, 8.666667, 9.4285717, 10, 10, 10.0625, 10.321428, 10.729166, 11.088889, -10, -10, -10, -10, -10, 18.916666, 18.9375, 18.892857, 18.369047, 17.416666, 16.803572, 16.5, 16.25, 16.0625, 15.928572, 15.625, 15.392858, 15.285714, 15.4375, 15.267857, 15.28125, 15.34375, 15.46875, 15.71875, 15.660714, 15.526786, 15.5, 15.375, 15.625, 15.75, 16, 16.375, 16.5625, 16.8125, 16.6875, 16.464287, 16.5, 16.5625, 16.67857, 16.443453, 16.455357, 16.375, 16.625, 16.75, 16.6875, 16.625, 16.5, 16.375, 16.4375, 16.4375, 16.5, 16.535715, 16.401785, 16.607143, 16.464285, 15.9375, 15.705357, 15.520833, -10, -10, 16.625, 16.645834, 16.6875, 16.640625, 16.546875, 16.515625, 16.34375, 16.328125, 16.354168, -10, -10, -10, 23.583334, 23.541666, 23.46875, 23.4375, 23.741072, 24.617559, 25.627977, 26.029018, 26.171875, 26.053572, 25.8125, 25.964287, 26.169643, 26.491072, 26.366072, 26.125, 26.0625, 25.875, 26, 26.0625, 26, 26, 26.125, 26.25, 26.5, 26.5625, 26.4375, 26.0625, 25.580357, 25.1875, 24.767857, 24.535713, 24.267857, 24.196428, 24.203125, 24.322916, -10, -10, -10, -10, -10, -10, -10, 24, 24.5375, 24.950001, -10, -10, -10, -10, -10, -10, -10, -10, -10, -10, -10, -10, 62, 62.611111, 62.611111, -10, -10, -10, 62.125, 62.239582, 62.354168, 62.5, 62.794643, 63.107143, 63.454079, 64.302086, 64.584824, 64.982147, 65.294647, 65.8125, 66.294647, 66.571426, 67.047623, 67.276787, 67.508926, 68.020836, 68.491074, 68.9375, 69.0625, 69.464287, 69.794647, 70.285713, 70.6875, 70.75, 71.01786, 71.607147, 71.982147, 72.446426, 72.8125, 73.15625, 73.625, 73.848213, 74.25, 74.4375, 74.857147, 75.541664, 75.866074, 76.0625, 76.133926, 76.375, 76.571426, 77.208336, 77.616074, 78.107147, 78.5625, 78.982147, 79.3125, 79.625, 79.9375, 80.428574, 80.919647, 81.419647, 81.9375, 82.388397, 82.75, 83.1875, 83.5625, 83.90625, 84.330353, 85.166672, 86.125, 86.678574, 87, 87.3125, 87.375, 87.5, 87.6875, 87.75, 88, 88.15625, 88.40625, 88.84375, 89.370544, 89.6875, 89.9375, 90.21875, 90.46875, 90.78125, 91.09375, 91.383926, 91.681549, 91.866074, 92.4375, 92.803574, 93.125, 93.330353, 93.517853, 93.6875, 93.9375, 94.071426, 94.547623, 95.470245, 95.89286, 96.34375, 96.59375, 96.9375, 97.375, 97.866074, 98.502975, 98.803574, 99.03125, 99.196426, 99.645836, 99.857147, 100.21875, 100.4375, 100.5, 100.91965, 101.56548, 102.21429, 102.625, 103.125, 103.5, 103.75, 104.125, 104.25, 104.5, 104.8125, 105.23215, 105.59375, 106.09375, 106.53125, 106.70834, -10, -10, -10, -10, -10, -10, -10, -10, -10, -10, -10, -10, -10, -10, 11.5, 11.333333, 11.520833, 11.6875, 11.950893, 12.276786, 12.607143, 13.0625, 13.34375, 13.705357, 14.464286, 14.995536, 15.482143, 15.625, 15.866072, 16.232143, 16.544643, 17.145834, 17.491072, 18.040178, 18.549107, 18.834822, 19.03125, 19, 19.0625, 19.0625, 19.0625, 19.125, 19.0625, 19.0625, 19.0625, 18.9375, 18.9375, 19.0625, 19.0625, 19.125, 19.125, 18.8125, 18.517857, 18.3125, 18, 17.875, 17.875, 17.9375, 18, 18.0625, 18.0625, 17.9375, 17.875, 17.8125, 17.75, 17.75, 17.729166, 17.666666, 17.5, 17.305555, 17, 17, 17, 17, 8.75, 8.6388893, 8.375, 8.125, 7.6919641, 7.46875, 7.28125, 7.09375, 7, 6.8125, 6.625, 6.625, 6.5625, 6.4375, 6.3125, 6.125, 5.9375, 5.9375, 5.9375, 5.9375, 6.125, 6.1875, 6.1875, 6.1875, 6.0625, 6, 6, 6, 6, 6, 6, 6, 6.5714288, 8.666667, 9.4285717, 10, 10, 10.0625, 10.3125, 10.479166, -10, -10, -10, -10, -10, -10, 19, 19, 18.830357, 18.252977, 17.392857, 16.803572, 16.229168, 15.883928, 15.625, 15.428572, 15.1875, 15.125, 15.0625, 15.1875, 15.125, 15.15625, 15.21875, 15.28125, 15.46875, 15.348214, 15.151786, 15.125, 15, 15.375, 15.625, 15.875, 16.3125, 16.5, 16.625, 16.4375, 16.044643, 15.857142, 16.125, 16.330357, 16.229166, 16.205357, 16.116072, 15.979167, 16.017857, 16, 16.044643, 16.0625, 16.0625, 16.125, 16.125, 16.125, 16.160715, 15.816327, 15.625, 15.416667, 15.25, 14.948979, 14.797618, -10, -10, 16.5, 16.520834, 16.625, 16.703125, 16.734375, 16.953125, 17.131697, 16.989796, 17.107143, -10, -10, -10, 23.75, 23.916666, 23.84375, 23.8125, 23.982143, 24.65625, 25.943453, 26.35268, 26.53125, 26.4375, 26.4375, 26.589287, 26.794643, 26.821428, 26.616072, 26.25, 26.125, 25.9375, 25.9375, 26, 26.0625, 26.333334, 26.5, 26.65625, 26.71875, 26.65625, 26.46875, 26, 25.517857, 25.1875, 24.9375, 24.848213, 24.5625, 24.238094, 24.024553, 24.052082, 24.8125, 25.544643, 25.933334, -10, -10, -10, -10, 24.041666, 24.6, 25.275, -10, -10, -10, -10, -10, -10, -10, -10, -10, -10, -10, -10, -10, 62.611111, 62.708332, 63, 62.875, 62.6875, 62.21875, 62.177082, 62.21875, 62.25, 62.419643, 62.642857, 62.918365, 63.702385, 64.29464, 64.961304, 65.348213, 65.875, 66.232147, 66.446426, 66.922623, 67.214287, 67.544647, 67.9375, 68.428574, 68.848213, 69.0625, 69.4375, 69.6875, 70.232147, 70.625, 70.6875, 70.95536, 71.513397, 71.888397, 72.415176, 72.84375, 73.21875, 73.625, 73.8125, 74.1875, 74.4375, 74.964287, 75.541664, 75.830353, 76, 76.133926, 76.5, 76.6875, 77.1875, 77.5625, 78.044647, 78.571426, 79.190475, 79.553574, 79.8125, 80.0625, 80.4375, 80.919647, 81.419647, 81.875, 82.325897, 82.6875, 83.0625, 83.4375, 83.71875, 84.116074, 85, 85.958336, 86.732147, 87.133926, 87.375, 87.375, 87.339287, 87.5, 87.669647, 87.90625, 88.125, 88.375, 88.75, 89.308044, 89.625, 89.875, 90.25, 90.5, 90.875, 91.25, 91.571426, 91.994049, 92.116074, 92.5625, 92.875, 93.287498, 93.267853, 93.535706, 93.625, 93.9375, 94.258926, 94.833336, 95.532745, 95.857147, 96.25, 96.5, 96.875, 97.3125, 97.696426, 98.377975, 98.678574, 98.96875, 99.236603, 99.802086, 99.950897, 100.375, 100.5, 100.625, 101.04465, 101.56548, 102.16965, 102.5625, 103.0625, 103.5, 103.75, 104.125, 104.25, 104.5, 104.75, 105.125, 105.53125, 106.03125, 106.53125, 106.70834, -10, -10, -10
17.625, 17.625, 17.5625, 17.5, 17.375, 17.229166, 17, 17, 17, 17, 17, 16.875, 8.416667, 8.166667, 7.7991071, 7.65625, 7.53125, 7.40625, 7.375, 7.1875, 7.0625, 7, 6.9375, 6.875, 6.75, 6.5535717, 6.1666665, 6.0714283, 6.0625, 6.125, 6.1875, 6.1875, 6.125, 6.0625, 6, 6, 6, 6, 6, 6.0625, 6.125, 6.1875, 6.7857141, 8.750001, 9.4642859, 10, 10, 10, 10.25, 10.375, -10, -10, -10, -10, -10, -10, 18.916666, 18.9375, 18.767857, 18.199406, 17.476191, 16.875, 16.0625, 15.642857, 15.375, 15.178572, 14.9375, 14.875, 14.8125, 14.9375, 14.9375, 15, 15.0625, 15.125, 15.25, 15.160714, 14.964286, 14.9375, 14.8125, 15.125, 15.375, 15.625, 15.9375, 16.214285, 16.178572, 15.857142, 15.232142, 15.258928, 15.666667, 15.973214, 16.125, 16.125, 15.959822, 15.697917, 15.611607, 15.65625, 15.794643, 15.8125, 15.8125, 15.642857, 15.5, 15.4375, 15.348214, 15.151786, 15.125, 14.9375, 14.75, 14.517857, 14.416666, -10, -10, 16, 16.154762, 16.520834, 16.622768, 16.823662, 17.256697, 17.739796, 18.151787, 18.375, 20.952381, 22.933334, 23.428572, 24.0625, 24.291666, 24.34375, 24.5, 24.489796, 24.892857, 26.354168, 26.72768, 26.96875, 26.875, 26.8125, 26.839287, 26.857143, 26.696428, 26.5, 26.25, 26.125, 26, 26, 26.125, 26.357143, 26.708334, 26.866072, 26.760416, 26.665178, 26.53125, 26.34375, 25.9375, 25.517857, 25.25, 25, 24.910713, 24.625, 24.238094, 24.087053, 24.197916, 24.666666, 25.154762, 25.526983, -10, -10, -10, -10, 24, 24.418751, 25.303572, 26.1, -10, -10, -10, -10, -10, -10, -10, -10, -10, -10, -10, -10, -10, 62.833332, 63.111111, 63, 62.875, 62.46875, 62.21875, 62.1875, 62.125, 62.1875, 62.375, 62.611607, 63.440475, 64.33036, 65.104172, 65.491074, 65.875, 66.169647, 66.446426, 66.895836, 67.178574, 67.544647, 67.875, 68.428574, 68.848213, 69.0625, 69.4375, 69.6875, 70.232147, 70.625, 70.75, 70.991074, 71.46875, 71.897324, 72.459824, 72.96875, 73.34375, 73.6875, 73.875, 74.25, 74.625, 75.151787, 75.5625, 75.75, 75.875, 76.133926, 76.544647, 76.6875, 77.151787, 77.544647, 78.044647, 78.821426, 79.538696, 79.834824, 80.03125, 80.1875, 80.446426, 81.127975, 81.598221, 82, 82.34375, 82.625, 83, 83.4375, 83.825897, 84.294647, 85.041664, 85.958336, 86.732147, 87.071426, 87.25, 87.125, 86.964287, 87.142853, 87.502975, 87.803574, 88.125, 88.375, 88.75, 89.339294, 89.625, 89.875, 90.1875, 90.4375, 90.8125, 91.25, 91.633926, 92.145836, 92.366074, 92.633926, 93.136902, 93.433334, 93.255356, 93.589279, 93.616074, 93.9375, 94.321426, 94.949409, 95.556549, 95.866074, 96.25, 96.5, 96.9375, 97.375, 97.696426, 98.333336, 98.616074, 98.90625, 99.267853, 99.833336, 99.982147, 100.40625, 100.5, 100.6875, 101.10715, 101.62798, 102.1875, 102.5625, 103, 103.375, 103.5625, 103.8125, 103.875, 104.13393, 104.58334, 105.0625, 105.59375, 106.1384, 106.59375, 106.79166, -10, -10, -10, -10, -10, -10, -10, -10, -10, -10, -10, -10, -10, -10, 11.125, 11.249999, 11.4375, 11.6875, 12.03125, 12.339286, 12.669643, 13, 13.200893, 13.875, 14.714286, 15.294643, 15.700893, 15.96875, 16.25, 16.5, 17.092262, 17.547619, 17.866072, 18.21875, 18.53125, 18.879463, 19.03125, 19.0625, 19, 19, 19, 19, 18.9375, 18.875, 18.8125, 18.625, 18.6875, 18.8125, 18.875, 19.125, 19.125, 19, 18.830357, 18.508928, 17.895834, 17.821428, 17.732143, 17.875, 17.9375, 17.928572, 17.785713, 17.714287, 17.732143, 17.544643, 17.375, 17.4375, 17.419643, 17.375, 17.3125, 17.125, 17, 17, 17, 17, 17, 16.833334, 16.5, 16.291668, 7.875, 8.1071424, 8.2928572, 7.7901783, 7.875, 7.625, 7.5625, 7.5, 7.375, 7.3125, 7.1875, 6.9910717, 6.5416665, 6.3214283, 6.1875, 6.25, 6.25, 6.25, 6.1875, 6.0625, 6, 6, 6, 6, 6, 6.125, 6.25, 6.375, 7, 8.833334, 9.5357151, 10.0625, 10.125, 10.125, 10.28125, 10.333333, -10, -10, -10, -10, -10, 19, 19, 19, 18.705357, 18.083334, 17.464285, 16.767857, 15.892857, 15.455357, 15.125, 15, 14.9375, 14.9375, 14.875, 14.9375, 14.9375, 14.9375, 15, 15, 15.0625, 14.973214, 14.839286, 14.875, 14.8125, 15.0625, 15.25, 15.4375, 15.5625, 15.166667, 15, 14.791667, 14.892857, 15.008928, 15.416667, 15.598214, 15.892858, 15.857142, 15.459822, 15.197917, 15.111607, 15.15625, 15.232143, 15.25, 15.3125, 15.116072, 14.875, 14.571428, 14.3125, 14.151786, 14.1875, 14.098214, 13.964286, 13.8125, 13.726191, 13.839286, 14.25, 15.375, 15.592262, 16.020834, 16.225447, 16.817411, 17.537947, 17.967262, -10, -10, 21.079367, 23.022223, 23.428572, 24.25, 24.479166, 24.59375, 24.875, 25.670637, 26.071428, 26.729168, 27.00893, 27.25, 27.1875, 27.125, 27.089287, 26.875, 26.642857, 26.5, 26.3125, 26.3125, 26.25, 26.25, 26.4375, 26.732143, 27.065477, 26.970238, 26.778273, 26.602678, 26.46875, 26.34375, 26, 25.580357, 25.3125, 25.125, 24.973213, 24.6875, 24.300594, 24.102678, 24.25, 24.5625, 24.991072, 25.395237, 25.1875, 25.270832, 25, 24.5, 24.125, 24.56875, 25.482143, 26.133333, -10, -10, -10, -10, -10, -10, -10, -10, -10, -10, -10, -10, -10, 63, 63.083332, 62.96875, 62.8125, 62.5625, 62.25, 62.15625, 62.125, 62.25, 62.5625, 62.8125, 63.357143, 64.241074, 65.041672, 65.553574, 65.9375, 66.294647, 66.5, 66.75, 67, 67.357147, 67.8125, 68.473213, 68.910713, 69.125, 69.4375, 69.75, 70.339287, 70.6875, 70.875, 71.026787, 71.361603, 71.790176, 72.471725, 72.897324, 73.28125, 73.5, 73.75, 74.125, 74.607147, 75.089287, 75.5, 75.6875, 75.8125, 76.196426, 76.607147, 76.8125, 77.276787, 77.544647, 78.008926, 78.967262, 79.583336, 79.897324, 80.03125, 80.125, 80.446426, 81.127975, 81.598221, 82, 82.34375, 82.59375, 82.96875, 83.40625, 83.794647, 84.294647, 84.970238, 85.6875, 86.491074, 86.928574, 87.125, 87.0625, 86.870537, 87.049103, 87.471725, 87.772324, 88.125, 88.3125, 88.633926, 89.315475, 89.616074, 89.875, 90.125, 90.375, 90.6875, 91.125, 91.571426, 92.083336, 92.303574, 92.580353, 93.149406, 93.326187, 93.192856, 93.401779, 93.491074, 93.8125, 94.321426, 95.211311, 95.651787, 95.9375, 96.25, 96.5, 97, 97.5, 97.8125, 98.3125, 98.625, 98.982147, 99.392853, 99.958336, 100.10715, 100.5, 100.5625, 100.875, 101.26785, 101.77084, 102.3125, 102.625, 103, 103.25, 103.4375, 103.5625, 103.67857, 104.15476, 104.58334, 105.14285, 105.71875, 106.1384, 106.59375, 106.70834, -10, -10, -10
17.125, 17.1875, 17.169643, 17.1875, 17.1875, 17.0625, 17, 16.928572, 16.75, 16.75, 16.6875, 16.625, 16.333334, 16.194445, 16, 10.325, 10.837857, 8.4982996, 8.5892859, 8.0178566, 7.5625, 7.4583335, 7.4583335, 7.5535717, 7.5, 7.3035717, 6.8541665, 6.5714283, 6.375, 6.375, 6.25, 6.1875, 6.125, 6, 6, 6, 6, 6, 6.0714283, 6.4583335, 6.6785717, 6.9375, 7.5446429, 9.0238094, 9.6473217, 10.125, 10.25, 10.25, 10.34375, 10.333333, -10, -10, -10, -10, -10, 19.277779, 19.15625, 19.09375, 18.84375, 18.428572, 17.547619, 16.75, 15.660713, 15.267857, 15, 14.9375, 14.9375, 14.9375, 14.875, 14.9375, 14.9375, 14.9375, 15, 15, 15, 14.9375, 14.875, 14.875, 14.90625, 15.09375, 15.21875, 15.28125, 15.1875, 14.785714, 14.571428, 14.464286, 14.642857, 14.821428, 15.166667, 15.1875, 15.035714, 14.708333, 14.897322, 14.572917, 14.486607, 14.53125, 14.607143, 14.464286, 14.520408, 14.678572, 14.4375, 13.806122, 13.489797, 13.392858, 13.535714, 13.647959, 13.714286, 13.625, 13.476191, 13.642858, 14.083333, 14.919643, 15.133928, 15.61012, 15.853572, 16.819048, 17.654762, -10, -10, -10, 21.496599, 23.266666, 23.571428, 24.125, 24.375, 24.6875, 25.241072, 26.090137, 26.5, 26.958334, 27.151787, 27.375, 27.375, 27.3125, 27.214287, 26.9375, 26.642857, 26.5625, 26.4375, 26.5, 26.5, 26.4375, 26.625, 26.982143, 27.288692, 27.157738, 26.903273, 26.602678, 26.53125, 26.441963, 26.080357, 25.830357, 25.535713, 25.205357, 25.008928, 24.794643, 24.479166, 24.258928, 24.28125, 24.40625, 24.709822, 25.061905, 25.1875, 25.270832, -10, -10, 24.25, 24.71875, 25.660715, 26.150002, -10, -10, -10, -10, -10, -10, -10, -10, -10, -10, -10, -10, -10, 63.125, 63.25, 63.125, 62.96875, 62.611607, 62.34375, 62.28125, 62.3125, 62.5, 62.8125, 63.0625, 63.544643, 64.375, 65.26786, 65.732147, 66.0625, 66.3125, 66.4375, 66.6875, 66.8125, 67.125, 67.803574, 68.473213, 68.848213, 69.125, 69.3125, 69.696426, 70.339287, 70.625, 70.9375, 71, 71.290176, 71.873512, 72.525299, 72.959824, 73.25, 73.3125, 73.5625, 74.104164, 74.5625, 74.982147, 75.375, 75.5625, 75.78125, 76.1875, 76.482147, 76.8125, 77.308037, 77.776787, 78.196426, 79.029762, 79.538696, 79.834824, 80.03125, 80.1875, 80.508926, 81.127975, 81.535721, 82, 82.419647, 82.78125, 83.21875, 83.65625, 84.075897, 84.482147, 85.041664, 85.458336, 86.178574, 86.723221, 87, 86.9375, 86.808037, 86.986603, 87.453873, 87.772324, 88.125, 88.3125, 88.602676, 89.239586, 89.584824, 89.910713, 90.3125, 90.4375, 90.714287, 91.125, 91.607147, 91.9375, 92.1875, 92.392853, 92.899406, 93.076187, 93.050003, 93.258926, 93.4375, 93.958336, 94.5, 95.315475, 95.758926, 96, 96.3125, 96.5, 97, 97.5, 97.75, 98.25, 98.5625, 98.982147, 99.446426, 99.8125, 100, 100.375, 100.5625, 101.0625, 101.5, 101.875, 102.375, 102.625, 102.9375, 103.1875, 103.375, 103.5, 103.67857, 104.15476, 104.58334, 105.14285, 105.6875, 106.04465, 106.5, 106.58334, -10, -10, -10, -10, -10, -10, -10, -10, -10, -10, -10, -10, -10, -10, 10.875, 11.249999, 11.517857, 11.96875, 12.46875, 12.71875, 13.03125, 13.09375, 13.34375, 14.120537, 14.857142, 15.622024, 15.946428, 16.3125, 16.5, 16.9375, 17.708334, 17.964287, 18.3125, 18.4375, 18.75, 19.008928, 19.0625, 19.133928, 18.734694, 18.734694, 18.958334, 19, 19, 19, 19, 18.9375, 18.9375, 19, 19, 19.0625, 19.0625, 19, 18.9375, 18.633928, 18.020834, 17.883928, 17.794643, 17.9375, 17.866072, 17.532738, 17.241072, 17.151787, 17.294643, 17.232143, 17.125, 17.125, 17.107143, 17.125, 17.125, 17.0625, 17, 16.857143, 16.416668, 16.416668, 16.4375, 16.375, 16.3125, 16.145834, 16, 13.5, 13.371428, 10.580953, 9.1726189, 8.2589283, 7.5, 7.3958335, 7.5654764, 7.7232141, 7.75, 7.5535717, 7.1041665, 6.8214283, 6.625, 6.625, 6.4375, 6.3125, 6.1875, 6, 6, 6, 6.0625, 6.125, 6.2589283, 6.7708335, 7.0535717, 7.4375, 8.0892859, 9.2142859, 9.7589283, 10.1875, 10.375, 10.416667, 10.375, -10, -10, -10, -10, -10, 20, 19.333334, 19.239584, 19.15625, 18.834822, 18.282738, 17.404762, 16.5625, 15.636904, 15.258928, 15, 14.9375, 14.875, 14.901786, 14.910714, 14.9375, 15, 14.9375, 15, 15, 15, 15, 15, 14.9375, 14.96875, 15.03125, 15.03125, 15.09375, 14.875, 14.625, 14.375, 14.25, 14.3125, 14.508928, 14.916667, 14.9375, 14.678572, 14.535714, 14.59375, 14.46875, 14.40625, 14.40625, 14.285714, 13.87755, 14.026785, 13.991072, 13.8125, 13.455357, 13.178572, 13.0625, 13.25, 13.348214, 13.339286, 13.3125, 13.142857, 13.482143, 13.8125, 14.232143, 14.508928, 14.964286, 15.638096, -10, -10, -10, -10, -10, 22.666666, 23.5, 23.642857, 24.125, 24.4375, 24.919643, 25.553572, 26.360121, 26.741072, 27, 27.125, 27.25, 27.25, 27.1875, 27.089287, 26.875, 26.75, 26.75, 26.75, 26.785713, 26.642857, 26.571428, 26.6875, 27.053572, 27.330357, 27.157738, 26.997023, 26.758928, 26.75, 26.723213, 26.330357, 26.142857, 25.848213, 25.392857, 25.026785, 24.75, 24.5625, 24.375, 24.34375, 24.28125, 24.28125, 24.511906, -10, -10, -10, -10, 24.5, 25.21875, 26.035715, 26.400002, -10, -10, -10, -10, -10, -10, -10, -10, -10, -10, -10, -10, -10, 63.0625, 63.25, 63.125, 62.9375, 62.580357, 62.375, 62.375, 62.5, 62.75, 63.0625, 63.3125, 63.732143, 64.446426, 65.047623, 65.720238, 66.071426, 66.4375, 66.625, 66.8125, 66.90625, 67.111603, 67.772324, 68.379463, 68.75, 69, 69.125, 69.517853, 70.297623, 70.616074, 70.9375, 71.008926, 71.467262, 72.020836, 72.619049, 72.928574, 73.125, 73.1875, 73.4375, 74.041664, 74.5, 74.8125, 75.25, 75.4375, 75.75, 76.1875, 76.482147, 76.8125, 77.276787, 77.839287, 78.366074, 79.145836, 79.517853, 79.84375, 80.138397, 80.3125, 80.571426, 81.020836, 81.348221, 81.821426, 82.440475, 82.90625, 83.40625, 83.84375, 84.325897, 84.6875, 85.0625, 85.482147, 85.875, 86.366074, 86.732147, 86.803574, 86.90625, 87.111603, 87.534225, 87.834824, 88.0625, 88.25, 88.477676, 89.052086, 89.459824, 89.83036, 90.25, 90.5, 90.75, 91.0625, 91.482147, 91.6875, 92.0625, 92.517853, 93.03334, 93.163696, 93.237503, 93.428574, 93.598213, 93.851189, 94.133926, 95.034012, 95.654762, 95.964287, 96.375, 96.53125, 97.03125, 97.53125, 97.78125, 98.1875, 98.5, 98.982147, 99.482147, 99.75, 100, 100.3125, 100.625, 101.16965, 101.5625, 101.9375, 102.375, 102.625, 102.9375, 103.1875, 103.375, 103.5625, 103.80357, 104.34226, 104.83334, 105.33035, 105.8125, 106.10715, 106.5, 106.58334, -10, -10, -10
16.8125, 16.9375, 16.982143, 17.0625, 17.125, 17.0625, 16.928572, 16.523809, 15.988095, 15.916667, 16, 16.0625, 16.125, 16.0625, 16, 15, 14.818368, 13.170634, 10.387755, 8.0714283, 7.3125, 7.2708335, 7.5029764, 7.6607141, 7.75, 7.625, 7.375, 7.125, 6.875, 6.75, 6.5, 6.375, 6.25, 6.0625, 6.0625, 6, 6.125, 6.25, 6.4464283, 7.0208335, 7.3035717, 7.75, 8.4196434, 9.3214283, 9.8348217, 10.25, 10.5, 10.583334, -10, -10, -10, -10, -10, -10, -10, 19.583334, 19.40625, 19.28125, 18.825893, 18.074404, 17.154762, 16.303572, 15.571428, 15.25, 15, 14.9375, 14.8125, 14.776786, 14.785714, 14.8125, 14.9375, 14.9375, 15, 15, 15, 15, 14.9375, 14.875, 14.84375, 14.84375, 14.84375, 14.84375, 14.6875, 14.5, 14.3125, 14.25, 14.3125, 14.4375, 14.5, 14.4375, 14.3125, 14.25, 14.25, 14.25, 14.375, 14.3125, 13.869047, 13.5625, 13.464285, 13.598214, 13.5, 13.205357, 12.991072, 12.9375, 13.1875, 13.285714, 13.214286, 13.125, 12.892857, 13.169643, 13.4375, 13.794643, 14.25, 14.507937, -10, -10, -10, -10, -10, -10, 22.875, 23.616667, 23.723215, 24.125, 24.4375, 24.857143, 25.428572, 26.127977, 26.428572, 26.6875, 26.8125, 26.9375, 27, 27.0625, 27.026787, 26.9375, 26.9375, 26.9375, 27.0625, 27.160713, 27.080357, 26.9375, 26.666666, 26.839287, 27.017857, 26.916666, 27.080357, 26.9375, 27, 26.973213, 26.642857, 26.455357, 26.160713, 25.767857, 25.339285, 25.0625, 24.875, 24.5625, 24.40625, 24.25, 24.1875, 24.444445, -10, -10, -10, -10, -10, 25.333334, 26.607143, 26.466667, -10, -10, -10, -10, -10, -10, -10, -10, -10, -10, -10, 62.5, 62.666668, 63.083332, 63.166668, 63.020832, 62.78125, 62.424107, 62.34375, 62.40625, 62.59375, 62.8125, 63.107143, 63.59375, 64, 64.415176, 64.904762, 65.541664, 66.154762, 66.553574, 66.75, 66.875, 66.9375, 67.142853, 67.772324, 68.334824, 68.71875, 68.96875, 69.125, 69.517853, 70.297623, 70.678574, 71, 71.151787, 71.690475, 72.145836, 72.699409, 72.866074, 72.9375, 72.9375, 73.1875, 73.836311, 74.375, 74.75, 75.1875, 75.5, 75.8125, 76.25, 76.5, 76.875, 77.375, 77.857147, 78.366074, 78.895836, 79.232147, 79.6875, 80.151787, 80.4375, 80.75, 80.9375, 81.169647, 81.580353, 82.315475, 82.78125, 83.28125, 83.65625, 84.302086, 84.6875, 85.0625, 85.419647, 85.6875, 86.142853, 86.589287, 86.794647, 87.03125, 87.28125, 87.575897, 87.84375, 88, 88.1875, 88.352676, 88.864586, 89.272324, 89.64286, 90.333336, 90.616074, 90.875, 91.0625, 91.419647, 91.625, 92.0625, 92.571426, 92.887497, 93.151779, 93.4375, 93.4375, 93.598213, 93.757439, 94.040176, 94.671768, 95.839287, 96.205353, 96.5625, 96.6875, 97.125, 97.5625, 97.8125, 98.125, 98.4375, 98.919647, 99.419647, 99.75, 100, 100.3125, 100.625, 101.10715, 101.5, 101.8125, 102.25, 102.5625, 102.875, 103.25, 103.5, 103.8125, 104.24107, 104.87798, 105.125, 105.54465, 105.91071, 106.0625, 106.5, 106.5, -10, -10, -10, -10, -10, -10, -10, -10, -10, -10, -10, -10, -10, -10, 10.75, 11.116666, 11.571428, 12.102678, 12.59375, 12.84375, 13.125, 13.171875, 13.392857, 13.794643, 14.285714, 15.3125, 15.973215, 16.513393, 16.71875, 17.125, 17.4375, 17.785715, 18.5625, 18.6875, 19, 18.973213, 18.875, 19.035715, 19.375509, 19.035713, 19.217262, 19.1875, 19.1875, 19.21875, 19.25, 19.25, 19.1875, 19.1875, 19.0625, 19, 19, 19, 19, 18.75, 18.455357, 18.125, 17.9375, 17.9375, 17.678572, 17.354166, 17.142857, 16.9375, 17, 16.875, 16.8125, 16.982143, 17.053572, 17.116072, 16.916666, 16.75, 16.553572, 16.086309, 15.488095, 15.416667, 15.5, 15.625, 15.75, 15.75, 15.8125, 15.75, 15.428572, 14.605441, 13.698413, 7.8214288, 7.0625, 6.9583335, 7.2529764, 7.4107141, 7.4375, 7.3125, 7.125, 7, 6.9375, 6.875, 6.625, 6.4375, 6.25, 6.0625, 6.0625, 6.0625, 6.25, 6.4375, 6.6964283, 7.2083335, 7.4910717, 8, 8.7410717, 9.4285717, 9.90625, 10.3125, 10.5625, 10.708334, -10, -10, -10, -10, -10, -10, -10, 19.583334, 19.40625, 19.28125, 18.888393, 18.261904, 17.476191, 16.482143, 15.714285, 15.3125, 15.0625, 14.9375, 14.8125, 14.776786, 14.848214, 14.875, 15, 15, 15, 15, 15, 14.9375, 14.8125, 14.6875, 14.59375, 14.59375, 14.59375, 14.59375, 14.5, 14.375, 14.25, 14.1875, 14.1875, 14.25, 14.3125, 14.3125, 14.25, 14.25, 14.25, 14.25, 14.34375, 14.21875, 13.775297, 13.40625, 13.183035, 13.25, 13.125, 13.026785, 13.098214, 13.178572, 13.4375, 13.5, 13.428572, 13.2375, 13.142857, 13.09375, 13.28125, 13.461309, -10, -10, -10, -10, -10, -10, -10, -10, 23.416666, 23.691666, 23.803572, 24.125, 24.375, 24.794643, 25.366072, 25.901787, 26.25, 26.5625, 26.75, 26.9375, 26.973213, 26.955357, 26.883928, 26.875, 26.9375, 26.9375, 27.125, 27.160713, 27.080357, 26.875, 26.479166, 26.526787, 26.660713, 26.8125, 27.0625, 27, 27.0625, 27.035713, 26.767857, 26.705357, 26.473213, 26.080357, 25.651785, 25.3125, 25.125, 24.75, 24.5, 24.21875, 24.020834, -10, -10, -10, -10, -10, -10, -10, 27.387754, -10, -10, -10, -10, -10, -10, -10, -10, -10, -10, -10, -10, -10, -10, -10, 63.166668, 63.010414, 62.78125, 62.424107, 62.34375, 62.375, 62.53125, 62.6875, 62.964287, 63.75, 64.142853, 64.540176, 64.967262, 65.604164, 66.324402, 66.678574, 66.875, 67, 67, 67.205353, 67.834824, 68.334824, 68.71875, 69.03125, 69.1875, 69.517853, 70.221725, 70.584824, 70.90625, 71.183037, 71.752975, 72.217262, 72.723213, 72.866074, 73.008926, 73.1875, 73.375, 73.961311, 74.330353, 74.6875, 75.125, 75.5, 75.8125, 76.25, 76.5, 76.8125, 77.3125, 77.794647, 78.294647, 78.6875, 79.15625, 79.71875, 80.357147, 80.71875, 81, 81.125, 81.3125, 81.705353, 82.315475, 82.75, 83.125, 83.4375, 84.145836, 84.607147, 85, 85.357147, 85.5, 85.857147, 86.485123, 86.723213, 87.0625, 87.3125, 87.607147, 87.875, 88.0625, 88.3125, 88.46875, 88.78125, 89.15625, 89.58036, 90.440475, 90.741074, 91, 91.0625, 91.357147, 91.625, 92.241074, 92.857147, 93.0625, 93.473213, 93.794647, 93.928574, 94.035713, 94.132439, 94.290176, 94.785713, 95.848213, 96.3125, 96.6875, 96.8125, 97.1875, 97.5625, 97.8125, 98.125, 98.375, 98.78125, 99.325897, 99.65625, 99.90625, 100.25, 100.5625, 100.98215, 101.4375, 101.6875, 102.125, 102.5, 102.8125, 103.25, 103.4375, 103.75, 104.125, 104.60715, 104.98215, 105.40179, 105.99405, 106.24107, 106.625, 106.66666, -10, -10, -10
16.9375, 17.107143, 17.089287, 17.008928, 16.738094, 16.5, 16.303572, 15.970238, 15.550595, 15.416667, 15.455357, 15.4375, 15.5625, 15.5625, 15.6875, 15.75, 15.625, 15.258928, 14.690476, 7.5714288, 7.0625, 7, 7.1071429, 7.1071429, 7.0625, 6.9375, 6.875, 6.875, 6.9375, 6.9375, 6.6875, 6.5, 6.25, 6.0625, 6.0625, 6.0625, 6.3125, 6.5625, 6.84375, 7.21875, 7.53125, 8.09375, 8.9107151, 9.5089283, 10, 10.333333, 10.583333, 10.777779, -10, -10, -10, -10, -10, -10, -10, 19.5, 19.333334, 19.25, 18.785713, 18, 17.392857, 16.5, 15.821428, 15.375, 15.125, 14.928572, 14.625, 14.651786, 14.767857, 14.8125, 15, 15, 15, 15, 15, 14.9375, 14.741072, 14.354167, 14.133928, 14.0625, 14.125, 14.1875, 14.1875, 14.214286, 14.294643, 14.232143, 14.1875, 14.125, 14.125, 14.1875, 14.1875, 14.25, 14.25, 14.25, 14.40625, 14.28125, 13.900297, 13.59375, 13.227678, 13.0625, 12.830357, 12.767857, 12.955357, 13.324405, 13.616072, 13.616072, 13.282739, 13.091667, 13.22619, 13.138393, 13.260417, 13.138889, -10, -10, -10, -10, -10, -10, 23.75, 23.541668, 23.354166, 23.629166, 23.741072, 24.125, 24.3125, 24.669643, 25.125, 25.723215, 26.169643, 26.5, 26.75, 27, 27.008926, 26.848213, 26.705357, 26.6875, 26.8125, 26.875, 27.125, 27.160713, 27.080357, 26.9375, 26.541666, 26.526787, 26.625, 26.75, 27, 27, 27, 27, 26.875, 26.8125, 26.625, 26.3125, 25.892857, 25.5, 25.25, 24.8125, 24.5, 24.1875, 23.916668, -10, -10, -10, -10, -10, -10, -10, 27.666666, -10, -10, -10, -10, -10, -10, -10, -10, -10, -10, -10, -10, -10, -10, -10, 63, 62.843746, 62.625, 62.375, 62.25, 62.25, 62.415176, 62.770832, 63.151787, 64, 64.392853, 64.78125, 65.008926, 65.613098, 66.261902, 66.553574, 66.8125, 67, 67.232147, 67.5, 67.96875, 68.388397, 68.71875, 69.09375, 69.3125, 69.696426, 70.346725, 70.709824, 70.96875, 71.308037, 71.744049, 72.008926, 72.544647, 72.794647, 73.1875, 73.607147, 73.75, 74.044647, 74.25, 74.5, 75, 75.482147, 75.78125, 76.1875, 76.4375, 76.6875, 77.15625, 77.5625, 78.107147, 78.625, 79.272324, 79.950897, 80.544647, 80.84375, 81.125, 81.25, 81.5, 81.892853, 82.333336, 82.714287, 83.107147, 83.4375, 84.145836, 84.607147, 85, 85.294647, 85.375, 85.625, 86.235123, 86.598213, 87.0625, 87.419647, 87.6875, 87.9375, 88.125, 88.375, 88.5, 88.8125, 89.125, 89.544647, 90.315475, 90.741074, 91.035713, 91.0625, 91.3125, 91.625, 92.285721, 92.919647, 93.125, 93.535713, 93.919647, 94.116074, 94.276787, 94.174103, 94.227676, 94.598213, 95.5625, 96, 96.383926, 96.770836, 97.116074, 97.5, 97.75, 98.0625, 98.375, 98.75, 99.294647, 99.625, 99.875, 100.1875, 100.46875, 100.8259, 101.28125, 101.59375, 102.0625, 102.70834, 102.98215, 103.375, 103.5625, 103.91965, 104.3125, 104.79465, 105.10715, 105.46429, 106.05655, 106.41072, 106.8125, 106.91666, -10, -10, -10, -10, -10, -10, -10, -10, -10, -10, -10, -10, -10, -10, 11, 11.325, 11.720239, 12.258928, 12.857143, 13.098214, 13.34375, 13.578125, 13.956249, 14.090775, 14.678572, 15.270833, 16.026787, 16.486607, 16.71875, 16.955357, 17.300594, 17.940475, 18.741072, 19, 19.125, 18.9375, 18.75, 18.776787, 19.069643, 19.017857, 19.196428, 19.125, 19, 18.84375, 18.6875, 18.625, 18.6875, 18.8125, 18.9375, 18.910713, 18.714287, 18.791666, 18.958334, 18.875, 18.642857, 18.25, 18, 17.8125, 17.5625, 17.5, 17.25, 17.1875, 17.25, 17, 16.9375, 17.044643, 16.964287, 16.821428, 16.488094, 16.25, 16.053572, 15.791667, 15.633928, 15.5, 15.392857, 15.3125, 15.375, 15.375, 15.5, 15.625, 15.5, 15.4375, 15.3125, 15, 7, 6.9166665, 6.875, 6.8125, 6.6875, 6.4285712, 6.6875, 6.6875, 6.75, 6.75, 6.5, 6.375, 6.1875, 6.0625, 6.0625, 6.125, 6.375, 6.625, 6.9375, 7.25, 7.6205359, 8.40625, 9.1517868, 9.6517859, 10.09375, 10.354166, -10, -10, -10, -10, -10, -10, -10, -10, -10, 19.5, 19.333334, 19.1875, 18.669643, 17.976191, 17.392857, 16.5625, 15.928572, 15.4375, 15.1875, 14.928572, 14.75, 14.723214, 14.696428, 14.8125, 14.875, 15, 15, 14.9375, 14.9375, 14.875, 14.678572, 14.416667, 14.133928, 14, 14, 13.9375, 13.875, 13.928572, 14.214287, 14.285715, 14.375, 14.25, 14.125, 14.0625, 14, 14, 14, 14, 14.15625, 14.09375, 13.802083, 13.700893, 13.375, 13.15625, 12.861607, 12.674107, 12.767857, 13.217261, 13.453571, 13.303572, 12.970239, 12.779167, 13.22619, 13.138393, 13.34375, -10, -10, -10, -10, -10, -10, 24, 23.833334, 23.694445, 23.75, 23.854166, 23.9375, 24.21875, 24.28125, 24.46875, 24.90625, 25.473215, 25.982143, 26.482143, 26.8125, 27.1875, 27.17857, 26.764879, 26.526785, 26.4375, 26.5, 26.589287, 26.919643, 27.053572, 27.1875, 27.116072, 26.791666, 26.705357, 26.625, 26.8125, 27, 27.0625, 27.0625, 27, 26.9375, 26.875, 26.75, 26.5, 26.125, 25.6875, 25.375, 24.9375, 24.553572, 24.041666, 23.738096, -10, -10, -10, -10, -10, -10, -10, -10, -10, -10, -10, -10, -10, -10, -10, -10, -10, -10, -10, -10, -10, -10, -10, 63.25, 63.041664, 62.78125, 62.424107, 62.21875, 62.125, 62.290176, 62.645832, 63.089287, 64, 64.455353, 64.90625, 65.125, 65.508926, 66.065475, 66.303574, 66.625, 66.875, 67.138397, 67.46875, 67.9375, 68.401787, 68.71875, 69.09375, 69.375, 69.8125, 70.370537, 70.78125, 71.09375, 71.424103, 71.598213, 71.794647, 72.401787, 72.723221, 73.25, 73.669647, 73.8125, 74.107147, 74.25, 74.5, 75, 75.482147, 75.75, 76.125, 76.3125, 76.607147, 77.291664, 77.625, 78.125, 78.5625, 79.209824, 79.888397, 80.4375, 80.78125, 81.125, 81.375, 81.75, 82.196426, 82.5, 82.839287, 83.169647, 83.5, 84.208336, 84.669647, 85, 85.1875, 85.28125, 85.504463, 86.034225, 86.388397, 86.75, 87.107147, 87.375, 87.625, 87.946426, 88.395836, 88.616074, 89, 89.25, 89.6875, 90.440475, 90.803574, 91.125, 91.1875, 91.4375, 91.75, 92.348221, 92.857147, 93.169647, 93.535713, 93.982147, 94.053574, 94.303574, 94.40625, 94.59375, 95.017853, 95.604164, 95.973221, 96.321426, 96.739586, 97.084824, 97.46875, 97.71875, 98.125, 98.4375, 98.6875, 99.151787, 99.544647, 99.803574, 100.1875, 100.46875, 100.75446, 101.21875, 101.53125, 101.9375, 102.52084, 102.60715, 103.03571, 103.22449, 103.7738, 104.29465, 104.79465, 105.04465, 105.40179, 105.99405, 106.41072, 106.875, 107.05, -10, -10, -10
17.0625, 17.044643, 16.870537, 16.540178, 16.144344, 15.90625, 15.8125, 15.875, 15.8125, 15.75, 15.580357, 15.366072, 15.1875, 15.125, 15.1875, 15.375, 15.3125, 15.3125, 15.229167, 15, 7, 6.8541665, 6.6875, 6.5, 6.25, 6.125, 6.25, 6.3125, 6.4375, 6.5, 6.3125, 6.1875, 6.0625, 6, 6, 6.1875, 6.4375, 6.6875, 7, 7.1875, 7.5669641, 8.572917, 9.2857151, 9.7321434, 10.1875, 10.375, -10, -10, -10, -10, -10, -10, -10, -10, -10, 19.5, 19.333334, 19.1875, 18.669643, 17.976191, 17.392857, 16.625, 16.035713, 15.5, 15.25, 14.928572, 14.8125, 14.848214, 14.821428, 14.9375, 14.9375, 15, 14.9375, 14.8125, 14.8125, 14.75, 14.678572, 14.479167, 14.196428, 14.125, 14.125, 14.0625, 14, 13.928572, 14.089287, 14.178572, 14.458333, 14.428572, 14.34375, 14.21875, 14.09375, 13.90625, 13.75, 13.625, 13.59375, 13.65625, 13.71875, 13.78125, 13.625, 13.40625, 13.111607, 12.924107, 12.946428, 13.071428, 13.150001, 12.775511, 12.666667, 12.758334, 13.25744, 13.232143, 13.385417, -10, -10, -10, -10, -10, -10, 24, 23.875, 23.770834, 23.875, 24, 24.125, 24.34375, 24.40625, 24.53125, 24.90625, 25.535715, 26.151787, 26.607143, 27, 27.3125, 27.24107, 26.764879, 26.464285, 26.375, 26.4375, 26.651787, 26.982143, 27.053572, 27.125, 27, 26.875, 26.8125, 26.75, 26.875, 27, 27.0625, 27.0625, 27, 26.9375, 26.9375, 26.875, 26.6875, 26.375, 25.9375, 25.5625, 24.916666, 24.5, 23.979166, 23.738096, 23.5, -10, -10, -10, -10, -10, -10, -10, -10, -10, -10, -10, -10, -10, -10, -10, -10, -10, -10, -10, -10, -10, -10, 63.5, 63.25, 62.9375, 62.473213, 62.1875, 62.03125, 62.227676, 62.677082, 63.200893, 63.9375, 64.392853, 64.8125, 65.09375, 65.53125, 65.888397, 66.15625, 66.5, 66.8125, 67.169647, 67.5, 68, 68.464287, 68.75, 69.125, 69.375, 69.75, 70.263397, 70.65625, 71.03125, 71.40625, 71.5, 71.794647, 72.339287, 72.723221, 73.375, 73.857147, 74, 74.3125, 74.375, 74.59375, 75.09375, 75.513397, 75.78125, 76.0625, 76.1875, 76.491074, 77.3125, 77.678574, 78.1875, 78.5625, 79.209824, 79.825897, 80.330353, 80.71875, 81.0625, 81.375, 81.8125, 82.25, 82.5, 82.964287, 83.339287, 83.6875, 84.1875, 84.544647, 84.8125, 85.0625, 85.203125, 85.462051, 85.911461, 86.194199, 86.5, 86.857147, 87.1875, 87.544647, 87.946426, 88.458336, 88.803574, 89.25, 89.5, 89.9375, 90.419647, 90.8125, 91.232147, 91.375, 91.625, 91.875, 92.410721, 92.888397, 93.263397, 93.620537, 93.950897, 94.116074, 94.4375, 94.625, 94.8125, 95.1875, 95.4375, 95.732147, 96.133926, 96.583336, 96.991074, 97.5, 97.785713, 98.25, 98.5625, 98.6875, 99.116074, 99.526787, 99.794647, 100.1875, 100.53125, 100.85268, 101.28125, 101.59375, 101.875, 102.45834, 102.48215, 102.48469, 102.80953, 103.7738, 104.23215, 104.625, 104.91965, 105.3125, 105.89584, 106.41965, 107.02084, 107.28333, -10, -10, -10, -10, -10, -10, -10, -10, -10, -10, -10, -10, -10, -10, -10, 12.208334, 12.466667, 12.6875, 13.169643, 13.285714, 13.633928, 14.208333, 14.728571, 14.997025, 15.491072, 15.8125, 16.34375, 16.754463, 17.15625, 17.46875, 17.988094, 18.502975, 18.705357, 18.9375, 18.9375, 18.9375, 18.875, 18.803572, 18.737499, 19, 19.0625, 19.125, 19, 18.75, 18.5625, 18.4375, 18.5, 18.6875, 18.96875, 19.004463, 18.808037, 18.822916, 18.895834, 18.8125, 18.6875, 18.5, 18.25, 18.0625, 17.875, 17.6875, 17.5625, 17.5, 17.4375, 17.25, 17, 16.8125, 16.504463, 16.111607, 15.977678, 15.90625, 15.9375, 16.0625, 16.0625, 16, 15.830357, 15.544643, 15.104167, 15.017857, 15, 15.1875, 15.125, 15.125, 15.0625, 7, 7, 6.7916665, 6.625, 6.375, 6.125, 6.0625, 6.125, 6.1875, 6.25, 6.25, 6.0625, 6, 5.9375, 5.9375, 6, 6.1875, 6.4375, 6.6875, 7, 7.25, 7.6919641, 8.8139887, 9.4642859, 9.8125, 10.25, 10.333333, -10, -10, -10, -10, -10, -10, -10, -10, -10, 19.25, 19.166668, 19.0625, 18.607143, 17.788691, 17.142857, 16.625, 16.0625, 15.517857, 15.25, 14.928572, 14.8125, 14.848214, 14.821428, 14.9375, 14.9375, 15, 14.9375, 14.75, 14.6875, 14.625, 14.553572, 14.416667, 14.227678, 14.21875, 14.28125, 14.21875, 14.125, 13.991072, 14.089287, 14.178572, 14.458333, 14.428572, 14.34375, 14.21875, 14.09375, 13.90625, 13.75, 13.5625, 13.53125, 13.65625, 13.78125, 13.96875, 13.90625, 13.71875, 13.486607, 13.28125, 13.125, 13.142857, 13.150001, 12.775511, 12.738095, 12.895834, 13.239583, 13.263393, 13.291667, -10, -10, -10, -10, -10, -10, 23.916666, 23.9375, 23.9375, 24.107143, 24.3125, 24.4375, 24.59375, 24.65625, 24.78125, 25.09375, 25.678572, 26.276787, 26.669643, 27.0625, 27.25, 27.205357, 26.872023, 26.642857, 26.625, 26.6875, 26.901787, 27.232143, 27.303572, 27.375, 27.3125, 27.1875, 27.125, 27.0625, 27.0625, 27.125, 27.125, 27.125, 27.0625, 27, 27, 26.9375, 26.8125, 26.625, 26.25, 25.8125, 25.050594, 24.517857, 23.979166, 23.686012, 23.5, -10, -10, -10, -10, -10, -10, -10, -10, -10, -10, -10, -10, -10, -10, -10, -10, -10, -10, -10, -10, -10, -10, 63.75, 63.458332, 63.09375, 62.522324, 62.21875, 62.03125, 62.299103, 63.010414, 63.522324, 63.9375, 64.25, 64.625, 64.90625, 65.34375, 65.65625, 65.96875, 66.4375, 66.857147, 67.294647, 67.625, 68.0625, 68.482147, 68.75, 69.125, 69.375, 69.75, 70.294647, 70.6875, 71.125, 71.5, 71.625, 71.964287, 72.357147, 72.732147, 73.366074, 73.732147, 73.9375, 74.3125, 74.4375, 74.71875, 75.21875, 75.575897, 75.84375, 76, 76.125, 76.428574, 77.25, 77.678574, 78.1875, 78.5625, 79.178574, 79.732147, 80.125, 80.5, 80.821426, 81.25, 81.625, 82.0625, 82.3125, 82.848213, 83.485123, 83.9375, 84.375, 84.6875, 85, 85.3125, 85.515625, 85.703125, 85.890625, 86.015625, 86.1875, 86.544647, 86.9375, 87.401787, 87.883926, 88.458336, 88.803574, 89.321426, 89.6875, 90, 90.4375, 90.75, 91.232147, 91.4375, 91.625, 91.75, 92.053574, 92.614586, 93.066963, 93.46875, 93.71875, 93.875, 94.25, 94.5, 94.75, 95.1875, 95.375, 95.625, 96.071426, 96.583336, 97.261909, 97.803574, 98.098213, 98.4375, 98.6875, 98.71875, 99.084824, 99.558037, 99.933037, 100.3125, 100.65625, 100.97768, 101.34375, 101.65625, 101.875, 102.39584, 102.35715, 102.53571, 103.40816, 104.0238, 104.54465, 104.875, 105.125, 105.4375, 105.8125, 106.5744, 107.19941, 107.53333, -10, -10, -10
16.75, 16.5, 16.21875, 15.96875, 15.96875, 16.03125, 16.0625, 16.125, 16.0625, 16, 15.9375, 15.669643, 15.166667, 15.080357, 14.9375, 15, 14.964286, 14.9375, 14.9375, 7, 7, 6.6916666, 6.3541665, 6.1428571, 5.9375, 6, 6.0625, 6.125, 6.1875, 6.1875, 6.0625, 6, 5.875, 5.875, 6, 6.2946429, 6.5625, 6.8125, 7.03125, 7.21875, 7.6607141, 8.8363104, 9.4642859, 9.8125, 10.25, 10.333333, -10, -10, -10, -10, -10, -10, -10, -10, -10, 18.958334, 18.958334, 18.9375, 18.616072, 17.934525, 17.285713, 16.75, 16.125, 15.535713, 15.25, 15, 15.0625, 15.035714, 14.964286, 15, 14.9375, 14.9375, 14.875, 14.65625, 14.53125, 14.46875, 14.46875, 14.625, 14.53125, 14.59375, 14.59375, 14.40625, 14.3125, 14.089286, 13.982143, 14.071428, 14.395833, 14.428572, 14.40625, 14.28125, 14.09375, 13.90625, 13.75, 13.5625, 13.46875, 13.59375, 13.78125, 13.941964, 13.861607, 13.799107, 13.71875, 13.65625, 13.491072, 13.247024, 13.158929, 13.166667, 13.081633, 13.041667, 13.15625, 13.21875, 13.208333, -10, -10, -10, -10, -10, 24, 23.916666, 23.96875, 24.09375, 24.388393, 24.65625, 24.8125, 24.90625, 24.90625, 25.03125, 25.28125, 25.75, 26.294643, 26.669643, 27.0625, 27.1875, 27.107143, 26.854166, 26.714285, 26.895834, 26.919643, 27.151787, 27.419643, 27.491072, 27.625, 27.5, 27.3125, 27.1875, 27.125, 27.1875, 27.25, 27.1875, 27.017857, 26.9375, 26.875, 27, 27.125, 27.0625, 26.9375, 26.625, 26.125, 25.372023, 24.601191, 23.965773, 23.618303, 23.479166, -10, -10, -10, -10, -10, -10, -10, -10, -10, -10, -10, -10, -10, -10, -10, -10, -10, -10, -10, -10, -10, -10, 63.75, 63.458332, 63.09375, 62.522324, 62.21875, 62.03125, 62.227676, 62.748512, 63.355656, 63.741074, 64.0625, 64.375, 64.71875, 65.263397, 65.59375, 66.03125, 66.5, 66.857147, 67.25, 67.5625, 67.96875, 68.450897, 68.71875, 69.09375, 69.375, 69.75, 70.294647, 70.6875, 71.1875, 71.5625, 71.75, 72.151787, 72.482147, 72.741074, 73.25, 73.5, 73.75, 74.25, 74.5, 74.84375, 75.34375, 75.65625, 76.013397, 76.1875, 76.3125, 76.553574, 77.25, 77.616074, 78.0625, 78.3125, 78.821426, 79.375, 79.71875, 80.15625, 80.473213, 81.1875, 81.553574, 81.9375, 82.25, 82.821426, 83.485123, 83.875, 84.3125, 84.5625, 84.892853, 85.419647, 85.631699, 85.828125, 85.953125, 85.953125, 86, 86.25, 86.6875, 87.33036, 87.928574, 88.520836, 88.866074, 89.321426, 89.6875, 90, 90.4375, 90.75, 91.232147, 91.5, 91.6875, 91.75, 91.946426, 92.489586, 92.941963, 93.375, 93.6875, 93.84375, 94.21875, 94.5, 94.75, 95.25, 95.5, 95.8125, 96.3125, 96.625, 97.270836, 97.741074, 98.035713, 98.375, 98.669647, 98.6875, 99.053574, 99.589287, 100.07143, 100.5, 100.875, 101.13393, 101.44643, 101.89584, 102.05357, 102.3125, 102.3125, 102.47321, 103.11607, 103.97916, 104.48215, 104.8125, 105.1875, 105.5, 105.8125, 106.52976, 107.13691, 107.5, -10, -10, -10, -10, -10, -10, -10, -10, -10, -10, -10, -10, -10, -10, -10, 12.791667, 12.966667, 12.9375, 13.25, 13.4375, 13.928572, 14.520833, 14.991072, 15.4375, 15.75, 16.25, 16.59375, 17.03125, 17.53125, 17.982143, 18.450893, 18.8125, 19.049999, 18.901785, 18.901785, 18.875, 18.9375, 18.991072, 18.924999, 19.125, 19.125, 19.125, 19.0625, 18.875, 18.8125, 18.75, 18.75, 18.875, 19.03125, 19.15625, 19.15625, 19.15625, 19.0625, 18.75, 18.5625, 18.4375, 17.916666, 17.916666, 18.104166, 18.071428, 18.1875, 18.0625, 17.803572, 17.208334, 16.678572, 16.375, 16.09375, 15.90625, 16.03125, 16.09375, 16.125, 16.1875, 16.0625, 16, 15.9375, 15.669643, 15.041667, 14.955357, 14.875, 14.9375, 14.928572, 14.9375, 14.875, 15, 7, 6.7750001, 6.3791666, 6.0803571, 5.9375, 5.9375, 6, 6.125, 6.25, 6.3125, 6.25, 6.125, 5.9375, 5.875, 6, 6.2946429, 6.5625, 6.8125, 7, 7.1875, 7.6339283, 8.7023811, 9.3928576, 9.75, 10.25, 10.333333, -10, -10, -10, -10, -10, -10, -10, -10, 18, 18.666668, 18.75, 18.875, 18.732143, 17.958332, 17.357141, 16.8125, 16.1875, 15.553572, 15.25, 15, 15, 15, 15, 15, 15, 14.9375, 14.875, 14.71875, 14.59375, 14.53125, 14.53125, 14.625, 14.59375, 14.71875, 14.78125, 14.59375, 14.5, 14.1875, 13.875, 13.892857, 14.217262, 14.441072, 14.352678, 14.361607, 14.15625, 14.03125, 13.9375, 13.75, 13.65625, 13.65625, 13.71875, 13.754464, 13.642857, 13.642857, 13.625, 13.6875, 13.616072, 13.354167, 13.258928, 13.125, 13.196428, 13.291667, 13.15625, 13.290178, 13.375, -10, -10, -10, -10, -10, 24, 23.916666, 23.96875, 24.165178, 24.659227, 24.864584, 24.9375, 25.0625, 25.107143, 25.375, 25.6875, 26.125, 26.607143, 26.8125, 27.125, 27.1875, 27.125, 27, 26.857143, 27.083334, 27.169643, 27.4375, 27.5625, 27.625, 27.75, 27.625, 27.4375, 27.25, 27.125, 27.125, 27.125, 27, 26.830357, 26.8125, 26.875, 27.035713, 27.089287, 27.125, 27.0625, 26.9375, 26.5, 25.459524, 24.505953, 23.986607, 23.609375, 23.5625, -10, -10, -10, -10, -10, -10, -10, -10, -10, -10, -10, -10, -10, -10, -10, -10, -10, -10, -10, -10, -10, -10, 63.700001, 63.479168, 63.03125, 62.522324, 62.21875, 62.03125, 62.165176, 62.694939, 63.438984, 63.794647, 64.0625, 64.3125, 64.65625, 65.200897, 65.65625, 66.200897, 66.625, 66.982147, 67.375, 67.6875, 68.138397, 68.53125, 68.78125, 69.09375, 69.375, 69.625, 70.080353, 70.544647, 71.0625, 71.5, 71.8125, 72.3125, 72.5625, 72.8125, 73.25, 73.5, 73.75, 74.25, 74.5625, 75.013397, 75.46875, 75.71875, 76.013397, 76.1875, 76.491074, 76.732147, 77.145836, 77.491074, 77.8125, 78.125, 78.642853, 79.416664, 79.861603, 80.388397, 80.660713, 81.3125, 81.553574, 81.875, 82.125, 82.633926, 83.297623, 83.6875, 84.125, 84.4375, 84.892853, 85.491074, 85.725449, 85.921875, 85.984375, 85.953125, 86.0625, 86.3125, 86.8125, 87.51786, 88.044647, 88.5, 88.8125, 89.258926, 89.6875, 89.9375, 90.375, 90.625, 91.044647, 91.375, 91.5625, 91.6875, 91.946426, 92.427086, 92.772324, 93.1875, 93.5, 93.71875, 94.09375, 94.4375, 94.6875, 95.1875, 95.5625, 95.910713, 96.375, 96.6875, 97.270836, 97.741074, 98.035713, 98.375, 98.669647, 98.75, 99.151787, 99.544647, 100.03572, 100.54465, 100.86607, 101.09821, 101.38393, 101.89584, 102.22322, 102.5625, 102.75, 103.03571, 103.66072, 104.0625, 104.4375, 104.6875, 105.125, 105.5, 105.8125, 106.52976, 107.07441, 107.36667, -10, -10, -10
16.598213, 16.25, 16.0625, 16, 16.0625, 16.125, 16.125, 16.0625, 15.9375, 15.8125, 15.6875, 15.491072, 14.979167, 14.892857, 14.875, 14.875, 14.928572, 14.9375, 14.875, 15, 15, 6.8375001, 6.4208331, 6.1428571, 6, 5.9375, 6, 6.125, 6.25, 6.3125, 6.25, 6.125, 5.9375, 5.875, 6, 6.2321429, 6.5, 6.75, 6.9375, 7.25, 7.75, 8.7142859, 9.4285717, 9.75, 10.25, 10.333333, -10, -10, -10, -10, -10, -10, -10, -10, 18, 18.375, 18.541666, 18.75, 18.741072, 18.104166, 17.5, 16.9375, 16.25, 15.571428, 15.25, 15, 15, 15, 15, 15, 15, 14.9375, 14.9375, 14.84375, 14.65625, 14.53125, 14.40625, 14.375, 14.40625, 14.59375, 14.65625, 14.53125, 14.4375, 14.1875, 14, 14, 14.133928, 14.2, 14.008928, 14.098214, 14.0625, 14.0625, 14.125, 13.9375, 13.875, 13.75, 13.6875, 13.598214, 13.392857, 13.392857, 13.375, 13.4375, 13.4375, 13.4375, 13.4375, 13.375, 13.375, 13.25, 13.125, 13.196428, 13.444444, -10, -10, -10, -10, -10, 24, 23.916666, 24, 24.227678, 24.784227, 24.989584, 25.03125, 25.196428, 25.440475, 25.803572, 26.125, 26.4375, 26.75, 26.875, 27.125, 27.25, 27.25, 27.125, 27.044643, 27.208334, 27.232143, 27.4375, 27.4375, 27.5, 27.6875, 27.625, 27.5, 27.3125, 27.125, 27.125, 27.125, 27, 26.830357, 26.8125, 26.875, 27.098213, 27.214287, 27.3125, 27.375, 27.25, 26.875, 25.971428, 24.517859, 23.879463, 23.390625, 23.354166, -10, -10, -10, -10, -10, -10, -10, -10, -10, -10, -10, -10, -10, -10, -10, -10, -10, -10, -10, -10, -10, 64.416672, 63.783333, 63.5625, 63.03125, 62.522324, 62.21875, 62, 62.142857, 62.809525, 63.523808, 63.794647, 63.9375, 64.1875, 64.544647, 65.107147, 65.6875, 66.276787, 66.6875, 67.107147, 67.40625, 67.78125, 68.232147, 68.5625, 68.84375, 69.09375, 69.3125, 69.5, 69.830353, 70.276787, 70.979164, 71.446426, 71.8125, 72.25, 72.5625, 72.875, 73.3125, 73.5625, 73.8125, 74.1875, 74.5, 74.919647, 75.375, 75.6875, 76.013397, 76.28125, 76.709824, 76.941963, 77.1875, 77.53125, 77.78125, 78.15625, 78.674103, 79.416664, 79.861603, 80.596725, 80.901787, 81.5625, 81.741074, 82.03125, 82.21875, 82.602676, 83.159225, 83.5, 83.883926, 84.395836, 84.919647, 85.491074, 85.709824, 85.90625, 85.9375, 85.9375, 86.125, 86.375, 86.8125, 87.410721, 87.866074, 88.458336, 88.741074, 89.133926, 89.5, 89.75, 90.1875, 90.4375, 90.8125, 91.1875, 91.4375, 91.6875, 92.008926, 92.458336, 92.741074, 93.03125, 93.34375, 93.59375, 94.03125, 94.4375, 94.75, 95.25, 95.625, 96.035713, 96.4375, 96.75, 97.333336, 97.678574, 97.9375, 98.3125, 98.607147, 98.8125, 99.25, 99.5625, 100.10715, 100.60715, 100.86607, 101.0625, 101.32143, 101.83334, 102.22322, 102.5625, 102.875, 103.25, 103.66965, 104.0625, 104.375, 104.625, 105.0625, 105.4375, 105.75, 106.45834, 106.86607, 107.13333, -10, -10, -10, -10, -10, -10, -10, -10, -10, -10, -10, -10, -10, -10, -10, 13, 13.083334, 13.1875, 13.4375, 13.875, 14.357143, 14.75, 15.25, 15.625, 16.0625, 16.5, 16.8125, 17.125, 17.4375, 17.84375, 18.263393, 18.714287, 18.960714, 18.651785, 18.651785, 18.5625, 18.75, 18.875, 18.875, 18.875, 18.9375, 19, 19, 18.90625, 18.84375, 18.84375, 18.84375, 18.875, 18.955357, 19.125, 19.125, 19.1875, 19.0625, 18.875, 18.6875, 18.4375, 17.791666, 17.497023, 17.747025, 18.083334, 18.574406, 18.616072, 18.071428, 17.011906, 16.473213, 16.125, 16, 16, 16, 16.089287, 16.232143, 16.145834, 15.854167, 15.705357, 15.5, 15.375, 15.125, 15, 15, 14.9375, 14.928572, 14.9375, 14.875, 15, 15, 6.8666668, 6.2333331, 6.0178571, 5.9375, 5.875, 6, 6.125, 6.25, 6.3125, 6.3125, 6.1875, 6, 5.9375, 6, 6.1696429, 6.4375, 6.6875, 6.875, 7.1875, 7.6339283, 8.7023811, 9.3928566, 9.75, 10.25, 10.333333, -10, -10, -10, -10, -10, -10, -10, -10, 18, 18.333334, 18.5, 18.75, 18.803572, 18.220238, 17.523809, 16.9375, 16.25, 15.571428, 15.25, 15, 15, 15, 15, 15, 15, 14.9375, 14.9375, 14.90625, 14.71875, 14.59375, 14.46875, 14.375, 14.375, 14.5, 14.5, 14.375, 14.3125, 14.125, 14, 14, 14.133928, 14.2, 14.008928, 14.160714, 14.125, 14.125, 14.1875, 14, 14.03125, 13.879464, 13.674107, 13.450892, 13.142857, 13.142857, 13.125, 13.1875, 13.1875, 13.1875, 13.1875, 13.125, 13.125, 13.0625, 13.0625, 13.217261, -10, -10, -10, -10, -10, -10, 23.916666, 23.875, 23.875, 24.084822, 24.927084, 25.123512, 25.15625, 25.321428, 25.627975, 26.098215, 26.4375, 26.625, 26.75, 26.8125, 27.0625, 27.285713, 27.3125, 27.1875, 27.044643, 27.145834, 27.107143, 27.25, 27.1875, 27.25, 27.4375, 27.446428, 27.645834, 27.544643, 27.4375, 27.375, 27.25, 27, 26.705357, 26.6875, 26.75, 27.098213, 27.339287, 27.5, 27.625, 27.5, 27.1875, 26.4625, 24.821428, 24.147959, 23.594387, 23.550594, -10, -10, -10, -10, -10, -10, -10, -10, -10, -10, -10, -10, -10, -10, -10, -10, -10, -10, -10, -10, -10, 64.416672, 63.711109, 63.770832, 63.21875, 62.587799, 62.263393, 62, 62.142857, 62.809525, 63.523808, 63.825897, 64.03125, 64.34375, 64.763397, 65.294647, 65.875, 66.401787, 66.6875, 67, 67.21875, 67.602676, 68.252975, 68.616074, 68.90625, 69.03125, 69.1875, 69.3125, 69.625, 70.401787, 71.020828, 71.371429, 71.803574, 72.1875, 72.625, 73.044647, 73.4375, 73.6875, 73.875, 74.1875, 74.5, 74.857147, 75.3125, 75.6875, 76.120537, 76.46875, 76.897324, 77.098213, 77.28125, 77.5625, 77.8125, 78.1875, 78.705353, 79.447914, 79.892853, 80.668152, 81.163696, 81.741074, 81.928574, 82.125, 82.375, 82.6875, 83.044647, 83.3125, 83.633926, 84.145836, 84.669647, 85.178574, 85.397324, 85.65625, 85.75, 85.875, 86.1875, 86.4375, 86.8125, 87.366074, 87.803574, 88.511909, 88.839287, 89.125, 89.3125, 89.5, 89.875, 90.25, 90.669647, 91.125, 91.5, 91.75, 92.151787, 92.482147, 92.8125, 93.03125, 93.34375, 93.65625, 94.075897, 94.5, 94.875, 95.3125, 95.6875, 96.098213, 96.4375, 96.6875, 97.0625, 97.375, 97.6875, 98.1875, 98.544647, 98.8125, 99.25, 99.5, 100, 100.54465, 100.86607, 101.0625, 101.32143, 101.83334, 102.16072, 102.5625, 103, 103.46429, 103.75, 104.125, 104.375, 104.625, 105, 105.375, 105.625, 106.125, 106.5625, 106.8, -10, -10, -10
16.410713, 15.955357, 15.875, 15.875, 15.8125, 15.928572, 16.107143, 15.842262, 15.613095, 15.455357, 15.25, 15.25, 15.125, 15, 15.0625, 15, 14.964286, 15, 14.9375, 15, 15, 15, 6.3166666, 6.125, 6.0625, 5.9375, 6, 6.0625, 6.1875, 6.25, 6.25, 6.1875, 6.0625, 6, 6, 6.0625, 6.3125, 6.5625, 6.8125, 7.125, 7.5178566, 8.6904764, 9.3571424, 9.75, 10.25, 10.333333, -10, -10, -10, -10, -10, -10, -10, -10, 18, 18.333334, 18.5, 18.75, 18.803572, 18.220238, 17.523809, 16.9375, 16.104166, 15.5, 15.1875, 15, 15, 15, 15, 15, 15, 15, 15, 15, 14.875, 14.75, 14.5625, 14.375, 14.3125, 14.3125, 14.3125, 14.25, 14.1875, 14.0625, 14.0625, 14.125, 14.196428, 14.2625, 14.008928, 14.160714, 14.1875, 14.1875, 14.25, 14, 14.09375, 13.941964, 13.611607, 13.308035, 13.0625, 13.0625, 13.0625, 13.0625, 13.0625, 13, 13, 13.0625, 13.125, 13.25, 13.4375, 13.571428, -10, -10, -10, -10, -10, 24, 23.916666, 23.9375, 23.96875, 24.241072, 25.020834, 25.154762, 25.21875, 25.383928, 25.815475, 26.348215, 26.6875, 26.8125, 26.875, 26.875, 27.125, 27.348213, 27.4375, 27.375, 27.151787, 27.0625, 27, 27, 26.875, 26.9375, 27.0625, 27.196428, 27.583334, 27.607143, 27.5625, 27.4375, 27.25, 27, 26.78125, 26.71875, 26.71875, 26.941963, 27.151787, 27.482143, 27.6875, 27.625, 27.375, 26.703571, 26.027779, 25.541666, 24.602182, 23.803572, 23.685715, -10, -10, -10, -10, -10, -10, -10, -10, -10, -10, -10, -10, -10, -10, -10, -10, -10, -10, -10, -10, -10, -10, 64.083336, 63.416668, 62.494049, 62.232143, 62, 62.214287, 63.071426, 63.619049, 63.834824, 63.995537, 64.459824, 64.897324, 65.375, 65.9375, 66.401787, 66.6875, 67.0625, 67.28125, 67.727676, 68.409225, 68.709824, 69, 69, 69.125, 69.25, 69.535713, 70.276787, 70.770828, 70.996429, 71.473221, 72.041664, 72.571426, 73.075897, 73.375, 73.6875, 73.9375, 74.21875, 74.5625, 74.919647, 75.3125, 75.625, 75.950897, 76.28125, 76.709824, 77.035713, 77.459824, 77.785713, 78, 78.3125, 78.696426, 79.385414, 80.040176, 80.869049, 81.449409, 81.803574, 81.9375, 82.1875, 82.4375, 82.6875, 82.9375, 83.125, 83.321426, 83.895836, 84.464287, 84.928574, 85.15625, 85.4375, 85.59375, 85.78125, 86.21875, 86.5, 86.875, 87.3125, 87.696426, 88.511909, 88.875, 89.125, 89.25, 89.25, 89.5625, 90, 90.526794, 91.0625, 91.4375, 91.625, 92.044647, 92.502983, 92.901787, 93.125, 93.375, 93.6875, 94.075897, 94.5, 94.9375, 95.375, 95.75, 96.223213, 96.5, 96.75, 97.1875, 97.5, 97.8125, 98.3125, 98.5625, 98.8125, 99.1875, 99.375, 99.767853, 100.35715, 100.67857, 100.9375, 101.25, 101.60715, 101.91965, 102.375, 102.86607, 103.54762, 103.8125, 104.125, 104.3125, 104.625, 105.04465, 105.4375, 105.6875, 106.0625, 106.4375, 106.58334, -10, -10, -10, -10, -10, -10, -10, -10, -10, -10, -10, -10, -10, -10, -10, 13.25, 13.520834, 13.508928, 13.875, 14.232143, 14.5625, 15, 15.4375, 15.875, 16.375, 16.6875, 17.125, 17.4375, 17.857143, 18.375, 18.5625, 18.8125, 18.875, 18.9375, 18.919643, 18.729166, 18.696428, 18.65625, 18.6875, 18.75, 18.875, 18.96875, 19, 18.96875, 18.90625, 18.96875, 18.90625, 18.8125, 18.830357, 18.875, 19, 19.25, 19.3125, 19.3125, 19.0625, 18.598213, 18.1875, 17.767857, 17.892857, 18.261906, 18.761906, 18.794643, 17.997023, 17.071428, 16.482143, 15.809525, 15.767857, 15.75, 15.625, 15.741072, 15.857143, 15.529762, 15.363095, 15.205357, 15.0625, 15.1875, 15.25, 15.25, 15.3125, 15.25, 15.25, 15.1875, 15.125, 15.083333, 15, 15, 6.1666665, 6.125, 6, 5.9375, 5.9375, 5.9375, 6.0625, 6.0625, 6.0625, 6.0625, 6, 6, 6, 6, 6.25, 6.5, 6.75, 7.0625, 7.4017859, 8.5952387, 9.25, 9.6875, 10.1875, 10.343749, -10, -10, -10, -10, -10, -10, -10, -10, 18, 18.333334, 18.625, 18.8125, 18.8125, 18.366072, 17.595238, 17, 15.958334, 15.428572, 15.125, 15, 15, 15, 15, 14.9375, 14.875, 14.875, 14.875, 14.9375, 14.875, 14.75, 14.5, 14.25, 14.125, 14.0625, 14.0625, 14.0625, 14.0625, 14, 14.125, 14.25, 14.25, 14.1875, 14, 14.017857, 14.125, 14.125, 14.1875, 13.9375, 14.03125, 13.941964, 13.674107, 13.424107, 13.1125, 13.241072, 13.169643, 13.1875, 13.125, 13, 13, 13.125, 13.21875, 13.28125, 13.4375, 13.666667, -10, -10, -10, -10, -10, 24, 23.833332, 23.875, 23.90625, 24.169643, 24.8125, 25.008928, 25.28125, 25.446428, 25.895834, 26.410715, 26.6875, 26.8125, 26.875, 26.875, 27.0625, 27.223213, 27.375, 27.4375, 27.375, 27.3125, 27.1875, 27, 26.75, 26.75, 26.875, 27.107143, 27.583334, 27.732143, 27.75, 27.6875, 27.428572, 27.0625, 26.84375, 26.65625, 26.65625, 26.84375, 27.0625, 27.44643, 27.723213, 27.5625, 27.4375, 26.991072, 26.333334, 25.806122, 24.980442, 24.148809, 23.679365, 23.410713, 23.25, 23.25, 23.333332, -10, -10, -10, -10, -10, -10, -10, -10, -10, -10, -10, -10, -10, -10, -10, -10, -10, -10, -10, -10, 62.46825, 62.169643, 62, 62.285713, 63.333332, 63.714287, 63.90625, 64.058037, 64.584824, 65.129463, 65.5625, 66, 66.357147, 66.625, 66.9375, 67.183037, 67.71875, 68.373512, 68.709824, 69, 69, 69.125, 69.375, 69.678574, 70.294647, 70.708328, 70.808929, 71.223221, 71.666664, 72.205353, 72.992554, 73.383926, 73.8125, 74.125, 74.34375, 74.625, 74.8125, 75.1875, 75.5625, 75.950897, 76.34375, 76.65625, 77, 77.522324, 77.848213, 78.125, 78.4375, 78.8125, 79.325897, 79.897324, 80.574402, 81.154762, 81.589287, 81.75, 82.125, 82.419647, 82.6875, 83, 83.1875, 83.383926, 83.895836, 84.276787, 84.669647, 84.90625, 85.21875, 85.5, 85.71875, 86.1875, 86.5, 86.875, 87.25, 87.651787, 88.556549, 88.928574, 89.125, 89.1875, 89.1875, 89.5, 90, 90.526794, 91.0625, 91.4375, 91.625, 91.982147, 92.440483, 92.901787, 93.232147, 93.5, 93.875, 94.263397, 94.625, 95.125, 95.5, 95.75, 96.25, 96.5, 96.75, 97.1875, 97.4375, 97.75, 98.25, 98.5625, 98.8125, 99.1875, 99.4375, 99.8125, 100.3125, 100.625, 100.875, 101.25, 101.54465, 101.75, 102.25, 102.61607, 103.31548, 103.73215, 104.05357, 104.3125, 104.5625, 104.9375, 105.49107, 105.75, 106.125, 106.5, 106.58334, -10, -10, -10
16.625, 15.851191, 15.767857, 15.75, 15.8125, 15.928572, 15.982143, 15.547619, 15.363095, 15.205357, 15.125, 15.3125, 15.4375, 15.5, 15.625, 15.416667, 15.333333, 15.25, 15.166667, 15.111111, 6.5, 6.375, 6.125, 6.0625, 5.9375, 5.9375, 5.9375, 5.9375, 6.0625, 6.0625, 6.0625, 6.0625, 6, 6, 6, 6, 6.25, 6.5, 6.75, 7, 7.2857141, 8.5, 9.0714283, 9.5625, 10.0625, 10.349702, 10.5625, 10.6875, 10.848214, 11.125, -10, -10, -10, -10, -10, -10, 18.75, 18.875, 18.8125, 18.366072, 17.595238, 17, 15.812501, 15.357142, 15.0625, 15, 15, 14.9375, 14.9375, 14.875, 14.8125, 14.875, 14.875, 14.9375, 14.9375, 14.875, 14.6875, 14.5, 14.375, 14.1875, 14.125, 14.0625, 14, 14, 14.125, 14.25, 14.25, 14.25, 14.125, 14.125, 14.125, 14.0625, 14, 13.75, 13.875, 13.910714, 13.767857, 13.642857, 13.3625, 13.491072, 13.419643, 13.4375, 13.3125, 13.0625, 13, 13.232143, 13.325893, 13.34375, 13.3875, -10, -10, -10, -10, -10, -10, 23.75, 23.583332, 23.6875, 23.75, 24.107143, 24.8125, 25.008928, 25.375, 25.4375, 25.6875, 26.232143, 26.544643, 26.75, 26.875, 26.875, 27, 27.098213, 27.1875, 27.3125, 27.3125, 27.3125, 27.25, 26.9375, 26.625, 26.5625, 26.625, 26.919643, 27.458334, 27.669643, 27.75, 27.758928, 27.578571, 27.0625, 26.772322, 26.53125, 26.59375, 26.71875, 26.9375, 27.25893, 27.473213, 27.375, 27.3125, 27.0625, 26.8125, 26.383928, 25.342262, 24.5, 23.65238, 23.357141, 23.25, 23.214285, 23.155556, -10, -10, -10, -10, -10, -10, -10, -10, -10, -10, -10, -10, -10, -10, -10, -10, -10, -10, -10, -10, -10, 62.190475, 61.950001, 62.276787, 63.17857, 63.64286, 63.90625, 64.183037, 64.709824, 65.209824, 65.625, 66, 66.357147, 66.625, 66.875, 67.089287, 67.5625, 68.186012, 68.584824, 68.90625, 68.96875, 69.1875, 69.5, 69.928574, 70.5625, 70.729164, 70.737503, 71.035721, 71.416664, 71.9375, 73.034225, 73.473213, 74, 74.25, 74.5, 74.75, 74.875, 75.25, 75.5625, 75.919647, 76.3125, 76.5625, 76.96875, 77.522324, 77.816963, 78.09375, 78.34375, 78.71875, 79.308037, 79.897324, 80.397324, 81.007439, 81.495537, 81.71875, 82.15625, 82.450897, 82.71875, 82.96875, 83.125, 83.28125, 83.59375, 83.96875, 84.388397, 84.75, 85.169647, 85.5, 85.8125, 86.25, 86.5625, 87, 87.3125, 87.642853, 88.366074, 88.833336, 89.053574, 89.25, 89.25, 89.5625, 90, 90.401794, 90.883926, 91.395836, 91.553574, 91.857147, 92.324409, 92.985123, 93.410713, 93.625, 93.964287, 94.370537, 94.678574, 95.1875, 95.5, 95.8125, 96.3125, 96.5625, 96.8125, 97.1875, 97.4375, 97.75, 98.25, 98.5625, 98.8125, 99.1875, 99.4375, 99.8125, 100.3125, 100.625, 100.875, 101.25893, 101.75298, 101.99107, 102.4375, 102.74107, 103.33334, 103.73215, 104.11607, 104.375, 104.6875, 105.125, 105.61607, 105.875, 106.1875, 106.5, 106.58334, -10, -10, -10, -10, -10, -10, -10, -10, -10, -10, -10, -10, -10, -10, -10, 13.25, 13.604167, 13.616072, 14.125, 14.419643, 14.75, 15.3125, 15.660714, 16.125, 16.5625, 16.875, 17.375, 17.6875, 18.25, 19.020834, 19.107143, 19.25, 19.25, 19.375, 19.339287, 18.895832, 18.580357, 18.28125, 18.1875, 18.330357, 18.645834, 18.90625, 19.0625, 19.0625, 19.0625, 19.1875, 19.125, 19.0625, 19.125, 18.910713, 18.892857, 19.080357, 19.1875, 19.25, 19.0625, 18.589285, 18.1875, 18.0625, 18.1875, 18.375, 18.428572, 18.178572, 17.729166, 17.392857, 17, 16.172619, 15.809524, 15.75, 15.75, 15.901786, 15.732143, 15.178571, 15.258928, 15.169643, 15.1875, 15.375, 15.4375, 15.5, 15.625, 6.5, 6.6666665, 6.625, 6.625, 6.875, 6.5833335, 6.5, 6.25, 6.125, 5.9375, 5.9375, 5.9375, 5.9375, 6.0625, 6.0625, 6.0625, 6.0625, 6, 6, 6, 6, 6.25, 6.5, 6.75, 7, 7.2857141, 8.416667, 9, 9.5, 10, 10.391369, 10.625, 10.791667, 10.898808, 11.083333, -10, -10, -10, -10, -10, -10, 18.875, 18.9375, 18.75, 18.25, 17.571428, 17.0625, 15.928572, 15.380952, 15.071428, 14.9375, 14.964286, 14.9375, 14.830357, 14.875, 14.75, 14.875, 14.875, 15, 15.125, 15.125, 15, 14.8125, 14.625, 14.4375, 14.375, 14.25, 14.125, 14.125, 14.1875, 14.3125, 14.3125, 14.25, 14.125, 14.0625, 14.0625, 14, 13.875, 13.625, 13.625, 13.6875, 13.75, 13.758928, 13.6125, 13.741072, 13.669643, 13.6875, 13.5625, 13.3125, 13.25, 13.482143, 13.513393, 13.46875, 13.408333, -10, -10, -10, -10, -10, -10, 23.5, 23.416666, 23.625, 23.8125, 24.25, 24.6875, 24.9375, 25.375, 25.4375, 25.714287, 26.232143, 26.535715, 26.8125, 27, 27, 27.0625, 27.0625, 27.125, 27.25, 27.3125, 27.3125, 27.25, 26.9375, 26.625, 26.5, 26.5625, 26.785713, 27.0625, 27.3125, 27.375, 27.4375, 27.120237, 26.729166, 26.730656, 26.584822, 26.71875, 26.71875, 26.8125, 27.07143, 27.223213, 27.1875, 27.1875, 27, 26.803572, 26.279762, 25.377977, 24.324406, 23.505951, 23.174107, 23.03125, 22.994047, 23.155556, -10, -10, -10, -10, -10, -10, -10, -10, -10, -10, -10, -10, -10, -10, -10, -10, -10, -10, -10, -10, -10, 62.166664, 61.900002, 62.267853, 63.023808, 63.571426, 63.875, 64.214287, 64.678574, 65.116074, 65.5, 65.875, 66.339287, 66.625, 66.875, 67.089287, 67.553574, 68.008926, 68.4375, 68.8125, 68.9375, 69.25, 69.625, 70.071426, 70.4375, 70.625, 70.75, 70.982147, 71.354164, 71.8125, 72.739578, 73.178574, 73.857147, 74.178574, 74.5, 74.75, 74.875, 75.25, 75.5, 75.75, 76.1875, 76.4375, 76.9375, 77.553574, 77.848213, 78.0625, 78.25, 78.625, 79.258926, 79.928574, 80.450897, 80.892853, 81.410713, 81.625, 82.09375, 82.357147, 82.625, 82.875, 83, 83.227676, 83.677086, 84.022324, 84.450897, 84.8125, 85.232147, 85.5625, 85.9375, 86.3125, 86.625, 87.125, 87.375, 87.642853, 88.25, 88.672615, 88.928574, 89.25, 89.375, 89.6875, 90.0625, 90.357147, 90.821426, 91.377975, 91.616074, 91.892853, 92.279762, 92.860123, 93.348213, 93.625, 93.964287, 94.388397, 94.678574, 95.1875, 95.5, 95.875, 96.375, 96.625, 96.875, 97.1875, 97.4375, 97.6875, 98.125, 98.375, 98.625, 99.0625, 99.419647, 99.8125, 100.3125, 100.5625, 100.8125, 101.20535, 101.89882, 102.23215, 102.625, 102.86607, 103.35119, 103.73215, 104.11607, 104.4375, 104.85715, 105.3125, 105.80357, 106, 106.25, 106.5, 106.58334, -10, -10, -10
17.25, 16.565475, 16.077381, 15.946428, 15.9375, 16.0625, 15.803572, 15.190475, 15.1875, 15.107143, 15.1875, 15.3125, 15.3125, 15.375, 15.5, 6.6666665, 6.7777772, 6.75, 6.75, 6.9166665, 6.6875, 6.625, 6.5, 6.3125, 6.0625, 5.9375, 5.8125, 5.8125, 5.875, 5.9375, 6, 6, 6, 6, 6, 6, 6.25, 6.5, 6.75, 7, 7.2767859, 8.1875, 8.8571434, 9.4196434, 9.9375, 10.433036, 10.65625, 10.84375, 10.924107, 11.0625, -10, -10, -10, -10, -10, -10, 19, 19, 18.75, 18.3125, 17.678572, 17.1875, 16.261906, 15.392857, 15, 14.78125, 14.776786, 14.8125, 14.767857, 14.84375, 14.75, 14.875, 14.9375, 15.125, 15.3125, 15.375, 15.375, 15.223214, 14.883928, 14.6875, 14.5625, 14.4375, 14.375, 14.375, 14.375, 14.375, 14.3125, 14.1875, 14.0625, 14, 14.0625, 14, 13.875, 13.6875, 13.5, 13.5625, 13.6875, 13.803572, 13.8, 13.928572, 13.857143, 13.875, 13.6875, 13.5, 13.4375, 13.607143, 13.700893, 13.5, 13.325, -10, -10, -10, -10, -10, -10, 23.25, 23.166666, 23.3125, 23.5, 23.9375, 24.482143, 24.875, 25.375, 25.5, 25.839287, 26.294643, 26.598215, 26.875, 27, 27, 27, 27, 27.0625, 27.1875, 27.25, 27.1875, 27.125, 26.875, 26.6875, 26.625, 26.6875, 26.848213, 27, 27.1875, 27.1875, 27.25, 26.892517, 26.666666, 26.761906, 26.678572, 26.90625, 26.96875, 26.946428, 27.005953, 27.142857, 27, 27.0625, 26.8125, 26.553572, 26.038691, 25.330357, 24.008928, 23.255951, 22.861607, 22.75, 22.702381, -10, -10, -10, -10, -10, -10, -10, -10, -10, -10, -10, -10, -10, -10, -10, -10, -10, -10, -10, -10, -10, -10, 62.249996, 61.850002, 62.258926, 62.869049, 63.5, 63.9375, 64.375, 64.6875, 65.044647, 65.375, 65.8125, 66.383926, 66.6875, 66.875, 67.026787, 67.428574, 67.883926, 68.375, 68.75, 69, 69.3125, 69.625, 70.035713, 70.446426, 70.895836, 71.178574, 71.4375, 71.5625, 71.928574, 72.770828, 73.241074, 73.857147, 74.116074, 74.34375, 74.526787, 74.732147, 75.116074, 75.4375, 75.6875, 76.1875, 76.708336, 77.178574, 77.625, 77.875, 78.125, 78.375, 78.875, 79.446426, 80, 80.46875, 80.830353, 81.348213, 81.5625, 81.96875, 82.294647, 82.5625, 82.875, 83.333336, 83.65625, 84.177086, 84.459824, 84.71875, 85.0625, 85.388397, 85.65625, 86.09375, 86.40625, 86.6875, 87.15625, 87.34375, 87.549103, 88.09375, 88.511902, 88.866074, 89.3125, 89.5625, 89.875, 90.125, 90.3125, 90.758926, 91.422623, 91.741074, 92, 92.258926, 92.770836, 93.285713, 93.625, 93.964287, 94.419647, 94.678574, 95.1875, 95.5, 95.9375, 96.4375, 96.6875, 96.9375, 97.196426, 97.5625, 97.75, 98.125, 98.25, 98.4375, 98.875, 99.294647, 99.794647, 100.3125, 100.625, 100.875, 101.27678, 102.12501, 102.40179, 102.6875, 102.83035, 103.22619, 103.66072, 104.11607, 104.5, 104.85715, 105.26785, 105.74107, 105.9375, 106.3125, 106.5625, 106.66666, -10, -10, -10, -10, -10, -10, -10, -10, -10, -10, -10, -10, -10, -10, -10, 13.75, 13.833333, 13.919643, 14.0625, 14.375, 14.8125, 15.535715, 16.017857, 16.4375, 16.8125, 17.196428, 17.75, 18.270834, 18.892857, 19.502977, 19.482143, 19.455357, 19.25, 19.0625, 19.044643, 18.791666, 18.758928, 18.571428, 18.160713, 18.098215, 18.333334, 18.75, 19.035713, 19.125, 19.125, 19.25, 19.25, 19.25, 19.3125, 19.098213, 18.955357, 18.955357, 18.9375, 18.866072, 18.541666, 18.25, 17.9375, 17.875, 17.9375, 18, 17.928572, 17.660713, 17.392857, 17.321428, 17.3125, 16.934525, 16.327379, 16.142857, 16.0625, 16.1875, 15.928572, 15.315475, 15.1875, 14.982143, 15.0625, 15.125, 15.125, 15.1875, 15.25, 6.75, 6.833333, 6.8125, 6.8125, 6.9375, 6.9375, 6.875, 6.6875, 6.4375, 6.1875, 6, 5.875, 5.875, 5.875, 5.9375, 6, 6, 6, 6, 6, 6.0625, 6.3125, 6.5625, 6.8125, 7, 7.2767859, 8.1875, 8.8571434, 9.4196434, 9.9375, 10.464286, 10.71875, 10.96875, 11.03125, 11.0625, -10, -10, -10, -10, -10, -10, 19, 19, 18.729166, 18.34375, 17.785713, 17.3125, 16.720238, 15.821428, 15.041667, 14.709822, 14.667411, 14.828125, 14.908482, 15.203125, 15.1875, 15.3125, 15.375, 15.4375, 15.625, 15.75, 15.875, 15.848214, 15.571428, 15.366072, 14.979167, 14.758928, 14.625, 14.625, 14.633928, 14.916666, 14.683673, 14.607142, 14.571428, 14.510203, 14.5625, 14.357143, 14.125, 14, 13.75, 13.75, 13.875, 14, 14.1875, 14.25, 14.25, 14.25, 14.125, 14.0625, 13.973214, 14.008928, 14.107143, 13.84375, 13.741667, -10, -10, -10, -10, -10, -10, 23, 23, 23.125, 23.375, 23.875, 24.464287, 24.9375, 25.4375, 25.5625, 25.901787, 26.294643, 26.598215, 26.875, 27, 26.9375, 26.9375, 26.9375, 26.9375, 27.0625, 27.0625, 27.0625, 27.0625, 26.9375, 26.875, 26.75, 26.75, 26.8125, 26.875, 27.0625, 27.125, 27.1875, 27.004166, 26.791666, 26.824406, 26.803572, 26.96875, 27, 27.008928, 26.916666, 26.919643, 26.84375, 26.84375, 26.71875, 26.584822, 26.038691, 24.851192, 23.473213, 22.839285, 22.46875, 22.3125, 22.244049, -10, -10, -10, -10, -10, -10, -10, -10, -10, -10, -10, -10, -10, -10, -10, -10, -10, -10, -10, -10, -10, -10, 62.333332, 61.700001, 62.145832, 62.785713, 63.464287, 63.9375, 64.375, 64.625, 64.90625, 65.28125, 65.71875, 66.352676, 66.6875, 66.9375, 67.125, 67.375, 67.8125, 68.3125, 68.6875, 69.0625, 69.375, 69.5625, 69.875, 70.133926, 70.565475, 71.241074, 71.580353, 71.875, 72.294647, 72.889877, 73.232147, 73.669647, 73.803574, 73.96875, 74.16964, 74.589287, 74.982147, 75.375, 75.625, 76.125, 76.916672, 77.357147, 77.75, 78, 78.25, 78.5, 79, 79.464287, 79.9375, 80.46875, 80.75, 81.205353, 81.607147, 81.897324, 82.25, 82.553574, 83.104164, 83.565475, 83.84375, 84.490646, 84.709824, 84.90625, 85.25, 85.482147, 85.6875, 86.1875, 86.5, 86.75, 87.1875, 87.375, 87.5625, 88.017853, 88.458336, 88.866074, 89.375, 89.625, 89.875, 90.0625, 90.25, 90.696426, 91.422623, 91.741074, 92.071426, 92.529762, 93.011902, 93.428574, 93.6875, 93.964287, 94.419647, 94.678574, 95.1875, 95.5, 95.9375, 96.4375, 96.6875, 97, 97.383926, 97.857147, 98, 98.3125, 98.3125, 98.375, 98.776787, 99.276787, 99.785721, 100.3125, 100.625, 100.9375, 101.40178, 102.35715, 102.65179, 102.8125, 102.98215, 103.44048, 103.73215, 104.1875, 104.5, 104.91965, 105.3125, 105.63393, 105.9375, 106.1875, 106.5, 106.58333, -10, -10, -10
17.5, 17.321426, 16.577379, 16.361607, 16.03125, 16.15625, 15.834822, 15.297619, 15.0625, 14.794643, 14.875, 14.875, 14.9375, 15, 15, 6.875, 6.9166665, 6.875, 6.875, 6.9375, 6.9375, 6.9375, 6.75, 6.5, 6.25, 5.9375, 5.8125, 5.8125, 5.8125, 5.9375, 6, 6, 6, 6, 6, 6.125, 6.375, 6.625, 6.875, 7, 7.2767859, 8.1875, 8.9285717, 9.4821434, 10, 10.46875, 10.65625, 10.84375, 10.84375, 10.875, -10, -10, -10, -10, -10, -10, -10, 18.875, 18.625, 18.28125, 17.705357, 17.205357, 16.946428, 16.1, 15.041667, 14.638393, 14.558036, 14.90625, 15.111607, 15.53125, 15.5625, 15.6875, 15.875, 15.988095, 16.306122, 16.469387, 16.732143, 16.526787, 16.295918, 15.866072, 15.479167, 15.258928, 15.125, 15.125, 15.133928, 15.664966, 16.33135, 16.529762, 16.583334, 16.273809, 15.37755, 14.919643, 14.625, 14.5, 14.258928, 14.458334, 14.520834, 14.416667, 14.508928, 14.5625, 14.625, 14.6875, 14.625, 14.6875, 14.598214, 14.464286, 14.625, 14.316964, 14.291667, -10, -10, -10, -10, -10, -10, 23, 23, 23.09375, 23.34375, 23.78125, 24.308037, 24.821428, 25.375, 25.5625, 25.964287, 26.294643, 26.616072, 26.875, 27, 26.875, 26.875, 26.875, 26.875, 27, 26.9375, 26.9375, 27, 27.03125, 27.09375, 27.03125, 26.96875, 26.9375, 26.9375, 27.125, 27.160713, 27.008928, 26.901361, 26.604166, 26.788691, 26.964285, 27.03125, 27.125, 26.946428, 26.854166, 26.794643, 26.71875, 26.78125, 26.59375, 26.397322, 25.851191, 24.63492, 23.163691, 22.589285, 22.15625, 22, 21.944445, -10, -10, -10, -10, -10, -10, -10, -10, -10, -10, -10, -10, -10, -10, -10, -10, -10, -10, -10, -10, -10, -10, 62.333332, 61.600002, 62.041664, 62.857147, 63.5, 64.0625, 64.4375, 64.6875, 64.96875, 65.290176, 65.78125, 66.308037, 66.6875, 66.875, 67.125, 67.375, 67.84375, 68.388397, 68.71875, 69.09375, 69.3125, 69.5, 69.75, 69.946426, 70.449409, 71.324409, 71.758926, 72.1875, 72.59375, 72.879463, 73.111603, 73.450897, 73.616074, 73.6875, 73.91964, 74.401787, 74.848213, 75.357147, 75.6875, 76.1875, 76.979172, 77.428574, 77.958336, 78.241074, 78.5, 78.6875, 79.125, 79.419647, 79.830353, 80.419647, 80.575897, 81.01339, 81.495537, 81.691963, 82.089287, 82.544647, 83.238098, 83.815475, 84.125, 84.601189, 84.928574, 85.0625, 85.3125, 85.4375, 85.625, 86.0625, 86.4375, 86.6875, 87.125, 87.4375, 87.6875, 88.1875, 88.5, 88.875, 89.3125, 89.5625, 89.875, 90.169647, 90.4375, 90.9375, 91.464294, 91.6875, 92.071426, 92.666672, 92.928574, 93.375, 93.625, 93.9375, 94.375, 94.625, 95.125, 95.5, 95.875, 96.375, 96.625, 97, 97.446426, 97.982147, 98.1875, 98.4375, 98.4375, 98.4375, 98.776787, 99.276787, 99.723221, 100.25, 100.5625, 100.9375, 101.51785, 102.30953, 102.59822, 102.75, 102.91965, 103.44048, 103.79465, 104.25, 104.5625, 104.91965, 105.1875, 105.51785, 105.9375, 106.125, 106.5, 106.5, -10, -10, -10, -10, -10, -10, -10, -10, -10, -10, -10, -10, -10, -10, -10, 14.875, 14.8, 14.5625, 14.321428, 14.5, 14.919643, 15.651786, 16.276787, 16.625, 17.0625, 17.446428, 18, 18.708334, 19.223213, 19.419643, 19.375, 19.205357, 19.0625, 19, 18.973213, 18.901787, 19, 18.883928, 18.535713, 18.348215, 18.583334, 18.803572, 19.035713, 19.125, 18.9375, 19.089287, 19.416666, 19.244898, 19.5625, 19.3125, 19.276787, 19.25, 19.25, 19.178572, 18.782738, 18.375, 18.041666, 17.758928, 17.8125, 17.75, 17.625, 17.49107, 17.330357, 17.321428, 17.5, 17.42857, 16.702379, 16.433035, 16.15625, 16.21875, 15.915178, 15.458333, 15.125, 14.75, 14.8125, 14.8125, 14.875, 15, 15, 7, 7, 7, 6.9375, 6.9375, 6.9375, 6.9375, 6.8125, 6.5625, 6.3125, 6, 5.875, 5.875, 5.875, 5.9375, 6, 6, 6, 6, 6, 6.1875, 6.4375, 6.6875, 6.9375, 7, 7.2767859, 8.270833, 9, 9.5446434, 10, 10.34375, 10.46875, 10.59375, 10.65625, 10.75, 10.666667, -10, -10, -10, -10, -10, -10, 18.75, 18.520834, 18.25, 17.71875, 17.236607, 17.111607, 16.589584, 15.412416, 15.176021, 15.045918, 15.273809, 15.71875, 15.90625, 16, 16.125, 16.553572, 17.531746, 17.964285, 18.035715, 17.324831, 16.964287, 16.571428, 16.366072, 16.041668, 16.008928, 15.958334, 15.708334, 15.678572, 15.863095, 16.462585, 16.668367, 16.875, 16.520407, 15.87755, 15.325893, 15.03125, 14.982143, 14.946428, 15.416667, 15.630953, 15.336309, 15.117347, 15.196428, 15.232142, 15.46875, 15.5, 15.464286, 15.098214, 14.964286, 15.1875, 14.941964, 14.958334, 15.857143, 16.125, 16.416668, -10, -10, -10, 22.714287, 22.9375, 23.0625, 23.28125, 23.65625, 24.120537, 24.540178, 25.0625, 25.3125, 25.75, 26.0625, 26.4375, 26.75, 26.857143, 26.674999, 26.803572, 26.732143, 26.75, 26.8125, 26.75, 26.8125, 27, 27.066963, 26.986607, 26.986607, 26.90625, 26.9375, 27, 27.1875, 27.285713, 27.205357, 27.205357, 27, 27.017857, 27.098213, 27.09375, 27.125, 26.821428, 26.666666, 26.544643, 26.53125, 26.65625, 26.450893, 26.135416, 25.714285, 24.925171, 23.023809, 22.380951, 22, 21.65625, -10, -10, -10, -10, -10, -10, -10, -10, -10, -10, -10, -10, -10, -10, -10, -10, -10, -10, -10, -10, -10, -10, -10, 62.35714, 61.566669, 61.9375, 62.928574, 63.535717, 64.0625, 64.375, 64.625, 64.90625, 65.299103, 65.927086, 66.379471, 66.8125, 66.9375, 67.1875, 67.4375, 67.875, 68.464287, 68.75, 69.125, 69.25, 69.4375, 69.625, 69.821426, 70.595245, 71.369049, 71.821426, 72.1875, 72.53125, 72.941963, 73.15625, 73.40625, 73.5625, 73.5625, 73.79464, 74.285721, 74.869049, 75.446426, 75.8125, 76.25, 77.041672, 77.464287, 78.03334, 78.196426, 78.5625, 78.732147, 79.1875, 79.4375, 79.830353, 80.419647, 80.544647, 80.98214, 81.464287, 81.691963, 82.183037, 82.638397, 83.394348, 83.940475, 84.178574, 84.517853, 84.857147, 85, 85.25, 85.375, 85.5625, 86, 86.4375, 86.6875, 87.125, 87.4375, 87.6875, 88.1875, 88.5, 88.875, 89.3125, 89.5625, 89.9375, 90.294647, 90.5625, 91.0625, 91.482147, 91.625, 92.008926, 92.604172, 92.982147, 93.482147, 93.6875, 93.9375, 94.25, 94.4375, 94.875, 95.3125, 95.732147, 96.25, 96.5625, 97, 97.508926, 98.107147, 98.375, 98.625, 98.6875, 98.625, 98.839287, 99.169647, 99.535721, 100.05357, 100.58334, 101, 101.63393, 102.1637, 102.48215, 102.625, 102.85715, 103.44048, 103.79465, 104.25, 104.5, 104.75, 105, 105.33929, 105.9375, 106.0625, 106.5, 106.41666, -10, -10, -10
17.40625, 17.299107, 16.653273, 16.392857, 16.15625, 16.15625, 15.84375, 15.589286, 15.375, 15.169643, 15.169643, 14.979167, 14.946428, 15, 15, 7, 7, 7, 6.9375, 6.9375, 6.875, 6.8125, 6.625, 6.4375, 6.25, 6.0625, 6.0625, 6, 6, 6, 6, 6, 6, 6, 6, 6.25, 6.5, 6.75, 7, 7, 7.2857141, 8.5, 9.1428566, 9.625, 10, 10.21875, 10.28125, 10.40625, 10.59375, 10.928572, 11.177777, -10, -10, -10, -10, -10, -10, 18.625, 18.416668, 18.125, 17.59375, 17.236607, 17.236607, 17.25625, 17.319445, 17.494047, 17.330357, 16.631943, 16.138393, 16.1875, 16.3125, 16.5, 16.991072, 17.884354, 18.290815, 18.193878, 17.377977, 17.116072, 16.9375, 16.803572, 16.666668, 16.969387, 16.904764, 16.166668, 16.107143, 16.211309, 16.485119, 16.464285, 16.208334, 16.517857, 15.986607, 15.700893, 15.46875, 15.419643, 15.508928, 15.833334, 16.309525, 16.241497, 16.422619, 16.333334, 16.208334, 16.035715, 15.78125, 15.8125, 15.660714, 15.526786, 15.625, 15.348214, 15.229167, 15.571429, 15.892858, 16.277779, 16.625, 17.232143, 19.70635, 22.172621, 22.6875, 23.03125, 23.28125, 23.65625, 24.120537, 24.415178, 24.875, 25.0625, 25.375, 25.758928, 26.333334, 26.678572, 26.794643, 26.612499, 26.741072, 26.607143, 26.625, 26.625, 26.625, 26.75, 27, 27.129463, 26.986607, 26.986607, 26.90625, 26.9375, 27, 27.25, 27.410713, 27.392857, 27.392857, 27.125, 27.142857, 27.160713, 27.125, 27.03125, 26.625, 26.4375, 26.1875, 26.34375, 26.46875, 26.388393, 26.197916, 25.714285, 24.857141, -10, -10, -10, 21.583334, -10, -10, -10, -10, -10, -10, -10, -10, -10, -10, -10, -10, -10, -10, -10, -10, -10, -10, -10, -10, 61.083336, 62, 62.35714, 62.398808, 61.804169, 62.125, 63.107143, 63.616074, 64.125, 64.375, 64.625, 64.90625, 65.299103, 65.927086, 66.450897, 66.910713, 67, 67.25, 67.4375, 67.875, 68.464287, 68.75, 69.0625, 69.125, 69.3125, 69.5, 69.6875, 70.293159, 71.034225, 71.477676, 71.90625, 72.34375, 72.816963, 73.03125, 73.34375, 73.5, 73.5625, 73.892853, 74.366074, 75.047623, 75.571426, 75.9375, 76.3125, 76.895836, 77.392853, 77.97084, 78.196426, 78.5, 78.669647, 79.125, 79.491074, 79.866074, 80.419647, 80.544647, 80.91964, 81.464287, 81.723213, 82.214287, 82.669647, 83.363098, 83.607147, 83.8125, 84.080353, 84.482147, 84.75, 85.0625, 85.3125, 85.5625, 86, 86.4375, 86.625, 87.058037, 87.450897, 87.638397, 88.120537, 88.482147, 88.803574, 89.25, 89.5, 89.875, 90.357147, 90.625, 91.0625, 91.375, 91.5, 91.883926, 92.541672, 93.044647, 93.589294, 93.75, 94, 94.25, 94.375, 94.75, 95.1875, 95.589294, 96.125, 96.5, 97, 97.5625, 98.044647, 98.375, 98.625, 98.8125, 98.875, 99.151787, 99.419647, 99.741074, 100.17857, 100.64584, 101.125, 101.6875, 102.04911, 102.46875, 102.65625, 102.93304, 103.41965, 103.74107, 104.1875, 104.5, 104.8125, 105, 105.35715, 106.03571, 106.0625, 106.5625, 106.41666, -10, -10, -10, -10, -10, -10, -10, -10, -10, -10, -10, -10, -10, -10, -10, 14.75, 14.716667, 14.5, 14.446428, 14.65625, 15.075893, 15.772322, 16.401787, 16.78125, 17.28125, 17.59375, 18.0625, 18.625, 18.910713, 18.830357, 18.830357, 18.75, 18.78125, 19, 18.910713, 18.714287, 18.59375, 18.5, 18.5, 18.517857, 18.895834, 18.928572, 19, 19.0625, 18.75, 18.910715, 19.470238, 19.571426, 19.821428, 19.330357, 19.232143, 19.1875, 19.25, 19.4375, 19.383928, 18.578232, 18.129251, 17.779762, 17.9375, 17.946428, 17.75, 17.42857, 17.3125, 17.25, 17.34375, 17.191963, 16.510416, 16.383928, 16.263393, 16.28125, 16.03125, 15.714286, 15.5, 15.357143, 15.294643, 15.104167, 15.008928, 15, 15, 6.75, 6.8333335, 6.875, 6.875, 6.9375, 6.875, 6.8125, 6.625, 6.4375, 6.25, 6.0625, 6.0625, 6, 6, 6, 6, 6, 5.9375, 5.875, 5.875, 6.125, 6.4821429, 6.75, 7, 7, 7.2857141, 8.583334, 9.2142849, 9.6875, 10, 10.09375, 10.09375, 10.15625, 10.415178, 10.928572, 11.177777, -10, -10, -10, -10, -10, -10, 18.625, 18.500002, 18.21875, 17.65625, 17.325893, 17.361607, 17.613392, 18.035715, 18.239796, 17.821854, 17.042942, 16.497768, 16.390625, 16.5, 16.71875, 17.272322, 18.117559, 18.535713, 18.450891, 17.784227, 17.334822, 17.0625, 17, 17.125, 17.375, 17.34524, 16.583334, 16.357143, 16.044643, 16.163691, 15.969388, 15.892858, 15.964286, 15.924107, 15.78125, 15.71875, 15.819643, 15.892858, 16.351191, 16.583334, 16.586309, 16.571428, 16.40625, 16.28125, 16.15625, 16.09375, 16.0625, 15.9375, 15.9375, 16, 15.910714, 15.8125, 15.811225, 16.205357, 16.422619, 16.75, 17.071428, 18.361904, 21.435375, 22.4375, 23, 23.28125, 23.65625, 24.120537, 24.415178, 24.785713, 24.803572, 25.09375, 25.352678, 25.927084, 26.303572, 26.419643, 26.424999, 26.741072, 26.669643, 26.580357, 26.517857, 26.5, 26.5625, 26.8125, 26.941963, 26.799107, 26.924107, 26.90625, 26.875, 26.9375, 27.1875, 27.435715, 27.276787, 27.276787, 27, 27.080357, 27.160713, 27.125, 27.0625, 26.616072, 26.229166, 26.017857, 26.1875, 26.410713, 26.357143, 26.166666, 25.758928, 25.440475, -10, -10, -10, -10, -10, -10, -10, -10, -10, -10, -10, -10, -10, -10, -10, -10, -10, -10, -10, -10, -10, -10, -10, -10, 60.944447, 62, 62.333332, 62.422619, 61.870834, 62.125, 63.107143, 63.616074, 64.1875, 64.4375, 64.6875, 65, 65.361603, 66.020836, 66.544647, 66.973213, 67.03125, 67.1875, 67.375, 67.8125, 68.446426, 68.75, 69, 69, 69.258926, 69.708336, 70.053574, 70.686012, 71.034225, 71.397324, 71.71875, 72.09375, 72.59375, 72.84375, 73.28125, 73.5625, 73.75, 74.125, 74.508926, 75.244049, 75.696426, 76.0625, 76.375, 76.6875, 77.214279, 77.84584, 78.071426, 78.375, 78.482147, 78.883926, 79.449409, 79.85714, 80.428574, 80.815475, 81.205353, 81.544647, 81.732147, 82.151787, 82.598213, 83.071426, 83.375, 83.625, 83.9375, 84.294647, 84.625, 85, 85.375, 85.625, 86.0625, 86.375, 86.580353, 87.133934, 87.464294, 87.696426, 88.196434, 88.535721, 88.866074, 89.25, 89.5, 89.875, 90.357147, 90.625, 91.0625, 91.375, 91.5, 91.8125, 92.208336, 92.6875, 93.422623, 93.678574, 93.9375, 94.1875, 94.3125, 94.625, 95.125, 95.526794, 96.03125, 96.46875, 96.90625, 97.40625, 97.8125, 98.1875, 98.5, 98.75, 98.9375, 99.25, 99.4375, 99.8125, 100.24107, 100.70834, 101.1875, 101.625, 101.94196, 102.40625, 102.65625, 102.96875, 103.375, 103.6875, 104.15625, 104.53125, 104.84375, 105.09375, 105.41071, 105.91071, 106.02679, 106.54465, 106.48333, -10, -10, -10
17.21875, 17.049107, 16.403273, 16.236607, 16.169643, 16.1875, 16.0625, 15.776786, 15.5625, 15.446428, 15.357143, 15.166667, 15.071428, 15, 15, 6.625, 6.75, 6.828125, 6.859375, 6.953125, 6.890625, 6.8125, 6.6875, 6.5, 6.3125, 6.1875, 6.125, 6.0625, 6.0625, 6, 5.9375, 5.875, 5.75, 5.6875, 5.75, 6, 6.4196429, 6.6875, 6.9375, 7.0625, 7.4017859, 8.6785717, 9.3214283, 9.75, 10, 10, 10, 10.0625, 10.392857, 11.053572, -10, -10, -10, -10, -10, -10, -10, 18.75, 18.666668, 18.40625, 17.90625, 17.575893, 17.46875, 17.765306, 18.158163, 18.387756, 17.773808, 17.09226, 16.669643, 16.517857, 16.770834, 17.022322, 17.522322, 18.013393, 18.178572, 17.979464, 17.748512, 17.447916, 17.166666, 17.205357, 17.375, 17.75, 17.78274, 16.895834, 16.5, 16.035713, 15.830357, 15.758928, 15.6875, 15.8125, 15.71875, 15.745536, 16.022322, 16.215477, 16.285715, 16.517857, 16.6875, 16.919643, 17, 16.84375, 16.65625, 16.46875, 16.40625, 16.3125, 16.25, 16.3125, 16.3125, 16.375, 16.3125, 16.571428, 16.491072, 16.553572, 16.8125, 16.991072, 18.17687, 21.047619, 22.151787, 22.84375, 23.125, 23.5, 24.080357, 24.379463, 24.598213, 24.553572, 24.65625, 24.924107, 25.635418, 25.973215, 26.075893, 26.112499, 26.428572, 26.419643, 26.361607, 26.330357, 26.375, 26.4375, 26.625, 26.723213, 26.580357, 26.767857, 26.875, 26.875, 27, 27.25, 27.5875, 27.633928, 27.571428, 27.3125, 27.25, 27.125, 27.125, 27, 26.616072, 26.166666, 25.955357, 26.125, 26.348213, 26.357143, 26.104166, 25.553572, 25.374998, -10, -10, -10, -10, -10, -10, -10, -10, -10, -10, -10, -10, -10, -10, -10, -10, -10, -10, -10, -10, -10, -10, -10, -10, 60.958336, 62.099998, 62.39286, 62.517857, 62.020836, 62.238094, 63.148811, 63.651787, 64.125, 64.383926, 64.833336, 65.178574, 65.602676, 66.145836, 66.669647, 67.035713, 67.09375, 67.1875, 67.375, 67.8125, 68.446426, 68.75, 69, 69, 69.258926, 69.708336, 70.053574, 70.677086, 70.888397, 71.325897, 71.59375, 71.9375, 72.375, 72.625, 73.125, 73.5, 73.8125, 74.25, 74.696426, 75.422623, 75.776787, 76.0625, 76.3125, 76.625, 77.017853, 77.449997, 77.642853, 78.053574, 78.267853, 78.714287, 79.494049, 79.89286, 80.383926, 80.833336, 81.241074, 81.5, 81.6875, 82.080353, 82.502975, 82.928574, 83.25, 83.5, 83.8125, 84.232147, 84.625, 85.107147, 85.5, 85.75, 86.1875, 86.4375, 86.642853, 87.196434, 87.401794, 87.633926, 88.071434, 88.348221, 88.678574, 89.071426, 89.520836, 89.866074, 90.25, 90.508926, 91.083336, 91.428574, 91.625, 91.8125, 92.0625, 92.5625, 93.297623, 93.678574, 93.9375, 94.125, 94.25, 94.5, 95, 95.464294, 95.96875, 96.46875, 96.84375, 97.34375, 97.6875, 98.0625, 98.4375, 98.6875, 98.9375, 99.258926, 99.645836, 100.05357, 100.42857, 100.89584, 101.3125, 101.625, 101.96875, 102.40625, 102.71875, 103.09375, 103.4375, 103.6875, 104.03125, 104.40625, 104.71875, 105.09375, 105.46428, 105.84821, 106.08929, 106.54465, 106.56667, -10, -10, -10, -10, -10, -10, -10, -10, -10, -10, -10, -10, -10, -10, -10, 14.25, 14.25, 14.375, 14.65625, 15, 15.5, 16.066963, 16.669643, 16.96875, 17.352678, 17.748512, 18.324406, 18.803572, 19, 18.830357, 18.830357, 18.8125, 18.84375, 19, 18.9375, 18.6875, 18.53125, 18.5, 18.5625, 18.6875, 18.875, 18.9375, 18.9375, 19, 18.875, 19.008928, 19.214285, 19.11607, 19.142857, 18.705357, 18.714285, 19.020834, 19.107143, 19.3125, 19.267857, 18.666666, 18.357143, 17.958334, 18, 18.071428, 17.9375, 17.598213, 17.3125, 17.0625, 17.09375, 16.90625, 16.379463, 16.236607, 16.169643, 16.1875, 16.0625, 15.776786, 15.5, 15.383928, 15.294643, 15.104167, 15.071428, 15, 15, 6.625, 6.75, 6.859375, 6.984375, 7.140625, 7.078125, 6.96875, 6.8125, 6.5625, 6.375, 6.1875, 6.0625, 6, 6, 6, 5.875, 5.8392859, 5.8571429, 5.7946429, 5.875, 6, 6.3571429, 6.625, 6.875, 7.125, 7.5178566, 8.6904764, 9.3571434, 9.75, 10, 10, 10, 10.0625, 10.330357, 10.928572, -10, -10, -10, -10, -10, -10, -10, 18.875, 18.833334, 18.5625, 18.125, 17.794643, 17.5625, 17.418367, 17.369047, 17.392859, 17.384354, 17.175594, 16.919643, 16.892857, 17.083334, 17.209822, 17.46875, 17.78125, 17.848215, 17.736607, 18.081844, 17.840773, 17.622023, 17.517857, 17.5, 17.6875, 17.636906, 17, 16.705357, 16.348213, 16.035713, 15.883928, 15.75, 15.875, 15.875, 16.026787, 16.366072, 16.483334, 16.410715, 16.580357, 16.625, 16.8125, 16.8125, 16.625, 16.5, 16.4375, 16.5, 16.5, 16.4375, 16.5, 16.5, 16.5625, 16.5625, 16.857143, 16.631697, 16.600447, 16.796875, 16.708334, 17.761904, 20.777779, 21.952383, 22.8125, 23.104166, 23.46875, 24.111607, 24.410713, 24.5, 24.428572, 24.34375, 24.549107, 25.135418, 25.410715, 25.59375, 25.8125, 26.125, 26.25, 26.236607, 26.267857, 26.3125, 26.3125, 26.375, 26.4375, 26.4375, 26.6875, 26.875, 26.875, 27.071428, 27.387501, 27.533928, 27.580357, 27.446428, 27.25, 27.1875, 27.0625, 27.0625, 26.9375, 26.616072, 26.166666, 25.955357, 26.125, 26.348213, 26.375, 26.25, 25.589287, 25.416666, -10, -10, -10, -10, -10, -10, -10, -10, -10, -10, -10, -10, -10, -10, -10, -10, -10, -10, -10, -10, -10, -10, -10, -10, 60.777782, 62.224998, 62.452385, 62.517857, 62.104168, 62.351189, 63.107143, 63.58036, 64.232147, 64.5, 64.958336, 65.303574, 65.65625, 66.0625, 66.616074, 66.910713, 67.09375, 67.25, 67.4375, 67.90625, 68.433037, 68.71875, 68.96875, 69, 69.258926, 69.708336, 69.991074, 70.40625, 70.71875, 71.245537, 71.59375, 71.9375, 72.25, 72.5, 72.9375, 73.3125, 73.6875, 74.125, 74.625, 75.276787, 75.669647, 75.9375, 76.25, 76.5625, 76.919647, 77.3125, 77.6875, 78.098221, 78.285713, 78.678574, 79.476189, 79.821426, 80.321426, 80.770836, 81.116074, 81.375, 81.53125, 81.892853, 82.377975, 82.803574, 83.15625, 83.40625, 83.65625, 84.09375, 84.46875, 85.035713, 85.729164, 85.946426, 86.375, 86.5, 86.580353, 87.098213, 87.3125, 87.508926, 87.946434, 88.160721, 88.491074, 88.830353, 89.479172, 89.794647, 90.1875, 90.477676, 91.052086, 91.459824, 91.75, 91.96875, 92.15625, 92.5625, 93.297623, 93.669647, 93.9375, 94.125, 94.25, 94.508926, 95.145836, 95.535721, 96.03125, 96.46875, 96.78125, 97.28125, 97.5625, 97.90625, 98.34375, 98.59375, 98.90625, 99.321426, 99.770836, 100.17857, 100.5625, 100.875, 101.42857, 101.79465, 102.21875, 102.59375, 102.84375, 103.09375, 103.3125, 103.5625, 103.84375, 104.28125, 104.65625, 105.09375, 105.51785, 105.72321, 106.05357, 106.52679, 106.63333, -10, -10, -10
16.9375, 16.875, 16.473213, 16.392857, 16.232143, 16.1875, 16, 15.6875, 15.3125, 15.026786, 14.9375, 14.9375, 15, 15, 15, 6.625, 6.75, 6.796875, 6.859375, 7.0334821, 7.140625, 7.09375, 7.0625, 6.6875, 6.4375, 6.1875, 6.0625, 6.125, 6.125, 6.125, 5.875, 5.8035717, 5.9642859, 5.9017859, 6, 6, 6.2633929, 6.5, 6.75, 7.125, 7.5401783, 8.5238094, 9.3690481, 9.7410717, 10.0625, 10.0625, 10.0625, 10.0625, 10.214286, 10.833333, -10, -10, -10, -10, -10, -10, -10, 19, 19, 18.75, 18.40625, 18.075893, 17.758928, 17.401787, 17.205357, 17.133928, 17.1875, 17.3125, 17.3125, 17.330357, 17.395834, 17.397322, 17.46875, 17.59375, 17.535715, 17.53125, 18.081844, 18.010416, 17.872023, 17.830357, 17.625, 17.625, 17.491072, 17.041666, 16.776787, 16.5625, 16.455357, 16.4375, 16.357143, 16.362499, 16.333334, 16.160715, 16.4375, 16.483334, 16.441965, 16.611607, 16.65625, 16.90625, 16.9375, 16.875, 16.8125, 16.8125, 16.848213, 16.75, 16.866072, 16.857143, 16.875, 16.9375, 17, 17.125, 16.993303, 16.756697, 16.828125, 16.645834, -10, -10, -10, 22.84375, 23.041666, 23.3125, 23.848213, 24.129463, 24.15625, 24.053572, 23.96875, 24.102678, 24.489584, 24.732143, 24.96875, 25.3125, 25.794643, 26.0625, 26.111607, 26.205357, 26.25, 26.25, 26.25, 26.25, 26.25, 26.4375, 26.625, 26.6875, 26.946428, 27.262501, 27.408928, 27.392857, 27.258928, 27.125, 27.0625, 27, 27, 26.875, 26.616072, 26.166666, 26.017857, 26.1875, 26.473213, 26.455357, 25.9375, 25.25893, 25, -10, -10, -10, -10, -10, -10, -10, -10, -10, -10, -10, -10, -10, -10, -10, -10, -10, -10, -10, -10, -10, -10, -10, -10, -10, 62.349998, 62.547623, 62.5, 61.916668, 62.172615, 63.041668, 63.64286, 64.294647, 64.5625, 65.020836, 65.366074, 65.71875, 66.0625, 66.508926, 66.958336, 67.209824, 67.375, 67.5625, 67.9375, 68.401787, 68.6875, 68.9375, 69, 69.258926, 69.708336, 69.991074, 70.375, 70.6875, 71.214287, 71.607147, 71.9375, 72.25, 72.546875, 72.984375, 73.328125, 73.703125, 74.09375, 74.53125, 75.169647, 75.669647, 76.044647, 76.375, 76.625, 76.875, 77.25, 77.5625, 78.035721, 78.160713, 78.5, 79.380951, 79.714287, 80.258926, 80.708336, 81.053574, 81.25, 81.375, 81.705353, 82.252975, 82.741074, 83.191963, 83.677086, 83.888397, 84.21875, 84.40625, 84.785713, 85.461304, 85.925591, 86.3125, 86.4375, 86.517853, 87.071426, 87.241074, 87.526787, 87.919647, 87.991074, 88.375, 88.705353, 89.461319, 89.794647, 90.15625, 90.415176, 90.989586, 91.459824, 91.78125, 92.03125, 92.15625, 92.446426, 93.273811, 93.660721, 93.9375, 94.125, 94.3125, 94.571426, 95.208336, 95.553574, 96.03125, 96.46875, 96.71875, 97.21875, 97.5, 97.875, 98.375, 98.625, 98.9375, 99.321426, 99.770836, 100.11607, 100.5, 100.875, 101.47322, 101.91965, 102.375, 102.6875, 102.9375, 103.125, 103.28125, 103.53125, 103.75, 104.1875, 104.59375, 105.1384, 105.5625, 105.6875, 106.05357, 106.46429, 106.63333, -10, -10, -10, -10, -10, -10, -10, -10, -10, -10, -10, -10, -10, -10, -10, 14.5, 14.583333, 14.825893, 15.125, 15.4375, 15.9375, 16.392857, 16.875, 17.1875, 17.383928, 17.860119, 18.494049, 18.857143, 19.0625, 19, 19.125, 19.125, 19, 18.991072, 18.9375, 18.8125, 18.875, 18.8125, 18.8125, 18.875, 18.9375, 18.9375, 18.964287, 19.035713, 19, 19.125, 18.973213, 18.642857, 18.508928, 18.375, 18.553572, 19.083334, 19.107143, 19.1875, 19.0625, 18.8125, 18.6875, 18.5, 18.1875, 18.089287, 17.8125, 17.375, 16.973213, 16.6875, 16.75, 16.821428, 16.660713, 16.580357, 16.3125, 16.1875, 15.875, 15.5625, 15.25, 14.964286, 14.9375, 14.9375, 15, 15, 15, 6.875, 6.9166665, 6.859375, 6.859375, 6.9709821, 7.078125, 7.03125, 7, 6.625, 6.4375, 6.25, 6.1875, 6.25, 6.1875, 6.1875, 5.875, 5.8035717, 6.0267859, 6.0267859, 6.125, 6.0625, 6.15625, 6.3839283, 6.75, 7.1875, 7.65625, 8.3571434, 9.2351189, 9.6607141, 10.0625, 10.1875, 10.21875, 10.21875, 10.321428, 10.904761, 11.8, -10, -10, -10, -10, -10, -10, 19, 18.916666, 18.6875, 18.40625, 18.040178, 17.425594, 16.961309, 16.767857, 16.705357, 17.083334, 17.241072, 17.3125, 17.330357, 17.395834, 17.366072, 17.4375, 17.5, 17.473215, 17.5, 18.050594, 18.104166, 17.997023, 17.955357, 17.75, 17.625, 17.5, 17.3125, 17.142857, 17, 16.892857, 16.875, 16.714287, 16.612499, 16.583334, 16.285715, 16.5, 16.333334, 16.370537, 16.53125, 16.65625, 16.90625, 17, 17, 16.9375, 16.9375, 16.848213, 16.75, 16.928572, 16.919643, 17, 17, 17, 17.0625, 16.957588, 16.729912, 16.765625, 16.625, -10, -10, -10, 22.833334, 22.854166, 22.958334, 23.334822, 23.473213, 23.526787, 23.59375, 23.5625, 23.821428, 24.270834, 24.575893, 24.84375, 25.1875, 25.544643, 25.78125, 25.96875, 26, 26.0625, 26.0625, 26.0625, 26.125, 26.125, 26.25, 26.3125, 26.4375, 26.696428, 27.012501, 27.133928, 27.196428, 27.0625, 27, 26.9375, 26.9375, 26.928572, 26.541666, 26.330357, 26.125, 26.0625, 26.3125, 26.4375, 26.101191, 25.482143, 24.82143, 24.583332, 24, 24.267857, 24.666668, -10, -10, -10, -10, -10, -10, -10, -10, -10, -10, -10, -10, -10, -10, -10, -10, -10, -10, -10, -10, -10, -10, 62.474998, 62.64286, 62.5, 62, 62.285713, 63.083336, 63.678574, 64.294647, 64.5625, 65.020836, 65.366074, 65.6875, 66, 66.455353, 66.920837, 67.091843, 67.285713, 67.5, 67.892853, 68.357147, 68.625, 68.875, 69, 69.25, 69.5, 69.8125, 70.458336, 70.866074, 71.401787, 71.732147, 72.0625, 72.375, 72.814728, 73.265625, 73.546875, 73.796875, 74.09375, 74.46875, 75.151787, 75.732147, 76.169647, 76.5, 76.75, 76.9375, 77.25, 77.5625, 78.098221, 78.223213, 78.571426, 79.476189, 79.857147, 80.375, 80.625, 80.875, 81.0625, 81.25, 81.642853, 82.252975, 82.741074, 83.191963, 83.677086, 83.888397, 84.15625, 84.34375, 84.723213, 85.443451, 85.925591, 86.25, 86.446426, 86.625, 87.026787, 87.321426, 87.5, 87.875, 87.9375, 88.3125, 88.705353, 89.461319, 89.857147, 90.21875, 90.508926, 91.052086, 91.459824, 91.78125, 92, 92.21875, 92.5625, 93.369057, 93.76786, 94, 94.1875, 94.3125, 94.571426, 95.208336, 95.553574, 96.0625, 96.5, 96.75, 97.25, 97.5, 97.875, 98.375, 98.625, 98.9375, 99.321426, 99.770836, 100.05357, 100.4375, 100.875, 101.51785, 102.04465, 102.5, 102.75, 103, 103.125, 103.28125, 103.53125, 103.71875, 104.15625, 104.5625, 105.10715, 105.5625, 105.75, 106.08929, 106.41965, 106.56667, -10, -10, -10
