-10, -10, -10, -10, -10, -10, -10, -10, -10, -10, -10, -10, -10, -10, -10, -10, -10, -10, -10, -10, -10, -10, -10, -10, -10, -10, -10, -10, -10, -10, -10, -10, -10, -10, -10, -10, -10, -10, -10, -10, -10, -10, -10, -10, -10, -10, -10, -10, -10, -10, -10, -10, -10, -10, -10, -10, -10, -10, -10, -10, -10, -10, -10, -10, -10, -10, -10, -10, -10, -10, -10, -10, -10, -10, -10, -10, -10, -10, -10, -10, -10, -10, -10, -10, -10, -10, -10, -10, -10, -10, -10, -10, -10, -10, -10, -10, -10, -10, -10, -10, -10, -10, -10, -10, -10, -10, -10, -10, -10, -10, -10, -10, -10, -10, -10, -10, -10, -10, -10, -10, -10, -10, -10, -10, -10, -10, -10, -10, -10, -10, -10, -10, -10, -10, 115.75, 115.28809, 114.3006, 113.39881, 111.94643, 111.29762, 110.49405, 109.33334, 108.52679, 107.29762, 106.46428, 105.64285, 104.32619, 103.20834, 101.80357, 101.21428, 100.5, 98.624992, 97.678566, 96.125008, 95.083336, 94.357147, 93.464279, 92.297615, 91.607147, 91.0625, 89.64286, 88.559525, 87.630951, 86.517853, 85.866074, 84.767853, 84.214279, 83.440475, 81.75, 80.928574, 79.895836, 78.979164, 78.142853, 77.267853, 76.285713, 75.285713, 74.380951, 73.238098, 72.369049, 71.660713, 70.058334, 69.071426, 68.1875, 67.348206, 66.476189, 65.184525, 64.339287, 63.196426, 62.171429, 61.267857, 60.35714, 59.154758, 57.755951, 56.928574, 56.1875, 55.285713, 54.029762, 52.511906, 51.607143, 50.883926, 49.931545, 48.75, 47.767853, 46.577381, 45.928574, 45.1875, 44.059525, 42.970238, 41.845238, 40.916668, 39.967262, 38.833336, 38.047619, 37.077381, 36.044643, 35.174107, 34.299107, 33.285713, 32.214287, 30.839285, 29.940477, 28.898809, 27.65, 25.625002, 24.714287, 24.0625, 23.674107, 22.75, 22.053572, 21.276785, 20.660713, 20.035715, 18.6875, 17.857143, 17.4, -10, -10, -10, -10, 10.708334, 10.5, 10.25, 9.875, 9.625, 9.375, 9.25, 9.25, 9.375, 9.5, 9.6875, 9.75, 9.8125, 9.9375, 10.0625, 10.1875, 10.1875, 10.1875, 10.125, 10.1875, 10.25, 10.25, 10.125, 10, 9.9375, 9.9375, 10.071428, 10.2, 10.142857, 10.375, 10.4375, 10.5, 10.5, 10.4375, 10.5, 10.6875, 10.875, 10.9375, 10.875, 10.8125, 10.830357, 11.020833, 11.116072, 11.383928, 11.949405, 12.392857, 12.6875, 12.875, 12.9375, 13, 13, 13, 13, 13.125, 13.375, 13.5625, 13.8125, 13.875, 13.875, 13.9375, 13.9375, 14, 14, 14, 14, 14, 13.928572, 13.452381, 12.488095, 12.142857, 11.9375, 11.9375, 12, 12, 12, 12, 11.9375, 11.9375, 11.9375, 12.0625, 12.25, 12.205357, 11.934525, 11.942857, 12.196428, 12.25, 12.4375, 12.4375, 12.4375, 12.5, 12.5625, 12.5, 12.5, 12.5625, 12.625, 12.8125, 12.9375, 13, 13.0625, 13, 13.0625, 13.25, 13.25, 13.25, 13.1875, 13.25, 13.625, 13.982142, 14.208333, -10, -10, -10, -10, -10, -10, -10, -10, -10, -10, -10, -10, -10, -10, -10, -10, -10, -10, 49.75, 49.583336, 49.583336, -10, -10, -10, -10, -10, -10, -10, -10, -10, -10, -10, -10, -10, -10, -10, -10, -10, -10, -10, -10, -10, -10, -10, -10, -10, -10, -10, -10, -10, -10, -10, -10, -10, -10, -10, -10, -10, -10, -10, -10, -10, -10, -10, -10, -10, -10, -10, -10, -10, -10, -10, -10, -10, -10, -10, -10, -10, -10, -10, -10, -10, -10, -10, -10, -10, -10, -10, -10, -10, -10, -10, -10, -10, -10, -10, -10, -10, -10, -10, -10, -10, -10, -10, -10, -10, -10, -10, -10, -10, -10, -10, -10, -10, -10, -10, -10, -10, -10, -10, -10, -10, -10, -10, -10, -10, -10, -10, -10, -10, -10, -10, -10, -10, -10, -10, -10, -10, -10, -10, -10, -10, -10, -10, -10, -10, -10, -10, -10, -10, -10, -10, -10, -10, -10, -10, -10, -10, -10, -10, -10, -10, 115.625, 115.21667, 114.3006, 113.39881, 111.94643, 111.29762, 110.49405, 109.25001, 108.38393, 107.28571, 106.42857, 105.64285, 104.39761, 103.375, 102.01191, 101.35119, 100.2738, 98.601189, 97.595238, 96.125008, 95.083336, 94.294647, 93.35714, 92.464279, 91.511902, 90.857147, 89.39286, 88.642853, 87.75, 86.517853, 85.714287, 84.642853, 84.142853, 83.419647, 81.863091, 81, 79.904762, 78.979164, 78.214287, 77.410713, 76.130951, 75.178566, 74.297615, 73.196426, 72.369049, 71.70536, 70.379761, 69.160713, 68.232147, 67.348206, 66.535713, 65.476189, 64.422623, 63.386902, 62.314285, 61.419643, 60.285713, 59.10714, 57.952381, 56.958332, 56.1875, 55.130951, 54.154762, 52.488094, 51.642857, 50.883926, 49.931545, 48.75, 47.767853, 46.577381, 45.928574, 45.160713, 43.779762, 42.744045, 41.815475, 40.833336, 39.895832, 38.791664, 38.047619, 37.077381, 36.044643, 35.174107, 34.299107, 33.285713, 32.285713, 31.285715, 30.309525, 29.07143, 27.733332, 25.500002, 24.642857, 23.96875, 23.638393, 22.666668, 21.982143, 21.214285, 20.55357, 19.613094, 18.419643, 17.571428, 17.266666, -10, -10, -10, -10, 10.541667, 10.375, 10.125, 9.8125, 9.5, 9.25, 9.25, 9.3125, 9.4375, 9.5625, 9.6875, 9.6875, 9.8125, 9.875, 9.9375, 10, 10, 10.0625, 10, 10.0625, 10.125, 10.125, 10.0625, 10, 9.9375, 9.9375, 10, 10, 10, 10.125, 10.25, 10.25, 10.25, 10.25, 10.375, 10.5625, 10.75, 10.75, 10.6875, 10.75, 10.8125, 10.875, 10.9375, 11.133928, 11.761905, 12.330357, 12.732143, 12.9375, 13, 13, 13, 13, 13.0625, 13.1875, 13.4375, 13.625, 13.8125, 13.875, 13.875, 13.9375, 13.9375, 14, 14, 14, 14, 13.9375, 13.741072, 13.166667, 12.383929, 12, 11.875, 11.9375, 12.0625, 12.1875, 12.1875, 12.125, 12.0625, 12.0625, 12.0625, 12.125, 12.1875, 12.098214, 12.017858, 12.1125, 12.446428, 12.5, 12.5625, 12.4375, 12.4375, 12.4375, 12.625, 12.625, 12.5625, 12.625, 12.625, 12.75, 12.875, 12.9375, 13, 13, 13.0625, 13.25, 13.25, 13.25, 13.1875, 13.1875, 13.5, 13.785714, 14, -10, -10, -10, -10, -10, -10, -10, -10, -10, -10, -10, -10, -10, -10, -10, -10, -10, -10, 49.8125, 49.625004, 49.625004, -10, -10, -10, -10, -10, -10, -10
-10, -10, -10, -10, -10, -10, -10, -10, -10, -10, -10, -10, -10, -10, -10, -10, -10, -10, -10, -10, -10, -10, -10, -10, -10, -10, -10, -10, -10, -10, -10, -10, -10, -10, -10, -10, -10, -10, -10, -10, -10, -10, -10, -10, -10, -10, -10, -10, -10, -10, -10, -10, -10, -10, -10, -10, -10, -10, -10, -10, -10, -10, -10, -10, -10, -10, -10, -10, -10, -10, -10, -10, -10, -10, -10, -10, -10, -10, -10, -10, -10, -10, -10, -10, -10, -10, -10, -10, -10, -10, -10, -10, -10, -10, -10, -10, -10, -10, -10, -10, -10, -10, -10, -10, -10, -10, -10, -10, -10, -10, -10, -10, -10, -10, -10, -10, -10, -10, -10, -10, -10, -10, -10, -10, -10, -10, -10, -10, -10, -10, -10, -10, -10, -10, 115.25, 114.9, 114.21726, 113.33631, 112.13095, 111.47619, 110.39881, 109.29167, 108.23512, 107.28571, 106.53571, 105.65476, 104.43333, 103.36309, 102.125, 101.3631, 100.08929, 98.684525, 97.511909, 96.345245, 95.333336, 94.315483, 93.464287, 92.642853, 91.690475, 90.732147, 89.488098, 88.785713, 87.778572, 86.375, 85.464287, 84.601189, 84.071426, 83.110123, 81.875, 81.035713, 79.738098, 78.845238, 78.10714, 77.089287, 75.916672, 75.04464, 74.288689, 73.196426, 72.297615, 71.5625, 70.451187, 69.196426, 68.241074, 67.276779, 66.428574, 65.642853, 64.380959, 63.535713, 62.385712, 61.440475, 60.172619, 59.095238, 58.136906, 56.958332, 56.160713, 55.122025, 54.196426, 52.654758, 51.785713, 50.872025, 50.098213, 49.017857, 48.196426, 46.851192, 46.178574, 45.181545, 43.886902, 42.910713, 41.940475, 40.958336, 39.791664, 38.720238, 37.880955, 37.160713, 36.142857, 35.214287, 34.288689, 33.172619, 32.214287, 31.276787, 30.309525, 29.130953, 27.976189, 25.458334, 24.607143, 23.9375, 23.669643, 22.738096, 21.877977, 21.071428, 20.36607, 19.375, 18.065477, 17.5, 17.200001, -10, -10, -10, -10, 10.5, 10.25, 10.017857, 9.6875, 9.4375, 9.3125, 9.375, 9.5, 9.5625, 9.625, 9.6875, 9.6875, 9.8125, 9.875, 9.875, 9.9375, 9.9375, 10, 10, 10, 10.0625, 10.0625, 10, 10, 9.9375, 9.9375, 10, 10, 10, 10.0625, 10.125, 10.125, 10.125, 10.25, 10.375, 10.5625, 10.75, 10.6875, 10.6875, 10.75, 10.75, 10.875, 10.9375, 11.071428, 11.645833, 12.160714, 12.651787, 12.875, 13, 13, 13, 13, 13.125, 13.3125, 13.5625, 13.75, 13.875, 13.875, 13.875, 13.9375, 13.9375, 14, 14, 14, 14, 13.875, 13.553572, 12.880953, 12.279762, 11.928572, 11.9375, 12, 12.125, 12.25, 12.1875, 12.125, 12.125, 12.125, 12.125, 12.125, 12.0625, 11.910714, 11.839286, 12.0625, 12.339286, 12.5, 12.5, 12.375, 12.3125, 12.25, 12.4375, 12.5, 12.5, 12.625, 12.625, 12.75, 12.875, 12.9375, 13, 13, 13, 13.125, 13.125, 13.125, 13.125, 13.125, 13.375, 13.625, 13.916667, -10, -10, -10, -10, -10, -10, -10, -10, -10, -10, -10, -10, -10, -10, -10, -10, -10, -10, 49.5625, 49.458336, 49.458336, -10, -10, -10, -10, -10, -10, -10, -10, -10, -10, -10, -10, -10, -10, -10, -10, -10, -10, -10, -10, -10, -10, -10, -10, -10, -10, -10, -10, -10, -10, -10, -10, -10, -10, -10, -10, -10, -10, -10, -10, -10, -10, -10, -10, -10, -10, -10, -10, -10, -10, -10, -10, -10, -10, -10, -10, -10, -10, -10, -10, -10, -10, -10, -10, -10, -10, -10, -10, -10, -10, -10, -10, -10, -10, -10, -10, -10, -10, -10, -10, -10, -10, -10, -10, -10, -10, -10, -10, -10, -10, -10, -10, -10, -10, -10, -10, -10, -10, -10, -10, -10, -10, -10, -10, -10, -10, -10, -10, -10, -10, -10, -10, -10, -10, -10, -10, -10, -10, -10, -10, -10, -10, -10, -10, -10, -10, -10, -10, -10, -10, -10, -10, -10, -10, -10, -10, -10, -10, -10, -10, -10, 115.125, 114.81667, 114.15476, 113.31548, 112.31548, 111.65476, 110.30357, 109.33334, 108.08631, 107.21428, 106.30952, 105.40476, 104.42143, 103.27975, 102.30952, 101.25001, 99.988098, 98.601196, 97.452385, 96.529762, 95.583336, 94.336311, 93.5, 92.714287, 91.797615, 90.803574, 89.613098, 88.928574, 87.719048, 86.23214, 85.214287, 84.464287, 83.892853, 82.967262, 81.791672, 81, 79.738098, 78.761909, 77.964287, 76.91964, 75.84523, 74.889877, 74.145836, 73.008926, 72.285713, 71.508926, 70.564285, 69.267853, 68.25, 67.276779, 66.5, 65.821426, 64.404762, 63.494049, 62.285713, 61.476189, 60.235119, 59.10714, 58.05357, 56.886906, 56.098213, 55.113094, 54.238094, 52.738094, 51.85714, 50.880955, 50.169643, 49.196426, 48.291668, 46.958332, 46.241074, 45.190475, 43.875, 43.107143, 42.083332, 41.101192, 40.208332, 38.875, 38.005955, 37.056549, 36.071426, 35.059525, 34.288689, 33.244049, 32.142857, 31.241072, 30.300596, 29.130953, 28.047619, 25.916666, 24.839285, 24.107143, 23.6875, 22.738096, 21.690477, 20.964287, 20.254463, 19.21875, 17.982143, 17.136906, 16.799999, -10, -10, -10, -10, 10.645833, 10.125, 9.8526783, 9.59375, 9.4375, 9.4375, 9.5625, 9.5625, 9.5, 9.5, 9.5625, 9.625, 9.8125, 9.875, 9.875, 9.9375, 9.9375, 10, 10, 10, 10.0625, 10.0625, 10.0625, 10.0625, 10, 10, 10, 10, 10, 10, 10, 10, 10, 10.1875, 10.3125, 10.4375, 10.5625, 10.4375, 10.5, 10.625, 10.625, 10.8125, 10.875, 10.946428, 11.520833, 11.928572, 12.401787, 12.6875, 12.875, 12.9375, 13, 13, 13.125, 13.375, 13.625, 13.875, 14, 13.9375, 13.9375, 13.9375, 13.9375, 14, 14, 14, 14, 13.875, 13.482143, 12.535713, 12.196428, 11.9375, 12, 12.125, 12.1875, 12.1875, 12.125, 12.0625, 12, 12.0625, 12.0625, 12.125, 12.0625, 11.9375, 11.9375, 12, 12.232143, 12.375, 12.375, 12.25, 12.1875, 12.0625, 12.25, 12.4375, 12.5625, 12.8125, 12.875, 12.9375, 13, 13, 13, 13, 13, 13.0625, 13.0625, 13.0625, 13.0625, 13.0625, 13.25, 13.4375, 13.738095, 14.166666, -10, -10, -10, -10, -10, -10, -10, -10, -10, -10, -10, -10, -10, -10, -10, -10, -10, 49.4375, 49.375, 49.375, -10, -10, -10, -10, -10, -10, -10
-10, -10, -10, -10, -10, -10, -10, -10, -10, -10, -10, -10, -10, -10, -10, -10, -10, -10, -10, -10, -10, -10, -10, -10, -10, -10, -10, -10, -10, -10, -10, -10, -10, -10, -10, -10, -10, -10, -10, -10, -10, -10, -10, -10, -10, -10, -10, -10, -10, -10, -10, -10, -10, -10, -10, -10, -10, -10, -10, -10, -10, -10, -10, -10, -10, -10, -10, -10, -10, -10, -10, -10, -10, -10, -10, -10, -10, -10, -10, -10, -10, -10, -10, -10, -10, -10, -10, -10, -10, -10, -10, -10, -10, -10, -10, -10, -10, -10, -10, -10, -10, -10, -10, -10, -10, -10, -10, -10, -10, -10, -10, -10, -10, -10, -10, -10, -10, -10, -10, -10, -10, -10, -10, -10, -10, -10, -10, -10, -10, -10, -10, -10, -10, -10, 115, 114.66667, 114.14285, 113.27976, 112.3869, 111.82143, 110.42857, 109.45834, 107.98215, 107.21428, 106.34524, 105.2381, 104.5, 103.57738, 102.38095, 101.28572, 99.988098, 98.601196, 97.380959, 96.351196, 95.571426, 94.300598, 93.5, 92.714287, 91.797615, 90.803574, 89.696426, 89, 87.790474, 86.35714, 85.35714, 84.642853, 83.767853, 82.752975, 81.726189, 81, 79.967262, 78.904762, 78.035713, 76.940475, 75.648804, 74.747025, 74.0625, 73.122017, 72.172615, 71.401787, 70.60714, 69.267853, 68.285713, 67.276779, 66.5, 65.892853, 64.583336, 63.708336, 62.255951, 61.369045, 60.083332, 59.261902, 58.172619, 56.845238, 56.035713, 55.166668, 54.416664, 52.766666, 51.702381, 50.595238, 49.848213, 49.196426, 48.3125, 47.19643, 46.395832, 45.065475, 43.970238, 43.17857, 42.145832, 41.327381, 40.422619, 39, 38.077381, 37.145832, 36.348213, 35.059525, 34.261906, 33.244049, 31.946428, 31.098213, 30.217262, 29.235119, 28.202381, 26.571428, 25.154762, 24.357143, 23.675594, 22.904762, 21.59524, 20.892857, 20.129463, 19.03125, 18.041668, 17.279762, 16.766666, -10, -10, -10, -10, 10.886905, 10.083333, 9.7589283, 9.5625, 9.5, 9.625, 9.6875, 9.5625, 9.4375, 9.375, 9.5, 9.625, 9.8125, 9.9375, 9.9375, 10, 10, 10, 10, 10, 10.0625, 10.0625, 10.0625, 10.0625, 10, 10, 10, 10, 10, 10, 10, 10, 10, 10.125, 10.1875, 10.25, 10.3125, 10.25, 10.3125, 10.5, 10.5625, 10.75, 10.875, 10.875, 11.1875, 11.5625, 12.026787, 12.4375, 12.75, 12.875, 13, 13, 13.125, 13.375, 13.625, 13.8125, 13.9375, 13.9375, 13.9375, 14, 14, 13.9375, 13.9375, 13.9375, 13.9375, 13.8125, 13.375, 12.327381, 12.017857, 11.875, 12.035714, 12.1875, 12.25, 12.125, 12, 11.9375, 11.875, 12, 12.0625, 12.125, 12.125, 12.0625, 12.0625, 12.125, 12.25, 12.375, 12.375, 12.3125, 12.3125, 12.25, 12.5, 12.6875, 12.8125, 13, 13, 13, 13, 13, 13, 13, 13, 13, 13, 13, 13, 13, 13.125, 13.25, 13.559524, 14.111111, -10, -10, -10, -10, -10, -10, -10, -10, -10, -10, -10, -10, -10, -10, -10, -10, -10, 49.25, 49.125, 49.125, -10, -10, -10, -10, -10, -10, -10, -10, -10, -10, -10, -10, -10, -10, -10, -10, -10, -10, -10, -10, -10, -10, -10, -10, -10, -10, -10, -10, -10, -10, -10, -10, -10, -10, -10, -10, -10, -10, -10, -10, -10, -10, -10, -10, -10, -10, -10, -10, -10, -10, -10, -10, -10, -10, -10, -10, -10, -10, -10, -10, -10, -10, -10, -10, -10, -10, -10, -10, -10, -10, -10, -10, -10, -10, -10, -10, -10, -10, -10, -10, -10, -10, -10, -10, -10, -10, -10, -10, -10, -10, -10, -10, -10, -10, -10, -10, -10, -10, -10, -10, -10, -10, -10, -10, -10, -10, -10, -10, -10, -10, -10, -10, -10, -10, -10, -10, -10, -10, -10, -10, -10, -10, -10, -10, -10, -10, -10, -10, -10, -10, -10, -10, -10, -10, -10, -10, -10, -10, -10, -10, -10, 114.875, 114.58334, 114.13393, 113.26785, 112.5, 111.82143, 110.32143, 109.45834, 107.83334, 107.21428, 106.45238, 105.25001, 104.46429, 103.41071, 102.17262, 101.07738, 99.988098, 98.708336, 97.380959, 96.51786, 95.529762, 94.238098, 93.419647, 92.535713, 91.785713, 90.767853, 89.696426, 89, 87.817261, 86.636902, 85.642853, 84.851189, 83.642853, 82.547623, 81.476189, 80.821426, 79.895836, 78.895836, 77.964287, 76.809525, 75.690475, 74.782738, 74.133926, 73.080353, 72.029762, 71.276787, 70.464287, 69.226189, 68.285713, 67.276779, 66.428574, 65.714287, 64.642853, 63.815479, 62.113098, 61.190475, 60.208332, 59.440475, 58.101189, 56.922619, 56.098213, 55.333332, 54.374996, 52.933331, 51.690475, 50.595238, 49.702381, 49.125, 48.145836, 47.238094, 46.458332, 45.113094, 44.136902, 43.321426, 42.279762, 41.482143, 40.494049, 39.154762, 38.148808, 37.166664, 36.235119, 34.988098, 34.252975, 33.244049, 31.946428, 31.110119, 30.092262, 29.276785, 28.202381, 26.833334, 25.583334, 24.565477, 23.747025, 22.904762, 21.523811, 20.785713, 20.09375, 19.302084, 18.255953, 17.363096, 16.391666, 15.190476, 13.666666, 12.910714, 12.142857, 11.220238, 10.041666, 9.6428566, 9.375, 9.4375, 9.625, 9.625, 9.5, 9.3125, 9.3125, 9.4375, 9.5625, 9.6875, 9.7589283, 9.9375, 10, 10.0625, 10, 10, 10, 10, 10, 10, 10, 10, 10, 10, 10.0625, 10.125, 10.107143, 10, 10, 9.9375, 10.0625, 10.0625, 10.125, 10.1875, 10.25, 10.375, 10.5625, 10.625, 10.75, 10.875, 10.875, 11.125, 11.4375, 11.794643, 12.25, 12.625, 12.8125, 13, 13, 13.0625, 13.25, 13.4375, 13.5625, 13.75, 13.8125, 13.875, 14, 14, 13.875, 13.8125, 13.8125, 13.8125, 13.8125, 13.491072, 12.351191, 12.026786, 11.875, 12.035714, 12.125, 12.125, 11.875, 11.6875, 11.6875, 11.625, 11.8125, 11.9375, 12, 12.0625, 12.0625, 12.0625, 12.125, 12.25, 12.375, 12.375, 12.375, 12.375, 12.375, 12.625, 12.75, 12.875, 13, 13, 13, 13, 13, 13, 13, 13, 13, 13, 13.0625, 13.0625, 13.0625, 13.0625, 13.0625, 13.424107, 13.933333, -10, -10, -10, -10, -10, -10, -10, -10, -10, -10, -10, -10, -10, -10, -10, -10, -10, -10, 49.208332, 49.25, -10, -10, -10, -10, -10, -10, -10
-10, -10, -10, -10, -10, -10, -10, -10, -10, -10, -10, -10, -10, -10, -10, -10, -10, -10, -10, -10, -10, -10, -10, -10, -10, -10, -10, -10, -10, -10, -10, -10, -10, -10, -10, -10, -10, -10, -10, -10, -10, -10, -10, -10, -10, -10, -10, -10, -10, -10, -10, -10, -10, -10, -10, -10, -10, -10, -10, -10, -10, -10, -10, -10, -10, -10, -10, -10, -10, -10, -10, -10, -10, -10, -10, -10, -10, -10, -10, -10, -10, -10, -10, -10, -10, -10, -10, -10, -10, -10, -10, -10, -10, -10, -10, -10, -10, -10, -10, -10, -10, -10, -10, -10, -10, -10, -10, -10, -10, -10, -10, -10, -10, -10, -10, -10, -10, -10, -10, -10, -10, -10, -10, -10, -10, -10, -10, -10, -10, -10, -10, -10, -10, -10, 115, 114.66666, 114.19643, 113.27678, 112.42857, 111.64285, 110.30952, 109.41667, 107.83334, 107.14285, 106.19048, 105.16667, 104.41965, 103.42262, 101.97619, 100.8512, 99.922623, 98.708336, 97.464287, 96.589287, 95.363098, 94.261902, 93.3125, 92.35714, 91.535713, 90.714279, 89.660706, 89, 87.883926, 86.886902, 85.726189, 84.833328, 83.464287, 82.535713, 81.369041, 80.714287, 80.0625, 79.029762, 78.071426, 77.14286, 75.791672, 74.845238, 74.133926, 73.092262, 71.916672, 71.205353, 70.309525, 69.154762, 68.276787, 67.276779, 66.35714, 65.535713, 64.630951, 63.791668, 62, 61.107143, 60.375, 59.619049, 58.041664, 57.029762, 56.104168, 55.0625, 54.148808, 52.903572, 51.523808, 50.60714, 49.702381, 49.125, 48.110123, 47.071426, 46.244045, 45.092262, 44.041664, 43.029758, 42.196426, 41.428574, 40.494049, 39.154762, 38.29464, 37.249996, 36.130951, 34.916668, 34.241074, 33.244049, 31.946428, 31.119047, 29.979168, 29.133928, 28.122025, 27.238096, 25.988096, 24.773811, 23.809525, 22.666668, 21.422621, 20.67857, 20.03125, 19.290178, 18.255953, 17.363096, 16.284523, 15.126984, 13.825397, 13.023808, 12.190475, 11.428571, 9.999999, 9.5714283, 9.3125, 9.375, 9.5, 9.4375, 9.3125, 9.25, 9.375, 9.5, 9.625, 9.625, 9.5714283, 9.8125, 9.875, 10, 10, 10, 10, 10, 10, 10, 10, 10, 10.0625, 10.0625, 10.125, 10.1875, 10.107143, 10, 10.0625, 10.0625, 10.1875, 10.25, 10.25, 10.1875, 10.25, 10.3125, 10.5, 10.6875, 10.8125, 10.9375, 10.9375, 11.0625, 11.3125, 11.5625, 12.0625, 12.5, 12.75, 13, 13, 13, 13.125, 13.25, 13.375, 13.625, 13.75, 13.875, 14, 14, 13.8125, 13.75, 13.75, 13.75, 13.875, 13.678572, 12.636905, 12.047619, 11.803572, 11.848214, 11.9375, 12, 11.8125, 11.6875, 11.6875, 11.625, 11.8125, 11.9375, 12, 12.0625, 12.0625, 12.0625, 12.1875, 12.3125, 12.4375, 12.4375, 12.375, 12.4375, 12.4375, 12.6875, 12.8125, 12.875, 13, 13, 13, 13, 13, 13, 13, 13, 13, 13, 13.0625, 13.0625, 13.0625, 13, 12.9375, 13.267857, 13.725, -10, -10, -10, -10, -10, -10, -10, -10, -10, -10, -10, -10, -10, -10, -10, -10, -10, -10, 49.458332, 49.5, 49.833336, -10, -10, -10, -10, -10, -10, -10, -10, -10, -10, -10, -10, -10, -10, -10, -10, -10, -10, -10, -10, -10, -10, -10, -10, -10, -10, -10, -10, -10, -10, -10, -10, -10, -10, -10, -10, -10, -10, -10, -10, -10, -10, -10, -10, -10, -10, -10, -10, -10, -10, -10, -10, -10, -10, -10, -10, -10, -10, -10, -10, -10, -10, -10, -10, -10, -10, -10, -10, -10, -10, -10, -10, -10, -10, -10, -10, -10, -10, -10, -10, -10, -10, -10, -10, -10, -10, -10, -10, -10, -10, -10, -10, -10, -10, -10, -10, -10, -10, -10, -10, -10, -10, -10, -10, -10, -10, -10, -10, -10, -10, -10, -10, -10, -10, -10, -10, -10, -10, -10, -10, -10, -10, -10, -10, -10, -10, -10, -10, -10, -10, -10, -10, -10, -10, -10, -10, -10, -10, -10, -10, 115.125, 114.74999, 114.25893, 113.28571, 112.42857, 111.64285, 110.30952, 109.39881, 107.94643, 107.28571, 106.52381, 105.4881, 104.47322, 103.4881, 101.875, 100.68452, 99.738098, 98.803574, 97.523811, 96.696426, 95.279762, 94.428574, 93.288689, 92.321426, 91.428566, 90.642853, 89.535706, 88.857147, 87.943451, 87.029762, 85.821426, 85.011902, 83.571426, 82.678574, 81.410713, 80.75, 80.0625, 79.258926, 78.285713, 77.321434, 75.863098, 75, 74.205353, 73.113098, 71.803574, 71.133926, 70.300591, 69.154762, 68.276787, 67.276779, 66.285713, 65.35714, 64.535713, 63.654762, 62.071426, 61.142857, 60.455357, 59.785713, 58.249996, 57.208332, 56.175594, 55.083332, 54.023808, 53.028572, 51.738094, 50.744049, 49.809525, 49.1875, 48.264881, 47.142857, 46.252975, 45.104164, 43.886902, 42.922619, 42.15625, 41.379463, 40.315475, 39.142857, 38.241074, 37.363094, 36.214283, 34.958332, 34.16964, 33.163689, 32.029762, 31.041666, 29.916668, 29.133928, 28.008928, 27.154762, 26.175596, 25.059525, 24.130953, 22.583334, 21.440477, 20.607141, 20, 19.267857, 18.130953, 17.404762, 16.247023, 15.166667, 13.95238, 12.892857, 12.071428, 11.407738, 10.178571, 9.5595236, 9.2589283, 9.25, 9.3125, 9.25, 9.1875, 9.25, 9.4375, 9.5, 9.5625, 9.4375, 9.3839283, 9.6875, 9.75, 9.875, 9.875, 9.875, 9.9375, 10, 10, 10, 10, 10, 10.125, 10.125, 10.1875, 10.25, 10.107143, 10, 10.125, 10.125, 10.3125, 10.375, 10.3125, 10.3125, 10.375, 10.4375, 10.625, 10.8125, 10.875, 11, 11, 11.0625, 11.3125, 11.5625, 12, 12.4375, 12.6875, 12.9375, 13, 13, 13.125, 13.25, 13.3125, 13.5, 13.625, 13.75, 13.875, 13.875, 13.625, 13.5625, 13.625, 13.6875, 13.875, 13.75, 12.991072, 12.422619, 12.116072, 11.910714, 11.9375, 11.9375, 11.875, 11.75, 11.75, 11.75, 11.875, 12, 12, 12, 12, 12.0625, 12.3125, 12.5, 12.6875, 12.625, 12.5, 12.5, 12.4375, 12.625, 12.75, 12.8125, 12.9375, 13, 13, 13, 13, 13, 13, 13, 13, 13, 13.0625, 13.0625, 13.0625, 13, 12.875, 13.160714, 13.525, -10, -10, -10, -10, -10, -10, -10, -10, -10, -10, -10, -10, -10, -10, -10, -10, -10, -10, 49.625, 49.666668, 49.888889, -10, -10, -10, -10, -10, -10
-10, -10, -10, -10, -10, -10, -10, -10, -10, -10, -10, -10, -10, -10, -10, -10, -10, -10, -10, -10, -10, -10, -10, -10, -10, -10, -10, -10, -10, -10, -10, -10, -10, -10, -10, -10, -10, -10, -10, -10, -10, -10, -10, -10, -10, -10, -10, -10, -10, -10, -10, -10, -10, -10, -10, -10, -10, -10, -10, -10, -10, -10, -10, -10, -10, -10, -10, -10, -10, -10, -10, -10, -10, -10, -10, -10, -10, -10, -10, -10, -10, -10, -10, -10, -10, -10, -10, -10, -10, -10, -10, -10, -10, -10, -10, -10, -10, -10, -10, -10, -10, -10, -10, -10, -10, -10, -10, -10, -10, -10, -10, -10, -10, -10, -10, -10, -10, -10, -10, -10, -10, -10, -10, -10, -10, -10, -10, -10, -10, -10, -10, -10, -10, -10, 115, 114.62499, 114.27084, 113.46428, 112.45238, 111.60119, 110.22619, 109.30953, 108.0506, 107.28571, 106.41666, 105.47619, 104.36607, 103.41667, 102.08929, 100.56548, 99.559525, 98.75, 97.559525, 96.875, 95.375, 94.607147, 93.529762, 92.642853, 91.714279, 90.476189, 89.511902, 88.785713, 87.788689, 87.071426, 85.738098, 84.940475, 83.529762, 82.678574, 81.339279, 80.642853, 80, 79.25, 78.285713, 77.321434, 75.946434, 75.071426, 74.267853, 73.113098, 71.916672, 71.133926, 70.229164, 69.226189, 68.3125, 67.35714, 66.464279, 65.297615, 64.39286, 63.511906, 62.279758, 61.190475, 60.5, 59.785713, 58.238094, 57.321426, 56.318455, 55.208332, 53.87381, 52.928574, 51.821426, 50.803574, 49.916668, 49.25, 48.273811, 47.142857, 46.24107, 45.3125, 43.916664, 42.880951, 41.84375, 41.09375, 40.038689, 39.205357, 38.276787, 37.309521, 36.083332, 34.916664, 34.133926, 33.127975, 31.946428, 30.970238, 29.854168, 29.133928, 28.008928, 27.142857, 26.288691, 25.130953, 24.297619, 22.458334, 21.535715, 20.67857, 20.0625, 19.288691, 17.863096, 17.083334, 16.080357, 15.0625, 14.20238, 12.875, 12, 11.229166, 10.157738, 9.4523802, 9.1339283, 9.0625, 9.0625, 9.125, 9.125, 9.25, 9.5, 9.5, 9.5, 9.3125, 9.2589283, 9.5625, 9.6875, 9.875, 9.875, 9.875, 9.9375, 10, 10, 10, 10, 10, 10.125, 10.125, 10.1875, 10.25, 10.107143, 10, 10.125, 10.125, 10.3125, 10.375, 10.375, 10.4375, 10.5625, 10.6875, 10.8125, 10.9375, 10.9375, 11, 11, 11.125, 11.40625, 11.71875, 12.09375, 12.46875, 12.6875, 12.875, 13, 13, 13.125, 13.25, 13.3125, 13.5, 13.625, 13.75, 13.875, 13.803572, 13.4375, 13.4375, 13.544643, 13.6875, 13.9375, 13.928572, 13.532739, 12.967261, 12.553572, 12.125, 12, 11.9375, 11.9375, 11.875, 11.875, 11.875, 11.9375, 12.0625, 12.125, 12.125, 12.125, 12.125, 12.3125, 12.5, 12.625, 12.5625, 12.4375, 12.4375, 12.375, 12.5, 12.625, 12.6875, 12.875, 13, 13, 12.9375, 12.9375, 12.9375, 12.9375, 13, 13, 13, 13.0625, 13.0625, 13, 12.9375, 12.8125, 13.089286, 13.358334, -10, -10, -10, -10, -10, -10, -10, -10, -10, -10, -10, -10, -10, -10, -10, -10, -10, -10, 49.875, 49.916668, 49.916668, -10, -10, -10, -10, -10, -10, -10, -10, -10, -10, -10, -10, -10, -10, -10, -10, -10, -10, -10, -10, -10, -10, -10, -10, -10, -10, -10, -10, -10, -10, -10, -10, -10, -10, -10, -10, -10, -10, -10, -10, -10, -10, -10, -10, -10, -10, -10, -10, -10, -10, -10, -10, -10, -10, -10, -10, -10, -10, -10, -10, -10, -10, -10, -10, -10, -10, -10, -10, -10, -10, -10, -10, -10, -10, -10, -10, -10, -10, -10, -10, -10, -10, -10, -10, -10, -10, -10, -10, -10, -10, -10, -10, -10, -10, -10, -10, -10, -10, -10, -10, -10, -10, -10, -10, -10, -10, -10, -10, -10, -10, -10, -10, -10, -10, -10, -10, -10, -10, -10, -10, -10, -10, -10, -10, -10, -10, -10, -10, -10, -10, -10, -10, -10, -10, -10, -10, -10, -10, -10, -10, -10, 114.58333, 114.29167, 113.64285, 112.46429, 111.65476, 110.1131, 109.2262, 108.15476, 107.28571, 106.30952, 105.46429, 104.33035, 103.41667, 102.08929, 100.56548, 99.714279, 98.708336, 97.726189, 96.833336, 95.595238, 94.919647, 93.860123, 92.738091, 91.785706, 90.476189, 89.511902, 88.785713, 87.642853, 87, 85.5, 84.714287, 83.476189, 82.642853, 81.410713, 80.75, 80.0625, 79.270836, 78.172615, 77.238098, 76.059525, 74.946426, 74.053574, 73.130951, 71.988098, 71.133926, 70.122017, 69.214287, 68.276787, 67.35714, 66.464279, 65.297615, 64.321426, 63.369045, 62.351189, 61.226189, 60.446426, 59.642857, 58.309521, 57.357143, 56.398811, 55.339287, 53.915478, 52.970238, 51.821426, 50.803574, 50.0625, 49.321426, 48.428574, 47.214287, 46.321426, 45.443451, 43.958332, 42.916664, 41.84375, 41.105652, 39.925594, 39.133926, 38.276787, 37.184521, 36.125, 34.979164, 34.142857, 33.139877, 31.833334, 30.886904, 29.8125, 29.133928, 28.163691, 27.101191, 26.217262, 25.235121, 24.380953, 22.5, 21.607143, 20.785713, 20.125, 19.309525, 17.750002, 17, 16.122025, 15.133928, 14.32738, 13.026786, 11.928572, 11.181547, 10.261905, 9.5238094, 9.1964283, 9, 9, 9.125, 9.1875, 9.4375, 9.6875, 9.6875, 9.6875, 9.5, 9.4375, 9.5625, 9.6875, 9.8125, 9.875, 9.875, 9.9375, 10, 10, 10, 10, 10, 10.125, 10.125, 10.125, 10.125, 10, 10.0625, 10.1875, 10.25, 10.375, 10.375, 10.375, 10.5, 10.625, 10.8125, 10.9375, 11, 11, 11, 11, 11.196428, 11.677083, 12.022322, 12.34375, 12.59375, 12.75, 12.875, 13, 13, 13.0625, 13.214286, 13.348214, 13.5, 13.6875, 13.6875, 13.75, 13.553572, 13.125, 13.125, 13.241072, 13.645833, 13.928572, 14, 13.866072, 13.333333, 12.866072, 12.267857, 12.0625, 11.9375, 12, 12, 12, 12, 12, 12.0625, 12.125, 12.125, 12.125, 12.125, 12.25, 12.375, 12.4375, 12.375, 12.25, 12.3125, 12.25, 12.3125, 12.5, 12.5625, 12.8125, 13, 12.9375, 12.8125, 12.8125, 12.8125, 12.875, 13, 13, 13, 13, 13, 12.9375, 12.9375, 12.875, 13.120536, 13.341666, -10, -10, -10, -10, -10, -10, -10, -10, -10, -10, -10, -10, -10, -10, -10, -10, -10, -10, 50, 50, 50, -10, -10, -10, -10, -10, -10
-10, -10, -10, -10, -10, -10, -10, -10, -10, -10, -10, -10, -10, -10, -10, -10, -10, -10, -10, -10, -10, -10, -10, -10, -10, -10, -10, -10, -10, -10, -10, -10, -10, -10, -10, -10, -10, -10, -10, -10, -10, -10, -10, -10, -10, -10, -10, -10, -10, -10, -10, -10, -10, -10, -10, -10, -10, -10, -10, -10, -10, -10, -10, -10, -10, -10, -10, -10, -10, -10, -10, -10, -10, -10, -10, -10, -10, -10, -10, -10, -10, -10, -10, -10, -10, -10, -10, -10, -10, -10, -10, -10, -10, -10, -10, -10, -10, -10, -10, -10, -10, -10, -10, -10, -10, -10, -10, -10, -10, -10, -10, -10, -10, -10, -10, -10, -10, -10, -10, -10, -10, -10, -10, -10, -10, -10, -10, -10, -10, -10, -10, -10, -10, -10, -10, 114.54166, 114.31251, 113.82143, 112.4762, 111.69048, 110.18452, 109.39286, 108.27976, 107.46429, 106.64285, 105.54762, 104.44643, 103.54762, 102.21429, 100.74404, 99.892853, 98.666672, 97.809525, 96.666672, 95.690475, 95.125, 94.181549, 92.833328, 91.857132, 90.476189, 89.440475, 88.60714, 87.619049, 87.0625, 85.809525, 84.773811, 83.547623, 82.642853, 81.48214, 80.85714, 80.125, 79.291672, 78.059525, 77.154762, 76.163689, 75.029762, 73.949402, 73.047623, 72.101189, 71.092262, 70.205353, 69.276787, 68.285713, 67.35714, 66.464279, 65.297615, 64.333336, 63.244045, 62.392857, 61.288689, 60.392853, 59.464287, 58.297615, 57.392857, 56.607143, 55.630951, 54.165478, 53.125, 51.946426, 50.875, 50.1875, 49.446426, 48.297619, 47.32143, 46.42857, 45.595238, 43.875, 42.994045, 41.90625, 41.105652, 40.038689, 39.205357, 38.285713, 37.172615, 36.238094, 35.050594, 34.142857, 33.264877, 31.791668, 30.773809, 29.604166, 28.919643, 27.976191, 27.029762, 26.196428, 25.348215, 24.452381, 22.75, 21.708334, 20.892857, 20.1875, 19.380953, 18.041668, 17.028572, 15.979167, 15.133928, 14.354166, 13.047619, 11.815476, 11.098214, 10.366072, 9.5952377, 9.2589283, 9, 9, 9.125, 9.25, 9.5, 9.75, 9.8125, 9.8125, 9.6875, 9.6875, 9.75, 9.8125, 9.875, 9.875, 9.875, 9.9375, 10, 10, 10, 10, 10, 10.0625, 10.0625, 10.0625, 10.0625, 10, 10.0625, 10.1875, 10.1875, 10.25, 10.1875, 10.125, 10.375, 10.5625, 10.8125, 11, 11, 11, 11, 11.0625, 11.321428, 11.864583, 12.272322, 12.53125, 12.71875, 12.8125, 12.875, 13, 13, 13.0625, 13.276786, 13.410714, 13.5625, 13.75, 13.625, 13.625, 13.303572, 12.8125, 12.75, 12.866072, 13.395833, 13.785715, 13.9375, 13.9375, 13.75, 13.375, 12.705357, 12.330357, 12.0625, 12, 12, 12.0625, 12.0625, 12.0625, 12.0625, 12.0625, 12.0625, 12.0625, 12.125, 12.1875, 12.3125, 12.375, 12.3125, 12.25, 12.3125, 12.25, 12.25, 12.4375, 12.5, 12.75, 13, 12.875, 12.75, 12.75, 12.75, 12.875, 12.9375, 12.9375, 12.9375, 12.9375, 13.0625, 13, 13, 12.9375, 13.089286, 13.299999, -10, -10, -10, -10, -10, -10, -10, -10, -10, -10, -10, -10, -10, -10, -10, -10, -10, -10, 50, 50, 50, -10, -10, -10, -10, -10, -10, -10, -10, -10, -10, -10, -10, -10, -10, -10, -10, -10, -10, -10, -10, -10, -10, -10, -10, -10, -10, -10, -10, -10, -10, -10, -10, -10, -10, -10, -10, -10, -10, -10, -10, -10, -10, -10, -10, -10, -10, -10, -10, -10, -10, -10, -10, -10, -10, -10, -10, -10, -10, -10, -10, -10, -10, -10, -10, -10, -10, -10, -10, -10, -10, -10, -10, -10, -10, -10, -10, -10, -10, -10, -10, -10, -10, -10, -10, -10, -10, -10, -10, -10, -10, -10, -10, -10, -10, -10, -10, -10, -10, -10, -10, -10, -10, -10, -10, -10, -10, -10, -10, -10, -10, -10, -10, -10, -10, -10, -10, -10, -10, -10, -10, -10, -10, -10, -10, -10, -10, -10, -10, -10, -10, -10, -10, -10, -10, -10, -10, -10, -10, -10, -10, -10, 114.54166, 113.95, 113.64285, 112.27084, 111.56548, 110.3512, 109.36905, 108.31548, 107.40476, 106.35119, 105.22619, 104.44643, 103.69048, 102.33929, 101.20238, 100.13571, 98.738098, 97.851189, 96.416672, 95.630959, 95.125, 94.491074, 92.892853, 91.880951, 90.184525, 89.35714, 88.5625, 87.619049, 87.125, 86.035721, 84.690475, 83.440475, 82.392853, 81.60714, 80.955353, 80.208336, 79.104172, 77.916672, 77.145836, 76.270836, 75.058334, 73.877975, 72.964279, 72.205353, 71.175598, 70.101189, 69.205353, 68.276779, 67.35714, 66.464279, 65.297615, 64.345238, 63.047619, 62.25, 61.217262, 60.321426, 59.172615, 58.214287, 57.348213, 56.607143, 55.619045, 54.278572, 53.267857, 52.125, 51, 50.294643, 49.455357, 48.297619, 47.32143, 46.5, 45.726192, 43.958332, 43.065475, 41.9375, 41.083328, 40.038689, 39.205357, 38.285713, 37.172615, 36.238094, 35.050594, 34.142857, 33.035713, 31.565477, 30.636906, 29.425594, 28.74107, 28.017857, 26.863096, 26.0625, 25.205357, 24.300596, 22.916668, 21.773809, 21, 20.3125, 19.488094, 18, 16.986904, 15.809524, 15.0625, 14.333333, 13.315475, 12.10119, 11.035714, 10.223214, 9.5535717, 9.25, 9, 9, 9.125, 9.3125, 9.5625, 9.8125, 9.9375, 9.9375, 9.875, 9.875, 9.875, 9.9375, 10, 10, 10, 10, 10, 10, 10, 10, 10, 10, 10, 10, 10, 10, 10.0625, 10.1875, 10.1875, 10.25, 10.25, 10.25, 10.5, 10.6875, 10.875, 11, 11, 11, 11.0625, 11.1875, 11.446428, 12.052083, 12.459822, 12.71875, 12.90625, 12.9375, 12.9375, 13, 13, 12.9375, 13.116072, 13.392858, 13.520833, 13.625, 13.5, 13.375, 13.053572, 12.5625, 12.5, 12.616072, 13.145833, 13.598215, 13.8125, 13.9375, 13.875, 13.625, 13.142857, 12.642857, 12.267857, 12.0625, 12, 12.0625, 12.0625, 12.0625, 12.0625, 12.0625, 12.0625, 12.0625, 12.0625, 12.0625, 12.125, 12.125, 12.125, 12.125, 12.3125, 12.3125, 12.375, 12.5625, 12.5625, 12.8125, 13, 12.875, 12.75, 12.75, 12.75, 12.875, 12.9375, 12.9375, 12.9375, 12.9375, 13.0625, 13, 13, 13, 13.1875, 13.333333, -10, -10, -10, -10, -10, -10, -10, -10, -10, -10, -10, -10, -10, -10, -10, -10, -10, -10, 50, 50, 50, -10, -10, -10, -10, -10, -10
-10, -10, -10, -10, -10, -10, -10, -10, -10, -10, -10, -10, -10, -10, -10, -10, -10, -10, -10, -10, -10, -10, -10, -10, -10, -10, -10, -10, -10, -10, -10, -10, -10, -10, -10, -10, -10, -10, -10, -10, -10, -10, -10, -10, -10, -10, -10, -10, -10, -10, -10, -10, -10, -10, -10, -10, -10, -10, -10, -10, -10, -10, -10, -10, -10, -10, -10, -10, -10, -10, -10, -10, -10, -10, -10, -10, -10, -10, -10, -10, -10, -10, -10, -10, -10, -10, -10, -10, -10, -10, -10, -10, -10, -10, -10, -10, -10, -10, -10, -10, -10, -10, -10, -10, -10, -10, -10, -10, -10, -10, -10, -10, -10, -10, -10, -10, -10, -10, -10, -10, -10, -10, -10, -10, -10, -10, -10, -10, -10, -10, -10, -10, -10, -10, -10, 114.66666, 114.01667, 113.49286, 112.10417, 111.35715, 110.4137, 109.41667, 108.21131, 107.33334, 106.19643, 105.15476, 104.5, 103.79762, 102.29166, 101.53571, 100.24285, 98.666672, 97.815475, 96.375008, 95.614288, 94.916664, 94.25, 92.749992, 91.84523, 90.301186, 89.255951, 88.383926, 87.577377, 87.125, 85.952377, 84.547623, 83.5, 82.535713, 81.619049, 80.991074, 80.208336, 79.113098, 77.720245, 76.919647, 76.205353, 75.058334, 73.73214, 72.964279, 72.276787, 71.020836, 69.922615, 69.026787, 68.205353, 67.276779, 66.285713, 65.285713, 64.309525, 62.988094, 61.958336, 61.133926, 60.276787, 59.172615, 58.214287, 57.348213, 56.535713, 55.440475, 54.25, 53.410713, 52.339287, 51.083332, 50.330357, 49.455357, 48.297619, 47.32143, 46.5, 45.726192, 43.958332, 43.10714, 42.25, 41.297615, 40.184525, 39.101189, 38.214287, 37.226189, 36.369049, 35.092262, 34.184525, 32.916664, 31.773811, 30.696428, 29.488094, 28.75, 27.821428, 26.648809, 25.8125, 25.026785, 24.217262, 23.113096, 21.803572, 21, 20.375, 19.654762, 18.291666, 17.266666, 15.809524, 15.035714, 14.3125, 13.440475, 11.982993, 10.75, 10.035714, 9.5982141, 9.375, 9.125, 9.0625, 9.0625, 9.3125, 9.5625, 9.75, 9.9375, 9.9375, 9.9375, 10, 10, 10, 10, 10, 10, 10, 10, 10, 10, 10, 10, 10, 10, 10, 10, 10, 10.0625, 10.125, 10.0625, 10.125, 10.125, 10.1875, 10.5, 10.6875, 10.875, 11, 11, 11, 11.125, 11.3125, 11.633928, 12.270833, 12.616072, 12.875, 13, 13.0625, 13.0625, 13.0625, 13.0625, 12.8125, 12.928572, 13.205358, 13.270833, 13.4375, 13.3125, 13.15625, 12.96875, 12.65625, 12.53125, 12.633928, 13.145833, 13.633928, 13.875, 14, 13.9375, 13.75, 13.330357, 12.830357, 12.348214, 12.125, 12, 12, 12, 12, 11.9375, 11.9375, 11.9375, 11.9375, 12, 12, 12.0625, 12.0625, 12.0625, 12.0625, 12.1875, 12.25, 12.375, 12.625, 12.6875, 12.875, 13, 12.875, 12.8125, 12.8125, 12.8125, 12.9375, 12.9375, 12.9375, 12.9375, 12.9375, 13.0625, 13.0625, 13.0625, 13.0625, 13.25, 13.333333, -10, -10, -10, -10, -10, -10, -10, -10, -10, -10, -10, -10, -10, -10, -10, -10, -10, -10, 50, 50, 50, -10, -10, -10, -10, -10, -10, -10, -10, -10, -10, -10, -10, -10, -10, -10, -10, -10, -10, -10, -10, -10, -10, -10, -10, -10, -10, -10, -10, -10, -10, -10, -10, -10, -10, -10, -10, -10, -10, -10, -10, -10, -10, -10, -10, -10, -10, -10, -10, -10, -10, -10, -10, -10, -10, -10, -10, -10, -10, -10, -10, -10, -10, -10, -10, -10, -10, -10, -10, -10, -10, -10, -10, -10, -10, -10, -10, -10, -10, -10, -10, -10, -10, -10, -10, -10, -10, -10, -10, -10, -10, -10, -10, -10, -10, -10, -10, -10, -10, -10, -10, -10, -10, -10, -10, -10, -10, -10, -10, -10, -10, -10, -10, -10, -10, -10, -10, -10, -10, -10, -10, -10, -10, -10, -10, -10, -10, -10, -10, -10, -10, -10, -10, -10, -10, -10, -10, -10, -10, -10, -10, -10, 114.66666, 113.93333, 113.31429, 112.09226, 111.30357, 110.52678, 109.4881, 108.22024, 107.33334, 106.19643, 105.15476, 104.5, 103.78571, 102.41666, 101.49405, 100.24285, 98.851189, 97.815475, 96.583336, 95.535713, 94.604164, 93.928574, 92.833328, 92.09523, 90.479759, 89.404755, 88.300591, 87.660706, 87.196426, 86.077377, 84.690475, 83.511902, 82.589287, 81.434525, 80.741074, 80.020836, 79.029762, 77.824409, 76.991074, 76.205353, 75.26667, 73.833336, 73.071426, 72.339287, 71.029762, 69.934525, 68.830353, 68.0625, 67.205353, 66.130951, 65.214287, 64.300598, 62.999996, 61.845238, 61.0625, 60.267853, 59.172615, 58.214287, 57.348213, 56.464287, 55.297619, 54.32143, 53.511906, 52.672619, 51.404762, 50.392857, 49.49107, 48.297619, 47.32143, 46.5, 45.726192, 43.958332, 43.10714, 42.258926, 41.089287, 40.154762, 39.101189, 38.205357, 37.339287, 36.452377, 34.988091, 34.113098, 32.75, 31.815477, 30.613096, 29.488094, 28.416668, 27.535713, 26.565475, 25.883928, 24.922619, 24.133928, 23.300596, 21.94643, 21.071428, 20.383928, 19.613094, 18.125, 17.12381, 15.830357, 15.098214, 14.258928, 13.369047, 11.706349, 10.547619, 9.8660717, 9.5178566, 9.375, 9.1875, 9.125, 9, 9.1875, 9.4375, 9.625, 9.875, 9.9375, 9.9375, 10, 10, 10, 10, 10, 9.9375, 9.9375, 9.9375, 9.9375, 10, 10, 10, 10, 10, 10, 10, 10, 10, 10.0625, 9.9375, 9.9375, 10.017857, 10.354167, 10.6875, 10.875, 11, 11, 11, 11, 11.1875, 11.5, 11.919643, 12.375, 12.6875, 12.875, 13, 13.0625, 13.0625, 13, 13.026786, 12.910714, 12.964286, 13.232143, 13.208333, 13.25, 13.1875, 13.03125, 13.03125, 12.90625, 12.90625, 13, 13.25, 13.642857, 13.8125, 14, 14, 13.9375, 13.6875, 13.196428, 12.514881, 12.196428, 12, 12, 12, 11.9375, 11.875, 11.875, 11.9375, 12.0625, 12.125, 12.125, 12.125, 12.0625, 12.0625, 12.0625, 12.125, 12.1875, 12.375, 12.625, 12.75, 12.9375, 13, 12.9375, 12.9375, 12.9375, 12.9375, 12.9375, 12.8125, 12.8125, 12.875, 12.973214, 13.125, 13.125, 13.0625, 13, 13.151786, 13.299999, -10, -10, -10, -10, -10, -10, -10, -10, -10, -10, -10, -10, -10, -10, -10, -10, -10, -10, 50, 49.916668, 49.916668, -10, -10, -10, -10, -10, -10
-10, -10, -10, -10, -10, -10, -10, -10, -10, -10, -10, -10, -10, -10, -10, -10, -10, -10, -10, -10, -10, -10, -10, -10, -10, -10, -10, -10, -10, -10, -10, -10, -10, -10, -10, -10, -10, -10, -10, -10, -10, -10, -10, -10, -10, -10, -10, -10, -10, -10, -10, -10, -10, -10, -10, -10, -10, -10, -10, -10, -10, -10, -10, -10, -10, -10, -10, -10, -10, -10, -10, -10, -10, -10, -10, -10, -10, -10, -10, -10, -10, -10, -10, -10, -10, -10, -10, -10, -10, -10, -10, -10, -10, -10, -10, -10, -10, -10, -10, -10, -10, -10, -10, -10, -10, -10, -10, -10, -10, -10, -10, -10, -10, -10, -10, -10, -10, -10, -10, -10, -10, -10, -10, -10, -10, -10, -10, -10, -10, -10, -10, -10, -10, -10, -10, 114.54166, 113.85, 113.20714, 112.00893, 111.30357, 110.52678, 109.2381, 108.17262, 107.21726, 106.01785, 105.14285, 104.40476, 103.52976, 102.41666, 101.375, 100.24285, 99, 97.648811, 96.571426, 95.41964, 94.363091, 93.678574, 92.979164, 92.380951, 90.741669, 89.690475, 88.5625, 87.726189, 87.205353, 86.041672, 84.607147, 83.511902, 82.660713, 81.291672, 80.526787, 79.833336, 78.946426, 77.928574, 77.0625, 76.214279, 75.26667, 73.75, 73, 72.267853, 71.133926, 70.005951, 68.839287, 68.0625, 67.217262, 66.01786, 65.142853, 64.279762, 63.113091, 61.916664, 61.071426, 60.267853, 59.172615, 58.214287, 57.276787, 56.285713, 55.285713, 54.285713, 53.5, 52.857143, 51.654762, 50.351189, 49.348213, 48.285713, 47.285713, 46.428574, 45.583336, 44.029762, 43.154758, 42.154762, 41.017857, 40, 39.029762, 38.258926, 37.580357, 36.773808, 35.083332, 34.208336, 32.625, 31.857143, 30.726191, 29.613094, 28.559525, 27.660713, 26.627975, 25.904762, 24.726191, 23.919643, 23.038691, 21.880953, 21.071428, 20.383928, 19.613094, 18.125, 17.190475, 16.038691, 15.098214, 14.238095, 13.202381, 12.234694, 10.619047, 9.7619047, 9.4464283, 9.3125, 9.1875, 9.125, 9, 9.125, 9.3125, 9.4375, 9.625, 9.6875, 9.75, 9.875, 9.9375, 10, 10, 10, 9.875, 9.8125, 9.8125, 9.8125, 9.9375, 10, 10, 10, 10, 10, 10, 10, 10, 10, 9.9375, 10, 10.142857, 10.604167, 10.875, 11, 11.0625, 11, 11, 11.0625, 11.375, 11.794643, 12.232143, 12.625, 12.8125, 12.9375, 13, 13.0625, 13.0625, 13, 13.026786, 12.910714, 12.901786, 13.107143, 13.020833, 13, 13, 12.96875, 13.15625, 13.28125, 13.40625, 13.5, 13.5625, 13.723214, 13.8125, 13.9375, 13.9375, 13.9375, 13.8125, 13.491072, 12.880953, 12.363095, 12.071428, 11.9375, 11.9375, 11.875, 11.8125, 11.875, 11.9375, 12.0625, 12.125, 12.125, 12.125, 12.0625, 12.0625, 12.0625, 12.125, 12.25, 12.4375, 12.625, 12.75, 12.875, 12.9375, 13, 13, 13, 13, 12.875, 12.75, 12.75, 12.8125, 12.973214, 13.0625, 13.0625, 13, 12.9375, 13.120536, 13.258333, -10, -10, -10, -10, -10, -10, -10, -10, -10, -10, -10, -10, -10, -10, -10, -10, -10, -10, 50, 49.833336, 49.833336, -10, -10, -10, -10, -10, -10, -10, -10, -10, -10, -10, -10, -10, -10, -10, -10, -10, -10, -10, -10, -10, -10, -10, -10, -10, -10, -10, -10, -10, -10, -10, -10, -10, -10, -10, -10, -10, -10, -10, -10, -10, -10, -10, -10, -10, -10, -10, -10, -10, -10, -10, -10, -10, -10, -10, -10, -10, -10, -10, -10, -10, -10, -10, -10, -10, -10, -10, -10, -10, -10, -10, -10, -10, -10, -10, -10, -10, -10, -10, -10, -10, -10, -10, -10, -10, -10, -10, -10, -10, -10, -10, -10, -10, -10, -10, -10, -10, -10, -10, -10, -10, -10, -10, -10, -10, -10, -10, -10, -10, -10, -10, -10, -10, -10, -10, -10, -10, -10, -10, -10, -10, -10, -10, -10, -10, -10, -10, -10, -10, -10, -10, -10, -10, -10, -10, -10, -10, -10, -10, -10, -10, 114.5, 114.23334, 113.52856, 112.07143, 111.21428, 110.34821, 109.1131, 108.1369, 107.38393, 106.41666, 105.22619, 104.3631, 103.1131, 102.17857, 101.125, 100.26785, 99.25, 97.690483, 96.404762, 95.133926, 93.988091, 93.285706, 92.955353, 92.464287, 90.950005, 89.940475, 88.583336, 87.761909, 87.071426, 85.646255, 84.333336, 83.369049, 82.705353, 81.363098, 80.422623, 79.75, 78.904762, 77.857147, 76.821426, 75.999992, 75.273811, 73.821426, 73.107147, 72.276787, 71.122025, 70.130951, 68.797615, 68, 67.208336, 66.089287, 65.285713, 64.196426, 63.345238, 62.166664, 61.171425, 60.196426, 59.214287, 58.276787, 57.285713, 56.285713, 55.285713, 54.285713, 53.428574, 52.67857, 51.642857, 50.315475, 49.348213, 48.285713, 47.285713, 46.35714, 45.440475, 44.101189, 43.202377, 42.050594, 40.946426, 39.845238, 38.958332, 38.25, 37.580357, 36.761902, 35.19643, 34.351192, 33.041668, 32.083332, 31.02976, 29.666666, 28.595238, 27.660713, 26.866072, 25.934525, 24.684525, 23.607143, 22.8125, 21.860119, 21.133928, 20.342262, 19.392857, 18.208332, 17.267857, 15.9375, 14.955358, 14.104167, 12.976192, 11.803572, 10.690475, 9.6845236, 9.3928566, 9.25, 9.1875, 9.125, 9, 9.0625, 9.1875, 9.25, 9.375, 9.4375, 9.5625, 9.75, 9.875, 10, 10, 10, 9.875, 9.8125, 9.8125, 9.8125, 9.9375, 10, 10, 10, 10, 10, 10, 10, 10, 9.9375, 9.875, 9.9375, 10.080357, 10.604167, 10.875, 11, 11.0625, 11, 11, 11.125, 11.5, 12.026787, 12.482143, 12.8125, 12.9375, 13, 13, 13.0625, 13.0625, 13, 13.026786, 12.973214, 13, 13.125, 13.125, 13.25, 13.3125, 13.379464, 13.424107, 13.611607, 13.71875, 13.84375, 13.96875, 14.129464, 14.151786, 13.958333, 13.794643, 13.75, 13.75, 13.616072, 13.238095, 12.729167, 12.238095, 12.008928, 11.9375, 11.875, 11.875, 12, 12.125, 12.25, 12.25, 12.1875, 12.125, 12.0625, 12.0625, 12.125, 12.1875, 12.375, 12.5625, 12.6875, 12.8125, 12.875, 12.9375, 13, 13, 13, 13, 12.875, 12.75, 12.75, 12.8125, 12.973214, 13.0625, 13.0625, 13, 12.9375, 13.089286, 13.216667, -10, -10, -10, -10, -10, -10, -10, -10, -10, -10, -10, -10, -10, -10, -10, -10, -10, -10, 50, 49.833336, 49.770836, -10, -10, -10, -10, -10, -10
-10, -10, -10, -10, -10, -10, -10, -10, -10, -10, -10, -10, -10, -10, -10, -10, -10, -10, -10, -10, -10, -10, -10, -10, -10, -10, -10, -10, -10, -10, -10, -10, -10, -10, -10, -10, -10, -10, -10, -10, -10, -10, -10, -10, -10, -10, -10, -10, -10, -10, -10, -10, -10, -10, -10, -10, -10, -10, -10, -10, -10, -10, -10, -10, -10, -10, -10, -10, -10, -10, -10, -10, -10, -10, -10, -10, -10, -10, -10, -10, -10, -10, -10, -10, -10, -10, -10, -10, -10, -10, -10, -10, -10, -10, -10, -10, -10, -10, -10, -10, -10, -10, -10, -10, -10, -10, -10, -10, -10, -10, -10, -10, -10, -10, -10, -10, -10, -10, -10, -10, -10, -10, -10, -10, -10, -10, -10, -10, -10, -10, -10, -10, -10, -10, -10, 114.5, 113.88333, 113.39285, 112.07143, 111.27678, 110.35715, 109.1131, 108.1369, 107.45535, 106.67857, 105.27618, 104.07143, 102.72024, 102.01191, 101.05357, 100.36785, 99.5, 97.75, 96.029762, 94.876785, 93.883926, 93.276779, 92.776787, 92.142853, 90.821434, 89.97023, 88.654762, 87.779762, 87.071426, 85.442184, 84.476189, 83.309525, 82.633926, 81.529762, 80.410713, 79.75, 78.666672, 77.839287, 76.785713, 75.999992, 75.273811, 73.976189, 72.910713, 72.0625, 71.205353, 70.309525, 68.863098, 68, 67.0625, 66.01786, 65.285713, 64.083328, 63.261902, 62.125, 61.171425, 59.967262, 59.071426, 58.205353, 57.276787, 56.285713, 55.285713, 54.285713, 53.369049, 52.422619, 51.642857, 50.404758, 49.535713, 48.297615, 47.321426, 46.428574, 45.60714, 44.226189, 43.380951, 42.202381, 40.875, 39.797619, 39.0625, 38.321426, 37.526787, 36.619045, 35.267857, 34.452381, 33.339287, 32.083332, 31.148809, 29.729166, 28.595238, 27.857143, 27.080357, 26.184525, 24.833334, 23.398809, 22.526785, 21.714285, 21.026785, 20.217262, 19.267857, 18.291666, 17.142857, 16.044643, 14.991072, 14.113095, 13.059524, 12.136905, 10.97619, 9.7261906, 9.2767859, 9.0625, 9.0625, 9.0625, 9, 9, 9.0625, 9.125, 9.1875, 9.25, 9.375, 9.5625, 9.75, 9.9375, 10, 10, 9.875, 9.8125, 9.8125, 9.8125, 9.9375, 10, 10, 10, 10, 10, 10, 10, 10.0625, 10.0625, 10.0625, 10.125, 10.205357, 10.604167, 10.75, 10.875, 10.9375, 10.9375, 11.0625, 11.3125, 11.794643, 12.339287, 12.732143, 13, 13.0625, 13.0625, 13.0625, 13, 13, 12.9375, 13.026786, 13.160714, 13.25, 13.4375, 13.4375, 13.5, 13.625, 13.633928, 13.473214, 13.589286, 13.6875, 13.875, 14.0625, 14.1875, 14.245536, 14.002976, 13.6875, 13.642857, 13.6875, 13.741072, 13.595239, 13.166667, 12.666666, 12.238095, 12.071428, 11.9375, 12, 12.125, 12.3125, 12.4375, 12.4375, 12.4375, 12.348214, 12.3125, 12.25, 12.25, 12.375, 12.5, 12.6875, 12.75, 12.8125, 12.875, 12.9375, 13, 13, 13, 13, 12.875, 12.75, 12.75, 12.8125, 12.973214, 13.0625, 13.0625, 13, 12.9375, 13.026786, 13.133334, -10, -10, -10, -10, -10, -10, -10, -10, -10, -10, -10, -10, -10, -10, -10, -10, -10, -10, 50, 49.833336, 49.708336, 49.666668, -10, -10, -10, -10, -10, -10, -10, -10, -10, -10, -10, -10, -10, -10, -10, -10, -10, -10, -10, -10, -10, -10, -10, -10, -10, -10, -10, -10, -10, -10, -10, -10, -10, -10, -10, -10, -10, -10, -10, -10, -10, -10, -10, -10, -10, -10, -10, -10, -10, -10, -10, -10, -10, -10, -10, -10, -10, -10, -10, -10, -10, -10, -10, -10, -10, -10, -10, -10, -10, -10, -10, -10, -10, -10, -10, -10, -10, -10, -10, -10, -10, -10, -10, -10, -10, -10, -10, -10, -10, -10, -10, -10, -10, -10, -10, -10, -10, -10, -10, -10, -10, -10, -10, -10, -10, -10, -10, -10, -10, -10, -10, -10, -10, -10, -10, -10, -10, -10, -10, -10, -10, -10, -10, -10, -10, -10, -10, -10, -10, -10, -10, -10, -10, -10, -10, -10, -10, -10, -10, -10, 114.70834, 113.98333, 113.57143, 112.08334, 111.3125, 110.35715, 109.08334, 107.94048, 107.3125, 106.60714, 105.27618, 104.08334, 102.60715, 102, 101.27381, 100.39642, 99.357147, 97.666664, 95.571426, 94.669647, 93.821426, 93.276779, 92.485123, 91.821426, 90.758934, 90, 88.613098, 87.636909, 86.833336, 85.315475, 84.226189, 83.142853, 82.508926, 81.696426, 80.660713, 79.708336, 78.523811, 77.598213, 76.535713, 75.749992, 75.083336, 74.017853, 72.744049, 71.857147, 71.026779, 70.226189, 68.821426, 67.928574, 66.955353, 66.101189, 65.35714, 63.979164, 63.178574, 62.229164, 61.242859, 59.976189, 59.083336, 58.092262, 57.205353, 56.276787, 55.285713, 54.285713, 53.309525, 52.130951, 51.321426, 50.342258, 49.5, 48.297615, 47.321426, 46.35714, 45.464287, 44.297615, 43.416668, 42.214283, 40.958332, 39.869049, 39.125, 38.330357, 37.538689, 36.494045, 35.309525, 34.523811, 33.297619, 31.940475, 31.125, 29.8125, 28.991072, 28.142857, 27.276787, 26.255953, 25.089287, 23.398809, 22.499998, 21.705357, 21.026785, 20.217262, 19.297619, 18.642857, 17.535713, 16.207144, 14.928572, 14.041667, 12.979167, 12.041666, 11.10119, 9.833333, 9.3392859, 9.0625, 9, 9, 9, 9, 9, 9, 9.0625, 9.0625, 9.1875, 9.375, 9.5, 9.75, 9.875, 9.9375, 9.9375, 9.875, 9.875, 9.875, 9.9375, 10, 10, 10, 10, 10, 10, 10.0625, 10.1875, 10.25, 10.3125, 10.375, 10.375, 10.508928, 10.833333, 10.919643, 11, 11.0625, 11.25, 11.598214, 12.044643, 12.526787, 12.75, 13.0625, 13.1875, 13.25, 13.3125, 13.25, 13.25, 13.25, 13.3125, 13.375, 13.5, 13.625, 13.75, 13.8125, 13.9375, 13.883928, 13.327381, 13.285714, 13.321428, 13.770833, 14.125, 14.3125, 14.370536, 14.002976, 13.5625, 13.517857, 13.5625, 13.75, 13.928572, 13.595239, 13.166666, 12.666667, 12.238095, 12.142857, 12.1875, 12.375, 12.5625, 12.5, 12.5, 12.5, 12.473214, 12.5625, 12.5, 12.5, 12.625, 12.6875, 12.75, 12.6875, 12.6875, 12.75, 12.875, 13.0625, 13.0625, 13.0625, 13.0625, 12.9375, 12.875, 12.875, 12.875, 12.9375, 13, 13, 13, 13, 13.0625, 13.083334, -10, -10, -10, -10, -10, -10, -10, -10, -10, -10, -10, -10, -10, -10, -10, -10, -10, -10, 50, 49.916668, 49.791668, 49.777782, -10, -10, -10, -10, -10
-10, -10, -10, -10, -10, -10, -10, -10, -10, -10, -10, -10, -10, -10, -10, -10, -10, -10, -10, -10, -10, -10, -10, -10, -10, -10, -10, -10, -10, -10, -10, -10, -10, -10, -10, -10, -10, -10, -10, -10, -10, -10, -10, -10, -10, -10, -10, -10, -10, -10, -10, -10, -10, -10, -10, -10, -10, -10, -10, -10, -10, -10, -10, -10, -10, -10, -10, -10, -10, -10, -10, -10, -10, -10, -10, -10, -10, -10, -10, -10, -10, -10, -10, -10, -10, -10, -10, -10, -10, -10, -10, -10, -10, -10, -10, -10, -10, -10, -10, -10, -10, -10, -10, -10, -10, -10, -10, -10, -10, -10, -10, -10, -10, -10, -10, -10, -10, -10, -10, -10, -10, -10, -10, -10, -10, -10, -10, -10, -10, -10, -10, -10, -10, -10, -10, 114.94445, 113.98333, 113.57858, 112.16667, 111.3125, 110.28571, 109.15476, 107.97619, 107.32143, 106.60714, 105.27618, 104.08334, 102.60715, 102, 101.48215, 100.53928, 99.25, 97.833328, 95.5, 94.64286, 93.8125, 93.205353, 92.244049, 91.464279, 90.568451, 89.85714, 88.279762, 87.464287, 86.574409, 85.029762, 84.226189, 82.958336, 82.366074, 81.613091, 80.625, 79.708336, 78.523811, 77.452377, 76.464287, 75.511902, 74.857147, 73.964287, 72.636902, 71.678574, 70.85714, 70.154762, 68.821426, 67.815475, 66.872025, 66.205353, 65.428566, 64, 62.982143, 62.086311, 61.171429, 59.967262, 59.083336, 58.092262, 57.205353, 56.276787, 55.285713, 54.285713, 53.321426, 51.946426, 51.071426, 50.321426, 49.464287, 48.297615, 47.321426, 46.35714, 45.464287, 44.297615, 43.404762, 42.339283, 40.916664, 39.952381, 39.1875, 38.276787, 37.297615, 36.172615, 35.214287, 34.398811, 33.130955, 31.797619, 30.991072, 30, 29.145834, 28.101191, 27.214287, 26.235119, 25.297621, 23.5, 22.67857, 21.875, 21.110119, 20.113096, 19.154762, 18.455357, 17.440475, 16.082144, 14.886905, 14, 13.098214, 11.833333, 10.886904, 9.8125, 9.3928566, 9.1875, 9.0625, 9.0625, 9.0625, 9, 9, 9, 9.125, 9.1875, 9.25, 9.375, 9.4375, 9.5625, 9.75, 9.875, 9.875, 9.9375, 9.9375, 9.9375, 10.0625, 10.125, 10.1875, 10.1875, 10.125, 10.0625, 10, 10.125, 10.25, 10.375, 10.4375, 10.375, 10.3125, 10.383928, 10.708333, 10.857143, 11.0625, 11.25, 11.607143, 11.910714, 12.232143, 12.482143, 12.625, 12.9375, 13.1875, 13.375, 13.5, 13.5, 13.5, 13.5625, 13.625, 13.6875, 13.8125, 13.875, 14.071428, 14.2125, 14.116072, 14.029761, 13.535714, 13.244898, 13.224489, 13.770833, 14.125, 14.375, 14.370536, 14.002976, 13.5625, 13.455357, 13.5, 13.6875, 13.875, 13.866072, 13.595238, 13.166667, 12.675595, 12.517857, 12.5625, 12.6875, 12.875, 12.8125, 12.75, 12.6875, 12.598214, 12.6875, 12.625, 12.6875, 12.8125, 12.75, 12.75, 12.625, 12.625, 12.75, 12.875, 13.125, 13.098214, 13.026786, 13.0625, 12.9375, 13, 13, 13, 13, 13, 13, 13.0625, 13.1875, 13.28125, 13.241667, -10, -10, -10, -10, -10, -10, -10, -10, -10, -10, -10, -10, -10, -10, -10, -10, -10, -10, -10, 50, 49.875, 49.833336, -10, -10, -10, -10, -10, -10, -10, -10, -10, -10, -10, -10, -10, -10, -10, -10, -10, -10, -10, -10, -10, -10, -10, -10, -10, -10, -10, -10, -10, -10, -10, -10, -10, -10, -10, -10, -10, -10, -10, -10, -10, -10, -10, -10, -10, -10, -10, -10, -10, -10, -10, -10, -10, -10, -10, -10, -10, -10, -10, -10, -10, -10, -10, -10, -10, -10, -10, -10, -10, -10, -10, -10, -10, -10, -10, -10, -10, -10, -10, -10, -10, -10, -10, -10, -10, -10, -10, -10, -10, -10, -10, -10, -10, -10, -10, -10, -10, -10, -10, -10, -10, -10, -10, -10, -10, -10, -10, -10, -10, -10, -10, -10, -10, -10, -10, -10, -10, -10, -10, -10, -10, -10, -10, -10, -10, -10, -10, -10, -10, -10, -10, -10, -10, -10, -10, -10, -10, -10, -10, -10, -10, 113.73333, 113.21429, 112.16667, 111.33929, 110.35714, 109.44643, 107.9881, 107.17857, 106.32143, 105.26428, 104.07143, 102.91667, 102.32143, 101.56548, 100.53928, 98.958336, 97.791664, 95.816666, 95.196426, 94.044647, 93.41964, 92.351189, 91.297615, 90.508926, 89.678574, 88.279762, 87.244041, 86.395836, 85.321426, 84.583336, 83.279762, 82.303574, 81.398811, 80.488098, 79.601189, 78.690475, 77.595238, 76.785713, 75.447617, 74.541664, 73.714287, 72.458336, 71.440475, 70.714287, 70.071426, 68.934525, 67.690475, 66.738098, 66.0625, 65.130951, 64, 62.791668, 61.907738, 61.142857, 59.925594, 59.083336, 58.092262, 57.205353, 56.276787, 55.285713, 54.285713, 53.333332, 51.833332, 51, 50.3125, 49.476189, 48.184525, 47.25, 46.348213, 45.464287, 44.297615, 43.392853, 42.452377, 40.988094, 40.107143, 39.258926, 38.285713, 37.297615, 36.172615, 35.214287, 34.398811, 33.130955, 31.797619, 30.973213, 30.196428, 29.300596, 28.059525, 27.142857, 26.110119, 25.196428, 23.642859, 22.883928, 22.080357, 20.964287, 19.994049, 19.196428, 18.372023, 17.404762, 16.361906, 14.988095, 14.142857, 13.288691, 11.625, 10.601191, 9.697917, 9.3526783, 9.1875, 9.0625, 9.0625, 9.0625, 9.0625, 9.125, 9.125, 9.3125, 9.375, 9.3125, 9.375, 9.375, 9.4375, 9.6875, 9.875, 9.875, 9.9375, 9.9375, 9.9375, 10.0625, 10.125, 10.1875, 10.1875, 10.125, 10.0625, 10.0625, 10.25, 10.375, 10.5, 10.5625, 10.4375, 10.375, 10.446428, 10.708333, 10.857143, 11.125, 11.375, 11.857143, 12.223214, 12.482143, 12.625, 12.6875, 12.9375, 13.125, 13.339286, 13.535714, 13.5625, 13.6875, 13.75, 13.875, 13.9375, 14, 14, 14.133928, 14.15, 13.991072, 13.994047, 13.75, 13.887754, 13.897959, 13.927083, 14.09375, 14.15625, 14.21875, 14.169643, 13.892857, 13.830357, 13.8125, 13.9375, 14.03125, 14.09375, 14.022322, 13.626489, 13.175595, 12.946428, 12.666667, 12.705357, 12.8125, 12.8125, 12.803572, 12.625, 12.598214, 12.625, 12.6875, 12.75, 12.875, 12.75, 12.625, 12.517857, 12.708333, 12.857143, 13, 13.25, 13.160714, 13.089286, 13.125, 12.9375, 13, 13.0625, 13.0625, 13.0625, 13.0625, 13, 13.0625, 13.1875, 13.1875, 13.164286, -10, -10, -10, -10, -10, -10, -10, -10, -10, -10, -10, -10, -10, -10, -10, -10, -10, -10, -10, 50, 49.9375, 49.916668, -10, -10, -10, -10, -10
-10, -10, -10, -10, -10, -10, -10, -10, -10, -10, -10, -10, -10, -10, -10, -10, -10, -10, -10, -10, -10, -10, -10, -10, -10, -10, -10, -10, -10, -10, -10, -10, -10, -10, -10, -10, -10, -10, -10, -10, -10, -10, -10, -10, -10, -10, -10, -10, -10, -10, -10, -10, -10, -10, -10, -10, -10, -10, -10, -10, -10, -10, -10, -10, -10, -10, -10, -10, -10, -10, -10, -10, -10, -10, -10, -10, -10, -10, -10, -10, -10, -10, -10, -10, -10, -10, -10, -10, -10, -10, -10, -10, -10, -10, -10, -10, -10, -10, -10, -10, -10, -10, -10, -10, -10, -10, -10, -10, -10, -10, -10, -10, -10, -10, -10, -10, -10, -10, -10, -10, -10, -10, -10, -10, -10, -10, -10, -10, -10, -10, -10, -10, -10, -10, -10, -10, 113.68333, 113.16666, 112.22917, 111.34822, 110.49999, 109.68452, 108.15476, 107.25, 106.21428, 105.28571, 104.30952, 103.20238, 102.53571, 101.38691, 100.48095, 98.875, 97.875, 96.295837, 95.636909, 94.232147, 93.535713, 92.529762, 91.392853, 90.6875, 89.690475, 88.315475, 87.172615, 86.217262, 85.297615, 84.583336, 83.279762, 82.303574, 81.398811, 80.488098, 79.601189, 78.982147, 77.952377, 76.880951, 75.471428, 74.25, 73.464287, 72.511902, 71.345238, 70.571426, 69.821426, 68.797615, 67.511902, 66.714279, 66.0625, 65.122017, 64.113091, 62.863094, 62.0625, 61.214287, 60.175594, 59.113091, 58.092262, 57.205353, 56.276787, 55.285713, 54.285713, 53.333332, 51.833332, 51, 50.25, 49.297615, 48.172615, 47.214287, 46.276787, 45.285713, 44.285713, 43.285713, 42.309521, 41.059521, 40.154762, 39.154762, 38.214287, 37.351189, 36.351189, 35.226189, 34.434525, 33.166668, 31.880953, 31.0625, 30.092262, 29.229168, 28.113096, 27.285715, 25.955357, 25.047621, 23.744047, 23.098213, 22.184525, 21.071428, 19.910715, 19.071428, 18.038691, 17.321428, 16.317263, 14.988095, 14.214286, 13.455358, 11.952381, 10.559525, 9.7455359, 9.34375, 9.1875, 9.0625, 9.0625, 9.0625, 9.0625, 9.1875, 9.25, 9.5, 9.625, 9.5, 9.4375, 9.3125, 9.25, 9.5, 9.75, 9.8125, 9.9375, 9.9375, 9.9375, 10.0625, 10.125, 10.1875, 10.1875, 10.1875, 10.1875, 10.1875, 10.375, 10.375, 10.4375, 10.5, 10.4375, 10.5, 10.633928, 10.958333, 11.107143, 11.375, 11.625, 12.044643, 12.285714, 12.4375, 12.5625, 12.625, 12.9375, 13.1875, 13.401786, 13.535714, 13.5625, 13.794643, 13.928572, 14.0625, 14.0625, 14.0625, 14, 14.133928, 14.15, 13.928572, 13.958333, 13.857142, 14.091836, 14.112245, 14.083333, 14.125, 14.125, 14.125, 14.125, 14.125, 14.125, 14.1875, 14.1875, 14.09375, 14.09375, 14.200893, 14.066964, 13.729167, 13.446428, 12.979167, 12.892857, 12.8125, 12.8125, 12.803572, 12.5, 12.4375, 12.375, 12.5, 12.6875, 12.875, 12.75, 12.5625, 12.517857, 12.815476, 12.982143, 13.125, 13.375, 13.285714, 13.214286, 13.25, 13, 13, 13.125, 13.125, 13.1875, 13.1875, 13.0625, 13.125, 13.1875, 13.25, 13.289286, 13.433333, -10, -10, -10, -10, -10, -10, -10, -10, -10, -10, -10, -10, -10, -10, -10, -10, -10, -10, 50, 50, 50, -10, -10, -10, -10, -10, -10, -10, -10, -10, -10, -10, -10, -10, -10, -10, -10, -10, -10, -10, -10, -10, -10, -10, -10, -10, -10, -10, -10, -10, -10, -10, -10, -10, -10, -10, -10, -10, -10, -10, -10, -10, -10, -10, -10, -10, -10, -10, -10, -10, -10, -10, -10, -10, -10, -10, -10, -10, -10, -10, -10, -10, -10, -10, -10, -10, -10, -10, -10, -10, -10, -10, -10, -10, -10, -10, -10, -10, -10, -10, -10, -10, -10, -10, -10, -10, -10, -10, -10, -10, -10, -10, -10, -10, -10, -10, -10, -10, -10, -10, -10, -10, -10, -10, -10, -10, -10, -10, -10, -10, -10, -10, -10, -10, -10, -10, -10, -10, -10, -10, -10, -10, -10, -10, -10, -10, -10, -10, -10, -10, -10, -10, -10, -10, -10, -10, -10, -10, -10, -10, -10, -10, 113.39584, 112.875, 112.23959, 111.3125, 110.57143, 109.89285, 108.3631, 107.42857, 106.28571, 105.28571, 104.36905, 103.49405, 102.56429, 101.20834, 100.38095, 98.791664, 97.958336, 96.775002, 96.035713, 94.336311, 93.642853, 92.821426, 91.529762, 90.785721, 89.681549, 88.523811, 87.190475, 86.241074, 85.410713, 84.654762, 83.577385, 82.625, 81.398811, 80.452377, 79.767853, 79.160713, 77.922615, 76.916672, 75.578575, 74.190475, 73.392853, 72.678574, 71.559525, 70.553574, 69.678574, 68.785713, 67.476189, 66.642853, 65.955353, 65.050591, 64.226189, 62.738094, 61.85714, 61.035713, 60.104164, 58.863091, 58.0625, 57.205353, 56.276787, 55.285713, 54.285713, 53.333332, 51.833332, 51, 50.25, 49.297615, 48.172615, 47.214287, 46.276787, 45.285713, 44.35714, 43.464287, 42.326191, 41.101189, 40.154762, 39.00893, 38.214287, 37.455357, 36.705357, 35.559525, 34.488098, 33.398811, 32.095238, 31.252977, 30.050596, 29.166668, 28.113096, 27.172619, 25.8125, 24.869047, 23.535715, 22.883928, 22.028275, 21.03125, 19.933037, 19.071428, 17.967262, 17.142857, 16.288691, 15.059524, 14.285714, 13.464286, 12.083334, 10.886906, 9.7872028, 9.3616066, 9.125, 9.0625, 9.0625, 9.0625, 9.0625, 9.1875, 9.3125, 9.5625, 9.75, 9.6875, 9.625, 9.5625, 9.4375, 9.625, 9.8125, 9.8125, 9.9375, 9.9375, 9.9375, 10.0625, 10.125, 10.25, 10.25, 10.3125, 10.375, 10.3125, 10.4375, 10.3125, 10.25, 10.375, 10.4375, 10.625, 10.8125, 10.875, 11.0625, 11.375, 11.6875, 12.107143, 12.3125, 12.4375, 12.5625, 12.6875, 12.875, 13.0625, 13.214286, 13.285714, 13.375, 13.669643, 13.866072, 14.0625, 14.0625, 14.0625, 14, 14.071428, 14.0875, 13.866072, 13.958333, 14.252976, 14.419643, 14.5, 14.428572, 14.041667, 13.955357, 14, 14.303572, 14.458333, 14.291667, 14.383928, 14.357143, 14.200893, 14.052083, 14.169643, 14.044643, 14.03125, 13.741072, 13.229167, 12.955357, 12.6875, 12.6875, 12.616072, 12.3125, 12.25, 12.125, 12.321428, 12.770833, 13.053572, 13.0625, 12.875, 12.767857, 13.002976, 13.142858, 13.1875, 13.4375, 13.348214, 13.276786, 13.3125, 13.0625, 13, 13.125, 13.125, 13.25, 13.25, 13.125, 13.1875, 13.1875, 13.3125, 13.414286, 13.511111, -10, -10, -10, -10, -10, -10, -10, -10, -10, -10, -10, -10, -10, -10, -10, -10, -10, -10, 50, 50, 50, -10, -10, -10, -10, -10
-10, -10, -10, -10, -10, -10, -10, -10, -10, -10, -10, -10, -10, -10, -10, -10, -10, -10, -10, -10, -10, -10, -10, -10, -10, -10, -10, -10, -10, -10, -10, -10, -10, -10, -10, -10, -10, -10, -10, -10, -10, -10, -10, -10, -10, -10, -10, -10, -10, -10, -10, -10, -10, -10, -10, -10, -10, -10, -10, -10, -10, -10, -10, -10, -10, -10, -10, -10, -10, -10, -10, -10, -10, -10, -10, -10, -10, -10, -10, -10, -10, -10, -10, -10, -10, -10, -10, -10, -10, -10, -10, -10, -10, -10, -10, -10, -10, -10, -10, -10, -10, -10, -10, -10, -10, -10, -10, -10, -10, -10, -10, -10, -10, -10, -10, -10, -10, -10, -10, -10, -10, -10, -10, -10, -10, -10, -10, -10, -10, -10, -10, -10, -10, -10, -10, -10, 113.39584, 112.875, 112.23959, 111.3125, 110.64285, 110.07143, 108.37501, 107.46429, 106.28571, 105.35715, 104.53571, 103.82143, 102.52262, 101.04762, 100.16666, 98.708328, 97.958336, 96.941666, 96.25, 94.595238, 93.779762, 93, 91.625, 90.89286, 89.788689, 88.732147, 87.404762, 86.261909, 85.446426, 84.714279, 83.931549, 83.017853, 81.648811, 80.59523, 79.785713, 79.125, 77.755951, 76.702385, 75.557739, 74.154762, 73.392853, 72.75, 71.702385, 70.410713, 69.535713, 68.651787, 67.589279, 66.517853, 65.821426, 65.041664, 64.330353, 63.184525, 62.078568, 61.035713, 60.041664, 58.863091, 57.866074, 57.0625, 56.205357, 55.276787, 54.285713, 53.321426, 51.946426, 51.071426, 50.258926, 49.297615, 48.172615, 47.214287, 46.276787, 45.285713, 44.35714, 43.464287, 42.326191, 41.101189, 40.154762, 39.00893, 38.214287, 37.526787, 36.883926, 35.588097, 34.44643, 33.607143, 32.300594, 31.398811, 29.94643, 29.083334, 28.190475, 26.964285, 25.607143, 24.723213, 23.639881, 22.925594, 21.840775, 20.876488, 19.974703, 19.142857, 17.976191, 17.154762, 16.163691, 15.101191, 14.379464, 13.647322, 12.572917, 11.523809, 9.8913698, 9.34375, 9, 9, 9.0625, 9.125, 9.25, 9.375, 9.5, 9.6875, 9.8125, 9.8125, 9.75, 9.6875, 9.625, 9.75, 9.875, 9.9375, 10, 10.0625, 10.125, 10.1875, 10.25, 10.3125, 10.25, 10.375, 10.4375, 10.375, 10.4375, 10.25, 10.125, 10.1875, 10.375, 10.625, 10.875, 11, 11.1875, 11.4375, 11.6875, 12, 12.25, 12.375, 12.625, 12.8125, 12.9375, 13.0625, 13.026786, 12.973214, 13.017857, 13.502976, 13.732143, 14, 13.9375, 13.9375, 13.9375, 13.9375, 13.9375, 13.9375, 14, 14.169643, 14.375, 14.4375, 14.491072, 14.229167, 14.142857, 14.3125, 14.616072, 14.770833, 14.666667, 14.821428, 14.794643, 14.638393, 14.427083, 14.419643, 14.294643, 14.28125, 13.928572, 13.309525, 12.955357, 12.5625, 12.5, 12.366072, 12.1875, 12.1875, 12.125, 12.383928, 12.770833, 13.116072, 13.160714, 12.964286, 12.955357, 13.127976, 13.267858, 13.25, 13.375, 13.375, 13.4375, 13.5, 13.3125, 13.125, 13.1875, 13.125, 13.25, 13.25, 13.125, 13.125, 13, 13.0625, 13.276786, 13.466666, -10, -10, -10, -10, -10, -10, -10, -10, -10, -10, -10, -10, -10, -10, -10, -10, -10, -10, 50, 50, 50, -10, -10, -10, -10, -10, -10, -10, -10, -10, -10, -10, -10, -10, -10, -10, -10, -10, -10, -10, -10, -10, -10, -10, -10, -10, -10, -10, -10, -10, -10, -10, -10, -10, -10, -10, -10, -10, -10, -10, -10, -10, -10, -10, -10, -10, -10, -10, -10, -10, -10, -10, -10, -10, -10, -10, -10, -10, -10, -10, -10, -10, -10, -10, -10, -10, -10, -10, -10, -10, -10, -10, -10, -10, -10, -10, -10, -10, -10, -10, -10, -10, -10, -10, -10, -10, -10, -10, -10, -10, -10, -10, -10, -10, -10, -10, -10, -10, -10, -10, -10, -10, -10, -10, -10, -10, -10, -10, -10, -10, -10, -10, -10, -10, -10, -10, -10, -10, -10, -10, -10, -10, -10, -10, -10, -10, -10, -10, -10, -10, -10, -10, -10, -10, -10, -10, -10, -10, -10, -10, -10, -10, 113.39584, 112.875, 112.23959, 111.3125, 110.57143, 109.89285, 108.3631, 107.42857, 106.28571, 105.32738, 104.25595, 103.65306, 102.14762, 100.96429, 100.1131, 98.708328, 98, 96.958328, 96.125, 94.800591, 93.886909, 93.071426, 91.934525, 91.285713, 90.050598, 89.005959, 87.779762, 86.386909, 85.5, 84.714279, 83.985123, 83.357147, 81.708328, 80.666672, 79.785713, 79.125, 77.589287, 76.416672, 75.550598, 74.363098, 73.642853, 72.779762, 71.869049, 70.398811, 69.535713, 68.430359, 67.464279, 66.339287, 65.696426, 65.125, 64.401787, 63.226189, 62.078568, 60.880951, 60.083332, 58.925591, 57.886902, 56.949402, 56.133926, 55.267857, 54.285713, 53.309525, 52.059525, 51.142853, 50.267853, 49.285713, 48.285713, 47.285713, 46.285713, 45.285713, 44.35714, 43.464287, 42.326191, 41.101189, 40.154762, 39.00893, 38.214287, 37.598213, 37.0625, 35.616669, 34.303574, 33.357143, 32.279762, 31.375002, 29.833334, 29, 28.148808, 26.964285, 25.898809, 25.080357, 23.747023, 22.898809, 21.760416, 21.03125, 20.081844, 19.226191, 18.017857, 17.226191, 16.235119, 15.059524, 14.272321, 13.540178, 12.84375, 11.648809, 10.005953, 9.3839283, 9, 9, 9.0625, 9.1875, 9.3125, 9.375, 9.5625, 9.6875, 9.8125, 9.9375, 9.875, 9.75, 9.6875, 9.75, 9.8125, 9.9375, 10, 10.0625, 10.125, 10.1875, 10.25, 10.3125, 10.25, 10.375, 10.4375, 10.3125, 10.3125, 10.125, 10, 10, 10.214286, 10.544643, 10.732143, 10.9375, 11.1875, 11.482143, 11.75, 12, 12.1875, 12.25, 12.4375, 12.625, 12.6875, 12.875, 12.8125, 12.75, 12.830357, 13.315476, 13.669643, 13.9375, 13.875, 13.875, 13.875, 13.875, 14, 14, 14.0625, 14.1875, 14.375, 14.5, 14.616072, 14.416667, 14.392857, 14.5625, 14.803572, 14.895833, 14.791667, 14.821428, 14.794643, 14.669643, 14.458333, 14.513393, 14.388393, 14.34375, 14, 13.580357, 13.125, 12.580357, 12.375, 12.1875, 12.1875, 12.1875, 12.25, 12.446428, 12.833333, 13.178572, 13.160714, 13.026786, 13, 12.982143, 13.160714, 13.125, 13.25, 13.3125, 13.375, 13.4375, 13.3125, 13.125, 13.125, 13.0625, 13.1875, 13.125, 13.0625, 13.0625, 12.9375, 13.1875, 13.4375, 13.583333, -10, -10, -10, -10, -10, -10, -10, -10, -10, -10, -10, -10, -10, -10, -10, -10, -10, -10, 50, 50, 50, -10, -10, -10, -10, -10
-10, -10, -10, -10, -10, -10, -10, -10, -10, -10, -10, -10, -10, -10, -10, -10, -10, -10, -10, -10, -10, -10, -10, -10, -10, -10, -10, -10, -10, -10, -10, -10, -10, -10, -10, -10, -10, -10, -10, -10, -10, -10, -10, -10, -10, -10, -10, -10, -10, -10, -10, -10, -10, -10, -10, -10, -10, -10, -10, -10, -10, -10, -10, -10, -10, -10, -10, -10, -10, -10, -10, -10, -10, -10, -10, -10, -10, -10, -10, -10, -10, -10, -10, -10, -10, -10, -10, -10, -10, -10, -10, -10, -10, -10, -10, -10, -10, -10, -10, -10, -10, -10, -10, -10, -10, -10, -10, -10, -10, -10, -10, -10, -10, -10, -10, -10, -10, -10, -10, -10, -10, -10, -10, -10, -10, -10, -10, -10, -10, -10, -10, -10, -10, -10, -10, -10, 113.47917, 112.70834, 112.10566, 111.30357, 110.53571, 109.7381, 108.4881, 107.36905, 106.32143, 105.33928, 104.14285, 103.28572, 102.18333, 101.35714, 100.27143, 98.833328, 98, 96.958328, 96.125, 94.800591, 93.886909, 93.071426, 92.089287, 91.244049, 90.217262, 89.211311, 88.029762, 86.636909, 85.678574, 84.785706, 84.223213, 83.5, 81.791664, 80.625, 79.642853, 78.821426, 77.208336, 76.208336, 75.45536, 74.592262, 73.892853, 72.809525, 72.035713, 70.458328, 69.785713, 68.796425, 67.755104, 66.488091, 65.73214, 65.098213, 64.122025, 63.011902, 61.935715, 60.642857, 59.928574, 58.967262, 57.949402, 56.970238, 56.020832, 55.267857, 54.401787, 53.547615, 52.226189, 51.267853, 50.163689, 49.214287, 48.339287, 47.464287, 46.297615, 45.321426, 44.35714, 43.464287, 42.326191, 41.101189, 40.142857, 39.122025, 38.285713, 37.616074, 37.0625, 35.616669, 34.232143, 33.25, 32.446426, 31.333334, 29.982143, 29.083334, 27.982143, 26.75, 26.107143, 25.4375, 23.9375, 23.077379, 22.058037, 21.03125, 20.272322, 19.369047, 18.101191, 17.261906, 16.244049, 14.863095, 14.058036, 13.290178, 12.474703, 11.690475, 9.958334, 9.3928566, 9, 9, 9.0625, 9.25, 9.4375, 9.4375, 9.5625, 9.625, 9.6875, 9.875, 9.9375, 9.875, 9.875, 9.9375, 9.9375, 10, 10, 10.0625, 10.125, 10.1875, 10.25, 10.3125, 10.25, 10.3125, 10.3125, 10.1875, 10.1875, 10.0625, 10, 10.0625, 10.276786, 10.607143, 10.794643, 11, 11.25, 11.544643, 11.8125, 12, 12.25, 12.25, 12.375, 12.5625, 12.5, 12.6875, 12.6875, 12.6875, 12.830357, 13.270833, 13.616072, 13.9375, 13.9375, 14, 14, 13.9375, 14.125, 14.125, 14.25, 14.4375, 14.625, 14.75, 14.803572, 14.604167, 14.580357, 14.75, 14.991072, 15.020833, 14.854167, 14.758928, 14.794643, 14.794643, 14.708333, 14.691964, 14.424107, 14.290178, 14, 13.642857, 13.1875, 12.642857, 12.3125, 12.125, 12.125, 12.125, 12.3125, 12.508928, 12.895833, 13.241072, 13.223214, 13.089286, 13, 12.875, 13.035714, 13, 13.125, 13.1875, 13.25, 13.3125, 13.3125, 13.1875, 13.125, 13.0625, 13.0625, 13, 13, 13, 12.9375, 13.125, 13.375, 13.5, -10, -10, -10, -10, -10, -10, -10, -10, -10, -10, -10, -10, -10, -10, -10, -10, -10, -10, 50, 50, 50, -10, -10, -10, -10, -10, -10, -10, -10, -10, -10, -10, -10, -10, -10, -10, -10, -10, -10, -10, -10, -10, -10, -10, -10, -10, -10, -10, -10, -10, -10, -10, -10, -10, -10, -10, -10, -10, -10, -10, -10, -10, -10, -10, -10, -10, -10, -10, -10, -10, -10, -10, -10, -10, -10, -10, -10, -10, -10, -10, -10, -10, -10, -10, -10, -10, -10, -10, -10, -10, -10, -10, -10, -10, -10, -10, -10, -10, -10, -10, -10, -10, -10, -10, -10, -10, -10, -10, -10, -10, -10, -10, -10, -10, -10, -10, -10, -10, -10, -10, -10, -10, -10, -10, -10, -10, -10, -10, -10, -10, -10, -10, -10, -10, -10, -10, -10, -10, -10, -10, -10, -10, -10, -10, -10, -10, -10, -10, -10, -10, -10, -10, -10, -10, -10, -10, -10, -10, -10, -10, -10, -10, 113.16667, 112.58334, 112.04762, 111.30357, 110.51785, 109.44643, 108.47619, 107.4494, 106.57143, 105.39285, 104.10715, 103.28571, 102.39584, 101.75, 100.52143, 99.208328, 98.083336, 97.002968, 96.154762, 95.092262, 93.916672, 93.071426, 91.964287, 91.065475, 90.047623, 89.127983, 88.071426, 86.779762, 85.928574, 84.839279, 84.1875, 83.491074, 82.059525, 80.577377, 79.607147, 78.785713, 77.479172, 76.434525, 75.401787, 74.616074, 73.785713, 72.630951, 71.785713, 70.476189, 69.928574, 69.099998, 68.510201, 66.666664, 65.875, 65.16964, 63.925594, 63.065475, 62.078575, 60.583332, 59.857143, 59.133926, 58.083332, 57.053574, 55.916664, 55.196426, 54.392853, 53.535713, 52.351189, 51.226189, 50.101189, 49.205353, 48.339287, 47.464287, 46.297615, 45.321426, 44.285713, 43.35714, 42.476189, 41.184521, 40.25, 39.276787, 38.285713, 37.5, 36.892857, 35.533333, 34.190475, 33.321426, 32.625, 31.333334, 30.202381, 29.297619, 27.910713, 26.898809, 26.285715, 25.485119, 24.252977, 23.398808, 22.401787, 21.083334, 20.285715, 19.369047, 18.113096, 17.148811, 16.172619, 14.625, 13.915178, 13.21875, 12.09375, 11.261904, 9.8095236, 9.3125, 9, 9.0625, 9.125, 9.375, 9.625, 9.5625, 9.625, 9.5625, 9.5625, 9.75, 9.875, 9.875, 9.875, 9.9375, 9.9375, 10, 10, 10.0625, 10.125, 10.1875, 10.25, 10.25, 10.1875, 10.1875, 10.125, 10.0625, 10.0625, 10, 10, 10.0625, 10.276786, 10.669643, 10.857143, 11.125, 11.375, 11.607143, 11.875, 12, 12.25, 12.25, 12.3125, 12.4375, 12.375, 12.625, 12.723214, 12.75, 12.830357, 13.208333, 13.553572, 13.875, 13.9375, 14, 14, 13.875, 14, 14, 14.1875, 14.482143, 14.6875, 14.8125, 14.875, 14.9375, 14.9375, 15.0625, 15.0625, 15.0625, 15.0625, 14.9375, 14.9375, 14.9375, 15.0625, 15.008928, 14.660714, 14.392857, 14.0625, 13.705357, 13.258928, 12.559524, 12.25, 12.125, 12.1875, 12.1875, 12.4375, 12.5625, 12.75, 13.0625, 12.973214, 12.901786, 12.9375, 12.875, 13, 13, 13, 13.0625, 13.125, 13.1875, 13.25, 13.125, 13.0625, 13, 12.9375, 12.9375, 12.9375, 12.9375, 12.9375, 13.0625, 13.3125, 13.520833, -10, -10, -10, -10, -10, -10, -10, -10, -10, -10, -10, -10, -10, -10, -10, -10, -10, -10, 50, 50, 50, -10, -10, -10, -10, -10
-10, -10, -10, -10, -10, -10, -10, -10, -10, -10, -10, -10, -10, -10, -10, -10, -10, -10, -10, -10, -10, -10, -10, -10, -10, -10, -10, -10, -10, -10, -10, -10, -10, -10, -10, -10, -10, -10, -10, -10, -10, -10, -10, -10, -10, -10, -10, -10, -10, -10, -10, -10, -10, -10, -10, -10, -10, -10, -10, -10, -10, -10, -10, -10, -10, -10, -10, -10, -10, -10, -10, -10, -10, -10, -10, -10, -10, -10, -10, -10, -10, -10, -10, -10, -10, -10, -10, -10, -10, -10, -10, -10, -10, -10, -10, -10, -10, -10, -10, -10, -10, -10, -10, -10, -10, -10, -10, -10, -10, -10, -10, -10, -10, -10, -10, -10, -10, -10, -10, -10, -10, -10, -10, -10, -10, -10, -10, -10, -10, -10, -10, -10, -10, -10, -10, -10, 112.66667, 112.18333, 111.90179, 111.25893, 110.44643, 109.26785, 108.46428, 107.4256, 106.45834, 105.25, 103.92857, 102.95834, 102.4375, 101.84821, 100.60477, 99.25, 98.083336, 97.148804, 96.226189, 95.104172, 93.916672, 93.071426, 92.172623, 91.279762, 89.89286, 89.133934, 88.035713, 86.696426, 85.85714, 84.758926, 84.017853, 83.348213, 81.976189, 80.613098, 79.714287, 78.892853, 77.6875, 76.565475, 75.255951, 74.508926, 73.839287, 72.773811, 71.613091, 70.547615, 69.946426, 69.162498, 68.099998, 66.541664, 65.767853, 65.035713, 63.571426, 62.672623, 61.928574, 60.654762, 59.732143, 58.991074, 58.208332, 57.1875, 55.999996, 55.092258, 54.321426, 53.526787, 52.363094, 51.113094, 50.029762, 49.196426, 48.339287, 47.464287, 46.309521, 45.208332, 44.214287, 43.410713, 42.705357, 41.583332, 40.25, 39.214287, 38.214287, 37.419643, 36.714287, 35.504761, 34.261902, 33.392857, 32.633926, 31.321428, 30.327381, 29.255953, 27.875, 27.169643, 26.5, 25.690475, 24.369049, 23.190475, 22.419643, 21.092262, 20.348215, 19.440475, 18.291668, 17.377977, 16.464287, 14.5, 13.613095, 12.714286, 11.419643, 10.690475, 9.7678566, 9.4553566, 9.1875, 9.1875, 9.125, 9.3125, 9.5, 9.4375, 9.5, 9.375, 9.375, 9.5625, 9.75, 9.8125, 9.875, 9.9375, 9.9375, 10, 10, 10, 10, 10, 10, 10, 10, 10, 10, 10, 10, 10, 10, 10.125, 10.339286, 10.732143, 10.919643, 11.1875, 11.4375, 11.669643, 11.9375, 12, 12.1875, 12.1875, 12.25, 12.3125, 12.25, 12.4375, 12.598214, 12.75, 12.875, 13.125, 13.4375, 13.75, 13.9375, 14.0625, 14.0625, 13.9375, 14, 14, 14.25, 14.607143, 14.8125, 14.9375, 14.875, 14.875, 14.875, 15, 15.0625, 15.0625, 15.125, 14.9375, 14.9375, 14.9375, 14.9375, 14.946428, 14.598214, 14.330357, 14.125, 13.8125, 13.175595, 12.505952, 12.25, 12.25, 12.3125, 12.375, 12.5625, 12.625, 12.8125, 13, 12.9375, 12.9375, 12.9375, 12.9375, 13, 13.0625, 13.0625, 13.0625, 13.0625, 13, 13.0625, 13, 13, 13, 12.9375, 12.9375, 12.9375, 12.9375, 12.9375, 13.0625, 13.3125, 13.625, 14.2, -10, -10, -10, -10, -10, -10, -10, -10, -10, -10, -10, -10, -10, -10, -10, -10, -10, 50, 50, 50, 50, -10, -10, -10, -10, -10, -10, -10, -10, -10, -10, -10, -10, -10, -10, -10, -10, -10, -10, -10, -10, -10, -10, -10, -10, -10, -10, -10, -10, -10, -10, -10, -10, -10, -10, -10, -10, -10, -10, -10, -10, -10, -10, -10, -10, -10, -10, -10, -10, -10, -10, -10, -10, -10, -10, -10, -10, -10, -10, -10, -10, -10, -10, -10, -10, -10, -10, -10, -10, -10, -10, -10, -10, -10, -10, -10, -10, -10, -10, -10, -10, -10, -10, -10, -10, -10, -10, -10, -10, -10, -10, -10, -10, -10, -10, -10, -10, -10, -10, -10, -10, -10, -10, -10, -10, -10, -10, -10, -10, -10, -10, -10, -10, -10, -10, -10, -10, -10, -10, -10, -10, -10, -10, -10, -10, -10, -10, -10, -10, -10, -10, -10, -10, -10, -10, -10, -10, -10, -10, -10, -10, 112.44445, 112.08334, 111.81845, 111.25893, 110.44643, 109.26785, 108.46428, 107.43751, 106.34524, 105.20834, 104.20833, 103.13096, 102.5625, 101.91071, 100.60477, 99.363098, 98.154762, 97.375, 96.476189, 95.125008, 93.970245, 92.958336, 92.029762, 90.879768, 89.559517, 88.848213, 87.880951, 86.738098, 85.928566, 84.592262, 83.75, 82.955353, 81.952377, 80.720238, 79.654762, 78.75, 77.747025, 76.672615, 75.113091, 74.29464, 73.642853, 72.708328, 71.029755, 70.059525, 69.383926, 68.9375, 68.162498, 66.720238, 65.809525, 64.952385, 63.166668, 62.5, 61.75, 60.488091, 59.51786, 58.803574, 58.125, 57.291664, 56.071426, 55.172619, 54.5, 53.776787, 52.416664, 51.148808, 50.029762, 49.196426, 48.339287, 47.476189, 46.196426, 45.136906, 44.205357, 43.482143, 42.883926, 41.611904, 40.17857, 39.142857, 38.205357, 37.348213, 36.535713, 35.488094, 34.220238, 33.392857, 32.633926, 31.321428, 30.327381, 29.255953, 28.020834, 27.241072, 26.446428, 25.547619, 24.440477, 23.226191, 22.428572, 21.092262, 20.348215, 19.428572, 18.476191, 17.556547, 16.571428, 14.458333, 13.541667, 12.190475, 11.107143, 10.464286, 9.8095245, 9.6339283, 9.375, 9.3125, 9.1875, 9.25, 9.375, 9.3125, 9.3125, 9.1875, 9.1875, 9.375, 9.625, 9.8125, 9.9375, 10, 10, 10, 10, 10, 10, 10, 10, 10, 10, 10, 10, 10, 10, 10, 10, 10.1875, 10.4375, 10.75, 11, 11.3125, 11.5625, 11.75, 12, 12.0625, 12.1875, 12.1875, 12.1875, 12.1875, 12.1875, 12.375, 12.660714, 12.8125, 12.9375, 13.125, 13.375, 13.6875, 13.9375, 14.125, 14.125, 14, 14, 14, 14.1875, 14.544643, 14.6875, 14.75, 14.6875, 14.696428, 14.875, 14.9375, 15.0625, 15.0625, 15.125, 15.125, 15.125, 15, 14.892857, 14.821428, 14.473214, 14.267857, 14.125, 13.803572, 13.029762, 12.505952, 12.3125, 12.4375, 12.5625, 12.625, 12.75, 12.6875, 12.8125, 12.9375, 12.9375, 13, 13, 13, 13, 13.0625, 13.0625, 13.0625, 13.0625, 13, 13.0625, 13, 13, 13, 12.9375, 13, 13, 13, 13, 13, 13.25, 13.645833, 14.2, -10, -10, -10, -10, -10, -10, -10, -10, -10, -10, -10, -10, -10, -10, -10, -10, -10, 50, 50, 50, 50, -10, -10, -10, -10
-10, -10, -10, -10, -10, -10, -10, -10, -10, -10, -10, -10, -10, -10, -10, -10, -10, -10, -10, -10, -10, -10, -10, -10, -10, -10, -10, -10, -10, -10, -10, -10, -10, -10, -10, -10, -10, -10, -10, -10, -10, -10, -10, -10, -10, -10, -10, -10, -10, -10, -10, -10, -10, -10, -10, -10, -10, -10, -10, -10, -10, -10, -10, -10, -10, -10, -10, -10, -10, -10, -10, -10, -10, -10, -10, -10, -10, -10, -10, -10, -10, -10, -10, -10, -10, -10, -10, -10, -10, -10, -10, -10, -10, -10, -10, -10, -10, -10, -10, -10, -10, -10, -10, -10, -10, -10, -10, -10, -10, -10, -10, -10, -10, -10, -10, -10, -10, -10, -10, -10, -10, -10, -10, -10, -10, -10, -10, -10, -10, -10, -10, -10, -10, -10, -10, -10, -10, 112.20834, 111.88988, 111.26785, 110.33928, 109.17262, 108.28571, 107.4256, 106.30952, 105.19643, 104.33333, 103.01786, 102.3125, 101.43452, 100.40476, 99.383926, 98.196426, 97.104172, 96.25, 95.187508, 94.113098, 92.916672, 91.958336, 90.754768, 89.416664, 88.678574, 87.809525, 86.583328, 85.85714, 84.370834, 83.428574, 82.633926, 81.744049, 80.845238, 79.714287, 78.928574, 77.83036, 76.964287, 75.125, 74.23214, 73.196426, 72.428566, 70.779755, 70.01786, 69.059525, 68.35714, 67.662498, 66.491074, 65.595238, 64.809525, 63.375, 62.476189, 61.67857, 60.547615, 59.589287, 58.636902, 57.991074, 57.208332, 56.175594, 55.244045, 54.5625, 53.776787, 52.416664, 51.130951, 50.142857, 49.267857, 48.285713, 47.297615, 46.184521, 45.101189, 44.205357, 43.482143, 42.883926, 41.62381, 40.065475, 39.071426, 38.196426, 37.276787, 36.35714, 35.476189, 34.196426, 33.208332, 32.383926, 31.309525, 30.178572, 29.172621, 28.125, 27.3125, 26.404762, 25.255953, 24.357143, 23.110119, 22.285713, 21.163691, 20.3125, 19.357143, 18.547619, 17.663691, 16.678572, 14.416666, 13.505953, 12.392857, 11.333334, 10.464286, 9.9285717, 9.6875, 9.4375, 9.3125, 9.1875, 9.25, 9.375, 9.3125, 9.3125, 9.1875, 9.1875, 9.4375, 9.6875, 9.875, 10, 10, 10, 10, 10, 10, 10, 10, 10, 10, 10, 10, 10, 10, 10, 10, 10, 10.125, 10.375, 10.6875, 10.9375, 11.3125, 11.5625, 11.75, 12, 12.0625, 12.125, 12.1875, 12.1875, 12.125, 12.125, 12.1875, 12.473214, 12.6875, 12.875, 13.0625, 13.3125, 13.5625, 13.8125, 14.0625, 14.0625, 14, 13.9375, 13.875, 14, 14.294643, 14.4375, 14.5, 14.5, 14.571428, 14.8125, 14.9375, 15.0625, 15.0625, 15.125, 15.1875, 15.1875, 15.0625, 14.892857, 14.723214, 14.455357, 14.258928, 14.125, 13.794643, 12.821429, 12.327381, 12.1875, 12.375, 12.5625, 12.625, 12.6875, 12.5625, 12.6875, 12.8125, 12.875, 13, 13, 13, 13, 13, 13, 13, 13, 13, 13, 12.9375, 12.9375, 12.9375, 12.9375, 13, 13, 13, 13, 13, 13.25, 13.75, 14.2, -10, -10, -10, -10, -10, -10, -10, -10, -10, -10, -10, -10, -10, -10, -10, -10, -10, 50, 50, 50, 50, -10, -10, -10, -10, -10, -10, -10, -10, -10, -10, -10, -10, -10, -10, -10, -10, -10, -10, -10, -10, -10, -10, -10, -10, -10, -10, -10, -10, -10, -10, -10, -10, -10, -10, -10, -10, -10, -10, -10, -10, -10, -10, -10, -10, -10, -10, -10, -10, -10, -10, -10, -10, -10, -10, -10, -10, -10, -10, -10, -10, -10, -10, -10, -10, -10, -10, -10, -10, -10, -10, -10, -10, -10, -10, -10, -10, -10, -10, -10, -10, -10, -10, -10, -10, -10, -10, -10, -10, -10, -10, -10, -10, -10, -10, -10, -10, -10, -10, -10, -10, -10, -10, -10, -10, -10, -10, -10, -10, -10, -10, -10, -10, -10, -10, -10, -10, -10, -10, -10, -10, -10, -10, -10, -10, -10, -10, -10, -10, -10, -10, -10, -10, -10, -10, -10, -10, -10, -10, -10, -10, -10, 112.25, 111.85416, 111.26785, 110.28571, 109.28571, 108.29762, 107.19643, 105.9881, 104.98809, 104.22619, 102.79167, 102, 100.95833, 100.15476, 99.154762, 98.154762, 96.872025, 96.10714, 95.229172, 94.440475, 92.875, 92.053574, 90.719048, 89.345238, 88.571434, 87.89286, 86.5, 85.702377, 84.07917, 83.071426, 82.196426, 81.413689, 80.857147, 79.666664, 78.886902, 77.51786, 76.666664, 75.0625, 74.196426, 73.166664, 72.148804, 70.565475, 69.8125, 69.280617, 68.196426, 67.269638, 66.383926, 65.559525, 64.571434, 63.357143, 62.369049, 61.5, 60.535713, 59.48214, 58.458336, 57.82143, 57.125, 56.279758, 55.315475, 54.571426, 53.776787, 52.404758, 51.244045, 50.214287, 49.276787, 48.285713, 47.297615, 46.184521, 45.172619, 44.383926, 43.422619, 42.74107, 41.611904, 40.101189, 39.214287, 38.125, 37.24107, 36.276787, 35.297619, 34.196426, 32.988091, 32.133926, 31.297619, 29.958334, 28.958334, 28.041666, 27.205357, 26.288691, 25.315475, 24.5, 23.067263, 22.035713, 21.080357, 20.122025, 19.285715, 18.526787, 17.776785, 16.761906, 14.5, 13.577381, 12.734694, 11.938775, 10.732143, 10.035714, 9.6964283, 9.4375, 9.25, 9.125, 9.125, 9.25, 9.25, 9.25, 9.25, 9.25, 9.5, 9.75, 9.875, 10, 10, 10, 10, 10, 10, 10, 10, 10, 10, 10, 10, 10, 10, 10, 10, 10, 10.0625, 10.25, 10.5, 10.75, 11.1875, 11.5, 11.75, 12, 12.0625, 12.0625, 12.1875, 12.25, 12.1875, 12.1875, 12.142857, 12.520833, 12.732143, 12.9375, 13.0625, 13.25, 13.5, 13.75, 14, 14, 14, 14, 14.0625, 14.125, 14.25, 14.3125, 14.3125, 14.375, 14.446428, 14.75, 14.875, 15, 15.0625, 15.125, 15.1875, 15.1875, 15, 14.705357, 14.5, 14.3125, 14.1875, 14.0625, 13.732143, 12.750001, 12.410714, 12.25, 12.375, 12.5, 12.5625, 12.5625, 12.5, 12.625, 12.6875, 12.8125, 12.9375, 12.9375, 13, 13, 13, 13, 13, 13, 13.0625, 13.125, 13.107143, 13, 13, 12.9375, 13, 13, 13, 13, 13, 13.25, 13.75, 14.2, -10, -10, -10, -10, -10, -10, -10, -10, -10, -10, -10, -10, -10, -10, -10, -10, -10, 50, 50, 50, 50, -10, -10, -10, -10
-10, -10, -10, -10, -10, -10, -10, -10, -10, -10, -10, -10, -10, -10, -10, -10, -10, -10, -10, -10, -10, -10, -10, -10, -10, -10, -10, -10, -10, -10, -10, -10, -10, -10, -10, -10, -10, -10, -10, -10, -10, -10, -10, -10, -10, -10, -10, -10, -10, -10, -10, -10, -10, -10, -10, -10, -10, -10, -10, -10, -10, -10, -10, -10, -10, -10, -10, -10, -10, -10, -10, -10, -10, -10, -10, -10, -10, -10, -10, -10, -10, -10, -10, -10, -10, -10, -10, -10, -10, -10, -10, -10, -10, -10, -10, -10, -10, -10, -10, -10, -10, -10, -10, -10, -10, -10, -10, -10, -10, -10, -10, -10, -10, -10, -10, -10, -10, -10, -10, -10, -10, -10, -10, -10, -10, -10, -10, -10, -10, -10, -10, -10, -10, -10, -10, -10, -10, 112.375, 112, 111.45535, 110.29762, 109.32143, 108.29762, 107.18452, 106.10119, 105.05952, 104.2381, 102.79167, 102, 100.95833, 100.11309, 98.988091, 98.011902, 96.747025, 96.098213, 95.229172, 94.440475, 92.875, 91.761909, 90.361908, 89.321426, 88.571434, 87.678574, 86.607147, 85.809525, 84.01667, 82.970238, 81.863091, 81.401787, 80.857147, 79.583328, 78.815475, 77.39286, 76.607147, 75.217262, 74.303566, 73.184525, 72.113091, 70.60714, 69.848221, 69.047623, 67.904762, 67.16964, 66.508926, 65.738098, 64.476196, 63.380955, 62.261902, 61.321426, 60.285713, 59.499996, 58.529762, 57.738098, 57.0625, 56.258926, 55.440475, 54.529758, 53.714287, 52.446426, 51.535713, 50.297619, 49.32143, 48.285713, 47.297615, 46.172615, 45.357143, 44.633926, 43.380951, 42.535713, 41.326191, 40.244045, 39.464287, 38.208332, 37.285713, 36.276787, 35.297619, 34.208332, 32.874996, 32.0625, 31.288691, 29.946428, 29.071428, 28.113094, 27.214285, 26.288691, 25.244047, 24.392857, 23.317263, 22.101191, 21.142857, 19.976191, 19.142857, 18.348215, 17.422619, 16.511906, 14.541667, 13.785714, 12.934524, 12.306122, 11.053572, 9.9940472, 9.5178566, 9.25, 9.125, 9.125, 9.125, 9.25, 9.25, 9.1875, 9.3125, 9.375, 9.625, 9.875, 9.9375, 10, 10, 10, 10, 10, 10, 10, 10, 10, 10, 10, 10, 10, 10, 10, 10, 10, 10, 10.125, 10.375, 10.5625, 11, 11.375, 11.669643, 11.9375, 12.0625, 12.125, 12.3125, 12.3125, 12.25, 12.1875, 12.151785, 12.791666, 13.035715, 13.25, 13.3125, 13.375, 13.5, 13.6875, 13.875, 13.9375, 14, 14.0625, 14.1875, 14.1875, 14.25, 14.1875, 14.125, 14.25, 14.321428, 14.625, 14.6875, 14.75, 14.8125, 14.875, 15, 15, 14.8125, 14.580357, 14.3125, 14.125, 14.0625, 13.875, 13.544643, 12.726191, 12.401786, 12.1875, 12.25, 12.3125, 12.3125, 12.375, 12.375, 12.5625, 12.6875, 12.75, 12.875, 12.875, 12.9375, 13, 12.9375, 12.9375, 12.875, 12.875, 13, 13.0625, 13.107143, 13, 13, 12.9375, 13, 13, 13, 13, 13, 13.1875, 13.625, 13.983333, -10, -10, -10, -10, -10, -10, -10, -10, -10, -10, -10, -10, -10, -10, -10, -10, -10, -10, 50, 50, 50, -10, -10, -10, -10, -10, -10, -10, -10, -10, -10, -10, -10, -10, -10, -10, -10, -10, -10, -10, -10, -10, -10, -10, -10, -10, -10, -10, -10, -10, -10, -10, -10, -10, -10, -10, -10, -10, -10, -10, -10, -10, -10, -10, -10, -10, -10, -10, -10, -10, -10, -10, -10, -10, -10, -10, -10, -10, -10, -10, -10, -10, -10, -10, -10, -10, -10, -10, -10, -10, -10, -10, -10, -10, -10, -10, -10, -10, -10, -10, -10, -10, -10, -10, -10, -10, -10, -10, -10, -10, -10, -10, -10, -10, -10, -10, -10, -10, -10, -10, -10, -10, -10, -10, -10, -10, -10, -10, -10, -10, -10, -10, -10, -10, -10, -10, -10, -10, -10, -10, -10, -10, -10, -10, -10, -10, -10, -10, -10, -10, -10, -10, -10, -10, -10, -10, -10, -10, -10, -10, -10, -10, 112.5, 112.08334, 111.35119, 110.29762, 109.39285, 108.22619, 107.1369, 106.20535, 105.13095, 104.25001, 102.79167, 102, 100.95833, 100.11309, 99, 97.898804, 96.604164, 95.764885, 95.145836, 94.232147, 92.916672, 91.833336, 90.386902, 89.5, 88.8125, 87.857147, 86.607147, 85.767853, 84.004761, 82.988091, 81.75, 81.330353, 80.785721, 79.583328, 78.815475, 77.321426, 76.464279, 75.360115, 74.580353, 73.488098, 72.303574, 71.315475, 70.294647, 69.467262, 68.101189, 67.25, 66.580353, 65.883926, 64.64286, 63.589287, 62.333328, 61.321426, 60.35714, 59.535713, 58.476189, 57.630955, 57.0625, 56.366074, 55.380951, 54.386906, 53.464287, 52.392857, 51.5, 50.297619, 49.32143, 48.285713, 47.285713, 46.285713, 45.42857, 44.642857, 43.309521, 42.357143, 41.297619, 40.386906, 39.714287, 38.229164, 37.321426, 36.276787, 35.285713, 34.321426, 32.946426, 32.071426, 31.348215, 30.238096, 29.171429, 28.050594, 27.142857, 26.288691, 25.130953, 24.321428, 23.370834, 22.279762, 21.154762, 20.011904, 19.142857, 18.276787, 17.244049, 16.404762, 14.880953, 13.809524, 13.005953, 12.392857, 11.267857, 9.9523811, 9.3392849, 9.0625, 9, 9.0625, 9.125, 9.3125, 9.3125, 9.25, 9.375, 9.375, 9.625, 9.875, 9.9375, 10, 10, 10, 10, 10, 10, 10, 10, 10, 10, 10, 10, 10, 10, 10, 10, 10, 10, 10.0625, 10.25, 10.4375, 10.8125, 11.25, 11.607143, 11.875, 12, 12.125, 12.3125, 12.375, 12.375, 12.321428, 12.547619, 13.157738, 13.410715, 13.5625, 13.5625, 13.5, 13.5, 13.625, 13.6875, 13.75, 13.8125, 13.883928, 14.270833, 14.294643, 14.3125, 14.1875, 14.0625, 14.1875, 14.25, 14.375, 14.4375, 14.4375, 14.5, 14.5625, 14.6875, 14.6875, 14.625, 14.5, 14.25, 14.125, 14.0625, 13.8125, 13.428572, 12.702381, 12.321428, 12.0625, 12.125, 12.1875, 12.25, 12.375, 12.4375, 12.5625, 12.6875, 12.75, 12.8125, 12.875, 12.9375, 13, 12.9375, 12.9375, 12.875, 12.8125, 12.9375, 13, 13.044643, 13, 13, 12.9375, 12.9375, 12.9375, 12.9375, 12.9375, 13, 13.125, 13.5, 13.766666, -10, -10, -10, -10, -10, -10, -10, -10, -10, -10, -10, -10, -10, -10, -10, -10, -10, -10, 50, 50, 50, -10, -10, -10, -10
-10, -10, -10, -10, -10, -10, -10, -10, -10, -10, -10, -10, -10, -10, -10, -10, -10, -10, -10, -10, -10, -10, -10, -10, -10, -10, -10, -10, -10, -10, -10, -10, -10, -10, -10, -10, -10, -10, -10, -10, -10, -10, -10, -10, -10, -10, -10, -10, -10, -10, -10, -10, -10, -10, -10, -10, -10, -10, -10, -10, -10, -10, -10, -10, -10, -10, -10, -10, -10, -10, -10, -10, -10, -10, -10, -10, -10, -10, -10, -10, -10, -10, -10, -10, -10, -10, -10, -10, -10, -10, -10, -10, -10, -10, -10, -10, -10, -10, -10, -10, -10, -10, -10, -10, -10, -10, -10, -10, -10, -10, -10, -10, -10, -10, -10, -10, -10, -10, -10, -10, -10, -10, -10, -10, -10, -10, -10, -10, -10, -10, -10, -10, -10, -10, -10, -10, -10, 112.5, 112.08334, 111.2381, 110.22619, 109.38393, 108.22619, 107.1369, 106.20535, 105.13095, 104.2381, 102.91667, 101.875, 100.97024, 100.11309, 99.0625, 98.107147, 96.895836, 96.014885, 95.279762, 94.232147, 93.029762, 91.875, 90.34523, 89.434525, 88.719643, 87.857147, 86.523804, 85.803574, 84.190475, 83.071426, 81.821426, 81.267853, 80.607147, 79.559517, 78.877975, 77.547623, 76.380951, 75.491066, 74.767853, 74.005951, 72.833336, 71.775513, 70.252975, 69.360123, 68.244049, 67.464287, 66.839279, 66.020836, 64.750008, 63.660713, 62.458328, 61.464287, 60.297615, 59.392857, 58.464287, 57.595242, 57.0625, 56.428574, 55.488094, 54.220234, 53.25, 52.339287, 51.535713, 50.476189, 49.333332, 48.321426, 47.285713, 46.285713, 45.42857, 44.642857, 43.321426, 42.244049, 41.214287, 40.345238, 39.714287, 38.229164, 37.321426, 36.276787, 35.285713, 34.321426, 32.946426, 32.071426, 31.339285, 30.351191, 29.242857, 28.059523, 27.142857, 26.348215, 25.422619, 24.404762, 23.415478, 22.279762, 21.154762, 20.023809, 19.029762, 18.205357, 17.163691, 16.369047, 15.261905, 13.916667, 13.041667, 12.3125, 11.351191, 9.875, 9.2857141, 9, 9, 9.0625, 9.0625, 9.1875, 9.1875, 9.125, 9.25, 9.3125, 9.5625, 9.8125, 9.9375, 10, 10, 10, 10, 10, 10, 10, 10, 10, 10, 10, 10, 10, 10, 10, 10, 10, 10, 10, 10.125, 10.3125, 10.625, 11.125, 11.544643, 11.8125, 12, 12.125, 12.25, 12.3125, 12.383928, 12.408929, 12.547619, 13.166666, 13.392858, 13.5625, 13.5625, 13.4375, 13.375, 13.4375, 13.375, 13.4375, 13.5, 13.571428, 14.020833, 14.044643, 14.125, 14.0625, 14, 14.125, 14.125, 14.1875, 14.1875, 14.1875, 14.25, 14.3125, 14.5, 14.5, 14.4375, 14.3125, 14.0625, 14, 13.928572, 13.479167, 13.142857, 12.660713, 12.375, 12.1875, 12.125, 12.125, 12.1875, 12.3125, 12.4375, 12.5, 12.5625, 12.5625, 12.625, 12.75, 12.875, 13, 13, 13, 12.9375, 12.9375, 13, 13.0625, 13.107143, 13, 13, 12.9375, 12.9375, 12.9375, 12.9375, 12.9375, 13.0625, 13.1875, 13.5, 13.716666, -10, -10, -10, -10, -10, -10, -10, -10, -10, -10, -10, -10, -10, -10, -10, -10, -10, -10, 50, 50, 50, -10, -10, -10, -10, -10, -10, -10, -10, -10, -10, -10, -10, -10, -10, -10, -10, -10, -10, -10, -10, -10, -10, -10, -10, -10, -10, -10, -10, -10, -10, -10, -10, -10, -10, -10, -10, -10, -10, -10, -10, -10, -10, -10, -10, -10, -10, -10, -10, -10, -10, -10, -10, -10, -10, -10, -10, -10, -10, -10, -10, -10, -10, -10, -10, -10, -10, -10, -10, -10, -10, -10, -10, -10, -10, -10, -10, -10, -10, -10, -10, -10, -10, -10, -10, -10, -10, -10, -10, -10, -10, -10, -10, -10, -10, -10, -10, -10, -10, -10, -10, -10, -10, -10, -10, -10, -10, -10, -10, -10, -10, -10, -10, -10, -10, -10, -10, -10, -10, -10, -10, -10, -10, -10, -10, -10, -10, -10, -10, -10, -10, -10, -10, -10, -10, -10, -10, -10, -10, -10, -10, -10, 112.70834, 112.08334, 111.16667, 110.15476, 109.375, 108.21428, 107.25, 106.27678, 105.28571, 104.32143, 102.95834, 101.875, 101.11607, 100.18452, 99.14286, 98.315475, 97.104172, 96.193451, 95.226189, 94.01786, 93.142853, 92.029762, 90.398804, 89.47023, 88.648216, 87.678574, 86.5, 85.949402, 84.678574, 83.166664, 81.875, 81.142853, 80.491074, 79.535713, 78.982147, 77.940475, 76.511902, 75.571426, 74.767853, 74.035706, 72.904762, 71.821426, 70.386902, 69.369049, 68.315475, 67.705353, 67.053574, 65.854172, 64.738098, 63.61607, 62.529762, 61.642853, 60.547615, 59.446426, 58.5, 57.595242, 57.0625, 56.491074, 55.666664, 54.470234, 53.386902, 52.517857, 51.630955, 50.654758, 49.345238, 48.35714, 47.285713, 46.285713, 45.42857, 44.642857, 43.321426, 42.244049, 41.226189, 40.160713, 39.5, 38.291664, 37.35714, 36.285713, 35.285713, 34.309525, 33.059525, 32.142857, 31.351191, 30.351191, 29.242857, 28.205357, 27.214285, 26.428572, 25.494047, 24.154762, 23.351191, 22.351191, 21.113096, 20.065475, 18.779762, 18, 17.029762, 16.348213, 15.428572, 13.875, 12.875, 11.8125, 11.083333, 9.8125, 9.3392859, 9.0625, 9.0625, 9.125, 9.125, 9.1875, 9.125, 9.0625, 9.1875, 9.3125, 9.5625, 9.8125, 9.9375, 10, 10, 10, 10, 10, 10, 10, 10, 10, 10, 10, 10, 10, 10, 10, 10, 10, 10.0625, 10.0625, 10.125, 10.3125, 10.5, 10.9375, 11.419643, 11.6875, 11.9375, 12.125, 12.1875, 12.1875, 12.321428, 12.346429, 12.404761, 12.833333, 13.142858, 13.366072, 13.5, 13.375, 13.25, 13.25, 13.1875, 13.1875, 13.25, 13.321428, 13.645833, 13.732143, 13.8125, 13.75, 13.6875, 13.8125, 13.875, 13.9375, 14.0625, 14.125, 14.107143, 14.020833, 14.21875, 14.15625, 14.21875, 14.1875, 13.9375, 13.8125, 13.571428, 13.104167, 12.767857, 12.410713, 12.25, 12.125, 12.125, 12.125, 12.1875, 12.3125, 12.375, 12.375, 12.4375, 12.375, 12.5, 12.6875, 12.8125, 13, 13, 12.9375, 12.875, 12.875, 12.875, 12.9375, 13, 13, 13, 13, 12.9375, 12.9375, 12.875, 12.875, 13, 13.125, 13.5, 13.716666, -10, -10, -10, -10, -10, -10, -10, -10, -10, -10, -10, -10, -10, -10, -10, -10, -10, -10, 50, 50, 50, -10, -10, -10, -10
