41.375, 41.1875, 41.09375, 41.049107, 41.106251, 40.90625, 40.9375, 41.0625, 41.035713, 41.017857, 41.017857, 40.9375, 40.9375, 40.866074, 40.799999, 40.776787, 40.479168, 40.517857, 40.25, 40.1875, 40.125, 40, 40.125, 40.25, 40.375, 40.375, 40.25, 40.125, 40.125, 40.1875, 40.1875, 40.1875, 39.9375, 39.875, 39.875, 39.875, 39.9375, 39.875, 39.830357, 39.700001, 39.383926, 39.196426, 39, 39, 38.910713, 38.839287, 38.9375, 38.910713, 38.892857, 38.955357, 38.9375, 39, 39.125, 39, 38.9375, 38.8125, 38.625, 38.5625, 38.375, 38.25, 38.25, 38.3125, 38.4375, 38.5625, 38.5, 38.3125, 38.1875, 38.0625, 37.9375, 37.9375, 37.9375, 37.9375, 38, 38, 38, 37.9375, 37.9375, 37.875, 37.8125, 37.875, 37.875, 37.9375, 37.9375, 37.8125, 37.75, 37.5625, 37.4375, 37.4375, 37.25, 37.1875, 37.125, 36.9375, 36.875, 36.875, 36.9375, 37.0625, 37.25, 37.25, 37.125, 36.875, 36.5, 36.25, 36.0625, 36, 36, 36.0625, 36.125, 36.0625, 36.0625, 36, 35.9375, 36, 35.9375, 35.875, 35.875, 35.875, 35.9375, 35.875, 35.75, 35.625, 35.375, 35.25, 35.125, 35, 35.25, 35.4375, 35.4375, 35.4375, 35.1875, 35, 35, 35, 35, 34.9375, 34.8125, 34.8125, 34.8125, 34.8125, 34.8125, 34.5625, 34.375, 34.1875, 34.0625, 34.0625, 34, 34.0625, 34.0625, 34.0625, 34.0625, 34, 34, 34, 33.9375, 33.9375, 33.9375, 33.9375, 34, 34, 34, 33.9375, 33.75, 33.5625, 33.3125, 33.125, 33.0625, 33.0625, 33.125, 33.125, 33, 32.705357, 32.4375, 32.25, 32.1875, 32.1875, 32.1875, 32.25, 32.25, 32.375, 32.5, 32.4375, 32.4375, 32.25, 32.125, 32.0625, 31.9375, 31.875, 31.875, 31.9375, 32.035713, 32.0625, 32.0625, 32, 32, 31.875, 31.6875, 31.625, 31.669643, 31.678572, 31.625, 31.5, 31.348213, 31.205357, 31.196428, 31.1875, 31.25, 31.1875, 31.125, 31.125, 31.0625, 31, 30.9375, 30.875, 30.875, 30.875, 30.9375, 30.9375, 30.9375, 31, 30.8125, 30.5625, 30.3125, 30.125, 30.0625, 30.0625, 30.0625, 30, 30, 30, 30, 30, 30, 30, 30, 29.875, 29.8125, 29.625, 29.4375, 29.375, 29.375, 29.4375, 29.375, 29.3125, 29.1875, 29.0625, 28.9375, 28.901787, 28.9375, 28.9375, 29.0625, 29.0625, 29, 29, 28.875, 28.8125, 28.75, 28.5625, 28.5, 28.3125, 28.1875, 28.125, 28.0625, 28, 27.9375, 27.9375, 27.875, 27.964287, 28.035713, 27.875, 27.9375, 27.8125, 27.75, 27.75, 27.6875, 27.625, 27.4375, 27.3125, 27.375, 27.25, 27.3125, 27.375, 27.125, 27.125, 27.0625, 27, 27, 27, 27, 26.875, 26.875, 26.875, 26.875, 27, 26.9375, 26.8125, 26.625, 26.4375, 26.3125, 26.3125, 26.3125, 26.25, 26.1875, 26.0625, 26, 26, 25.9375, 25.8125, 25.6875, 25.625, 25.6875, 25.625, 25.5, 25.5, 25.375, 25.3125, 25.4375, 25.25, 25.125, 25.125, 25, 25.0625, 25.125, 25.125, 25.125, 25.0625, 25, 25, -10, -10, -10, -10, -10, -10, -10, -10, -10, -10, -10, -10, -10, -10, -10, -10, -10, -10, -10, -10, -10, -10, -10, -10, -10, -10, -10, -10, -10, 43, 43.083332, 43.0625, 42.9375, 42.8125, 42.6875, 42.535713, 42.392857, 42.258926, 42.25, 42.3125, 42.375, 42.375, 42.080357, 42, 41.875, 41.875, 42, 42, 41.875, 41.75, 41.625, 41.4375, 41.34375, 41.299107, 41.293751, 41.09375, 41.0625, 41.0625, 41.0625, 41.1875, 41.1875, 41.125, 41.125, 41, 41.125, 41.107143, 40.836311, 40.622025, 40.321426, 40.1875, 40.125, 40, 40.125, 40.3125, 40.5, 40.5625, 40.5, 40.375, 40.3125, 40.3125, 40.1875, 40.125, 39.9375, 39.875, 39.9375, 39.9375, 39.9375, 39.875, 39.75893, 39.429169, 39.151787, 39.008926, 38.9375, 39.0625, 38.946426, 38.803574, 38.875, 38.8125, 39.0625, 39.1875, 39.1875, 39.1875, 39.1875, 39, 38.9375, 38.8125, 38.625, 38.5625, 38.4375, 38.3125, 38.3125, 38.375, 38.4375, 38.5625, 38.5, 38.3125, 38.25, 38.125, 38, 38, 37.9375, 37.9375, 38, 38, 38, 37.9375, 37.9375, 37.875, 37.8125, 37.875, 37.875, 37.9375, 37.875, 37.6875, 37.5625, 37.375, 37.3125, 37.3125, 37.1875, 37.125, 37.0625, 36.9375, 36.875, 36.875, 36.9375, 37, 37.125, 37.125, 37, 36.875, 36.5625, 36.375, 36.1875, 36.0625, 36.0625, 36.0625, 36.125, 36.0625, 36.0625, 36, 35.875, 35.9375, 35.9375, 35.9375, 36, 36, 36, 35.9375, 35.875, 35.75, 35.5, 35.3125, 35.125, 35, 35.25, 35.4375, 35.5, 35.5, 35.25, 35.0625, 35, 35, 35, 34.9375, 34.8125, 34.8125, 34.75, 34.776787, 34.8125, 34.446426, 34.258926, 34.0625, 34, 34, 34, 34.0625, 34.0625, 34.0625, 34.0625, 34, 34, 34, 33.9375, 33.9375, 33.9375, 33.9375, 34, 34, 34, 34, 33.875, 33.75, 33.5, 33.25, 33.125, 33.0625, 33.125, 33.125, 33.0625, 32.767857, 32.5, 32.25, 32.125, 32.125, 32.125, 32.25, 32.25, 32.3125, 32.4375, 32.3125, 32.375, 32.3125, 32.25, 32.3125, 32.1875, 32.125, 32.125, 32.1875, 32.223213, 32.1875, 32.125, 32, 32, 31.875, 31.6875, 31.625, 31.669643, 31.678572, 31.6875, 31.5625, 31.473213, 31.330357, 31.196428, 31.125, 31.125, 31.0625, 31.0625, 31.0625, 31, 30.9375, 30.9375, 30.9375, 30.9375, 30.9375, 30.9375, 30.9375, 30.875, 30.875, 30.6875, 30.5, 30.3125, 30.1875, 30.125, 30.0625, 30.0625, 30, 30, 30.0625, 30.0625, 30.0625, 30.0625, 30, 30, 29.9375, 29.9375, 29.75, 29.5, 29.3125, 29.1875, 29.1875, 29.1875, 29.1875, 29.0625, 29.0625, 28.973213, 28.901787, 29.0625, 29.035713, 29.125, 29.125, 29, 29, 28.9375, 28.9375, 28.9375, 28.8125, 28.75, 28.491072, 28.125, 28.0625, 27.9375, 27.9375, 27.9375, 27.9375, 27.875, 27.964287, 28.035713, 27.9375, 28.0625, 28, 28, 27.9375, 27.75, 27.625, 27.4375, 27.3125, 27.375, 27.25, 27.3125, 27.4375, 27.3125, 27.375, 27.3125, 27.25, 27.1875, 27.125, 27.0625, 26.875, 26.875, 26.875, 26.875, 26.9375, 26.8125, 26.6875, 26.5625, 26.5, 26.4375, 26.4375, 26.375, 26.25, 26.1875, 26.0625, 26, 26, 25.9375, 25.75, 25.625, 25.5625, 25.625, 25.6875, 25.5625, 25.5625, 25.4375, 25.375, 25.5, 25.3125, 25.1875, 25.125, 25, 25.0625, 25.125, 25.125, 25.125, 25.0625, 25, 25, -10, -10, -10
41.8125, 41.6875, 41.59375, 41.549107, 41.543751, 41.34375, 41.25, 41.1875, 41.125, 41.1875, 41.1875, 41.125, 41.1875, 41.125, 41.25, 41.232143, 40.827385, 40.351192, 40.089287, 40, 40.0625, 40.0625, 40.25, 40.5, 40.6875, 40.75, 40.6875, 40.5625, 40.491074, 40.362499, 40.366074, 40.208332, 39.854168, 39.767857, 39.75, 39.8125, 39.9375, 39.9375, 39.803574, 39.354168, 39.142857, 38.9375, 39, 39.1875, 39.05357, 38.803574, 38.875, 38.75, 39.0625, 39.1875, 39.1875, 39.1875, 39.1875, 38.9375, 38.875, 38.75, 38.5625, 38.625, 38.5625, 38.4375, 38.4375, 38.375, 38.3125, 38.375, 38.3125, 38.1875, 38.1875, 38.125, 37.9375, 37.9375, 37.875, 37.8125, 37.9375, 37.9375, 37.9375, 38, 38, 38, 37.9375, 37.9375, 37.9375, 37.875, 37.75, 37.5625, 37.375, 37.25, 37.1875, 37.1875, 37.125, 37.125, 37.125, 37, 36.9375, 36.875, 36.9375, 37, 37.0625, 37.0625, 36.9375, 36.8125, 36.5625, 36.375, 36.1875, 36.125, 36.125, 36.125, 36.1875, 36.125, 36.125, 36.0625, 35.875, 35.8125, 35.8125, 35.75, 35.8125, 35.875, 35.875, 35.9375, 36, 35.875, 35.625, 35.375, 35.1875, 35.0625, 35.25, 35.375, 35.4375, 35.4375, 35.25, 35.125, 35, 35, 35.0625, 35.0625, 34.9375, 34.830357, 34.75, 34.651787, 34.625, 34.321426, 34.133926, 34, 34, 34, 34.0625, 34.125, 34.125, 34.125, 34.0625, 34, 34, 34, 34, 34, 34, 34, 34, 34, 34, 34, 33.9375, 33.8125, 33.5625, 33.3125, 33.125, 33.0625, 33, 33, 33, 32.75, 32.5625, 32.3125, 32.125, 32.125, 32.125, 32.25, 32.3125, 32.375, 32.4375, 32.3125, 32.3125, 32.3125, 32.3125, 32.375, 32.3125, 32.25, 32.25, 32.25, 32.1875, 32.125, 32.0625, 32, 32, 31.875, 31.625, 31.5625, 31.669643, 31.741072, 31.9375, 31.875, 31.723213, 31.517857, 31.258928, 31.1875, 31.25, 31.1875, 31.1875, 31.125, 31.0625, 31.0625, 31.0625, 31.0625, 31, 30.9375, 30.9375, 30.9375, 30.875, 30.8125, 30.625, 30.4375, 30.25, 30.1875, 30.125, 30.0625, 30.0625, 30.0625, 30.125, 30.25, 30.25, 30.1875, 30.125, 30, 30, 29.9375, 29.9375, 29.75, 29.5, 29.375, 29.25, 29.1875, 29.1875, 29.125, 29, 29.125, 29.098213, 29.026787, 29.1875, 29.098213, 29.125, 29.125, 29, 29, 29, 29, 29, 28.9375, 28.875, 28.678572, 28.303572, 28.112499, 28.116072, 28.044643, 28.0625, 28, 27.875, 27.964287, 28.098213, 28.125, 28.25, 28.1875, 28.125, 27.875, 27.625, 27.5, 27.3125, 27.25, 27.3125, 27.1875, 27.25, 27.4375, 27.4375, 27.5625, 27.5, 27.4375, 27.375, 27.25, 27.1875, 26.9375, 26.875, 26.875, 26.875, 26.875, 26.6875, 26.5625, 26.5, 26.5625, 26.5, 26.4375, 26.25, 26.0625, 26.0625, 26.0625, 26.0625, 26.0625, 26, 25.6875, 25.5, 25.4375, 25.5, 25.625, 25.625, 25.625, 25.5, 25.5, 25.5, 25.3125, 25.1875, 25.0625, 25, 25.0625, 25.125, 25.125, 25.125, 25.0625, 25, 25, -10, -10, -10, -10, -10, -10, -10, -10, -10, -10, -10, -10, -10, -10, -10, -10, -10, -10, -10, -10, -10, -10, -10, -10, -10, -10, -10, -10, -10, 43, 43, 43.0625, 43.0625, 43, 42.9375, 42.8125, 42.75, 42.6875, 42.625, 42.5, 42.5, 42.4375, 42.375, 42.3125, 42.125, 42.0625, 42, 41.9375, 41.875, 41.875, 41.875, 41.875, 41.875, 41.892857, 41.887501, 41.6875, 41.5, 41.25, 41.125, 41.125, 41.125, 41.125, 41.1875, 41.125, 41.25, 41.294643, 40.952385, 40.476192, 40.214287, 40.0625, 40.0625, 40.0625, 40.25, 40.4375, 40.5625, 40.625, 40.5625, 40.5, 40.366074, 40.174999, 40.178574, 40.020832, 39.729168, 39.705357, 39.6875, 39.75, 39.9375, 39.875, 39.741074, 39.291668, 39.080357, 38.9375, 39, 39.25, 39.11607, 38.866074, 39, 38.919643, 39.25, 39.375, 39.3125, 39.25, 39.1875, 38.9375, 38.964287, 38.973213, 38.8125, 39, 38.875, 38.75, 38.625, 38.25, 38.125, 38.0625, 38.0625, 38, 38.0625, 38.0625, 37.9375, 37.9375, 37.875, 37.75, 37.8125, 37.8125, 37.8125, 37.9375, 37.9375, 37.875, 37.8125, 37.8125, 37.875, 37.8125, 37.625, 37.4375, 37.1875, 37.125, 37.125, 37.125, 37.1875, 37.25, 37.3125, 37.25, 37.1875, 37.0625, 37.125, 37.125, 37.125, 37.125, 36.9375, 36.875, 36.625, 36.4375, 36.25, 36.1875, 36.25, 36.25, 36.3125, 36.1875, 36.125, 36.0625, 35.875, 35.875, 35.875, 35.75, 35.705357, 35.75, 35.75, 35.875, 35.9375, 35.8125, 35.5625, 35.3125, 35.1875, 35.0625, 35.1875, 35.3125, 35.4375, 35.4375, 35.375, 35.25, 35.0625, 35.0625, 35.0625, 35.0625, 34.9375, 34.767857, 34.6875, 34.651787, 34.6875, 34.508926, 34.383926, 34.25, 34.25, 34.1875, 34.1875, 34.25, 34.1875, 34.1875, 34.125, 34, 34, 34, 34, 34, 34, 34, 34, 34, 34, 34, 34, 33.875, 33.625, 33.375, 33.1875, 33.0625, 33, 33, 32.9375, 32.75, 32.625, 32.4375, 32.3125, 32.375, 32.3125, 32.4375, 32.5, 32.5, 32.5625, 32.4375, 32.4375, 32.4375, 32.4375, 32.5, 32.4375, 32.375, 32.375, 32.3125, 32.1875, 32.125, 32.0625, 32, 31.9375, 31.875, 31.625, 31.5625, 31.669643, 31.616072, 31.8125, 31.6875, 31.5625, 31.5, 31.25, 31.1875, 31.3125, 31.25, 31.1875, 31.089287, 31.0625, 31.169643, 31.1875, 31.1875, 31.0625, 30.9375, 30.9375, 30.9375, 30.875, 30.8125, 30.625, 30.5, 30.3125, 30.1875, 30.125, 30, 30, 30.0625, 30.125, 30.25, 30.25, 30.1875, 30.125, 30, 30, 29.9375, 29.9375, 29.75, 29.5625, 29.5, 29.375, 29.3125, 29.25, 29.125, 29.0625, 29.25, 29.223213, 29.151787, 29.25, 29.098213, 29.125, 29.125, 29, 29, 29, 29, 29, 28.9375, 28.9375, 28.803572, 28.428572, 28.237499, 28.178572, 28.107143, 28.125, 28.0625, 27.9375, 27.964287, 28.098213, 28.125, 28.25, 28.1875, 28.125, 27.875, 27.5625, 27.4375, 27.25, 27.25, 27.3125, 27.1875, 27.25, 27.4375, 27.5625, 27.6875, 27.625, 27.5, 27.3125, 27.1875, 27.125, 26.9375, 26.9375, 26.9375, 26.9375, 26.8125, 26.625, 26.5, 26.4375, 26.625, 26.5625, 26.4375, 26.25, 25.9375, 25.9375, 26, 26, 26, 26, 25.8125, 25.6875, 25.517857, 25.517857, 25.5625, 25.625, 25.75, 25.6875, 25.75, 25.625, 25.375, 25.1875, 25, 25, 25, 25, 25, 25, 25, 25, 25, -10, -10, -10
41.9375, 42, 42, 42, 41.9375, 41.875, 41.625, 41.375, 41.1875, 41.125, 41.125, 41.1875, 41.3125, 41.25, 41.375, 41.375, 41.160713, 40.645836, 40.339287, 40.125, 40.0625, 40.0625, 40.1875, 40.3125, 40.5, 40.625, 40.625, 40.625, 40.366074, 40.112499, 40.116074, 39.958332, 39.791668, 39.767857, 39.75, 39.8125, 39.9375, 39.8125, 39.616074, 39.166668, 39.017857, 38.9375, 39.0625, 39.25, 39.080357, 38.901787, 39, 38.982143, 39.25, 39.3125, 39.25, 39.1875, 39.0625, 38.9375, 38.964287, 39.035713, 39, 39.125, 39.0625, 38.9375, 38.6875, 38.25, 38.0625, 37.9375, 38, 38.0625, 38.125, 38.125, 38.0625, 38, 37.9375, 37.8125, 37.8125, 37.8125, 37.8125, 37.9375, 37.9375, 37.875, 37.8125, 37.8125, 37.875, 37.8125, 37.625, 37.4375, 37.25, 37.1875, 37.125, 37.0625, 37.0625, 37.125, 37.3125, 37.3125, 37.25, 37.125, 37.125, 37.0625, 37, 37, 36.875, 36.9375, 36.75, 36.5625, 36.3125, 36.1875, 36.25, 36.3125, 36.4375, 36.3125, 36.25, 36.125, 35.9375, 36, 36, 35.875, 35.767857, 35.75, 35.75, 35.875, 35.9375, 35.8125, 35.5625, 35.3125, 35.1875, 35.0625, 35.125, 35.1875, 35.3125, 35.3125, 35.375, 35.3125, 35.125, 35.125, 35.0625, 35.0625, 34.875, 34.642857, 34.5, 34.401787, 34.5, 34.383926, 34.321426, 34.25, 34.25, 34.1875, 34.1875, 34.25, 34.1875, 34.1875, 34.125, 34, 34, 34, 34, 34, 34, 34, 34, 34, 33.9375, 33.875, 33.8125, 33.625, 33.5, 33.375, 33.25, 33.1875, 33.0625, 33, 32.9375, 32.8125, 32.6875, 32.5625, 32.5, 32.5, 32.4375, 32.5, 32.5, 32.5, 32.625, 32.5625, 32.625, 32.625, 32.625, 32.6875, 32.5625, 32.5, 32.4375, 32.3125, 32.1875, 32.125, 32, 31.964287, 31.9375, 31.830357, 31.8125, 31.75, 31.8125, 31.6875, 31.8125, 31.6875, 31.5625, 31.4375, 31.1875, 31.125, 31.1875, 31.1875, 31.125, 31.026787, 31.0625, 31.169643, 31.1875, 31.1875, 31, 30.9375, 30.9375, 30.9375, 30.9375, 30.8125, 30.5625, 30.5, 30.3125, 30.1875, 30.1875, 30, 30, 30.0625, 30.125, 30.25, 30.25, 30.1875, 30.125, 30, 30, 30, 30, 29.875, 29.75, 29.625, 29.5, 29.375, 29.25, 29.1875, 29.1875, 29.375, 29.348213, 29.214287, 29.1875, 29.035713, 29.0625, 29.0625, 29, 29, 29, 28.9375, 28.875, 28.75, 28.75, 28.678572, 28.366072, 28.237499, 28.178572, 28.107143, 28.125, 28.0625, 27.9375, 27.9375, 28, 28.0625, 28.1875, 28.1875, 28.125, 27.9375, 27.625, 27.5, 27.3125, 27.3125, 27.3125, 27.1875, 27.25, 27.375, 27.625, 27.75, 27.6875, 27.5625, 27.3125, 27.25, 27.25, 27.125, 27.125, 27.0625, 27, 26.75, 26.5, 26.375, 26.25, 26.4375, 26.4375, 26.3125, 26.1875, 25.9375, 25.9375, 26, 26, 25.9375, 25.9375, 25.8125, 25.6875, 25.580357, 25.517857, 25.5, 25.625, 25.75, 25.75, 25.875, 25.75, 25.5625, 25.4375, 25.25, 25.1875, 25.125, 25.0625, 25, 25, 25, 25, 25, -10, -10, -10, -10, -10, -10, -10, -10, -10, -10, -10, -10, -10, -10, -10, -10, -10, -10, -10, -10, -10, -10, -10, -10, -10, -10, -10, -10, -10, 43, 43, 43.0625, 43.160713, 43.089287, 43.125, 42.9375, 42.875, 42.75, 42.6875, 42.625, 42.4375, 42.3125, 42.1875, 42.125, 42.0625, 42.0625, 42, 41.9375, 41.9375, 41.9375, 41.9375, 42, 41.9375, 41.9375, 41.9375, 41.875, 41.75, 41.491074, 41.125, 41.0625, 41, 41.1875, 41.25, 41.25, 41.3125, 41.1875, 41.053574, 40.666668, 40.392857, 40.1875, 40.0625, 40.0625, 40.1875, 40.25, 40.375, 40.4375, 40.375, 40.375, 40.178574, 39.987499, 40.116074, 40.020832, 39.854168, 39.830357, 39.75, 39.8125, 39.9375, 39.8125, 39.616074, 39.166668, 39.017857, 38.9375, 39.0625, 39.125, 39.00893, 39.044643, 39.107143, 39.107143, 39.151787, 39.125, 39.0625, 39.0625, 39, 38.9375, 38.964287, 39.035713, 38.9375, 39, 38.875, 38.75, 38.5625, 38.1875, 38.0625, 38, 38.125, 38.25, 38.25, 38.1875, 38.0625, 37.9375, 37.9375, 37.875, 37.9375, 37.9375, 37.9375, 38, 37.9375, 37.875, 37.8125, 37.8125, 37.875, 37.8125, 37.625, 37.5, 37.375, 37.25, 37.25, 37.125, 37.0625, 37.1875, 37.3125, 37.3125, 37.25, 37.125, 37.125, 37.0625, 36.9375, 36.875, 36.6875, 36.6875, 36.5625, 36.375, 36.1875, 36.125, 36.1875, 36.3125, 36.5, 36.375, 36.375, 36.3125, 36.1875, 36.3125, 36.25, 36.0625, 35.830357, 35.75, 35.75, 35.875, 35.9375, 35.875, 35.6875, 35.4375, 35.3125, 35.125, 35.0625, 35.0625, 35.125, 35.125, 35.25, 35.25, 35.125, 35.125, 35.0625, 35.0625, 34.875, 34.580357, 34.4375, 34.25, 34.25, 34.3125, 34.25, 34.25, 34.3125, 34.3125, 34.3125, 34.375, 34.25, 34.1875, 34.125, 34, 34, 34, 34, 34, 34, 34, 34, 34, 33.875, 33.75, 33.625, 33.375, 33.375, 33.375, 33.3125, 33.3125, 33.125, 33, 32.9375, 32.875, 32.8125, 32.75, 32.6875, 32.625, 32.5, 32.4375, 32.375, 32.4375, 32.625, 32.6875, 32.75, 32.625, 32.5625, 32.5, 32.375, 32.3125, 32.1875, 32.0625, 32, 32.0625, 32.0625, 32.151787, 32.125, 31.955357, 31.875, 31.75, 31.8125, 31.75, 31.875, 31.8125, 31.625, 31.4375, 31.1875, 31.125, 31.25, 31.25, 31.1875, 31.026787, 31.0625, 31.169643, 31.1875, 31.125, 30.875, 30.75, 30.75, 30.8125, 30.9375, 30.9375, 30.75, 30.6875, 30.5, 30.3125, 30.25, 30, 29.9375, 30, 30.0625, 30.1875, 30.1875, 30.125, 30.0625, 30, 30, 30, 30, 29.875, 29.8125, 29.6875, 29.5625, 29.4375, 29.3125, 29.3125, 29.3125, 29.4375, 29.375, 29.25, 29.125, 29, 29, 29, 29, 29, 29, 28.9375, 28.875, 28.75, 28.75, 28.75, 28.553572, 28.362499, 28.303572, 28.107143, 28.0625, 27.9375, 27.8125, 27.8125, 27.9375, 28.0625, 28.125, 28.125, 28.0625, 27.9375, 27.6875, 27.5, 27.3125, 27.25, 27.25, 27.1875, 27.1875, 27.25, 27.4375, 27.5, 27.4375, 27.3125, 27.125, 27.0625, 27.151787, 27.125, 26.946428, 26.883928, 26.75, 26.5625, 26.375, 26.25, 26.125, 26.25, 26.25, 26.1875, 26.125, 25.9375, 25.9375, 26, 26, 26, 26, 25.9375, 25.8125, 25.642857, 25.580357, 25.5, 25.6875, 25.8125, 25.8125, 25.9375, 25.8125, 25.6875, 25.5625, 25.4375, 25.375, 25.3125, 25.25, 25.125, 25.0625, 25.0625, 25.0625, 25.083334, -10, -10, -10
41.9375, 42, 41.9375, 41.9375, 41.9375, 41.8125, 41.75, 41.473213, 41.026787, 41, 40.875, 41.125, 41.1875, 41.25, 41.3125, 41.1875, 41.125, 41, 40.75, 40.5625, 40.375, 40.25, 40.25, 40.1875, 40.1875, 40.1875, 40.125, 40.125, 40, 39.875, 39.875, 39.875, 39.875, 39.9375, 39.9375, 39.875, 39.875, 39.6875, 39.428574, 39.041668, 38.955357, 38.9375, 39.0625, 39.0625, 38.964287, 39.169643, 39.169643, 39.294643, 39.276787, 39.25, 39.1875, 39.125, 39.0625, 38.9375, 38.964287, 39.035713, 39, 39.0625, 38.9375, 38.875, 38.6875, 38.3125, 38.1875, 38.0625, 38.125, 38.3125, 38.375, 38.3125, 38.25, 38.0625, 38, 38.0625, 38.125, 38.125, 38.125, 38.0625, 37.9375, 37.875, 37.8125, 37.75, 37.8125, 37.8125, 37.625, 37.5625, 37.5, 37.3125, 37.375, 37.25, 37.125, 37.1875, 37.25, 37.25, 37.1875, 37.125, 37.0625, 37, 36.875, 36.8125, 36.6875, 36.625, 36.5, 36.3125, 36.1875, 36.125, 36.1875, 36.3125, 36.4375, 36.4375, 36.5, 36.4375, 36.375, 36.5, 36.375, 36.25, 36.017857, 35.875, 35.875, 35.9375, 35.9375, 35.9375, 35.8125, 35.625, 35.5, 35.25, 35.125, 35.0625, 35.0625, 35.0625, 35.1875, 35.1875, 35.125, 35.125, 34.9375, 34.875, 34.75, 34.5625, 34.4375, 34.3125, 34.25, 34.25, 34.3125, 34.3125, 34.4375, 34.5, 34.4375, 34.5, 34.3125, 34.1875, 34.125, 34, 34, 34, 34, 34, 34, 34, 34, 33.9375, 33.75, 33.5625, 33.375, 33.1875, 33.3125, 33.4375, 33.4375, 33.4375, 33.25, 33.0625, 33, 33, 32.9375, 32.9375, 32.9375, 32.875, 32.6875, 32.5, 32.3125, 32.3125, 32.5, 32.6875, 32.75, 32.625, 32.625, 32.5, 32.4375, 32.375, 32.1875, 32.0625, 32, 32.125, 32.1875, 32.339287, 32.303574, 31.955357, 31.9375, 31.75, 31.875, 31.8125, 31.875, 31.875, 31.6875, 31.5625, 31.375, 31.25, 31.3125, 31.25, 31.125, 30.964287, 31, 31.107143, 31.125, 31.0625, 30.875, 30.75, 30.75, 30.8125, 30.9375, 31, 30.875, 30.875, 30.75, 30.5, 30.375, 30.0625, 29.9375, 29.9375, 29.9375, 29.9375, 29.9375, 29.9375, 29.9375, 30, 30, 30, 30, 29.9375, 29.9375, 29.75, 29.5625, 29.375, 29.25, 29.3125, 29.375, 29.4375, 29.3125, 29.1875, 29.0625, 29, 29, 29, 29, 29, 29, 28.9375, 28.875, 28.75, 28.75, 28.75, 28.625, 28.5625, 28.3125, 28.125, 28, 27.875, 27.8125, 27.8125, 27.875, 27.9375, 28, 28, 28, 28, 27.8125, 27.625, 27.5, 27.375, 27.3125, 27.3125, 27.25, 27.25, 27.4375, 27.4375, 27.375, 27.25, 27, 26.875, 26.991074, 27.0625, 26.767857, 26.705357, 26.5, 26.4375, 26.375, 26.3125, 26.25, 26.25, 26.1875, 26.125, 26.0625, 25.9375, 25.9375, 25.9375, 26, 26.0625, 26.0625, 26.125, 26, 25.767857, 25.705357, 25.5625, 25.6875, 25.8125, 25.8125, 25.9375, 25.8125, 25.6875, 25.5625, 25.4375, 25.375, 25.375, 25.3125, 25.1875, 25.125, 25.0625, 25.0625, 25.083334, -10, -10, -10, -10, -10, -10, -10, -10, -10, -10, -10, -10, -10, -10, -10, -10, -10, -10, -10, -10, -10, -10, -10, -10, -10, -10, -10, -10, 42.25, 42.75, 42.8125, 42.8125, 42.848213, 42.696426, 42.589287, 42.5625, 42.5, 42.4375, 42.375, 42.3125, 42.3125, 42.375, 42.25, 42.25, 42.0625, 41.9375, 41.875, 41.875, 41.9375, 41.875, 41.875, 41.875, 41.8125, 41.875, 41.9375, 41.75, 41.6875, 41.410713, 40.964287, 41, 40.875, 41.125, 41.1875, 41.25, 41.375, 41.25, 41.125, 40.892857, 40.6875, 40.5625, 40.5, 40.4375, 40.3125, 40.1875, 40.125, 40.125, 40.0625, 40, 39.9375, 39.75, 39.75, 39.75, 39.6875, 39.75, 39.8125, 39.75, 39.6875, 39.5625, 39.303574, 38.979168, 38.955357, 39, 39.125, 39.125, 39.089287, 39.232143, 39.169643, 39.25, 39.214287, 39.25, 39.25, 39.1875, 39.125, 39, 39, 39, 39, 38.9375, 38.875, 38.8125, 38.6875, 38.5, 38.3125, 38.1875, 38.125, 38.3125, 38.375, 38.3125, 38.25, 38.0625, 38, 38.125, 38.3125, 38.3125, 38.3125, 38.125, 37.875, 37.875, 37.8125, 37.75, 37.75, 37.75, 37.625, 37.6875, 37.75, 37.5, 37.5, 37.3125, 37.0625, 37.0625, 37.0625, 37.0625, 37.0625, 37.0625, 37, 36.9375, 36.8125, 36.75, 36.625, 36.5, 36.375, 36.1875, 36.125, 36.125, 36.125, 36.1875, 36.25, 36.3125, 36.5, 36.5, 36.5, 36.5, 36.3125, 36.25, 36.125, 36, 36, 35.9375, 35.9375, 35.9375, 35.875, 35.75, 35.625, 35.4375, 35.25, 35.1875, 35.0625, 35, 35.0625, 35.0625, 35.0625, 35, 34.8125, 34.6875, 34.625, 34.5, 34.4375, 34.375, 34.25, 34.25, 34.3125, 34.25, 34.375, 34.5, 34.4375, 34.5, 34.375, 34.1875, 34.125, 34.0625, 34, 34, 34, 34, 34, 34.0625, 34.0625, 33.9375, 33.642857, 33.375, 33.1875, 33.125, 33.375, 33.5625, 33.5, 33.4375, 33.1875, 32.9375, 32.875, 32.8125, 32.75, 32.75, 32.8125, 32.8125, 32.625, 32.4375, 32.1875, 32.125, 32.25, 32.5, 32.625, 32.5625, 32.6875, 32.5, 32.375, 32.3125, 32.0625, 32, 32, 32.125, 32.1875, 32.339287, 32.366074, 32.017857, 32.0625, 31.875, 32, 32, 32, 31.9375, 31.75, 31.625, 31.4375, 31.375, 31.375, 31.25, 31.1875, 31.0625, 31, 31, 31, 30.9375, 30.8125, 30.75, 30.75, 30.8125, 30.9375, 31, 30.9375, 30.875, 30.75, 30.5, 30.3125, 30.0625, 29.9375, 29.9375, 29.9375, 29.9375, 29.9375, 29.9375, 29.875, 29.9375, 29.9375, 29.9375, 30, 30, 30, 29.8125, 29.625, 29.375, 29.3125, 29.375, 29.375, 29.375, 29.1875, 29.0625, 29, 29, 29, 29, 29, 29, 29, 28.9375, 28.875, 28.8125, 28.8125, 28.8125, 28.75, 28.6875, 28.4375, 28.25, 28.0625, 27.875, 27.8125, 27.8125, 27.875, 27.9375, 28, 28, 28, 28, 27.875, 27.75, 27.6875, 27.5, 27.375, 27.3125, 27.1875, 27.1875, 27.375, 27.4375, 27.375, 27.3125, 27.125, 26.9375, 27.053574, 27.125, 26.767857, 26.705357, 26.5, 26.5625, 26.5625, 26.5625, 26.5625, 26.375, 26.25, 26.125, 26, 26, 26, 26, 26.125, 26.25, 26.25, 26.25, 26.0625, 25.875, 25.741072, 25.5, 25.5625, 25.5625, 25.625, 25.6875, 25.625, 25.5625, 25.5, 25.4375, 25.375, 25.375, 25.3125, 25.1875, 25.125, 25.0625, 25, 25, -10, -10, -10
41.875, 41.875, 41.75, 41.75, 41.8125, 41.625, 41.6875, 41.473213, 41.026787, 41.0625, 40.8125, 41, 41, 41.0625, 41.25, 41.1875, 41.0625, 40.723213, 40.5625, 40.5, 40.5, 40.5, 40.375, 40.25, 40.1875, 40.125, 40, 39.767857, 39.75, 39.6875, 39.708332, 39.599998, 39.616074, 39.5, 39.625, 39.5, 39.4375, 39.375, 39.178574, 38.916668, 38.830357, 38.875, 39, 39, 39.089287, 39.232143, 39.232143, 39.375, 39.401787, 39.4375, 39.375, 39.25, 39.125, 38.9375, 38.9375, 38.9375, 38.9375, 38.9375, 38.875, 38.8125, 38.75, 38.625, 38.5, 38.4375, 38.3125, 38.375, 38.4375, 38.3125, 38.25, 38.125, 38, 38.125, 38.375, 38.348213, 38.3125, 38.303574, 37.982143, 38, 37.8125, 37.625, 37.5625, 37.5, 37.4375, 37.625, 37.6875, 37.5, 37.5, 37.25, 37.0625, 37.0625, 37, 37, 37, 37, 37, 37, 36.9375, 36.875, 36.6875, 36.4375, 36.25, 36.125, 36.125, 36.25, 36.25, 36.1875, 36.1875, 36.1875, 36.375, 36.4375, 36.4375, 36.375, 36.1875, 36.125, 36.0625, 36, 36, 35.9375, 35.875, 35.8125, 35.830357, 35.825001, 35.633926, 35.508926, 35.25, 35.1875, 35.0625, 35, 35, 35, 35, 34.875, 34.6875, 34.5625, 34.5625, 34.5, 34.5, 34.4375, 34.3125, 34.375, 34.4375, 34.375, 34.4375, 34.5, 34.4375, 34.4375, 34.375, 34.1875, 34.125, 34.125, 34, 34, 34, 34, 34, 34.0625, 34.0625, 33.875, 33.580357, 33.375, 33.25, 33.3125, 33.5625, 33.625, 33.5, 33.375, 33.125, 32.875, 32.8125, 32.6875, 32.625, 32.6875, 32.75, 32.8125, 32.625, 32.4375, 32.125, 31.9375, 32, 32.1875, 32.375, 32.4375, 32.5625, 32.375, 32.25, 32.1875, 32, 32, 32, 32.125, 32.25, 32.375, 32.366074, 32.125, 32.0625, 31.9375, 32, 32, 32, 31.875, 31.6875, 31.5625, 31.375, 31.375, 31.4375, 31.3125, 31.25, 31.1875, 31.0625, 31.0625, 31.0625, 30.9375, 30.875, 30.8125, 30.8125, 30.875, 30.875, 30.875, 30.8125, 30.6875, 30.625, 30.4375, 30.25, 30.0625, 29.9375, 29.9375, 29.9375, 29.9375, 29.9375, 29.9375, 29.9375, 30.0625, 30.0625, 30.0625, 30.0625, 30, 30, 29.875, 29.75, 29.5625, 29.5625, 29.5625, 29.4375, 29.4375, 29.25, 29.1875, 29.1875, 29.125, 29.0625, 29, 29, 29, 29, 29, 29, 29, 28.9375, 28.9375, 28.875, 28.75, 28.5625, 28.3125, 28.0625, 27.875, 27.875, 27.875, 27.9375, 28, 28, 28, 28, 27.9375, 27.8125, 27.6875, 27.6875, 27.5, 27.375, 27.375, 27.1875, 27.25, 27.4375, 27.4375, 27.375, 27.3125, 27.125, 26.875, 26.928574, 27, 26.580357, 26.517857, 26.3125, 26.375, 26.5, 26.625, 26.75, 26.5625, 26.4375, 26.3125, 26.125, 26.125, 26.0625, 26, 26.125, 26.3125, 26.375, 26.4375, 26.3125, 26.125, 25.991072, 25.6875, 25.625, 25.5625, 25.5625, 25.5625, 25.5, 25.375, 25.3125, 25.3125, 25.375, 25.4375, 25.375, 25.25, 25.125, 25.0625, 24.9375, 24.916666, -10, -10, -10, -10, -10, -10, -10, -10, -10, -10, -10, -10, -10, -10, -10, -10, -10, -10, -10, -10, -10, -10, -10, -10, -10, -10, -10, -10, 42.375, 42.583336, 42.6875, 42.75, 42.8125, 42.580357, 42.116074, 42.25, 42, 42.3125, 42.375, 42.3125, 42.4375, 42.375, 42.25, 42.1875, 42, 41.875, 41.8125, 41.875, 41.9375, 41.875, 41.875, 41.875, 41.8125, 41.8125, 41.8125, 41.5625, 41.5625, 41.419643, 41.151787, 41.1875, 40.875, 40.875, 40.875, 41, 41.25, 41.25, 41.125, 40.785713, 40.6875, 40.6875, 40.6875, 40.625, 40.4375, 40.3125, 40.3125, 40.25, 40.0625, 39.660713, 39.625, 39.5625, 39.645832, 39.599998, 39.553574, 39.375, 39.4375, 39.25, 39.1875, 39.125, 39, 39, 38.9375, 39, 39.0625, 39.0625, 39.125, 39.125, 39.125, 39.375, 39.5625, 39.625, 39.5625, 39.3125, 39.125, 38.9375, 38.9375, 38.9375, 39, 39, 39, 39, 38.9375, 38.875, 38.75, 38.625, 38.375, 38.3125, 38.375, 38.25, 38.25, 38.1875, 38, 38.0625, 38.3125, 38.348213, 38.3125, 38.366074, 38.044643, 38, 37.741074, 37.375, 37.3125, 37.1875, 37.25, 37.4375, 37.5, 37.375, 37.3125, 37.125, 37, 37, 36.9375, 36.9375, 36.9375, 36.9375, 37, 37, 36.9375, 36.9375, 36.75, 36.5, 36.3125, 36.125, 36.1875, 36.375, 36.375, 36.3125, 36.1875, 36.125, 36.25, 36.25, 36.25, 36.125, 36, 36, 36, 36, 36, 35.9375, 35.875, 35.8125, 35.767857, 35.762501, 35.571426, 35.446426, 35.25, 35.1875, 35.0625, 35, 35, 35, 35, 34.875, 34.625, 34.5, 34.4375, 34.375, 34.4375, 34.375, 34.3125, 34.375, 34.4375, 34.4375, 34.5, 34.5, 34.4375, 34.375, 34.3125, 34.125, 34.0625, 34.0625, 33.9375, 34, 34, 34, 33.9375, 34, 33.9375, 33.6875, 33.455357, 33.3125, 33.3125, 33.4375, 33.625, 33.5625, 33.375, 33.25, 33.0625, 32.875, 32.8125, 32.6875, 32.625, 32.6875, 32.75, 32.8125, 32.625, 32.5, 32.25, 32.0625, 32.125, 32.1875, 32.375, 32.4375, 32.5, 32.375, 32.1875, 32.125, 32, 32, 32, 32.0625, 32.125, 32.1875, 32.178574, 32, 32, 31.9375, 31.9375, 31.9375, 31.9375, 31.8125, 31.75, 31.625, 31.4375, 31.375, 31.4375, 31.3125, 31.25, 31.3125, 31.125, 31.125, 31.125, 31, 31, 30.9375, 30.9375, 30.9375, 30.8125, 30.75, 30.625, 30.4375, 30.375, 30.25, 30.125, 30.0625, 30.0625, 30.125, 30.1875, 30.1875, 30.125, 30.0625, 30, 30.0625, 30.0625, 30.0625, 30.0625, 30, 30, 29.9375, 29.875, 29.75, 29.6875, 29.5625, 29.375, 29.3125, 29.25, 29.3125, 29.294643, 29.041666, 28.883928, 28.8125, 28.875, 28.9375, 29, 29, 29, 28.9375, 28.8125, 28.8125, 28.8125, 28.75, 28.625, 28.375, 28.125, 28, 28, 28, 28, 28, 28, 28, 28, 27.9375, 27.875, 27.8125, 27.8125, 27.6875, 27.5625, 27.5625, 27.4375, 27.4375, 27.5625, 27.5, 27.375, 27.3125, 27.125, 26.9375, 26.964287, 27, 26.758928, 26.696428, 26.5, 26.5625, 26.6875, 26.8125, 27, 26.875, 26.723213, 26.526787, 26.375, 26.25, 26.1875, 26.0625, 26.125, 26.25, 26.3125, 26.375, 26.25, 26.125, 25.991072, 25.6875, 25.625, 25.5, 25.4375, 25.375, 25.25, 25.125, 25.125, 25.125, 25.1875, 25.25, 25.1875, 25.0625, 25, 24.875, 24.6875, 24.666666, -10, -10, -10
41.6875, 41.6875, 41.75, 41.919643, 41.919643, 41.541668, 41.517857, 41.4375, 41.3125, 41.3125, 41, 40.875, 40.9375, 41.0625, 41.3125, 41.3125, 41.125, 40.714287, 40.4375, 40.4375, 40.375, 40.3125, 40.125, 40.0625, 40.125, 40.1875, 40.0625, 39.598213, 39.5, 39.517857, 39.708332, 39.591072, 39.407738, 39.1875, 39.223213, 39.125, 39.1875, 39.1875, 39.1875, 39.1875, 39.0625, 39.0625, 38.9375, 38.9375, 38.9375, 38.875, 39, 39.25, 39.5625, 39.625, 39.5625, 39.3125, 39.0625, 39, 39, 39, 39, 38.9375, 38.9375, 38.9375, 38.9375, 38.9375, 38.875, 38.75, 38.5, 38.3125, 38.3125, 38.1875, 38.1875, 38.1875, 38, 38.0625, 38.25, 38.285713, 38.1875, 38.241074, 37.982143, 37.875, 37.678574, 37.3125, 37.125, 37, 37.0625, 37.1875, 37.375, 37.3125, 37.25, 37.125, 37.0625, 37.125, 37.0625, 37, 36.901787, 36.875, 36.9375, 37.0625, 37.0625, 37.0625, 36.875, 36.5625, 36.1875, 36.0625, 36.125, 36.375, 36.375, 36.3125, 36.1875, 36.0625, 36.125, 36.125, 36.125, 36.0625, 36, 36, 36, 36, 36, 35.9375, 35.875, 35.8125, 35.767857, 35.700001, 35.508926, 35.446426, 35.25, 35.25, 35.125, 35, 35, 35, 35, 34.875, 34.6875, 34.625, 34.5625, 34.4375, 34.4375, 34.3125, 34.25, 34.375, 34.375, 34.375, 34.375, 34.375, 34.375, 34.294643, 34.1875, 34.0625, 34, 34.0625, 33.9375, 34, 34, 33.9375, 33.8125, 33.875, 33.75, 33.5625, 33.455357, 33.375, 33.5, 33.625, 33.6875, 33.5, 33.25, 33.125, 33, 32.875, 32.8125, 32.6875, 32.625, 32.6875, 32.6875, 32.6875, 32.5625, 32.5, 32.3125, 32.1875, 32.1875, 32.125, 32.3125, 32.3125, 32.3125, 32.25, 32.0625, 32.0625, 32, 32, 31.9375, 31.9375, 31.9375, 31.9375, 32, 32, 31.9375, 31.875, 31.75, 31.75, 31.8125, 31.75, 31.8125, 31.625, 31.375, 31.25, 31.25, 31.1875, 31.1875, 31.3125, 31.125, 31.125, 31.125, 31, 31, 30.875, 30.875, 30.875, 30.75, 30.75, 30.625, 30.4375, 30.3125, 30.1875, 30.125, 30.125, 30.25, 30.375, 30.4375, 30.4375, 30.3125, 30.1875, 30.0625, 30.0625, 30.0625, 30.0625, 30.0625, 30.0625, 30.035713, 29.964287, 30, 29.875, 29.875, 29.6875, 29.4375, 29.3125, 29.3125, 29.375, 29.294643, 29.005951, 28.821428, 28.75, 28.875, 28.9375, 29, 29, 29, 28.9375, 28.8125, 28.8125, 28.8125, 28.75, 28.625, 28.375, 28.125, 28, 28, 28, 28, 28, 28, 28, 28, 27.9375, 27.875, 27.8125, 27.8125, 27.75, 27.6875, 27.625, 27.5, 27.4375, 27.4375, 27.375, 27.25, 27.1875, 27.0625, 27, 27, 27, 26.9375, 26.875, 26.75, 26.6875, 26.75, 26.8125, 26.9375, 27, 26.973213, 26.901787, 26.767857, 26.333334, 26.1875, 26, 26.0625, 26.125, 26.1875, 26.25, 26.1875, 26.125, 25.991072, 25.616072, 25.424999, 25.357143, 25.1875, 25.25, 25.125, 25.0625, 25.125, 25.125, 25.25, 25.3125, 25.25, 25.125, 25, 24.875, 24.616072, 24.416666, -10, -10, -10, -10, -10, -10, -10, -10, -10, -10, -10, -10, -10, -10, -10, -10, -10, -10, -10, -10, -10, -10, -10, -10, -10, -10, -10, -10, -10, 42.833336, 42.791668, 42.875, 42.75, 42.410713, 42.026787, 41.973213, 41.8125, 42.1875, 42.3125, 42.473213, 42.5, 42.25, 42.0625, 41.9375, 41.875, 41.9375, 41.875, 41.875, 41.75, 41.625, 41.625, 41.6875, 41.8125, 42.044643, 41.982143, 41.604168, 41.535713, 41.4375, 41.3125, 41.3125, 41, 40.875, 40.9375, 41.0625, 41.25, 41.1875, 41.0625, 40.727676, 40.4375, 40.4375, 40.25, 40.15625, 39.9375, 39.9375, 40.0625, 40.125, 40.125, 39.785713, 39.75, 39.892857, 40.083332, 39.849998, 39.449406, 39.1875, 39.098213, 39.0625, 39.125, 39.125, 39.1875, 39.1875, 39.0625, 39, 38.875, 38.875, 38.8125, 38.75, 38.875, 39.125, 39.544643, 39.5625, 39.5, 39.25, 39, 39, 39, 39, 39, 38.875, 38.875, 38.8125, 38.75, 38.8125, 38.75, 38.6875, 38.5625, 38.375, 38.375, 38.3125, 38.25, 38.25, 38.0625, 38.0625, 38.25, 38.285713, 38.1875, 38.303574, 38.107143, 38, 37.803574, 37.4375, 37.1875, 37, 37, 37, 37.125, 37.125, 37.125, 37.0625, 37.0625, 37.1875, 37.1875, 37.1875, 37.214287, 37.160713, 37.080357, 37.169643, 37.125, 37.1875, 37.0625, 36.723213, 36.166668, 36.0625, 36.0625, 36.3125, 36.3125, 36.25, 36.125, 36, 36, 36.0625, 36.125, 36.125, 36.1875, 36.125, 36.0625, 36.0625, 36, 36, 35.9375, 35.875, 35.830357, 35.700001, 35.446426, 35.383926, 35.25, 35.25, 35.1875, 35.125, 35.125, 35.125, 35.125, 35, 34.8125, 34.8125, 34.75, 34.625, 34.5, 34.25, 34.125, 34.125, 34.125, 34.1875, 34.1875, 34.1875, 34.3125, 34.294643, 34.25, 34.1875, 34.0625, 34.0625, 33.875, 33.9375, 33.9375, 33.875, 33.8125, 33.8125, 33.6875, 33.5625, 33.5625, 33.5, 33.5625, 33.5625, 33.5, 33.3125, 33.125, 33.0625, 32.9375, 32.901787, 32.973213, 32.875, 32.8125, 32.75, 32.6875, 32.625, 32.6875, 32.660713, 32.392857, 32.258926, 32.1875, 32.0625, 32.1875, 32.1875, 32.125, 32.125, 32, 32, 32, 32, 31.875, 31.8125, 31.8125, 31.8125, 31.9375, 32, 31.9375, 31.875, 31.75, 31.75, 31.8125, 31.8125, 31.875, 31.616072, 31.25, 31.125, 31.0625, 31.125, 31.125, 31.25, 31.125, 31.125, 31.125, 31, 31, 30.875, 30.875, 30.875, 30.75, 30.75, 30.625, 30.5, 30.4375, 30.3125, 30.3125, 30.3125, 30.375, 30.5, 30.5, 30.4375, 30.3125, 30.1875, 30.125, 30.125, 30.125, 30.125, 30, 29.9375, 29.848213, 29.776787, 29.875, 29.875, 29.875, 29.6875, 29.4375, 29.25, 29.375, 29.4375, 29.357143, 29.068451, 28.821428, 28.75, 28.875, 28.9375, 29, 29, 28.9375, 28.875, 28.75, 28.8125, 28.875, 28.8125, 28.6875, 28.375, 28.125, 28, 28, 28, 28, 28, 28, 28, 28, 27.9375, 27.875, 27.75, 27.75, 27.75, 27.6875, 27.6875, 27.5625, 27.4375, 27.375, 27.3125, 27.1875, 27.125, 27.0625, 27, 27, 27, 26.9375, 26.875, 26.75, 26.625, 26.6875, 26.75, 26.8125, 26.9375, 26.99107, 27.089287, 27.017857, 26.583334, 26.3125, 26.125, 26.0625, 26.0625, 26.125, 26.125, 26.125, 26.0625, 25.9375, 25.678572, 25.487499, 25.482143, 25.3125, 25.4375, 25.25, 25.25, 25.25, 25.1875, 25.375, 25.375, 25.3125, 25.1875, 25, 24.875, 24.678572, 24.5, -10, -10, -10
41.5625, 41.6875, 41.875, 42.107143, 42.044643, 41.666668, 41.473213, 41.375, 41.25, 41.25, 41.0625, 41, 41.035713, 41.026787, 41.0625, 40.875, 40.8125, 40.647324, 40.410713, 40.339287, 40.1875, 40.03125, 39.875, 39.875, 39.9375, 40, 40.0625, 39.955357, 40, 40.080357, 40.25, 40, 39.395836, 39.3125, 39.098213, 39.125, 39.25, 39.1875, 39.25, 39.25, 39.0625, 39, 38.8125, 38.8125, 38.75, 38.6875, 38.8125, 39.0625, 39.482143, 39.5625, 39.5625, 39.3125, 39.0625, 39, 39, 39.0625, 39.125, 39, 38.9375, 38.705357, 38.5625, 38.5625, 38.5, 38.4375, 38.3125, 38.214287, 38.285713, 38.3125, 38.3125, 38.25, 38.125, 38.0625, 38.1875, 38.25, 38.1875, 38.125, 38, 37.875, 37.803574, 37.5625, 37.3125, 37.125, 37.0625, 37, 37.1875, 37.25, 37.25, 37.1875, 37.125, 37.1875, 37.1875, 37.25, 37.25, 37.125, 37.080357, 37.107143, 37.1875, 37.3125, 37.196426, 36.598213, 35.961311, 35.75, 35.821426, 36.1875, 36.1875, 36.3125, 36.1875, 36.125, 36.125, 36.1875, 36.25, 36.25, 36.375, 36.232143, 36.026787, 36.0625, 35.9375, 36, 36, 36, 35.9375, 35.6875, 35.5, 35.375, 35.25, 35.25, 35.1875, 35.1875, 35.1875, 35.1875, 35.1875, 35.0625, 34.875, 34.875, 34.8125, 34.6875, 34.625, 34.4375, 34.3125, 34.25, 34.25, 34.25, 34.3125, 34.3125, 34.375, 34.419643, 34.3125, 34.25, 34.125, 34.0625, 33.875, 33.9375, 33.9375, 33.875, 33.8125, 33.8125, 33.6875, 33.625, 33.6875, 33.5625, 33.5625, 33.4375, 33.3125, 33.1875, 33.0625, 33.125, 33, 33.089287, 33.142857, 32.964287, 33, 32.8125, 32.8125, 32.6875, 32.75, 32.785713, 32.580357, 32.508926, 32.375, 32.1875, 32.1875, 32.125, 32.0625, 32.0625, 32, 32, 32, 31.9375, 31.75, 31.625, 31.633928, 31.8125, 31.9375, 32.0625, 31.9375, 31.875, 31.75, 31.75, 31.75, 31.75, 31.8125, 31.553572, 31.25, 31.1875, 31.125, 31.1875, 31.1875, 31.1875, 31.0625, 31.0625, 31.0625, 31, 31.0625, 31, 31, 31, 30.875, 30.875, 30.8125, 30.75, 30.6875, 30.5, 30.4375, 30.375, 30.375, 30.5, 30.5, 30.4375, 30.3125, 30.1875, 30.0625, 30, 30, 30, 29.875, 29.875, 29.785713, 29.714287, 29.875, 29.875, 29.8125, 29.5625, 29.375, 29.125, 29.25, 29.3125, 29.169643, 28.943451, 28.758928, 28.75, 28.875, 28.9375, 29, 29, 28.9375, 28.875, 28.8125, 28.875, 28.9375, 28.9375, 28.8125, 28.5, 28.25, 28.0625, 28, 28, 28, 28, 28, 28, 28, 28, 28, 27.875, 27.875, 27.875, 27.8125, 27.8125, 27.6875, 27.4375, 27.25, 27.1875, 27.0625, 27.0625, 27.0625, 27, 27, 27, 27, 27, 26.9375, 26.875, 26.875, 26.875, 26.875, 27, 26.99107, 27.089287, 27.017857, 26.520834, 26.375, 26.25, 26.1875, 26.1875, 26.125, 26, 26, 25.9375, 25.8125, 25.678572, 25.487499, 25.482143, 25.4375, 25.5625, 25.4375, 25.5, 25.4375, 25.3125, 25.4375, 25.375, 25.3125, 25.1875, 25, 24.875, 24.741072, 24.583334, -10, -10, -10, -10, -10, -10, -10, -10, -10, -10, -10, -10, -10, -10, -10, -10, -10, -10, -10, -10, -10, -10, -10, -10, -10, -10, -10, -10, -10, 43.25, 43.083332, 43.0625, 42.9375, 42.5, 42.3125, 42.098213, 42, 42.125, 42.1875, 42.348213, 42.3125, 42.1875, 42.0625, 42, 41.875, 41.9375, 41.8125, 41.75, 41.6875, 41.5625, 41.625, 41.6875, 41.875, 42.107143, 42.107143, 41.729168, 41.473213, 41.3125, 41.125, 41.125, 41.0625, 41.0625, 41.098213, 41.026787, 40.9375, 40.6875, 40.5625, 40.397324, 40.160713, 40.089287, 40, 39.90625, 39.875, 39.875, 39.875, 39.9375, 40, 40, 40, 40.080357, 40.1875, 39.875, 39.395836, 39.3125, 39.160713, 39.3125, 39.4375, 39.4375, 39.5, 39.5, 39.25, 39.125, 38.9375, 38.875, 38.8125, 38.8125, 38.875, 39.125, 39.482143, 39.5, 39.5, 39.25, 39.125, 39.035713, 38.964287, 39.0625, 39.0625, 39, 38.875, 38.580357, 38.375, 38.3125, 38.1875, 38.0625, 37.9375, 37.910713, 38.160713, 38.25, 38.3125, 38.1875, 38.125, 38.0625, 38.125, 38.125, 38.0625, 38, 37.9375, 37.875, 37.875, 37.8125, 37.5, 37.3125, 37.125, 37.0625, 37.3125, 37.375, 37.375, 37.25, 37.125, 37.1875, 37.25, 37.375, 37.375, 37.25, 37.142857, 37.107143, 37.25, 37.375, 37.383926, 36.785713, 35.857143, 35.607143, 35.580357, 36.0625, 36.0625, 36.25, 36.125, 36.125, 36.125, 36.1875, 36.25, 36.25, 36.375, 36.169643, 35.964287, 36, 35.875, 36, 36, 36, 36, 35.75, 35.5625, 35.4375, 35.25, 35.25, 35.1875, 35.1875, 35.1875, 35.1875, 35.1875, 35.0625, 34.9375, 34.875, 34.8125, 34.75, 34.625, 34.5, 34.375, 34.25, 34.3125, 34.25, 34.25, 34.25, 34.25, 34.357143, 34.3125, 34.3125, 34.1875, 34.125, 33.9375, 33.9375, 33.9375, 33.875, 33.875, 33.875, 33.8125, 33.8125, 33.875, 33.75, 33.6875, 33.5625, 33.4375, 33.375, 33.3125, 33.375, 33.1875, 33.214287, 33.205357, 32.964287, 33, 32.875, 32.875, 32.8125, 32.9375, 32.910713, 32.633926, 32.279762, 32.09375, 31.96875, 32.09375, 32.125, 32.125, 32.0625, 32, 32, 32, 31.9375, 31.75, 31.625, 31.696428, 31.875, 32, 32.125, 31.9375, 31.875, 31.8125, 31.75, 31.6875, 31.625, 31.625, 31.491072, 31.3125, 31.375, 31.25, 31.25, 31.1875, 31.0625, 31.0625, 31.0625, 31.0625, 31.0625, 31.125, 31.1875, 31.1875, 31.1875, 31.0625, 31, 31, 30.9375, 30.8125, 30.625, 30.5625, 30.5625, 30.5, 30.5, 30.375, 30.1875, 30.125, 30.0625, 30, 30, 30, 30, 29.8125, 29.75, 29.660713, 29.589287, 29.8125, 29.875, 29.875, 29.6875, 29.5625, 29.375, 29.366072, 29.1875, 29.0625, 28.964287, 28.9375, 29, 29.0625, 29.0625, 29.0625, 29, 28.875, 28.875, 28.875, 28.9375, 29.0625, 29.0625, 28.9375, 28.6875, 28.4375, 28.1875, 28.0625, 28.0625, 28.125, 28.125, 28.125, 28.0625, 28, 28, 28, 27.8125, 27.8125, 27.8125, 27.75, 27.8125, 27.6875, 27.4375, 27.25, 27.1875, 27.0625, 27.0625, 27.0625, 27, 27, 27, 27, 27, 27, 26.9375, 26.875, 26.875, 26.8125, 26.9375, 27.017857, 27.1875, 27.080357, 26.583334, 26.375, 26.3125, 26.25, 26.25, 26.1875, 26, 26, 25.875, 25.6875, 25.491072, 25.237499, 25.357143, 25.4375, 25.6875, 25.6875, 25.75, 25.625, 25.4375, 25.5, 25.375, 25.3125, 25.25, 25.0625, 25, 24.928572, 24.75, -10, -10, -10
41.8125, 41.875, 41.9375, 42, 42, 41.8125, 41.517857, 41.3125, 41.0625, 41, 41, 41.125, 41.098213, 41.026787, 40.9375, 40.5625, 40.4375, 40.28125, 40.160713, 40.089287, 40.0625, 39.96875, 40, 40, 40.0625, 40.0625, 40.0625, 40.0625, 40.0625, 40.125, 40.125, 39.946426, 39.604168, 39.4375, 39.25, 39.392857, 39.5625, 39.5625, 39.625, 39.5, 39.25, 39.125, 39.0625, 39.0625, 39.125, 39.125, 39.125, 39.3125, 39.482143, 39.5, 39.4375, 39.1875, 39.0625, 38.973213, 38.901787, 39, 39.0625, 39.0625, 39, 38.6875, 38.291668, 38.133926, 38, 37.910713, 37.776787, 37.848213, 38.035713, 38.125, 38.125, 38, 38, 37.9375, 38.0625, 38.0625, 38.0625, 38.0625, 38, 38, 38, 38, 37.8125, 37.5625, 37.3125, 37.25, 37.375, 37.5, 37.5, 37.3125, 37.125, 37.0625, 37.1875, 37.4375, 37.535713, 37.4375, 37.267857, 37.044643, 37.125, 37.25, 37.258926, 36.785713, 36.044643, 35.732143, 35.705357, 36.0625, 36.0625, 36.25, 36.0625, 36.0625, 36.0625, 36.125, 36.25, 36.25, 36.375, 36.232143, 36.026787, 36.0625, 35.9375, 36, 36, 36, 35.9375, 35.6875, 35.4375, 35.25, 35.125, 35.125, 35.125, 35.25, 35.3125, 35.3125, 35.3125, 35.125, 34.9375, 34.875, 34.8125, 34.75, 34.625, 34.5625, 34.5, 34.4375, 34.5, 34.375, 34.3125, 34.1875, 34.125, 34.25, 34.3125, 34.3125, 34.25, 34.125, 33.9375, 33.9375, 33.9375, 33.9375, 34, 34, 34, 34, 34, 33.8125, 33.6875, 33.5625, 33.5, 33.5625, 33.5625, 33.625, 33.375, 33.339287, 33.330357, 33.026787, 33.0625, 32.9375, 32.9375, 32.9375, 33.0625, 32.973213, 32.633926, 32.217262, 32.03125, 32.03125, 32.15625, 32.1875, 32.1875, 32.0625, 32, 32, 32, 31.9375, 31.8125, 31.6875, 31.821428, 32, 32.0625, 32.1875, 32, 32, 32, 31.9375, 31.741072, 31.4375, 31.4375, 31.410715, 31.375, 31.5625, 31.4375, 31.375, 31.3125, 31.1875, 31.1875, 31.1875, 31.125, 31.0625, 31.125, 31.25, 31.25, 31.25, 31.125, 31, 31, 30.9375, 30.803572, 30.416666, 30.330357, 30.375, 30.419643, 30.375, 30.25, 30.0625, 30, 30, 30, 30, 30, 30, 29.8125, 29.6875, 29.625, 29.625, 29.8125, 29.9375, 29.875, 29.75, 29.6875, 29.5625, 29.553572, 29.375, 29.25, 29.125, 29.0625, 29.0625, 29.0625, 29.0625, 29.0625, 29, 28.875, 28.8125, 28.8125, 28.875, 29, 29.0625, 29, 28.8125, 28.5625, 28.3125, 28.125, 28.0625, 28.125, 28.125, 28.125, 28.0625, 28, 28, 27.9375, 27.6875, 27.625, 27.625, 27.5625, 27.75, 27.75, 27.5, 27.375, 27.25, 27.0625, 27.0625, 27.0625, 27, 27, 27, 27, 27, 27, 27, 26.9375, 26.9375, 26.875, 26.875, 26.892857, 27, 26.9375, 26.6875, 26.5, 26.4375, 26.25, 26.25, 26.1875, 26.0625, 26.0625, 25.9375, 25.6875, 25.5, 25.3125, 25.3125, 25.5625, 25.6875, 25.8125, 25.9375, 25.75, 25.5625, 25.5, 25.25, 25.1875, 25.125, 25, 25, 25, 25, -10, -10, -10, -10, -10, -10, -10, -10, -10, -10, -10, -10, -10, -10, -10, -10, -10, -10, -10, -10, -10, -10, -10, -10, -10, -10, -10, -10, -10, 43, 42.833332, 42.75, 42.6875, 42.375, 42.25, 42.125, 42.0625, 42.0625, 42.0625, 42.0625, 41.9375, 41.9375, 41.9375, 41.9375, 41.9375, 41.9375, 41.875, 41.875, 41.9375, 42, 42.0625, 42.0625, 42.0625, 41.9375, 41.9375, 41.8125, 41.5625, 41.3125, 41.026787, 40.9375, 40.875, 41.0625, 41.035713, 40.964287, 40.9375, 40.5625, 40.375, 40.1875, 40.098213, 40.026787, 40.125, 40.0625, 40.125, 40.125, 40.125, 40.125, 40.0625, 40, 39.9375, 39.9375, 39.9375, 39.875, 39.8125, 39.625, 39.4375, 39.517857, 39.6875, 39.75, 39.875, 39.75, 39.4375, 39.25, 39.125, 39.0625, 39.1875, 39.25, 39.3125, 39.5, 39.5, 39.5, 39.375, 39.125, 39.0625, 39.035713, 39.026787, 39.125, 39.125, 39.089287, 39, 38.6875, 38.354168, 38.196426, 38.125, 38.098213, 37.901787, 37.910713, 38.035713, 37.9375, 37.9375, 37.830357, 37.9375, 37.9375, 38.0625, 37.9375, 37.875, 37.875, 37.875, 37.9375, 38, 37.9375, 37.75, 37.5, 37.25, 37.3125, 37.5, 37.625, 37.625, 37.4375, 37.160713, 36.964287, 37.0625, 37.1875, 37.223213, 37.214287, 37.25, 37.0625, 37.125, 37.089287, 37.071426, 36.6875, 36.190475, 35.857143, 35.830357, 36.0625, 36.0625, 36.25, 36.0625, 36.0625, 36.0625, 36.0625, 36.125, 36.125, 36.125, 36.071426, 36, 36, 36, 36.0625, 36.0625, 36.0625, 36, 35.6875, 35.4375, 35.1875, 35.0625, 35.125, 35.1875, 35.375, 35.4375, 35.4375, 35.375, 35.1875, 35, 34.875, 34.8125, 34.75, 34.625, 34.5625, 34.5625, 34.5625, 34.625, 34.5, 34.375, 34.1875, 34.0625, 34.125, 34.125, 34.125, 34.125, 34.0625, 34, 34, 34, 34, 34, 34, 34, 34, 34, 33.8125, 33.6875, 33.5625, 33.5625, 33.6875, 33.75, 33.875, 33.625, 33.5, 33.357143, 33.026787, 33.0625, 33.0625, 33.0625, 33.0625, 33.0625, 32.875, 32.616074, 32.208336, 32.03125, 32.03125, 32.15625, 32.1875, 32.1875, 32.0625, 32, 32, 32, 31.9375, 31.9375, 32, 32.232143, 32.375, 32.267857, 32.25, 32, 32, 32, 32, 31.776785, 31.330357, 31.258928, 31.232143, 31.4375, 31.625, 31.5625, 31.4375, 31.3125, 31.25, 31.25, 31.25, 31.1875, 31.0625, 31.125, 31.25, 31.25, 31.25, 31.125, 30.9375, 30.875, 30.6875, 30.428572, 30.104166, 30.017857, 30.125, 30.357143, 30.3125, 30.25, 30.125, 30, 30, 30, 30, 30, 30, 29.875, 29.8125, 29.75, 29.75, 29.9375, 30.035713, 29.9375, 29.839287, 29.8125, 29.75, 29.741072, 29.5625, 29.375, 29.1875, 29.125, 29.0625, 29.0625, 29.0625, 29.0625, 29, 28.9375, 28.875, 28.875, 28.875, 28.9375, 28.9375, 28.9375, 28.875, 28.625, 28.4375, 28.1875, 28.0625, 28.125, 28.125, 28.125, 28.0625, 28, 28, 27.9375, 27.75, 27.6875, 27.6875, 27.6875, 27.8125, 27.8125, 27.5625, 27.375, 27.1875, 27, 27, 27, 27, 27, 27, 27, 27, 27, 27, 26.9375, 26.9375, 26.9375, 27, 27, 27, 26.9375, 26.6875, 26.5625, 26.4375, 26.25, 26.1875, 26.125, 26.0625, 26.0625, 26, 25.8125, 25.6875, 25.5, 25.5, 25.6875, 25.75, 25.9375, 26, 25.875, 25.75, 25.5625, 25.3125, 25.1875, 25.0625, 25, 25, 25, 25, -10, -10, -10
42.1875, 42.125, 42.125, 42, 42, 41.9375, 41.75, 41.5, 41.214287, 41.0625, 40.9375, 41, 41, 41.0625, 41.0625, 40.75, 40.526787, 40.25, 40.1875, 40.1875, 40.1875, 40.1875, 40.125, 40.125, 40.125, 40.125, 40.0625, 40, 39.875, 39.875, 39.875, 39.875, 39.9375, 39.75, 39.625, 39.705357, 39.8125, 39.9375, 40.0625, 39.9375, 39.6875, 39.4375, 39.375, 39.25, 39.3125, 39.375, 39.375, 39.5625, 39.5, 39.4375, 39.25, 39, 39, 39.035713, 39.026787, 39.0625, 39, 38.964287, 38.9375, 38.732143, 38.416668, 38.321426, 38.25, 38.285713, 38.151787, 38.071426, 38.0625, 37.8125, 37.776787, 37.875, 38.053574, 38.125, 38.1875, 37.9375, 37.839287, 37.910713, 37.875, 38, 38, 37.9375, 37.8125, 37.625, 37.375, 37.375, 37.5, 37.5, 37.5, 37.4375, 37.160713, 37.089287, 37.1875, 37.1875, 37.25, 37.25, 37.25, 37.125, 37.0625, 36.901787, 36.875, 36.8125, 36.395832, 36.232143, 36.196426, 36.1875, 36.1875, 36.1875, 35.9375, 35.9375, 35.9375, 35.9375, 36, 36, 35.9375, 35.901787, 35.973213, 35.9375, 36, 36.0625, 36.0625, 36.0625, 36, 35.6875, 35.375, 35.017857, 34.955357, 35.208332, 35.294643, 35.5, 35.5625, 35.5625, 35.5625, 35.375, 35.1875, 35, 34.875, 34.8125, 34.5625, 34.5, 34.5, 34.5, 34.625, 34.5, 34.3125, 34.125, 34, 34.0625, 34.0625, 34.0625, 34.0625, 34, 34, 34, 34, 34, 34, 34, 34, 34, 34, 33.875, 33.8125, 33.75, 33.75, 33.8125, 33.8125, 33.875, 33.625, 33.4375, 33.3125, 33.0625, 33.125, 33.25, 33.1875, 33.1875, 33.125, 32.8125, 32.616074, 32.208336, 32.03125, 32.15625, 32.21875, 32.25, 32.3125, 32.1875, 32.125, 32.125, 32, 31.9375, 32, 32.1875, 32.473213, 32.375, 32.232143, 32.125, 31.9375, 32, 32, 31.9375, 31.714285, 31.330357, 31.258928, 31.357143, 31.625, 31.6875, 31.5625, 31.375, 31.1875, 31.25, 31.375, 31.375, 31.3125, 31.125, 31, 31.0625, 31.0625, 31.125, 31.098213, 30.830357, 30.696428, 30.4375, 30.178572, 29.916666, 29.892857, 30.0625, 30.357143, 30.3125, 30.25, 30.125, 30, 30, 30, 30, 30, 30, 29.9375, 29.875, 29.75, 29.6875, 29.8125, 29.910713, 29.875, 29.839287, 29.8125, 29.75, 29.741072, 29.5625, 29.375, 29.1875, 29.125, 29.0625, 29.0625, 29.0625, 29.0625, 29, 28.9375, 28.875, 28.8125, 28.75, 28.75, 28.75, 28.8125, 28.875, 28.75, 28.5625, 28.3125, 28.125, 28.125, 28.125, 28.125, 28.0625, 28, 28, 27.9375, 27.8125, 27.75, 27.6875, 27.625, 27.625, 27.5625, 27.4375, 27.3125, 27.1875, 27.0625, 27, 27, 27, 27, 27, 27, 27, 27, 27, 26.9375, 26.875, 26.875, 26.9375, 27, 27, 27, 26.75, 26.5, 26.375, 26.125, 26.0625, 26.0625, 26.0625, 26.0625, 26, 25.875, 25.75, 25.625, 25.625, 25.75, 25.75, 25.875, 25.9375, 25.75, 25.6875, 25.4375, 25.1875, 25.125, 25, 25, 25, 25, 25, -10, -10, -10, -10, -10, -10, -10, -10, -10, -10, -10, -10, -10, -10, -10, -10, -10, -10, -10, -10, -10, -10, -10, -10, -10, -10, -10, -10, -10, 42.5, 42.333332, 42.25, 42.0625, 42, 42, 42, 42, 42.125, 42.25, 42.25, 42.25, 42.125, 42, 42, 42, 42, 41.9375, 41.875, 41.875, 41.9375, 42, 42.0625, 42.0625, 42, 42, 42, 41.875, 41.6875, 41.401787, 41.1875, 41, 41, 41, 41.125, 41.1875, 40.9375, 40.776787, 40.5, 40.375, 40.3125, 40.25, 40.1875, 40.0625, 40.0625, 40.0625, 40.0625, 40.125, 40.1875, 40.1875, 40.1875, 40.125, 40.0625, 40, 39.875, 39.75, 39.767857, 39.875, 39.9375, 40.0625, 39.9375, 39.6875, 39.4375, 39.375, 39.3125, 39.375, 39.375, 39.4375, 39.5625, 39.5, 39.5, 39.3125, 39.0625, 39, 39.0625, 39.0625, 39.0625, 39.0625, 39.026787, 39, 38.794643, 38.541668, 38.446426, 38.4375, 38.535713, 38.401787, 38.25, 38.0625, 37.75, 37.678574, 37.982143, 38.160713, 38.25, 38.25, 38.008926, 38.089287, 38.160713, 38.125, 38, 38, 37.875, 37.875, 37.75, 37.5, 37.4375, 37.5, 37.4375, 37.4375, 37.5, 37.223213, 37.214287, 37.3125, 37.1875, 37.1875, 37.125, 37.125, 37.0625, 37.0625, 36.901787, 36.8125, 36.8125, 36.6875, 36.625, 36.625, 36.375, 36.3125, 36.1875, 35.9375, 35.875, 35.875, 35.875, 35.9375, 36.0625, 35.973213, 35.928574, 36.035713, 35.9375, 36.0625, 36.0625, 36.0625, 36.0625, 36, 35.75, 35.4375, 35.142857, 35.142857, 35.395832, 35.482143, 35.625, 35.625, 35.625, 35.6875, 35.5, 35.3125, 35.125, 35, 34.875, 34.5625, 34.401787, 34.4375, 34.535713, 34.6875, 34.625, 34.4375, 34.3125, 34.1875, 34.25, 34.1875, 34.125, 34.125, 34, 34, 34, 34, 34, 34, 34, 34, 34, 34, 33.875, 33.8125, 33.75, 33.6875, 33.6875, 33.625, 33.6875, 33.5, 33.375, 33.3125, 33.0625, 33.125, 33.1875, 33.125, 33.125, 33, 32.75, 32.625, 32.4375, 32.3125, 32.4375, 32.375, 32.3125, 32.375, 32.3125, 32.3125, 32.3125, 32.0625, 31.901787, 31.9375, 32.1875, 32.473213, 32.375, 32.232143, 32.0625, 31.9375, 32, 32, 31.9375, 31.714285, 31.330357, 31.196428, 31.294643, 31.5625, 31.5625, 31.5, 31.3125, 31.125, 31.25, 31.25, 31.1875, 31.125, 30.9375, 30.875, 30.9375, 30.9375, 31.0625, 31.035713, 30.622023, 30.446428, 30.1875, 30.116072, 29.916666, 29.892857, 30, 30.232143, 30.1875, 30.1875, 30.125, 30, 30, 30, 30, 30, 30, 30, 30, 29.875, 29.8125, 29.875, 29.910713, 29.8125, 29.714287, 29.625, 29.5625, 29.625, 29.625, 29.4375, 29.25, 29.125, 29, 29, 29, 29, 29, 29, 28.9375, 28.8125, 28.6875, 28.625, 28.625, 28.75, 28.875, 28.75, 28.5625, 28.3125, 28.0625, 28, 28, 28, 28, 27.9375, 27.875, 27.8125, 27.75, 27.75, 27.6875, 27.5625, 27.4375, 27.3125, 27.3125, 27.3125, 27.25, 27.1875, 27.0625, 27.0625, 27.0625, 27.0625, 27.125, 27.125, 27.107143, 26.916666, 26.821428, 26.75, 26.75, 26.8125, 26.875, 26.9375, 26.9375, 26.875, 26.6875, 26.5, 26.3125, 26.125, 26.0625, 26, 26.0625, 26.0625, 26.0625, 26, 25.9375, 25.875, 25.8125, 25.8125, 25.6875, 25.6875, 25.6875, 25.625, 25.6875, 25.5, 25.3125, 25.1875, 25, 25, 25, 25, 25, -10, -10, -10
41.875, 41.875, 41.875, 41.875, 41.9375, 42, 41.9375, 41.8125, 41.589287, 41.375, 41.125, 41, 40.9375, 41.125, 41.160713, 40.964287, 40.901787, 40.544643, 40.375, 40.375, 40.285713, 40.3125, 40.1875, 40.1875, 40.125, 40.0625, 40.1875, 40.3125, 40.4375, 40.4375, 40.3125, 40.125, 40, 39.9375, 39.875, 39.875, 39.875, 39.9375, 39.9375, 39.875, 39.625, 39.375, 39.3125, 39.1875, 39.1875, 39.1875, 39.25, 39.375, 39.375, 39.375, 39.25, 39.0625, 39.0625, 39.125, 39.125, 39.125, 39.0625, 38.964287, 38.8125, 38.625, 38.5625, 38.5625, 38.5625, 38.625, 38.5, 38.25, 38.0625, 37.776787, 37.910717, 38.285713, 38.473213, 38.4375, 38.3125, 38.008926, 38.089287, 38.160713, 38.125, 38, 37.9375, 37.8125, 37.75, 37.625, 37.4375, 37.3125, 37.375, 37.25, 37.25, 37.375, 37.160713, 37.214287, 37.25, 37.0625, 37.0625, 37, 37.0625, 37.0625, 37.0625, 36.901787, 36.8125, 36.8125, 36.75, 36.6875, 36.6875, 36.5, 36.375, 36.25, 36.0625, 35.875, 35.875, 35.875, 35.875, 36.0625, 35.973213, 35.866074, 35.973213, 35.875, 35.9375, 36, 36, 35.9375, 36, 35.8125, 35.5, 35.267857, 35.205357, 35.395832, 35.482143, 35.5625, 35.5, 35.5, 35.5625, 35.375, 35.25, 35.0625, 34.9375, 34.875, 34.5625, 34.339287, 34.375, 34.410713, 34.5625, 34.625, 34.5, 34.5, 34.4375, 34.5, 34.375, 34.1875, 34.053574, 33.90625, 33.90625, 33.96875, 34, 34, 34, 34, 34, 34, 34, 33.9375, 33.875, 33.75, 33.625, 33.5, 33.4375, 33.5, 33.375, 33.3125, 33.1875, 33, 33.0625, 33.125, 33.125, 33.125, 33, 32.8125, 32.75, 32.625, 32.5625, 32.625, 32.5625, 32.4375, 32.4375, 32.375, 32.3125, 32.3125, 32.125, 31.9375, 31.901787, 32.1875, 32.348213, 32.3125, 32.169643, 32, 31.9375, 32, 32, 31.875, 31.660713, 31.330357, 31.098213, 31.294643, 31.482143, 31.4375, 31.375, 31.1875, 31, 31.125, 31.125, 31.0625, 31.0625, 30.9375, 30.875, 30.9375, 30.9375, 31.125, 31.035713, 30.413689, 30.196428, 29.875, 30, 30.125, 30.125, 30.1875, 30.1875, 30.0625, 30.0625, 30.0625, 30, 30, 30, 30, 30, 30, 30, 30, 29.875, 29.8125, 29.875, 29.910713, 29.75, 29.589287, 29.4375, 29.3125, 29.375, 29.375, 29.25, 29.125, 29.0625, 29, 29, 29, 29, 29, 29, 28.9375, 28.75, 28.5625, 28.4375, 28.375, 28.5, 28.625, 28.5625, 28.4375, 28.25, 28.0625, 28, 28, 28, 28, 27.9375, 27.875, 27.875, 27.875, 27.9375, 27.8125, 27.625, 27.3125, 27.0625, 27.1875, 27.294643, 27.3125, 27.3125, 27.125, 27.125, 27.125, 27.125, 27.1875, 27.125, 27.107143, 26.916666, 26.821428, 26.8125, 26.8125, 26.9375, 27, 27.0625, 27.0625, 26.9375, 26.75, 26.5, 26.3125, 26.125, 26.0625, 26, 26, 26, 26, 26, 26, 26, 25.9375, 25.8125, 25.625, 25.5, 25.4375, 25.4375, 25.5625, 25.4375, 25.3125, 25.1875, 25, 25, 25, 25, 25, -10, -10, -10, -10, -10, -10, -10, -10, -10, -10, -10, -10, -10, -10, -10, -10, -10, -10, -10, -10, -10, -10, -10, -10, -10, -10, -10, -10, -10, 42.5, 42.333332, 42.1875, 41.9375, 42, 42.107143, 42.125, 42.1875, 42.3125, 42.4375, 42.4375, 42.4375, 42.25, 42.0625, 42.0625, 42, 42, 41.9375, 41.875, 41.9375, 41.875, 41.8125, 41.776787, 41.75, 41.8125, 41.9375, 42, 42, 42, 41.875, 41.6875, 41.4375, 41.1875, 41.0625, 41.1875, 41.160713, 41.026787, 41.026787, 40.732143, 40.5625, 40.5, 40.285713, 40.25, 40.125, 40.125, 40.125, 40.125, 40.3125, 40.5, 40.625, 40.5625, 40.375, 40.125, 40, 40, 40, 40, 40, 40, 39.875, 39.75, 39.5, 39.25, 39.1875, 39.0625, 39.0625, 39, 39.0625, 39.125, 39.142857, 39.25, 39.080357, 39.0625, 39, 39.0625, 39, 39, 39, 38.928574, 38.625, 38.5625, 38.544643, 38.625, 38.625, 38.5625, 38.375, 38.125, 38.0625, 37.964287, 38.160717, 38.51786, 38.598213, 38.5, 38.3125, 38.133926, 38.214287, 38.285713, 38.25, 38.0625, 37.875, 37.75, 37.6875, 37.5625, 37.4375, 37.25, 37.3125, 37.1875, 37.1875, 37.3125, 37.125, 37.25, 37.25, 37.125, 37.0625, 36.9375, 36.9375, 36.9375, 37, 36.9375, 36.875, 36.875, 36.8125, 36.75, 36.8125, 36.625, 36.4375, 36.3125, 36.125, 35.9375, 35.9375, 35.9375, 35.875, 36.0625, 36.035713, 35.901787, 35.9375, 35.875, 35.8125, 35.8125, 35.8125, 35.75, 35.875, 35.875, 35.5625, 35.330357, 35.205357, 35.270832, 35.294643, 35.3125, 35.25, 35.25, 35.375, 35.25, 35.1875, 35.0625, 34.875, 34.75, 34.5, 34.339287, 34.375, 34.410713, 34.5, 34.5, 34.4375, 34.5, 34.5, 34.625, 34.5, 34.3125, 34.116074, 33.90625, 33.90625, 33.96875, 34, 34, 34, 34, 33.9375, 33.9375, 33.9375, 33.9375, 34, 33.9375, 33.75, 33.5, 33.375, 33.3125, 33.25, 33.25, 33.125, 33, 33.0625, 33.125, 33.125, 33.125, 33, 32.8125, 32.8125, 32.75, 32.75, 32.875, 32.8125, 32.6875, 32.625, 32.5, 32.375, 32.3125, 32.0625, 31.875, 31.776787, 32, 32.125, 32.125, 32.089287, 31.9375, 31.9375, 32, 32, 31.75, 31.5, 31.1875, 30.901787, 31.169643, 31.294643, 31.3125, 31.3125, 31.1875, 31.125, 31.1875, 31.1875, 31.0625, 31, 30.9375, 30.875, 30.9375, 30.9375, 31.1875, 31.035713, 30.267857, 30.071428, 29.8125, 30.1875, 30.375, 30.375, 30.375, 30.1875, 30.0625, 30.0625, 30.0625, 30.0625, 30, 30, 30, 30, 30, 30, 30, 29.875, 29.75, 29.75, 29.6875, 29.5625, 29.4375, 29.25, 29.125, 29.125, 29.125, 29.0625, 29, 29, 29, 29.0625, 29.0625, 29.0625, 29.0625, 29, 28.9375, 28.75, 28.5, 28.3125, 28.25, 28.3125, 28.4375, 28.4375, 28.3125, 28.1875, 28.0625, 28, 28, 28, 28, 27.9375, 27.875, 27.875, 27.875, 27.9375, 27.8125, 27.5625, 27.25, 27, 27.125, 27.357143, 27.375, 27.375, 27.1875, 27.125, 27.125, 27.125, 27.1875, 27.125, 27.107143, 26.854166, 26.758928, 26.75, 26.75, 27, 27.0625, 27.0625, 26.955357, 26.8125, 26.5625, 26.375, 26.3125, 26.1875, 26.1875, 26.125, 26.0625, 26, 26, 26, 26, 26, 25.9375, 25.8125, 25.5625, 25.375, 25.3125, 25.25, 25.375, 25.3125, 25.1875, 25.125, 25, 25, 25, 25, 25, -10, -10, -10
41.75, 41.714287, 41.6875, 41.8125, 41.9375, 42, 42, 42, 41.875, 41.75, 41.5625, 41.375, 41.25, 41.25, 41.098213, 40.964287, 41, 40.732143, 40.5625, 40.4375, 40.223213, 40.1875, 40.125, 40.125, 40.125, 40.125, 40.375, 40.5625, 40.75, 40.75, 40.5625, 40.3125, 40.125, 40.0625, 40.0625, 40.125, 40.125, 40.0625, 39.767857, 39.625, 39.4375, 39.232143, 38.979168, 38.892857, 38.875, 38.875, 39, 39.0625, 39.142857, 39.3125, 39.205357, 39.125, 39, 39.098213, 39, 39.125, 39.0625, 38.928574, 38.517857, 38.4375, 38.482143, 38.5625, 38.5625, 38.4375, 38.1875, 38, 38, 38.026787, 38.25893, 38.473213, 38.544643, 38.5, 38.3125, 38.258926, 38.3125, 38.25, 38.25, 38, 37.8125, 37.625, 37.5625, 37.4375, 37.375, 37.25, 37.3125, 37.1875, 37.1875, 37.25, 37.0625, 37.125, 37.125, 37.125, 37.0625, 37, 37, 36.9375, 37, 37, 37, 37.0625, 37.0625, 36.9375, 36.9375, 36.75, 36.5, 36.375, 36.1875, 35.9375, 35.875, 35.875, 35.8125, 36, 36.035713, 35.964287, 36, 35.9375, 35.8125, 35.6875, 35.6875, 35.625, 35.8125, 35.9375, 35.75, 35.625, 35.4375, 35.25, 35.1875, 35.125, 35.0625, 35.0625, 35.125, 35.0625, 35.0625, 35, 34.8125, 34.625, 34.375, 34.214287, 34.25, 34.285713, 34.3125, 34.3125, 34.3125, 34.4375, 34.5, 34.5625, 34.4375, 34.25, 34.116074, 33.96875, 33.96875, 34.03125, 34, 34, 34, 34, 33.875, 33.875, 33.875, 33.875, 34, 33.9375, 33.6875, 33.4375, 33.375, 33.25, 33.25, 33.25, 33.0625, 33, 33, 33, 33, 33.0625, 33, 32.9375, 32.9375, 32.875, 32.875, 32.875, 32.875, 32.75, 32.625, 32.5, 32.3125, 32.25, 32.125, 32, 31.901787, 32, 32.0625, 32.125, 32.125, 32, 32, 32, 32, 31.75, 31.5, 31.1875, 30.964287, 31.169643, 31.232143, 31.1875, 31.151787, 31.160713, 31.1875, 31.3125, 31.1875, 31, 30.839287, 30.8125, 30.875, 31, 31, 31.1875, 30.928572, 30.124998, 30, 29.75, 30.1875, 30.446428, 30.575001, 30.446428, 30.258928, 30.0625, 30, 30, 30, 29.9375, 30, 30, 30, 30, 30, 30, 29.875, 29.8125, 29.8125, 29.6875, 29.5625, 29.375, 29.125, 29.0625, 29.0625, 29.0625, 29.0625, 29, 29, 29, 29.0625, 29.0625, 29.0625, 29.0625, 29, 28.9375, 28.8125, 28.5625, 28.375, 28.3125, 28.3125, 28.4375, 28.4375, 28.3125, 28.1875, 28.0625, 28, 28, 28, 27.9375, 27.8125, 27.6875, 27.625, 27.6875, 27.75, 27.6875, 27.5625, 27.3125, 27.125, 27.1875, 27.357143, 27.375, 27.4375, 27.375, 27.3125, 27.25, 27.25, 27.25, 27.1875, 27.169643, 26.854166, 26.758928, 26.75, 26.8125, 27.0625, 27.125, 27.053572, 26.684525, 26.541666, 26.4375, 26.3125, 26.375, 26.3125, 26.3125, 26.25, 26.125, 26, 26, 26, 26, 26, 25.9375, 25.8125, 25.5625, 25.375, 25.25, 25.25, 25.375, 25.375, 25.3125, 25.25, 25.125, 25.0625, 25.0625, 25, 25, -10, -10, -10, -10, -10, -10, -10, -10, -10, -10, -10, -10, -10, -10, -10, -10, -10, -10, -10, -10, -10, -10, -10, -10, -10, -10, -10, -10, 42.25, 42.333332, 42.229164, 42.125, 41.875, 42.026787, 42.169643, 42.080357, 42.25, 42.125, 42.1875, 42.0625, 41.9375, 41.8125, 41.75, 41.875, 41.9375, 42.0625, 42.125, 42.125, 42.1875, 42.0625, 41.875, 41.776787, 41.75, 41.8125, 41.9375, 42, 42, 41.9375, 41.8125, 41.6875, 41.5, 41.375, 41.25, 41.1875, 41.035713, 40.901787, 40.9375, 40.669643, 40.5, 40.375, 40.160713, 40.1875, 40.125, 40.125, 40.125, 40.1875, 40.4375, 40.625, 40.75, 40.6875, 40.5, 40.25, 40.125, 40.0625, 40.0625, 40.125, 40.125, 40.0625, 39.767857, 39.625, 39.5, 39.294643, 38.916668, 38.732143, 38.6875, 38.6875, 38.875, 38.875, 38.982143, 39.294643, 39.258926, 39.241074, 38.9375, 39.098213, 39.035713, 39.25, 39.169643, 38.82143, 38.401787, 38.3125, 38.357143, 38.5, 38.5625, 38.4375, 38.25, 38.125, 38.0625, 38.151787, 38.357143, 38.303574, 38.375, 38.3125, 38.1875, 38.1875, 38.125, 38.125, 38.125, 38.125, 37.8125, 37.625, 37.4375, 37.25, 37.25, 37.125, 37.25, 37.25, 37.3125, 37.3125, 37.125, 37.125, 37.125, 37.25, 37.3125, 37.241074, 36.979168, 36.892857, 36.875, 36.9375, 37, 37.125, 37.125, 37, 37, 36.8125, 36.5625, 36.4375, 36.25, 36, 35.9375, 35.875, 35.8125, 35.8125, 35.875, 35.9375, 35.9375, 35.9375, 35.6875, 35.5625, 35.5625, 35.5625, 35.8125, 35.9375, 35.8125, 35.6875, 35.4375, 35.1875, 35.0625, 35, 35, 35, 35, 34.9375, 34.9375, 34.9375, 34.8125, 34.625, 34.4375, 34.25, 34.1875, 34.1875, 34.125, 34.125, 34.125, 34.1875, 34.3125, 34.375, 34.3125, 34.1875, 34.053574, 33.96875, 33.96875, 34.03125, 34, 34, 34, 34, 33.875, 33.875, 33.8125, 33.75, 33.8125, 33.75, 33.625, 33.5, 33.5625, 33.375, 33.3125, 33.25, 33, 33.0625, 33.125, 33.1875, 33.25, 33.25, 33.1875, 33.0625, 33, 32.9375, 32.875, 32.9375, 32.910713, 32.705357, 32.508926, 32.3125, 32.125, 32.0625, 32.0625, 32.035713, 31.964287, 32, 32, 32, 31.9375, 31.875, 31.875, 31.9375, 32, 31.75, 31.5, 31.1875, 30.964287, 31.107143, 31.107143, 31.125, 31.151787, 31.223213, 31.3125, 31.375, 31.25, 31.0625, 30.839287, 30.8125, 30.8125, 30.9375, 31, 31.125, 30.866072, 30.270832, 30.1875, 30, 30.375, 30.633928, 30.825001, 30.696428, 30.508928, 30.205357, 30.0625, 30, 30, 29.9375, 30, 30, 30, 30, 29.9375, 29.875, 29.75, 29.625, 29.625, 29.5, 29.375, 29.3125, 29.125, 29.0625, 29.0625, 29, 29, 29, 29, 29, 29.0625, 29.0625, 29.0625, 29.0625, 29, 28.9375, 28.875, 28.6875, 28.5, 28.4375, 28.3125, 28.3125, 28.3125, 28.25, 28.1875, 28.125, 28.0625, 28, 28, 27.9375, 27.8125, 27.6875, 27.5625, 27.5625, 27.5625, 27.5, 27.5, 27.375, 27.3125, 27.3125, 27.357143, 27.3125, 27.3125, 27.3125, 27.25, 27.1875, 27.1875, 27.125, 27.0625, 27.0625, 26.9375, 26.9375, 27, 27, 27.125, 27.125, 26.991072, 26.559525, 26.541666, 26.5, 26.375, 26.5, 26.375, 26.3125, 26.25, 26.125, 26, 26, 26, 26, 26, 25.9375, 25.875, 25.6875, 25.5625, 25.4375, 25.3125, 25.3125, 25.3125, 25.25, 25.25, 25.1875, 25.125, 25.1875, 25.125, 25.166666, -10, -10, -10
42.0625, 42.026787, 41.9375, 41.90625, 41.90625, 41.84375, 41.78125, 41.6875, 41.5625, 41.5625, 41.4375, 41.375, 41.3125, 41.125, 41, 40.9375, 40.9375, 40.75, 40.625, 40.375, 40.1875, 40.125, 40.0625, 40.0625, 40, 40.125, 40.375, 40.59375, 40.65625, 40.59375, 40.40625, 40.1875, 40.125, 40, 40, 40.0625, 40.0625, 40.0625, 39.830357, 39.75, 39.6875, 39.544643, 39.166668, 38.919643, 38.8125, 38.75, 38.9375, 38.9375, 39.044643, 39.357143, 39.258926, 39.241074, 38.9375, 39.098213, 39.035713, 39.25, 39.107143, 38.69643, 38.276787, 38.125, 38.169643, 38.3125, 38.4375, 38.375, 38.3125, 38.25, 38.1875, 38.25, 38.25, 38.125, 38.1875, 38.1875, 38.125, 38.1875, 38.125, 38.125, 38.125, 38.053574, 37.625, 37.5, 37.419643, 37.3125, 37.3125, 37.1875, 37.25, 37.25, 37.3125, 37.3125, 37.1875, 37.1875, 37.1875, 37.3125, 37.3125, 37.241074, 36.979168, 36.892857, 36.875, 37, 37.0625, 37.1875, 37.1875, 37, 36.9375, 36.75, 36.5625, 36.5, 36.375, 36.1875, 36.0625, 35.9375, 35.875, 35.8125, 35.875, 35.9375, 35.9375, 35.9375, 35.75, 35.625, 35.625, 35.6875, 35.875, 36, 35.9375, 35.8125, 35.625, 35.4375, 35.3125, 35.1875, 35.125, 35.0625, 35, 35, 35, 34.9375, 34.8125, 34.625, 34.4375, 34.3125, 34.1875, 34.125, 34.0625, 34, 34, 34, 34.0625, 34.125, 34.125, 34.125, 34.125, 34.0625, 34.0625, 34.0625, 34, 34, 34, 34, 33.875, 33.875, 33.75, 33.625, 33.625, 33.5625, 33.5, 33.5, 33.625, 33.4375, 33.375, 33.25, 33, 33.0625, 33.1875, 33.3125, 33.4375, 33.5, 33.4375, 33.3125, 33.1875, 33.0625, 32.9375, 33, 32.946426, 32.660713, 32.455357, 32.25, 32.125, 32.0625, 32, 32, 32, 32.0625, 32.125, 32.0625, 32, 31.875, 31.875, 31.9375, 32, 31.8125, 31.6875, 31.473213, 31.142857, 31.071428, 31, 31, 31.089287, 31.223213, 31.3125, 31.375, 31.25, 31.0625, 30.776787, 30.75, 30.75, 30.875, 30.9375, 30.9375, 30.678572, 30.291666, 30.3125, 30.25, 30.5625, 30.758928, 30.887501, 30.758928, 30.571428, 30.267857, 30.125, 30, 30, 29.9375, 30, 30, 30, 30, 29.9375, 29.875, 29.75, 29.553572, 29.375, 29.25, 29.125, 29.1875, 29, 28.9375, 28.875, 28.8125, 28.875, 28.9375, 29, 29, 29, 29, 29, 28.9375, 28.875, 28.875, 28.875, 28.75, 28.6875, 28.625, 28.4375, 28.4375, 28.375, 28.25, 28.1875, 28.125, 28.0625, 28, 28, 27.9375, 27.8125, 27.6875, 27.5625, 27.5, 27.5, 27.5, 27.5625, 27.625, 27.5625, 27.5, 27.375, 27.25, 27.25, 27.25, 27.1875, 27.125, 27.125, 27.0625, 27.0625, 27.0625, 26.9375, 26.9375, 26.9375, 26.9375, 26.9375, 26.875, 26.678572, 26.247025, 26.354166, 26.4375, 26.5, 26.6875, 26.5625, 26.4375, 26.3125, 26.125, 26, 26, 26, 26, 26, 26, 26, 25.875, 25.75, 25.5625, 25.375, 25.3125, 25.3125, 25.25, 25.25, 25.25, 25.25, 25.375, 25.3125, 25.333332, -10, -10, -10, -10, -10, -10, -10, -10, -10, -10, -10, -10, -10, -10, -10, -10, -10, -10, -10, -10, -10, -10, -10, -10, -10, -10, -10, -10, -10, 42.458332, 42.3125, 42.1875, 41.8125, 41.776787, 41.821426, 42.038689, 42.294643, 42.25, 42.25, 42.0625, 41.9375, 41.8125, 41.8125, 41.875, 41.9375, 42.0625, 42.125, 42.125, 42.25, 42.160713, 41.955357, 41.955357, 41.8125, 41.84375, 41.78125, 41.65625, 41.65625, 41.5, 41.4375, 41.5, 41.4375, 41.4375, 41.375, 41.1875, 41, 40.9375, 40.9375, 40.75, 40.625, 40.4375, 40.3125, 40.3125, 40.25, 40.1875, 40.0625, 40.0625, 40.25, 40.40625, 40.46875, 40.46875, 40.34375, 40.1875, 40.125, 39.9375, 39.9375, 40.0625, 40.098213, 40.125, 39.955357, 39.875, 39.8125, 39.732143, 39.416668, 39.232143, 39.125, 39.0625, 39.125, 39.0625, 39.151787, 39.357143, 39.366074, 39.241074, 39, 39.098213, 39.035713, 39.25, 39.107143, 38.705357, 38.401787, 38.125, 38.0625, 38.125, 38.25, 38.25, 38.1875, 38.1875, 38.0625, 38.0625, 38.0625, 37.875, 37.875, 37.9375, 37.9375, 38.0625, 38.125, 38.125, 38.0625, 37.928574, 37.5, 37.375, 37.357143, 37.3125, 37.3125, 37.1875, 37.1875, 37.25, 37.375, 37.4375, 37.4375, 37.4375, 37.375, 37.4375, 37.375, 37.241074, 36.979168, 36.892857, 36.875, 37, 37.0625, 37.1875, 37.1875, 37, 36.9375, 36.8125, 36.6875, 36.6875, 36.5, 36.25, 36.0625, 35.875, 35.875, 35.8125, 35.875, 35.9375, 35.9375, 35.9375, 35.8125, 35.75, 35.75, 35.8125, 35.9375, 36, 36, 35.9375, 35.8125, 35.6875, 35.491074, 35.1875, 35.0625, 34.9375, 35, 35.035713, 35, 34.901787, 34.8125, 34.625, 34.4375, 34.25, 34.0625, 34, 34, 34, 34, 34, 34, 34, 34, 34, 34.0625, 34.0625, 34.0625, 34.0625, 34, 33.9375, 33.9375, 33.9375, 33.875, 33.9375, 33.75, 33.5625, 33.4375, 33.3125, 33.3125, 33.375, 33.5, 33.4375, 33.375, 33.25, 33.0625, 33, 33.125, 33.25, 33.375, 33.5, 33.5, 33.5, 33.357143, 33.125, 33, 33, 32.98214, 32.55357, 32.339287, 32.125, 32.0625, 32.0625, 32.0625, 32.0625, 32.0625, 32.0625, 32.0625, 32, 31.9375, 31.875, 31.875, 32, 32.0625, 31.9375, 31.875, 31.723213, 31.517857, 31.446428, 31.375, 31.25, 31.214287, 31.285713, 31.25, 31.3125, 31.25, 31.0625, 30.839287, 30.8125, 30.75, 30.875, 30.9375, 30.875, 30.616072, 30.375, 30.375, 30.3125, 30.5, 30.633928, 30.762501, 30.633928, 30.571428, 30.330357, 30.1875, 30.125, 30.125, 30.125, 30.178572, 30, 30, 29.9375, 29.9375, 29.875, 29.8125, 29.678572, 29.4375, 29.3125, 29.125, 29.125, 29, 28.9375, 28.875, 28.8125, 28.875, 28.9375, 29, 29.0625, 28.973213, 28.901787, 29, 28.982143, 28.982143, 28.791666, 28.696428, 28.625, 28.6875, 28.75, 28.625, 28.625, 28.5, 28.3125, 28.25, 28.125, 28.0625, 28, 28, 27.9375, 27.875, 27.8125, 27.6875, 27.625, 27.5, 27.375, 27.4375, 27.5, 27.5, 27.5, 27.3125, 27.1875, 27.1875, 27.1875, 27.1875, 27.125, 27.125, 27, 27, 27, 26.9375, 27, 27, 27, 26.875, 26.8125, 26.616072, 26.229166, 26.291666, 26.375, 26.4375, 26.625, 26.5, 26.375, 26.25, 26.0625, 26, 26, 26, 26, 26, 26, 26, 25.9375, 25.8125, 25.5625, 25.375, 25.25, 25.25, 25.25, 25.25, 25.25, 25.25, 25.375, 25.3125, 25.333332, -10, -10, -10
41.747025, 41.776787, 41.598213, 41.71875, 41.65625, 41.53125, 41.59375, 41.375, 41.4375, 41.5, 41.4375, 41.428574, 41.1875, 41.0625, 40.9375, 41, 41, 40.9375, 40.8125, 40.625, 40.526787, 40.5, 40.4375, 40.4375, 40.25, 40.1875, 40.25, 40.28125, 40.28125, 40.21875, 40.09375, 40.0625, 40.0625, 39.9375, 39.9375, 39.875, 39.910713, 40, 40, 40, 39.9375, 39.875, 39.75, 39.589287, 39.4375, 39.25, 39.1875, 39, 39.026787, 39.169643, 39.241074, 39.241074, 39.0625, 39.125, 39.035713, 39.1875, 39.107143, 38.705357, 38.401787, 38.125, 38, 38.0625, 38.1875, 38.1875, 38.1875, 38.25, 38.1875, 38.25, 38.178574, 37.8125, 37.75, 37.6875, 37.875, 38.0625, 38.1875, 38.25, 38.0625, 37.866074, 37.5, 37.4375, 37.482143, 37.375, 37.3125, 37.125, 37.0625, 37.1875, 37.375, 37.5, 37.5625, 37.5625, 37.4375, 37.375, 37.25, 37.116074, 36.854168, 36.830357, 36.875, 37, 37.0625, 37.125, 37.125, 36.9375, 36.875, 36.75, 36.625, 36.625, 36.4375, 36.25, 36.125, 35.9375, 35.9375, 35.9375, 36, 36.0625, 36.0625, 36, 35.875, 35.875, 35.875, 35.9375, 36, 36, 36, 35.9375, 35.8125, 35.6875, 35.428574, 35.125, 35, 34.875, 35, 34.973213, 34.875, 34.714287, 34.625, 34.5625, 34.4375, 34.1875, 33.892857, 33.78125, 33.78125, 33.90625, 33.96875, 34, 34, 34, 34, 34, 34, 34, 34, 34, 34, 33.875, 33.901787, 34.044643, 34.044643, 34.125, 33.8125, 33.5, 33.25, 33.125, 33.1875, 33.3125, 33.4375, 33.375, 33.3125, 33.25, 33.125, 33, 33.089287, 33.1875, 33.3125, 33.4375, 33.4375, 33.4375, 33.294643, 33.125, 33.0625, 33.125, 33.04464, 32.55357, 32.276787, 32, 32.0625, 32.0625, 32.0625, 32.0625, 32, 32.125, 32.125, 32.0625, 32, 31.875, 31.875, 32, 32.125, 32.035713, 31.964287, 31.848213, 31.580357, 31.571428, 31.4375, 31.375, 31.3125, 31.25, 31.1875, 31.125, 31.125, 31, 30.875, 30.875, 30.8125, 30.875, 30.875, 30.75, 30.5625, 30.4375, 30.4375, 30.4375, 30.5, 30.5625, 30.5625, 30.5625, 30.5, 30.330357, 30.25, 30.1875, 30.25, 30.3125, 30.303572, 30.125, 30.0625, 29.9375, 29.9375, 29.803572, 29.674999, 29.669643, 29.428572, 29.375, 29.125, 29.125, 29, 28.9375, 28.875, 28.8125, 28.875, 28.9375, 29, 29.0625, 28.973213, 28.901787, 29, 29.044643, 29.044643, 28.791666, 28.589287, 28.5625, 28.6875, 28.8125, 28.75, 28.6875, 28.5, 28.375, 28.3125, 28.1875, 28.125, 28, 28, 28, 28, 28.0625, 27.973213, 27.776787, 27.6875, 27.4375, 27.4375, 27.4375, 27.375, 27.375, 27.25, 27.125, 27.0625, 27, 27, 27, 27.0625, 27, 27, 27, 26.9375, 26.9375, 26.875, 26.875, 26.75, 26.75, 26.625, 26.4375, 26.4375, 26.375, 26.4375, 26.5, 26.375, 26.25, 26.125, 26, 26, 26, 26, 26, 26, 26, 26, 26, 25.875, 25.6875, 25.5, 25.25, 25.1875, 25.125, 25.0625, 25.125, 25.1875, 25.3125, 25.3125, 25.333332, -10, -10, -10, -10, -10, -10, -10, -10, -10, -10, -10, -10, -10, -10, -10, -10, -10, -10, -10, -10, -10, -10, -10, -10, -10, -10, -10, -10, -10, 42.625, 42.416664, 42.3125, 42.0625, 41.875, 41.883926, 42.208332, 42.357143, 42.4375, 42.375, 42.25, 42.25, 42.1875, 42.1875, 42.125, 42, 42, 42, 42, 42.1875, 42.098213, 41.747025, 41.714287, 41.473213, 41.59375, 41.53125, 41.46875, 41.59375, 41.366074, 41.362499, 41.544643, 41.4375, 41.491074, 41.1875, 41.0625, 40.9375, 41, 41, 40.9375, 40.8125, 40.6875, 40.651787, 40.6875, 40.6875, 40.625, 40.375, 40.1875, 40.125, 40.03125, 40.03125, 40.03125, 40.03125, 40.1875, 40.25, 40.125, 40.0625, 39.9375, 39.910713, 40, 40.0625, 40.125, 40.0625, 40.0625, 40, 39.875, 39.75, 39.5625, 39.375, 39.1875, 39.125, 39.0625, 39.0625, 39.0625, 39.0625, 39, 38.9375, 39, 38.875, 38.75, 38.455357, 38.25, 38.125, 38.0625, 38.125, 38.0625, 38.0625, 38.125, 38.125, 38.25, 38.241074, 38.0625, 38.0625, 38, 38.25, 38.3125, 38.166668, 38.053574, 37.75, 37.616074, 37.375, 37.4375, 37.607143, 37.5, 37.375, 37.1875, 37, 37.0625, 37.25, 37.375, 37.5, 37.5, 37.3125, 37.1875, 37, 36.9375, 36.9375, 36.875, 36.875, 36.9375, 36.9375, 37, 37.0625, 36.875, 36.8125, 36.6875, 36.5625, 36.5625, 36.375, 36.25, 36.125, 36, 36, 36.125, 36.1875, 36.1875, 36.1875, 36.0625, 36, 36, 36, 36, 36, 36, 35.9375, 35.8125, 35.6875, 35.5, 35.303574, 35.0625, 34.9375, 34.875, 35, 34.910713, 34.75, 34.526787, 34.4375, 34.5, 34.4375, 34.3125, 34.098213, 34.09375, 34.03125, 34.049107, 34.03125, 34, 34, 34, 34, 34, 34, 34, 34, 34, 34, 33.875, 33.964287, 34.169643, 34.116074, 33.958332, 33.625, 33.3125, 33.25, 33.1875, 33.1875, 33.25, 33.25, 33.1875, 33.1875, 33.25, 33.1875, 33, 33.026787, 33, 33.0625, 33.25, 33.3125, 33.375, 33.294643, 33.125, 33.0625, 33.0625, 33.008926, 32.598213, 32.392857, 32.1875, 32.1875, 32.25, 32.25, 32.169643, 32, 32.1875, 32.232143, 32.232143, 32.125, 32, 31.9375, 32.0625, 32.125, 32.035713, 32.026787, 31.973213, 31.767857, 31.758928, 31.5625, 31.375, 31.1875, 31.125, 31.0625, 31.0625, 31.125, 31.0625, 31, 31, 30.9375, 30.9375, 30.8125, 30.625, 30.4375, 30.25, 30.25, 30.25, 30.25, 30.25, 30.1875, 30.1875, 30.1875, 30.1875, 30.1875, 30.1875, 30.25, 30.3125, 30.303572, 30.125, 30.0625, 29.9375, 29.9375, 29.803572, 29.612499, 29.607143, 29.428572, 29.375, 29.1875, 29.125, 28.9375, 28.875, 28.8125, 28.8125, 28.875, 28.9375, 29, 29.0625, 28.973213, 28.901787, 29, 29.044643, 28.982143, 28.666666, 28.339287, 28.1875, 28.25, 28.375, 28.4375, 28.5, 28.5, 28.375, 28.3125, 28.1875, 28.0625, 28, 28, 28, 28.0625, 28.1875, 28.160713, 28.026787, 27.9375, 27.6875, 27.5625, 27.4375, 27.25, 27.1875, 27.1875, 27.125, 27.125, 27.0625, 27, 27, 27.0625, 27, 27, 27, 26.9375, 26.9375, 26.875, 26.8125, 26.6875, 26.625, 26.4375, 26.3125, 26.25, 26.1875, 26.25, 26.3125, 26.25, 26.1875, 26.125, 26, 26, 26, 26, 26, 26, 26, 26, 26, 25.875, 25.75, 25.625, 25.375, 25.25, 25.125, 25, 25.0625, 25.125, 25.1875, 25.1875, 25.166666, -10, -10, -10
41.684525, 41.651787, 41.473213, 41.625, 41.625, 41.5625, 41.6875, 41.428574, 41.362499, 41.482143, 41.375, 41.428574, 41.125, 41.0625, 40.9375, 41, 41, 40.9375, 40.875, 40.8125, 40.776787, 40.875, 40.875, 40.75, 40.5, 40.25, 40.0625, 40, 40, 40.0625, 40.1875, 40.375, 40.5, 40.375, 40.25, 40.0625, 39.973213, 40, 40, 40, 39.9375, 39.9375, 39.9375, 39.9375, 39.875, 39.678574, 39.3125, 39.125, 39, 39, 39.0625, 39.125, 39.1875, 39.125, 39.0625, 39.0625, 38.9375, 38.875, 38.642857, 38.5, 38.375, 38.3125, 38.25, 38.125, 38, 38, 38.0625, 38.25, 38.334824, 38.15625, 38.21875, 38.09375, 38.25, 38.205357, 38.041668, 37.839287, 37.464287, 37.5, 37.482143, 37.5625, 37.6875, 37.5, 37.3125, 37.125, 37, 37.0625, 37.25, 37.375, 37.4375, 37.4375, 37.25, 37.125, 37, 36.9375, 36.875, 36.75, 36.6875, 36.696426, 36.875, 36.9375, 37.0625, 36.875, 36.875, 36.6875, 36.5, 36.4375, 36.1875, 36.125, 36.0625, 35.9375, 35.9375, 36.0625, 36.125, 36.1875, 36.1875, 36, 35.9375, 35.9375, 35.9375, 36, 35.9375, 35.875, 35.75, 35.5625, 35.4375, 35.25, 35.053574, 34.875, 34.875, 34.9375, 35.1875, 35.098213, 34.875, 34.651787, 34.5, 34.5625, 34.5, 34.3125, 34.160713, 34.15625, 34.09375, 34.111607, 34.03125, 33.9375, 33.9375, 34, 34.107143, 34.125, 34.125, 34.0625, 34, 34, 34, 33.875, 33.964287, 34.107143, 34.053574, 33.833332, 33.5, 33.25, 33.1875, 33.1875, 33.1875, 33.1875, 33.125, 33.0625, 33.0625, 33.1875, 33.1875, 33, 32.964287, 32.875, 32.875, 33, 33.0625, 33.125, 33.107143, 33, 33, 33, 32.973213, 32.705357, 32.571426, 32.375, 32.3125, 32.375, 32.375, 32.294643, 32.125, 32.25, 32.232143, 32.169643, 31.955357, 31.875, 31.8125, 32, 32.125, 32.035713, 31.964287, 31.9375, 31.8125, 31.8125, 31.625, 31.375, 31.1875, 31.125, 31.0625, 31.0625, 31.1875, 31.125, 31.125, 31.125, 31, 31, 30.875, 30.75, 30.625, 30.375, 30.25, 30.1875, 30.0625, 30.125, 30.1875, 30.1875, 30.3125, 30.3125, 30.25, 30.25, 30.25, 30.3125, 30.303572, 30.125, 30.0625, 29.9375, 29.875, 29.741072, 29.549999, 29.553572, 29.553572, 29.4375, 29.25, 29.125, 29, 29, 29, 29, 29, 29, 29, 29.0625, 29.035713, 28.964287, 29.0625, 29.169643, 29.044643, 28.666666, 28.276787, 28, 27.9375, 28, 28.125, 28.25, 28.375, 28.375, 28.3125, 28.1875, 28.0625, 28, 28, 27.9375, 28, 28.125, 28.098213, 28.089287, 28, 27.75, 27.5625, 27.3125, 27.125, 27, 27.0625, 27.0625, 27.0625, 27.0625, 27, 27, 27.0625, 27, 27, 27, 26.9375, 26.9375, 26.8125, 26.6875, 26.5625, 26.5, 26.375, 26.25, 26.125, 26, 26, 26.0625, 26.0625, 26.0625, 26.0625, 26, 26, 26, 26, 26, 26, 26, 26, 26, 25.9375, 25.875, 25.8125, 25.5625, 25.375, 25.25, 25.0625, 25.0625, 25.0625, 25, 25, 25, -10, -10, -10, -10, -10, -10, -10, -10, -10, -10, -10, -10, -10, -10, -10, -10, -10, -10, -10, -10, -10, -10, -10, -10, -10, -10, -10, -10, -10, 42.75, 42.666664, 42.6875, 42.6875, 42.5, 42.375, 42.3125, 42.25, 42.25, 42.25, 42.125, 42.125, 42.1875, 42.1875, 42.1875, 42.0625, 42, 42, 42, 42.0625, 42, 41.791668, 41.758926, 41.660713, 41.75, 41.6875, 41.625, 41.625, 41.366074, 41.237499, 41.294643, 41.1875, 41.241074, 41, 41, 40.9375, 40.9375, 40.875, 40.8125, 40.75, 40.75, 40.776787, 40.875, 40.9375, 40.8125, 40.5625, 40.3125, 40.0625, 40.0625, 40.0625, 40.125, 40.25, 40.375, 40.5625, 40.5, 40.375, 40.125, 39.9375, 39.875, 39.8125, 39.875, 39.8125, 39.892857, 40.071426, 40.03125, 39.973213, 39.491074, 39.071426, 38.9375, 38.875, 38.9375, 39.0625, 39.1875, 39.1875, 38.916668, 38.883926, 38.919643, 38.875, 38.875, 38.642857, 38.5, 38.3125, 38.1875, 38.125, 38.0625, 38.098213, 38.1875, 38.25, 38.375, 38.459824, 38.28125, 38.46875, 38.316963, 38.339287, 38.267857, 37.979168, 37.839287, 37.464287, 37.5, 37.482143, 37.625, 37.75, 37.5625, 37.375, 37.125, 37, 37, 37.125, 37.1875, 37.1875, 37.1875, 37.0625, 37, 36.9375, 36.9375, 36.875, 36.6875, 36.5625, 36.589287, 36.875, 36.9375, 37.125, 37, 37, 36.8125, 36.5625, 36.3125, 36.0625, 36.0625, 36.035713, 35.830357, 35.758926, 35.8125, 35.875, 36, 36.125, 36.035713, 36, 36, 35.9375, 35.9375, 35.8125, 35.6875, 35.5, 35.3125, 35.1875, 35, 34.875, 34.875, 35, 35.1875, 35.3125, 35.1875, 34.9375, 34.6875, 34.5625, 34.625, 34.5, 34.3125, 34.160713, 34.15625, 34.03125, 34.049107, 33.96875, 33.8125, 33.8125, 33.875, 34.044643, 34.160713, 34.1875, 34.125, 34, 34, 34, 33.9375, 33.964287, 34.044643, 33.928574, 33.583332, 33.3125, 33.125, 33.125, 33.1875, 33.1875, 33.1875, 33.125, 33, 33, 33.125, 33.125, 33.0625, 33.026787, 32.9375, 32.9375, 33, 33, 33, 33, 33, 33, 33, 32.9375, 32.8125, 32.75, 32.5625, 32.4375, 32.5, 32.46875, 32.388393, 32.21875, 32.34375, 32.294643, 32.169643, 31.848213, 31.75, 31.6875, 31.875, 32.0625, 31.973213, 31.901787, 31.875, 31.75, 31.6875, 31.4375, 31.25, 31, 30.875, 30.875, 30.875, 31.0625, 31.125, 31.125, 31.125, 31, 31, 30.875, 30.75, 30.6875, 30.4375, 30.375, 30.375, 30.1875, 30.25, 30.3125, 30.3125, 30.375, 30.3125, 30.1875, 30.0625, 30.0625, 30.125, 30.125, 30.125, 30.0625, 30, 29.875, 29.741072, 29.549999, 29.553572, 29.616072, 29.5625, 29.4375, 29.3125, 29.125, 29.0625, 29, 29, 29, 29, 29, 29, 29, 29, 29, 29.0625, 28.9375, 28.75, 28.392857, 28.0625, 27.9375, 27.875, 28, 28.125, 28.3125, 28.375, 28.3125, 28.25, 28, 27.875, 27.875, 27.8125, 27.875, 28, 27.973213, 27.901787, 27.875, 27.6875, 27.5, 27.3125, 27.125, 27, 27.125, 27.1875, 27.1875, 27.1875, 27.0625, 27, 27.0625, 27.125, 27.125, 27.125, 27.0625, 26.9375, 26.75, 26.5625, 26.375, 26.25, 26.1875, 26.125, 26.0625, 26, 26, 26, 26, 26, 26, 26, 26, 26, 26, 26, 26, 26, 26, 26, 26, 26.0625, 26.0625, 25.875, 25.6875, 25.4375, 25.1875, 25.125, 25.0625, 25, 25, 25, -10, -10, -10
42.0625, 41.875, 41.8125, 41.8125, 41.6875, 41.625, 41.5, 41.241074, 41.049999, 41.044643, 40.9375, 41, 40.9375, 41, 41, 40.9375, 40.875, 40.8125, 40.8125, 40.875, 40.9375, 41, 40.9375, 40.6875, 40.4375, 40.1875, 40, 40.0625, 40.0625, 40.125, 40.25, 40.3125, 40.5, 40.5, 40.375, 40.3125, 40.125, 40, 39.875, 39.839287, 39.991074, 40.101189, 40.214287, 40.102676, 39.964287, 39.282738, 38.925594, 38.887501, 38.767857, 38.9375, 38.9375, 39.125, 39.125, 38.791668, 38.821426, 38.794643, 38.6875, 38.75, 38.5625, 38.5, 38.4375, 38.3125, 38.25, 38.125, 38.098213, 38.1875, 38.1875, 38.1875, 38.28125, 38.388393, 38.647324, 38.629463, 38.464287, 38.267857, 37.916668, 37.714287, 37.464287, 37.5, 37.419643, 37.5, 37.5, 37.375, 37.25, 37.0625, 37, 37, 37.0625, 37.0625, 37.0625, 37.0625, 37, 37, 37, 37, 36.9375, 36.75, 36.5, 36.526787, 36.8125, 36.875, 37.125, 37, 37, 36.875, 36.6875, 36.4375, 36.1875, 36.125, 35.973213, 35.767857, 35.696426, 35.6875, 35.75, 35.875, 36, 36.035713, 36.0625, 36.0625, 35.9375, 35.8125, 35.625, 35.4375, 35.25, 35.125, 35.0625, 34.9375, 34.9375, 34.9375, 35.0625, 35.25, 35.3125, 35.25, 35.0625, 34.875, 34.8125, 34.75, 34.625, 34.5, 34.455357, 34.5, 34.3125, 34.205357, 34, 33.8125, 33.8125, 33.875, 34.044643, 34.160713, 34.1875, 34.125, 34, 34, 34, 33.9375, 33.875, 33.75, 33.571426, 33.208332, 33.125, 33.125, 33.25, 33.3125, 33.3125, 33.3125, 33.25, 33.1875, 33.125, 33.125, 33.0625, 33.0625, 33.0625, 33.0625, 33.035713, 32.964287, 33, 32.9375, 33, 33, 33.0625, 33.125, 33.125, 33, 32.901787, 32.6875, 32.4375, 32.5, 32.46875, 32.388393, 32.28125, 32.34375, 32.232143, 32.107143, 31.723213, 31.6875, 31.625, 31.8125, 32, 31.9375, 31.9375, 31.8125, 31.75, 31.625, 31.375, 31.25, 31, 30.9375, 30.9375, 30.9375, 31.125, 31.125, 31.125, 31.125, 31, 31, 30.9375, 30.875, 30.8125, 30.625, 30.5625, 30.5625, 30.4375, 30.5, 30.5625, 30.5625, 30.5625, 30.4375, 30.25, 30.0625, 30, 30, 30, 30, 30, 30, 29.875, 29.8125, 29.6875, 29.5625, 29.625, 29.5625, 29.5625, 29.4375, 29.25, 29.125, 29, 29, 29, 29, 29, 29, 29, 29, 29, 29, 28.875, 28.6875, 28.375, 28, 27.875, 27.8125, 27.875, 28, 28.125, 28.125, 28.0625, 28, 27.830357, 27.875, 27.875, 27.875, 27.875, 27.9375, 27.9375, 27.875, 27.8125, 27.75, 27.5625, 27.4375, 27.1875, 26.964287, 27.125, 27.294643, 27.375, 27.375, 27.1875, 27.0625, 27, 27.125, 27.125, 27.1875, 27.1875, 27, 26.839287, 26.625, 26.375, 26.1875, 26.0625, 26.0625, 26.125, 26.1875, 26.1875, 26.125, 26.0625, 26, 26, 26, 26, 26, 26, 26, 26, 26, 25.9375, 25.9375, 25.9375, 26, 26, 25.8125, 25.6875, 25.4375, 25.25, 25.1875, 25.0625, 25, 25, 25, -10, -10, -10, -10, -10, -10, -10, -10, -10, -10, -10, -10, -10, -10, -10, -10, -10, -10, -10, -10, -10, -10, -10, -10, -10, -10, -10, -10, -10, 42.916668, 42.9375, 43, 43, 42.8125, 42.5625, 42.375, 42.1875, 42.125, 42.125, 41.9375, 41.875, 41.9375, 41.9375, 42.0625, 42.125, 41.973213, 41.964287, 42.214287, 42.107143, 42.1875, 42, 41.75, 41.651787, 41.625, 41.5, 41.4375, 41.3125, 41.1875, 41.125, 41, 40.901787, 40.875, 40.875, 41, 41, 40.9375, 40.875, 40.875, 40.9375, 41, 41.0625, 41, 40.8125, 40.5625, 40.3125, 40.125, 40, 40.125, 40.125, 40.1875, 40.25, 40.125, 40.25, 40.1875, 40.125, 40.1875, 40.0625, 40, 39.8125, 39.776787, 39.959824, 40.069939, 40.245537, 40.133926, 39.964287, 39.282738, 38.925594, 38.887501, 38.767857, 38.9375, 38.9375, 39.125, 39.125, 38.854168, 38.883926, 38.857143, 38.8125, 38.75, 38.625, 38.5625, 38.5, 38.5, 38.375, 38.25, 38.223213, 38.3125, 38.375, 38.375, 38.40625, 38.450893, 38.647324, 38.566963, 38.276787, 38.080357, 37.875, 37.723213, 37.589287, 37.5625, 37.482143, 37.5625, 37.4375, 37.375, 37.25, 37.0625, 37.0625, 37, 37, 37, 37, 37, 37, 37, 37, 37, 36.9375, 36.8125, 36.5625, 36.589287, 36.875, 36.875, 37.125, 37, 37, 36.866074, 36.5625, 36.375, 36.125, 36.125, 35.910713, 35.705357, 35.633926, 35.5625, 35.6875, 35.8125, 35.9375, 36.035713, 36.0625, 36.0625, 35.875, 35.6875, 35.4375, 35.1875, 35.0625, 35, 35, 35.0625, 35.0625, 35.0625, 35.1875, 35.25, 35.3125, 35.3125, 35.1875, 35.0625, 35, 34.875, 34.75, 34.625, 34.5625, 34.5, 34.375, 34.3125, 34.1875, 34, 33.9375, 33.9375, 34.044643, 34.160713, 34.1875, 34.125, 34, 33.9375, 33.9375, 33.8125, 33.625, 33.4375, 33.25, 33.125, 33.125, 33.1875, 33.1875, 33.25, 33.3125, 33.375, 33.4375, 33.375, 33.25, 33.125, 33, 33, 33, 33.0625, 33.035713, 32.964287, 33, 32.875, 32.9375, 32.9375, 33, 33.125, 33.125, 33.0625, 32.964287, 32.75, 32.5, 32.4375, 32.34375, 32.28125, 32.28125, 32.34375, 32.1875, 32.0625, 31.785713, 31.6875, 31.6875, 31.875, 32.0625, 32.0625, 32.0625, 31.8125, 31.75, 31.625, 31.375, 31.3125, 31.0625, 30.875, 30.875, 30.875, 31.0625, 31.125, 31.125, 31.125, 31, 30.9375, 30.9375, 30.9375, 30.9375, 30.875, 30.75, 30.75, 30.625, 30.6875, 30.8125, 30.8125, 30.8125, 30.625, 30.375, 30.125, 30, 30, 29.9375, 29.875, 29.8125, 29.8125, 29.8125, 29.8125, 29.75, 29.6875, 29.6875, 29.625, 29.625, 29.4375, 29.25, 29.125, 29, 29, 29, 29, 29, 29, 29, 29, 28.9375, 28.875, 28.75, 28.5625, 28.4375, 28.1875, 28.1875, 28.1875, 28.1875, 28.3125, 28.25, 28.1875, 28.0625, 27.9375, 27.892857, 27.9375, 27.9375, 27.9375, 27.875, 27.9375, 27.875, 27.75, 27.6875, 27.625, 27.5625, 27.5, 27.1875, 26.857143, 26.955357, 27.232143, 27.3125, 27.375, 27.25, 27.125, 27.0625, 27.1875, 27.125, 27.1875, 27.1875, 27, 26.839287, 26.6875, 26.5, 26.3125, 26.1875, 26.1875, 26.25, 26.375, 26.375, 26.25, 26.125, 26, 26, 26, 26, 26, 26, 26, 25.9375, 25.9375, 25.875, 25.8125, 25.8125, 25.8125, 25.75, 25.625, 25.5625, 25.375, 25.25, 25.25, 25.1875, 25.125, 25.125, 25.083334, -10, -10, -10
42, 41.458332, 41.294643, 41.25, 41.1875, 41.25, 41.25, 41.1875, 41.25, 41.1875, 41.026787, 41, 40.9375, 41, 41, 40.9375, 40.875, 40.9375, 41, 41.0625, 41.125, 41, 40.75, 40.5, 40.25, 40.0625, 40, 40.0625, 40.0625, 40.0625, 40.0625, 39.9375, 40, 40, 40, 40.125, 40.0625, 40, 39.875, 39.901787, 40.084824, 40.194939, 40.308037, 40.133926, 39.964287, 39.354168, 39.113094, 39.012501, 38.892857, 39, 39, 39.125, 39.0625, 38.729168, 38.758926, 38.794643, 38.8125, 38.6875, 38.5625, 38.5, 38.4375, 38.4375, 38.3125, 38.1875, 38.223213, 38.4375, 38.5625, 38.491074, 38.3125, 38.419643, 38.598213, 38.598213, 38.401787, 38.25, 38, 37.9375, 37.8125, 37.6875, 37.5625, 37.5625, 37.5, 37.5, 37.4375, 37.3125, 37.3125, 37.1875, 37.125, 37.0625, 37, 37.0625, 37.125, 37.1875, 37.1875, 37.125, 37.0625, 36.9375, 36.75, 36.767857, 36.875, 36.875, 37.0625, 37.0625, 37, 36.866074, 36.5625, 36.3125, 36.125, 36.125, 35.910713, 35.767857, 35.696426, 35.625, 35.75, 35.8125, 35.9375, 36.098213, 36.125, 36.125, 35.875, 35.5625, 35.3125, 35.0625, 35, 35, 35, 35.125, 35.125, 35.1875, 35.25, 35.1875, 35.1875, 35.125, 35.0625, 35, 35, 34.9375, 34.9375, 34.875, 34.8125, 34.75, 34.5625, 34.5, 34.4375, 34.3125, 34.25, 34.125, 34.0625, 34.098213, 34.0625, 34.0625, 33.9375, 33.875, 33.875, 33.75, 33.625, 33.5, 33.25, 33.125, 33.125, 33.125, 33.1875, 33.25, 33.375, 33.5, 33.625, 33.625, 33.4375, 33.25, 33.0625, 33, 33, 33.0625, 33.035713, 32.964287, 33.0625, 32.9375, 33, 33, 32.9375, 33.0625, 33.0625, 33, 32.964287, 32.8125, 32.5625, 32.4375, 32.28125, 32.21875, 32.28125, 32.40625, 32.3125, 32.1875, 31.955357, 31.875, 31.875, 32.0625, 32.1875, 32.125, 32.0625, 31.6875, 31.625, 31.5, 31.3125, 31.375, 31.098213, 30.767857, 30.767857, 30.75, 30.9375, 31.0625, 31.0625, 31.0625, 31, 30.9375, 30.9375, 30.9375, 30.9375, 30.875, 30.8125, 30.8125, 30.75, 30.75, 30.75, 30.6875, 30.5625, 30.4375, 30.25, 30.0625, 30, 30.0625, 29.973213, 29.767857, 29.705357, 29.6875, 29.75, 29.75, 29.625, 29.5625, 29.625, 29.6875, 29.75, 29.625, 29.4375, 29.25, 29.125, 29.0625, 29, 29, 29, 29, 29, 29, 28.9375, 28.875, 28.8125, 28.625, 28.5, 28.3125, 28.3125, 28.4375, 28.5, 28.625, 28.5625, 28.375, 28.25, 28.0625, 28.017857, 28.0625, 28, 28.0625, 27.9375, 28, 27.9375, 27.6875, 27.5625, 27.5, 27.5, 27.482143, 27.125, 26.857143, 26.955357, 27.294643, 27.375, 27.4375, 27.25, 27.125, 27.0625, 27.25, 27.1875, 27.25, 27.25, 27, 26.901787, 26.8125, 26.6875, 26.5, 26.3125, 26.25, 26.3125, 26.5, 26.5, 26.375, 26.1875, 26, 26, 26, 26, 26, 26, 26, 26, 26, 25.9375, 25.8125, 25.6875, 25.625, 25.5, 25.4375, 25.4375, 25.25, 25.1875, 25.1875, 25.125, 25.125, 25.125, 25.083334, -10, -10, -10, -10, -10, -10, -10, -10, -10, -10, -10, -10, -10, -10, -10, -10, -10, -10, -10, -10, -10, -10, -10, -10, -10, -10, -10, -10, 42.5, 42.750004, 42.75, 42.875, 42.8125, 42.75, 42.6875, 42.625, 42.5625, 42.375, 42.25, 41.9375, 41.8125, 41.8125, 41.8125, 41.9375, 41.9375, 41.723213, 41.607143, 41.964283, 41.982143, 42.160713, 41.875, 41.208332, 40.982143, 40.9375, 41, 41.1875, 41.25, 41.25, 41.25, 41.1875, 41.026787, 41, 40.9375, 41, 41, 41, 41, 41.0625, 41.125, 41.125, 41.0625, 40.9375, 40.625, 40.375, 40.1875, 40, 40, 39.9375, 39.964287, 40.035713, 40.0625, 40.125, 40.125, 40.125, 40.0625, 40.125, 40.0625, 40.0625, 40, 40.026787, 40.272324, 40.302082, 40.236607, 40.102676, 39.866074, 39.541668, 39.354168, 39.262501, 39.142857, 39.25, 39.1875, 39.1875, 39.125, 38.9375, 38.9375, 38.9375, 38.875, 38.75, 38.6875, 38.625, 38.625, 38.625, 38.4375, 38.25, 38.1875, 38.375, 38.473213, 38.39286, 38.25, 38.357143, 38.535713, 38.5625, 38.375, 38.1875, 38, 37.8125, 37.8125, 37.75, 37.625, 37.625, 37.5625, 37.5625, 37.5625, 37.5625, 37.5625, 37.375, 37.25, 37.125, 37, 37.0625, 37.125, 37.1875, 37.1875, 37.125, 37.0625, 37, 36.875, 36.875, 36.875, 36.875, 37, 37, 36.9375, 36.741074, 36.4375, 36.25, 36.0625, 36.0625, 35.875, 35.875, 35.875, 35.875, 36, 36, 36, 36.0625, 36.0625, 36.0625, 35.8125, 35.5625, 35.375, 35.1875, 35.1875, 35.125, 35.0625, 35.1875, 35.25, 35.375, 35.4375, 35.3125, 35.25, 35.125, 35.0625, 35, 35, 35.0625, 35.1875, 35.25, 35.241074, 35, 34.875, 34.75, 34.75, 34.6875, 34.625, 34.4375, 34.25, 34.125, 34, 34, 33.9375, 33.875, 33.875, 33.75, 33.6875, 33.625, 33.375, 33.25, 33.1875, 33.125, 33.1875, 33.25, 33.375, 33.5, 33.625, 33.625, 33.4375, 33.25, 33.0625, 33, 33, 33.0625, 33.035713, 33.026787, 33.1875, 33.0625, 33.125, 33.0625, 32.9375, 33.0625, 33.0625, 33, 32.964287, 32.8125, 32.5625, 32.375, 32.25, 32.1875, 32.3125, 32.5, 32.375, 32.3125, 32.125, 32.0625, 32.0625, 32.1875, 32.25, 32.125, 32, 31.625, 31.5, 31.375, 31.25, 31.375, 31.196426, 30.857143, 30.892857, 30.8125, 30.9375, 31, 31, 31, 31, 30.9375, 30.9375, 31, 31, 30.9375, 30.839287, 30.8125, 30.8125, 30.8125, 30.75, 30.625, 30.4375, 30.375, 30.25, 30.125, 30.0625, 30.0625, 29.973213, 29.767857, 29.705357, 29.6875, 29.6875, 29.625, 29.5, 29.375, 29.4375, 29.5, 29.5, 29.4375, 29.3125, 29.1875, 29.125, 29.0625, 29, 29, 29, 29, 29, 29, 28.9375, 28.875, 28.8125, 28.5625, 28.4375, 28.25, 28.1875, 28.375, 28.4375, 28.625, 28.5625, 28.375, 28.25, 28, 28.080357, 28.1875, 28.125, 28.1875, 28, 28, 27.9375, 27.6875, 27.5625, 27.5, 27.5625, 27.544643, 27.1875, 26.982143, 27.017857, 27.294643, 27.375, 27.375, 27.1875, 27.125, 27, 27.151787, 27.160713, 27.1875, 27.25, 27, 26.964287, 26.9375, 26.875, 26.75, 26.5, 26.375, 26.4375, 26.5625, 26.5625, 26.4375, 26.1875, 26, 26, 26, 26, 26, 26, 26, 26, 26, 25.875, 25.6875, 25.5, 25.3125, 25.1875, 25.125, 25.125, 25.0625, 25.0625, 25.125, 25.125, 25.125, 25.125, 25.083334, -10, -10, -10
41.5625, 40.895832, 40.669643, 40.625, 40.875, 41.125, 41.25, 41.3125, 41.25, 41.25, 41.089287, 41.0625, 41, 41, 41, 41, 41, 41, 41, 41, 40.9375, 40.875, 40.625, 40.375, 40.1875, 40, 40, 39.9375, 40.026787, 40.160713, 40.25, 40.3125, 40.25, 40.1875, 40.0625, 40.125, 40.0625, 40.0625, 40.0625, 40.125, 40.15625, 40.15625, 40.15625, 40.03125, 39.875, 39.8125, 39.625, 39.5, 39.4375, 39.4375, 39.375, 39.25, 39.1875, 39, 39, 39, 39, 38.875, 38.8125, 38.6875, 38.5625, 38.5, 38.3125, 38.1875, 38.1875, 38.375, 38.473213, 38.45536, 38.3125, 38.25, 38.357143, 38.3125, 38.1875, 38.0625, 37.875, 37.776787, 37.848213, 37.8125, 37.8125, 37.8125, 37.75, 37.6875, 37.625, 37.5625, 37.5625, 37.375, 37.25, 37.125, 37, 37.0625, 37.125, 37.1875, 37.1875, 37.125, 37.0625, 36.928574, 36.6875, 36.758926, 36.895832, 36.9375, 37.125, 37.125, 37.125, 36.919643, 36.354168, 36.133926, 36, 36.125, 36.0625, 36.0625, 36, 35.875, 35.875, 35.875, 35.875, 35.875, 35.9375, 35.9375, 35.6875, 35.625, 35.5, 35.375, 35.375, 35.25, 35.125, 35.25, 35.3125, 35.4375, 35.5625, 35.375, 35.3125, 35.1875, 35.0625, 35, 35, 35.125, 35.3125, 35.4375, 35.428574, 35.1875, 35.0625, 34.9375, 34.9375, 34.8125, 34.6875, 34.4375, 34.25, 34.125, 34, 34, 34, 33.9375, 33.9375, 33.875, 33.8125, 33.8125, 33.5625, 33.3125, 33.017857, 32.8125, 32.8125, 32.9375, 33.125, 33.3125, 33.4375, 33.4375, 33.3125, 33.1875, 33.0625, 33, 33.0625, 33.0625, 33.125, 33.25, 33.258926, 32.958332, 32.946426, 32.919643, 32.8125, 32.9375, 32.9375, 32.9375, 33, 32.875, 32.625, 32.375, 32.1875, 32.125, 32.3125, 32.5, 32.4375, 32.375, 32.1875, 32.125, 32.125, 32.25, 32.25, 32.125, 31.9375, 31.5625, 31.375, 31.1875, 31.125, 31.25, 31.133926, 30.794643, 30.830357, 30.8125, 30.9375, 31.125, 31.1875, 31.125, 31.125, 31, 30.9375, 31, 31, 30.9375, 30.776787, 30.75, 30.6875, 30.625, 30.5625, 30.375, 30.25, 30.3125, 30.25, 30.1875, 30.125, 30.0625, 29.973213, 29.767857, 29.705357, 29.6875, 29.6875, 29.625, 29.625, 29.473213, 29.392857, 29.383928, 29.25, 29.25, 29.1875, 29.125, 29.125, 29.0625, 29, 29, 29, 29, 29, 29, 28.9375, 28.875, 28.8125, 28.5625, 28.4375, 28.3125, 28.25, 28.4375, 28.5625, 28.75, 28.678572, 28.375, 28.3125, 28.0625, 28.1875, 28.1875, 28.125, 28.125, 28, 28, 27.875, 27.625, 27.5, 27.375, 27.5, 27.544643, 27.25, 27.205357, 27.205357, 27.3125, 27.3125, 27.25, 27.0625, 27.0625, 27, 27.089287, 27.098213, 27.0625, 27.125, 27, 27, 27, 27, 26.8125, 26.5625, 26.4375, 26.4375, 26.5625, 26.5625, 26.4375, 26.1875, 26, 26, 26, 26, 26, 26, 26, 26, 26, 25.875, 25.625, 25.375, 25.125, 25, 25, 25, 25, 25, 25.0625, 25.125, 25.125, 25.125, 25.083334, -10, -10, -10, -10, -10, -10, -10, -10, -10, -10, -10, -10, -10, -10, -10, -10, -10, -10, -10, -10, -10, -10, -10, -10, -10, -10, -10, -10, -10, 42.833336, 42.645836, 42.6875, 42.5625, 42.5625, 42.75, 42.8125, 42.9375, 42.75, 42.5625, 42.3125, 42.0625, 42, 41.9375, 41.875, 41.75, 41.5625, 41.455357, 41.625, 41.6875, 41.660713, 41.267857, 40.726189, 40.788689, 40.866074, 41.1875, 41.3125, 41.3125, 41.25, 41.1875, 41.3125, 41.3125, 41.375, 41.3125, 41.1875, 41.125, 41.0625, 41, 41, 41, 41, 40.875, 40.875, 40.625, 40.375, 40.25, 40, 40, 39.9375, 40.026787, 40.160713, 40.3125, 40.5, 40.4375, 40.4375, 40.25, 40.25, 40.1875, 40.125, 40.125, 40.0625, 40.0625, 40.0625, 40.0625, 39.9375, 39.75, 39.6875, 39.5, 39.4375, 39.5, 39.5625, 39.5, 39.375, 39.25, 39, 39, 39, 39, 38.9375, 38.8125, 38.625, 38.5, 38.285713, 38.089287, 38.0625, 38, 38.25, 38.285713, 38.20536, 38.0625, 37.9375, 38.044643, 38.125, 38.098213, 38, 37.767857, 37.732143, 37.910713, 37.875, 37.9375, 37.8125, 37.8125, 37.75, 37.6875, 37.625, 37.5625, 37.375, 37.25, 37.125, 37, 37.0625, 37.125, 37.1875, 37.1875, 37.125, 37.0625, 36.866074, 36.625, 36.633926, 36.770832, 36.875, 37.125, 37.25, 37.3125, 37.169643, 36.520836, 36.205357, 36.125, 36.25, 36.3125, 36.3125, 36.1875, 36, 35.9375, 36, 35.982143, 35.791668, 35.758926, 35.75, 35.5625, 35.625, 35.625, 35.5, 35.5, 35.375, 35.1875, 35.330357, 35.5, 35.446426, 35.571426, 35.375, 35.3125, 35.1875, 35, 34.9375, 34.9375, 35.0625, 35.375, 35.5625, 35.535713, 35.1875, 35.0625, 34.875, 34.875, 34.75, 34.625, 34.375, 34.25, 34.125, 34, 34, 34, 34, 34, 34, 34, 34, 33.8125, 33.5625, 33.267857, 32.991074, 32.8125, 32.875, 32.9375, 33.125, 33.25, 33.3125, 33.25, 33.1875, 33.0625, 33, 33.125, 33.125, 33.25, 33.4375, 33.36607, 32.9375, 32.901787, 32.857143, 32.8125, 32.9375, 32.9375, 32.9375, 32.9375, 32.75, 32.5, 32.1875, 32.0625, 32.0625, 32.25, 32.4375, 32.375, 32.3125, 32.1875, 32.1875, 32.1875, 32.1875, 32.125, 32, 31.8125, 31.5625, 31.3125, 31.0625, 31, 31.125, 31.071426, 30.857143, 30.892857, 30.875, 31, 31.125, 31.1875, 31.125, 31.125, 31.0625, 31, 31.0625, 31.0625, 30.9375, 30.839287, 30.8125, 30.6875, 30.5625, 30.4375, 30.25, 30.1875, 30.3125, 30.25, 30.1875, 30.125, 30.0625, 30.035713, 29.892857, 29.892857, 29.875, 29.8125, 29.75, 29.75, 29.598213, 29.455357, 29.383928, 29.1875, 29.1875, 29.1875, 29.0625, 29.0625, 29, 28.9375, 29, 29, 29, 28.9375, 28.9375, 28.9375, 28.9375, 29, 28.75, 28.5, 28.375, 28.25, 28.4375, 28.625, 28.6875, 28.616072, 28.3125, 28.25, 28.0625, 28.125, 28.125, 28.0625, 28.0625, 28, 28, 27.875, 27.625, 27.5, 27.375, 27.4375, 27.482143, 27.25, 27.3125, 27.3125, 27.3125, 27.3125, 27.1875, 27, 27, 26.9375, 27.026787, 27.098213, 27.0625, 27.125, 27, 27, 27, 27, 26.8125, 26.5625, 26.375, 26.375, 26.5, 26.5, 26.4375, 26.1875, 26, 26, 26, 26, 26.0625, 26.0625, 26.0625, 26.1875, 26.125, 25.9375, 25.642857, 25.3125, 25.0625, 25, 25, 25, 25, 25, 25, 25, 25, 25, 25, -10, -10, -10
