63.0625, 63.125, 63.357143, 63.357143, 63.265308, 63.07143, 62.897957, 62.880951, 62.770832, 62.928574, 63, 63.214287, 63.214287, 63.25, 63.214287, 63.375, 63.142857, 63, 63.125, 63.09375, 63.0625, 63.125, 63.160713, 63.25, 63.375, 63.3125, 63.607143, 63.473213, 63.526787, 63.75, 63.6875, 63.5625, 63.229164, 63.125, 63.125, 63.1875, 63.285713, 63.107143, 62.806122, 62.857143, 63.25, 63.291668, 63.285713, 63.214287, 63.107143, 62.875, 62.6875, 62.625, 62.625, 62.92857, 62.8125, 62.9375, 63, 63, 63, 63, 63, 63.0625, 63.125, 63.32143, 63.357143, 63.32143, 63.214287, 63.214287, 63.214287, 63.25, 63.285713, 63.285713, 63, 62.8125, 62.8125, 62.875, 63.25, 63.433674, 63.666668, 63.541668, 63.214287, 63.214287, 63.214287, 63.285713, 63.285713, 63, 63, 63, 63, 63.0625, 63.125, 62.857143, 63.125, 63.285713, 63.107143, 62.92857, 62.589287, 62.6875, 62.660713, 62.964287, 63.096943, 62.908165, 62.964287, 62.892857, 62.964287, 63.17857, 63.357143, 63.42857, 63.163265, 63.056118, 62.887501, 62.821426, 62.946426, 62.875, 62.875, 62.875, 62.875, 62.704082, 62.82143, 62.852043, 63.010414, 62.915176, 63.07143, 63.142857, 63.214287, 63.285713, 63.290813, 63.316326, 63.5051, 63.535713, 63.642857, 63.464287, 63.25, 63.07143, 62.918369, 62.857143, 62.964287, 63.07143, 63.17857, 62.875, 63, 63.0625, 63.17347, 63.07143, 63.035713, 63.132652, 63.125, 63.392857, 63.357143, 63.107143, 62.857143, 62.92857, 62.964287, 63.07143, 63.25, 63.25, 63.32143, 63.392857, 63.331631, 63.395836, 63.419643, 63.714287, 63.785713, 63.642857, 63.267857, 63.25, 63.25, 63.3125, 63.464287, 63.601192, 63.625, 63.433674, 63.392857, 63.285713, 63.127552, 63.269386, 63.217258, 63.30357, 63.375, 63.267857, 63.464287, 63.392857, 63.285713, 63.142857, 63.07143, 63.107143, 63.25, 63.726192, 63.684525, 63.357143, 63.357143, 63, 62.9375, 62.9375, 62.9375, 63.32143, 63.586735, 63.708332, 63.666668, 63.367344, 63.42857, 63.357143, 63.32143, 63.285713, 63.32143, 63.125, 63.1875, 63.125, 63.125, 63.1875, 63.1875, 63.357143, 63.285713, 63.357143, 63.25, 63.3125, 63.375, 63.169643, 63.200001, 63.418369, 63.454082, 63.607143, 63.642857, 63.535713, 63.464287, 63.464287, 63.42857, 63.42857, 63.464287, 63.5, 63.5, 63.607143, 63.67857, 63.642857, 63.607143, 63.3125, 63.375, 63.4375, 63.5, 63.714287, 63.642857, 63.57143, 63.339287, 63.607143, 63.448978, 63.57143, 63.5, 63.535713, 63.464287, 63.42857, 63.5, 63.5, 63.464287, 63.25, 63.178574, 63, 63.42857, 63.515308, 63.5, 63.42857, 63.25, 63.107143, 63.291668, 63.142857, 63.285713, 63.464287, 63.535713, 63.57143, 63.382656, 62.75, 62.666668, 62.42857, 63.07143, 62.9375, 63.0625, 63.125, 63.25, 63.25, 63.1875, 63, 62.838097, 62.850338, 62.75, 63.204082, 63.142857, 63.32143, 63.17857, 63.17857, 63.07143, 62.92857, 62.92857, 63, 63.07143, 63.142857, 63.142857, 63.07143, 62.616669, -10, -10, -10, -10, -10, -10, -10, -10, -10, -10, -10, -10, -10, -10, -10, -10, -10, -10, -10, -10, -10, -10, -10, -10, -10, -10, -10, -10, -10, -10, -10, -10, -10, -10, -10, -10, -10, -10, -10, -10, -10, -10, -10, -10, -10, -10, -10, -10, -10, -10, -10, -10, -10, -10, -10, -10, -10, -10, -10, -10, -10, -10, -10, -10, -10, -10, -10, -10, -10, -10, -10, -10, -10, 65.5, 65.541664, 65.377975, 64.979164, 64.508926, 64.142853, 63.649998, 63.9375, 63.973213, 64.408165, 64.416672, 64.369041, 64.295914, 64.0625, 64, 63.883926, 63.950001, 63.758926, 63.758926, 63.75, 63.75, 63.8125, 63.8125, 64.10714, 64.10714, 64.178574, 64.214287, 64.178574, 64.285713, 64.178574, 64.10714, 64, 63.973213, 64, 64.0625, 64.0625, 64.25, 64.348213, 64.401787, 64.785713, 64.785713, 64.785713, 64.011902, 63.964287, 63.92857, 64.28125, 64.09375, 64.214287, 64.045921, 64.051018, 64.071426, 64.10714, 64.25, 64.321426, 64.25, 64.178574, 63.92857, 63.785713, 63.857143, 64.035713, 64.071426, 63.9375, 63.9375, 63.8125, 64, 64.035713, 64, 64.10714, 64, 64.125, 64, 64.1875, 64.125, 64.0625, 64.214287, 64.214287, 64.14286, 64, 63.9375, 63.875, 63.642857, 64.178574, 64.39286, 64.57653, 64.571426, 64.428574, 64.341835, 64.464287, 64.428574, 64.464287, 64.321426, 64.416664, 63.9375, 63.875, 63.875, 63.875, 64, 64.458336, 64.35714, 64.464287, 64.35714, 64.214287, 64.030617, 63.964287, 63.877552, 63.857143, 63.678574, 63.544643, 63.6875, 63.723213, 64.035713, 64.214287, 64.0625, 64.125, 63.892857, 64.051018, 64.157143, 64.045914, 63.883926, 63.75, 63.75, 63.964287, 64.14286, 64.684525, 64.833336, 64.842262, 64.351189, 63.977676, 63.90625, 63.9375, 63.9375, 64.178574, 64.255104, 64.280617, 64.505104, 64.571426, 64.678574, 64.375, 64.25, 64.125, 63.704082, 64.14286, 64.14286, 64.214287, 64.14286, 64, 64.071426, 64.035713, 64.071426, 64.14286, 64.071426, 64.10714, 64.214287, 64.214287, 64.285713, 64.10714, 64, 64.14286, 64.051018, 64.057144, 64.311226, 64.053574, 63.92857, 64, 64.196426, 64.666672, 64.693878, 64.85714, 64.862244, 64.330353, 64.160713, 64.125, 64.1875, 64.464287, 64.535713, 64.479591, 64.5, 64.520409, 64.39286, 64.25, 64.163261, 64.26429, 64.153061, 64.188774, 64.214287, 64.285713, 64.125, 64.0625, 63.9375, 64.10714, 64.14286, 64.285713, 64.5, 64.622452, 64.479591, 64.321426, 64.0625, 63.9375, 63.714287, 63.9375, 64.14286, 64.35714, 64.622452, 64.678574, 64.64286, 64.469383, 64.1875, 64.125, 64.125, 64.125, 64.1875, 63.892857, 64, 63.964287, 63.959187, 64.1875, 63.92857, 64.125, 63.857143, 64.1875, 64.1875, 64.5, 64.571426, 64.169647, 64.112503, 64.303574, 64.366074, 64.714287, 64.714287, 64.64286, 64.571426, 64.571426, 64.571426, 64.535713, 64.571426, 64.5, 64.5, 64.60714, 64.64286, 64.714287, 64.64286, 64.571426, 64.64286, 64.64286, 64.64286, 64.678574, 64.60714, 64.535713, 64.56633, 64.64286, 64.330353, 64.571426, 64.3125, 64.3125, 64.25, 64.3125, 64.375, 64.60714, 64.571426, 64.5, 64.418373, 63.785713, 64.3125, 64.419647, 64.4375, 64.375, 64.35714, 64.178574, 64.14286, 64.071426, 64.25, 64.32653, 64.321426, 64.596939, 64.479599, 64.458336, 64.333336, 64.25, 64.081627, 64.416672, 64.488098, 64.297615, 64.260201, 64.178574, 64, 63.946426, 63.775002, 63.833332, 63.5, 64.31633, 64.285713, 64.428574, 64.285713, 64.25, 64.25, 63.642857, 63.875, 63.875, 63.875, 63.875, 63.5, 63.416668, -10, -10, -10, -10, -10, -10, -10, -10, -10, -10, -10, -10, -10, -10, -10, -10, -10, -10, -10, -10, -10, -10, -10, -10, -10, -10, -10, -10, -10, -10, -10, -10, -10, -10, -10, -10, -10
65.559525, 65.404762, 65.008926, 64.9375, 64.875, 64.883926, 65.192856, 64.938774, 64.903061, 64.6875, 64.75, 64.8125, 64.8125, 64.875, 64.9375, 65.09375, 65.125, 65.214287, 65.25, 65.10714, 65, 64.964287, 64.6875, 64.6875, 64.75, 64.875, 65.0625, 65.223213, 65.551018, 65.714287, 65.821426, 65.821426, 65.861107, 65.833336, 65.75, 65.535713, 65.39286, 65.35714, 65.25, 65.229591, 65, 65.0625, 64.928574, 65.1875, 65.285713, 65.25, 65.071426, 65, 65.10714, 65.178574, 65.178574, 65.178574, 65.14286, 65.071426, 65.14286, 65.214287, 64.9375, 65.0625, 65.125, 65.1875, 65.666664, 65.1875, 65.321426, 65.0625, 65.0625, 65, 64.875, 64.9375, 65.10714, 65.10714, 65.375, 65.178574, 65.25, 65.223213, 65.25, 65.1875, 65.377548, 65.571426, 65.535713, 65.39286, 65.056122, 64.948982, 64.928574, 64.85714, 64.928574, 64.85714, 65.071426, 65.285713, 65.464287, 65.64286, 65.571426, 65.39286, 65.193878, 65.035713, 64.821426, 64.53125, 64.40625, 64.34375, 64.46875, 64.660713, 64.875, 65.0625, 64.85714, 65.0625, 64.9375, 64.946426, 65.26429, 65.117348, 65.117348, 64.89286, 64.964287, 65.071426, 65.214287, 65.479591, 65.5, 65.489799, 65.226189, 65.045914, 65, 64.785713, 64.651787, 64.875, 65.270409, 65.151787, 65.410713, 65.4375, 65.5, 65.535713, 65.35714, 65.178574, 65.208336, 65.071426, 65.071426, 65.14286, 65.035713, 65, 65.10714, 64.9375, 64.785713, 65.0625, 65, 65, 65.0625, 64.85714, 65.125, 64.9375, 65.071426, 65.14286, 64.857147, 64.862503, 65.053574, 64.991074, 65.416664, 65.5, 65.331627, 65.702385, 65.801018, 65.928574, 65.660713, 65.330353, 65.160713, 65.35714, 65.428574, 65.535713, 65.4375, 65.4375, 65.4375, 65.375, 65.1875, 65.0625, 65.017853, 65.074997, 65.008926, 64.946426, 64.875, 65, 65, 65.0625, 65, 64.9375, 65.14286, 65.214287, 65.464287, 65.419647, 65.357147, 65.25, 65.125, 65.214287, 65.5, 65.25, 65.321426, 65.25, 65.419647, 65.4375, 65.375, 65.125, 64.9375, 64.875, 64.875, 65.0625, 65.35714, 65.666664, 65.833336, 65.833336, 65.821434, 65.428574, 65.625, 65.125, 65.5, 65.35714, 65.35714, 65.5, 65.64286, 65.586739, 65.521431, 65.668373, 65.668373, 65.714287, 65.714287, 65.678574, 65.64286, 65.64286, 65.571426, 65.464287, 65.25, 65.1875, 65.25, 65.3125, 65.375, 65.64286, 65.60714, 65.64286, 65.64286, 65.64286, 65.60714, 65.4375, 65.4375, 65.375, 65.637756, 65.678574, 65.556122, 65.60714, 65.3125, 65.3125, 65.1875, 65.428574, 65.5, 65.571426, 65.678574, 65.64286, 65.561226, 65.583336, 65.464287, 65.551018, 65.535713, 65.464287, 65.321426, 65, 65, 64.9375, 65, 64.973213, 65, 65.272324, 65.413269, 65.321426, 65.178574, 65.10714, 65.153061, 65.523811, 65.630959, 65.440475, 65.331627, 65, 65.214287, 65.081627, 64.957146, 65.023811, 65.166664, 65.464287, 65.5, 65.3125, 65.125, 65, 65.14286, 65.333336, 65.14286, 65.071426, 64.71875, 64.574997, -10, -10, -10, -10, -10, -10, -10, -10, -10, -10, -10, -10, -10, -10, -10, -10, -10, -10, -10, -10, -10, -10, -10, -10, -10, -10, -10, -10, -10, -10, -10, -10, -10, -10, -10, -10, -10, -10, -10, -10, -10, -10, -10, -10, -10, -10, -10, -10, -10, -10, -10, -10, -10, -10, -10, -10, -10, -10, -10, -10, -10, -10, -10, -10, -10, -10, -10, -10, -10, -10, -10, -10, -10, -10, -10, -10, -10, -10, -10, 65.5, 66.333328, 66.452385, 66.557144, 66.714287, 66.775513, 66.705788, 66.579933, 66.104164, 65.883926, 65.75, 65.964287, 66.081627, 66.300003, 66.081627, 66.010201, 66, 66, 66, 65.928574, 65.964287, 66.035713, 66.26786, 66.428574, 66.35714, 66.1875, 65.821426, 65.714287, 65.64286, 65.75, 65.85714, 65.85714, 66, 66.10714, 66.285713, 66.39286, 66.25, 66.4375, 66.714287, 66.738091, 66.785713, 66.714287, 66.60714, 66.39286, 66.285713, 65.96875, 65.919647, 65.875, 66.035713, 66.375, 66.321426, 66.35714, 66.428574, 66.321426, 66.285713, 66.35714, 66.39286, 66.39286, 66.39286, 66.321426, 66.178574, 66.214287, 66.25, 66.178574, 66.285713, 66.321426, 66.35714, 66.428574, 66.35714, 66.35714, 66.25, 66.285713, 66.125, 66, 66.285713, 66.25, 66.214287, 66.285713, 66.147957, 65.839287, 65.9375, 65.9375, 66, 66.142853, 66.375, 66.375, 66.3125, 65.734695, 65.663261, 65.64286, 65.571426, 65.9375, 65.8125, 66, 66.125, 66.1875, 66.5, 66.39286, 66.285713, 66.14286, 65.8125, 65.625, 65.53125, 65.40625, 65.375, 65.5625, 66.005104, 66.14286, 66.214287, 66.416664, 66.071426, 66.035713, 66.112244, 65.949997, 66.040817, 66.112244, 66, 66.14286, 66.321426, 66.1875, 66.419647, 66.214287, 66.204086, 65.904762, 65.724487, 66.214287, 65.910713, 65.530617, 66.0625, 66.205353, 66.214287, 66.571426, 66.60714, 66.64286, 66.535713, 66.428574, 66.229591, 65.959183, 65.75, 65.75, 65.9375, 65.9375, 66, 66.285713, 66.214287, 66.416664, 66.214287, 66.214287, 66.285713, 66.39286, 66.625, 66.428574, 66.041664, 66.408165, 66.321426, 66.229591, 66.092857, 66.311226, 66.275513, 66.35714, 66.428574, 66.469383, 66.458336, 66.544647, 66.625, 66.535713, 66.556122, 66.520409, 66.5, 66.571426, 66.60714, 66.571426, 66.5, 66.428574, 66.125, 66, 65.9375, 65.875, 65.875, 66.10714, 65.875, 65.875, 66, 66, 66.285713, 66.178574, 66.178574, 65.9375, 66, 66.25, 66.25, 66.464287, 66.5, 66.39286, 66.428574, 66.428574, 66.321426, 66.35714, 66.321426, 66.125, 66.1875, 66.125, 66, 65.64286, 65.571426, 65.833336, 66.25, 66.321426, 66.464287, 66.64286, 66.75, 66.811226, 66.60714, 66.571426, 66.428574, 66.428574, 66.464287, 66.464287, 66.5, 66.60714, 66.632652, 66.599998, 66.744896, 66.744896, 66.714287, 66.714287, 66.714287, 66.714287, 66.714287, 66.4375, 66.3125, 66.1875, 66.125, 66.1875, 66.25, 66.375, 66.4375, 66.375, 66.571426, 66.375, 66.3125, 66.25, 66.3125, 66.5, 66.535713, 66.693878, 66.714287, 66.653061, 66.64286, 66.571426, 66.571426, 66.464287, 66.535713, 66.571426, 66.60714, 66.714287, 66.714287, 66.67347, 66.571426, 66.60714, 66.632652, 66.60714, 66.25, 66.285713, 66.178574, 66.035713, 66, 65.9375, 65.821426, 65.705353, 65.938988, 66.105659, 66.209824, 66.09375, 66.0625, 66.008926, 66.559525, 66.630959, 66.440475, 66.196426, 66.125, 66.321426, 66.18367, 66.085716, 66.047615, 66.035713, 66.35714, 66.428574, 66.3125, 66.15625, 66.0625, 65.96875, 66.214287, 66.14286, 66.071426, 65.916672, 64.933334, -10, -10, -10, -10, -10, -10, -10, -10, -10, -10, -10, -10, -10, -10, -10, -10, -10, -10, -10, -10, -10, -10, -10, -10, -10, -10, -10, -10, -10, -10, -10, -10, -10, -10, -10, -10, -10, -10, -10
67.288689, 66.979164, 66.821426, 67, 67.071426, 66.883926, 67.012497, 67.040817, 66.969383, 67, 67.071426, 67.14286, 67.071426, 67.071426, 67.071426, 67.178574, 67.285713, 67.285713, 67.321426, 67.5, 67.458336, 67.375, 67.071426, 67, 67.071426, 67.25, 67.214287, 67.0625, 67.0625, 66.9375, 67.1875, 67.375, 67.5625, 67.6875, 67.5625, 67.34375, 67.09375, 66.90625, 66.78125, 66.794647, 67, 67.071426, 67.285713, 67.35714, 67.321426, 67.39286, 67.285713, 67.321426, 67.35714, 67.321426, 67.321426, 67.25, 67.214287, 67.178574, 67.25, 67.321426, 67.35714, 67.464287, 67.428574, 67.1875, 67.1875, 67.0625, 67.0625, 67.214287, 67.321426, 67.321426, 67.285713, 67.321426, 67.285713, 67.125, 67.1875, 67.098213, 66.67347, 66.714287, 66.64286, 67, 67.080353, 67.3125, 67.3125, 67.428574, 67.511902, 67.470238, 67.5, 67.5, 67.285713, 67, 66.994896, 67, 66.875, 67.0625, 67, 67, 66.9375, 66.8125, 66.625, 66.714287, 66.535713, 66.571426, 66.75, 66.984695, 67.214287, 67.321426, 67.428574, 67.285713, 67.285713, 67.321426, 66.714287, 66.714287, 67.0625, 67.178574, 67.25, 67.285713, 67.25, 67.35714, 67.583336, 67.583336, 67.5, 67.375, 67.214287, 67.147957, 67.226189, 67.14286, 67.229591, 67.39286, 67.571426, 67.678574, 67.60714, 67.25, 67.125, 66.919647, 66.714287, 66.6875, 66.625, 66.928574, 67.035713, 67.178574, 67.25, 67.285713, 67.285713, 67.321426, 67.39286, 67.39286, 67.39286, 67.428574, 67.464287, 67.708336, 67.551018, 67.321426, 67.204086, 67.028572, 67.244896, 67.244896, 67.35714, 67.428574, 67.35714, 67.25, 67.3125, 67.375, 67.348213, 67.510201, 67.510201, 67.571426, 67.60714, 67.464287, 67.280617, 67.0625, 67.107147, 67.0625, 66.714287, 66.64286, 66.866074, 66.6875, 66.8125, 66.794647, 67.071426, 67.285713, 67.35714, 67.5, 67.428574, 67.39286, 67.214287, 66.9375, 67.125, 67.321426, 67.428574, 67.5, 67.35714, 67.321426, 67.1875, 67.0625, 67.285713, 67, 66.875, 67, 66.9375, 67.14286, 67.458336, 67.458336, 67.583336, 67.39286, 67.3125, 67.4375, 67.5, 67.517853, 67.491074, 67.428574, 67.428574, 67.403061, 67.666672, 67.666672, 67.571426, 67.375, 67.375, 67.5, 67.5, 67.785713, 67.85714, 67.85714, 67.85714, 67.85714, 67.785713, 67.64286, 67.5, 67.321426, 67.10714, 67.14286, 67.285713, 67.39286, 67.60714, 67.571426, 67.25, 67.25, 67.1875, 67.1875, 67.1875, 67.25, 67.3125, 67.535713, 67.571426, 67.571426, 67.571426, 67.60714, 67.678574, 67.60714, 67.464287, 67.5, 67.5, 67.571426, 67.64286, 67.64286, 67.64286, 67.64286, 67.714287, 67.64286, 67.5, 67.1875, 67.0625, 67.214287, 67.10714, 67, 67.035713, 66.846939, 66.580353, 66.608841, 67.043159, 67.209824, 67.25, 67.178574, 67.112244, 67.145836, 67.270836, 67.166664, 67.32653, 67.35714, 67.39286, 67.35714, 67.160713, 67.026787, 67.03125, 67, 67.285713, 67.214287, 67.178574, 67.14286, 67.071426, 66.9375, 66.875, 66.875, 66.976189, -10, -10, -10, -10, -10, -10, -10, -10, -10, -10, -10, -10, -10, -10, -10, -10, -10, -10, -10, -10, -10, -10, -10, -10, -10, -10, -10, -10, -10, -10, -10, -10, -10, -10, -10, -10, -10, -10, -10, -10, -10, -10, -10, -10, -10, -10, -10, -10, -10, -10, -10, -10, -10, -10, -10, -10, -10, -10, -10, -10, -10, -10, -10, -10, -10, -10, -10, -10, -10, -10, -10, -10, -10, -10, -10, -10, -10, -10, -10, -10, -10, -10, -10, 68.400002, 68.785713, 68.823128, 68.291664, 68.142853, 68.14286, 68.10714, 68.10714, 68.214287, 68.0625, 67.991074, 67.75, 67.75, 67.857147, 68.25, 68.39286, 68.25, 68.178574, 67.8125, 67.8125, 67.875, 67.9375, 68.321426, 68.35714, 68.35714, 68.214287, 68.071426, 68, 68.071426, 68.178574, 68.10714, 68.14286, 67.9375, 67.875, 68.0625, 68.125, 68.1875, 68.5, 68.3125, 68.25, 68.1875, 67.714287, 67.8125, 67.8125, 68, 67.875, 68.125, 68.39286, 68.428574, 68.5, 68.125, 68.1875, 68.21875, 68.075897, 67.96875, 67.90625, 67.875, 68, 68.0625, 68.39286, 68.39286, 68.35714, 68.125, 68, 67.9375, 67.875, 67.8125, 67.8125, 67.9375, 68.14286, 68.25, 68.214287, 68.14286, 68.14286, 68.14286, 68.147957, 68.226189, 68.25, 68.333336, 68.25, 68.35714, 68.535713, 68.535713, 68.535713, 68.510201, 68.438774, 68.428574, 68.35714, 68.25, 68, 67.776787, 67.8125, 67.8125, 67.9375, 67.8125, 67.75, 67.928574, 67.89286, 67.821426, 67.803574, 67.73214, 67.839287, 67.464287, 67.678574, 68.321426, 68.321426, 68.35714, 68.178574, 68.25, 68.25, 68.333336, 68.333336, 68.14286, 68.178574, 68.285713, 68.125, 68.321426, 68.321426, 68.285713, 68.214287, 68.14286, 68.071426, 68.10714, 68.091835, 68.122452, 68.25, 68.107147, 68.25, 68.3125, 68.5, 68.25, 68.125, 68.0625, 67.622452, 67.619049, 67.666664, 67.928574, 68.071426, 68.214287, 68.321426, 68.1875, 68.1875, 68.125, 68.25, 68.25, 68.25, 68.0625, 68.1875, 68.25, 68.64286, 68.693878, 68.464287, 68.39286, 67.714287, 68.39286, 68.39286, 68.464287, 68.5, 68.125, 68.1875, 68.25, 68.25, 68.241074, 68.224998, 68.375, 68.4375, 68.5625, 68.14286, 67.959183, 67.928574, 68.232147, 68.321426, 68.5, 68.416664, 68.061226, 67.625, 67.75, 67.732147, 68.10714, 68.285713, 68.428574, 68.60714, 68.535713, 68.571426, 68.39286, 68.285713, 68.39286, 68.35714, 68.1875, 68.1875, 68.0625, 68.0625, 68.125, 68.125, 68.125, 68, 67.875, 67.875, 68.10714, 68.214287, 68.35714, 68.428574, 68.5, 68.535713, 68.571426, 68.60714, 68.571426, 68.330353, 68.3125, 68, 68, 68.258926, 68.738098, 68.738098, 68.714287, 68.75, 68.482147, 68.550003, 68.678574, 68.669647, 68.964287, 68.928574, 68.85714, 68.85714, 68.785713, 68.4375, 68.25, 68.151787, 67.734695, 68.25, 68.387756, 68.428574, 68.60714, 68.60714, 68.3125, 68.3125, 68.25, 68.464287, 68.464287, 68.535713, 68.571426, 68.3125, 68.3125, 68.3125, 68.3125, 68.4375, 68.714287, 68.4375, 68.3125, 68.25, 68.25, 68.535713, 68.3125, 68.3125, 68.3125, 68.3125, 68.64286, 68.4375, 68.25, 68.285713, 68.14286, 68.14286, 68.14286, 67.9375, 68.25, 67.839287, 68.096939, 68.375984, 68.363098, 68.400513, 68.303574, 68.178574, 67.875, 67.9375, 68.0625, 68.125, 68.0625, 68.25, 68.321426, 68.35714, 68.43367, 68.280617, 68.214287, 67.9375, 68, 68, 68.03125, 67.785713, 67.678574, 67.64286, 67.64286, 67.333336, 67.491669, -10, -10, -10, -10, -10, -10, -10, -10, -10, -10, -10, -10, -10, -10, -10, -10, -10, -10, -10, -10, -10, -10, -10, -10, -10, -10, -10, -10, -10, -10, -10, -10, -10, -10, -10, -10, -10, -10, -10, -10
69.438774, 69.321426, 69.321426, 69.321426, 69.39286, 69.321426, 69.132652, 68.75, 68.8125, 68.982147, 69.321426, 69.39286, 69.214287, 69.14286, 68.8125, 68.535713, 68.64286, 69, 69.125, 69.125, 69.0625, 68.9375, 68.8125, 68.75, 68.8125, 68.875, 68.875, 68.9375, 69.178574, 69.14286, 69.178574, 69.214287, 69.0625, 69.25, 69.3125, 69.464287, 69.428574, 69.541664, 69.214287, 69.214287, 69.214287, 69.214287, 69.321426, 69.35714, 69.321426, 69.285713, 69.0625, 69.125, 69.1875, 69.169647, 68.785713, 68.714287, 68.875, 69.14286, 69.214287, 69.35714, 69.428574, 69.1875, 69.125, 68.714287, 68.64286, 68.8125, 68.464287, 68.535713, 68.678574, 68.785713, 69.125, 69, 68.875, 68.875, 68.9375, 69.234695, 69.193878, 69.14286, 69.14286, 69.25, 69.35714, 69.535713, 69.535713, 69.5, 69.5, 69.1875, 69.125, 69.0625, 68.9375, 68.821426, 68.721092, 69.238098, 69.10714, 69.10714, 68.85714, 68.85714, 68.928574, 68.928574, 68.928574, 68.75, 68.89286, 69.053574, 69.479164, 69.604164, 69.446426, 69.35714, 69.125, 69, 69.321426, 69.39286, 69.285713, 69.214287, 68.875, 68.875, 68.96875, 69.0625, 69.125, 69.1875, 69.21875, 69.125, 69, 68.875, 68.8125, 68.8125, 68.9375, 69.0625, 69.1875, 69.3125, 69.3125, 69.28125, 69.15625, 69.03125, 69.14286, 69.238098, 69.226189, 69.333336, 69.14286, 69.214287, 69.25, 69.125, 69.35714, 69.35714, 69.25, 68.96875, 68.90625, 68.8125, 68.78125, 68.84375, 68.96875, 69.28125, 69.419647, 69.428574, 69.35714, 69.375, 69.214287, 69.285713, 69.428574, 69.5, 69.25, 69.464287, 69.464287, 69.464287, 69.241074, 69.224998, 69.571426, 69.64286, 69.785713, 69.875, 69.76786, 69.75, 69.515305, 69.5, 69.5, 69.428574, 69.204086, 68.928574, 69, 69.051018, 69.321426, 69.1875, 69.3125, 69.4375, 69.60714, 69.60714, 69.428574, 69.35714, 69.39286, 69.39286, 69.1875, 69.0625, 68.9375, 68.875, 69.10714, 69.214287, 69.214287, 69.178574, 69.10714, 68.875, 69.071426, 69, 69.1875, 69.3125, 69.4375, 69.678574, 69.714287, 69.714287, 69.571426, 69.413261, 69.285713, 69.416664, 69.5, 69.438774, 69.809525, 69.809525, 69.785713, 69.821426, 69.801018, 69.878571, 70.025513, 69.979591, 70, 69.928574, 69.85714, 69.785713, 69.64286, 69.5, 69.1875, 69.214287, 69.672615, 69.464287, 69.637756, 69.416664, 69.616074, 69.64286, 69.60714, 69.5, 69.571426, 69.60714, 69.60714, 69.64286, 69.64286, 69.535713, 69.3125, 69.3125, 69.3125, 69.64286, 69.714287, 69.64286, 69.571426, 69.3125, 69.3125, 69.375, 69.3125, 69.3125, 69.25, 69.25, 69.375, 69.571426, 69.3125, 69.1875, 69.0625, 69, 69.178574, 69.10714, 69.214287, 69.48214, 69.336739, 69.340134, 69.476189, 69.241074, 69.21875, 68.910713, 68.76786, 69.321426, 69.285713, 69.214287, 68.9375, 68.875, 68.9375, 69.214287, 69.362244, 69.244896, 69.252548, 68.946434, 68.761909, 69.0625, 69.09375, 69.416664, 69.375, 69.333336, 69.31945, -10, -10, -10, -10, -10, -10, -10, -10, -10, -10, -10, -10, -10, -10, -10, -10, -10, -10, -10, -10, -10, -10, -10, -10, -10, -10, -10, -10, -10, -10, -10, -10, -10, -10, -10, -10, -10, -10, -10, -10, -10, -10, -10, -10, -10, -10, -10, -10, -10, -10, -10, -10, -10, -10, -10, -10, -10, -10, -10, -10, -10, -10, -10, -10, -10, -10, -10, -10, -10, -10, -10, -10, -10, -10, -10, -10, -10, -10, -10, -10, -10, -10, -10, -10, -10, -10, -10, -10, 70.050003, 70.571426, 70.404762, 70.35714, 70.285713, 70.285713, 70.25, 70.061226, 69.85714, 70, 70.193878, 70.321426, 70.35714, 70, 69.9375, 70.10714, 70.375, 70.375, 70.10714, 70.071426, 69.839287, 69.919647, 69.770836, 69.625, 69.696426, 69.895836, 69.714287, 69.75, 70.285713, 70.321426, 70.285713, 70.178574, 70.14286, 70, 70.1875, 70.535713, 70.571426, 70.60714, 70.571426, 70.5, 70.464287, 70.428574, 70.428574, 70.464287, 70.25, 69.964287, 69.877548, 70.198982, 70.188774, 70.178574, 70.229591, 70.291664, 70.333336, 70.14286, 70.178574, 70.285713, 70.1875, 70.25, 70.5, 70.464287, 70.583336, 70.458336, 70.071426, 70.125, 70.083336, 70.041664, 70.125, 70.035713, 70.051018, 69.875, 69.75, 70.098213, 70.080353, 70.080353, 70, 70.0625, 70.1875, 70.25, 70.60714, 70.60714, 70.3125, 70.25, 70.0625, 69.9375, 69.8125, 69.75, 69.974487, 70.545631, 70.488098, 70.321426, 70.285713, 70.071426, 70.035713, 69.875, 69.875, 69.875, 70.10714, 70.178574, 70.321426, 70.535713, 70.64286, 70.64286, 70.535713, 70.25, 70.1875, 70.25, 70.5, 70.25, 70.125, 70.026787, 69.775513, 69.811226, 70.125, 70.464287, 70.428574, 70.428574, 70.321426, 70.214287, 70.10714, 69.5, 69.5, 70.178574, 70.321426, 70.464287, 70.571426, 70.535713, 70.28125, 70.15625, 70.09375, 70.03125, 70, 70.35714, 70.428574, 70.5, 70.469383, 70.270409, 70.188774, 70.178574, 70.25, 70.25, 70.03125, 70.03125, 69.571426, 69.464287, 69.535713, 69.589287, 70.0625, 70.15625, 70.321426, 70.321426, 70.285713, 69.785713, 70.39286, 70.5, 70.571426, 70.535713, 70.571426, 70.5, 70.5, 70.489799, 70.400002, 70.64286, 70.678574, 70.821426, 70.678574, 70.551018, 70.5, 70.418373, 70.464287, 70.428574, 70.35714, 70.17347, 69.928574, 69.964287, 69.989799, 70.178574, 70.214287, 70.35714, 70.5, 70.5, 70.3125, 70.1875, 70.35714, 70.35714, 70.321426, 70.10714, 69.89286, 69.85714, 69.897957, 69.8125, 70.178574, 70.10714, 70.10714, 70.071426, 69.964287, 69.964287, 69.8125, 69.9375, 70.25, 70.428574, 70.571426, 70.5, 70.5625, 70.4375, 70.267853, 70.39286, 70.35714, 70.428574, 70.540817, 70.583336, 70.583336, 70.785713, 70.85714, 70.872452, 70.914284, 71.061226, 70.979591, 70.964287, 70.6875, 70.625, 70.5625, 70.4375, 70.3125, 70.428574, 70.42347, 70.540817, 70.535713, 70.67347, 71, 70.846939, 70.60714, 70.64286, 70.571426, 70.64286, 70.75, 70.64286, 70.571426, 70.5, 70.39286, 70.428574, 70.5, 70.571426, 70.678574, 70.714287, 70.678574, 70.64286, 70.571426, 70.571426, 70.60714, 70.535713, 70.464287, 70.39286, 70.39286, 70.3125, 70.60714, 70.571426, 70.5, 70.428574, 70.35714, 70.35714, 70.25, 70.25, 70.321426, 70.32653, 70.352043, 70.464287, 70.25, 70.5, 70.75, 70.708336, 70.535713, 70.464287, 70.35714, 70, 69.64286, 69.714287, 70.0625, 70.223213, 70.151787, 70.142853, 70.726189, 70.611115, 70.285713, 70.285713, 70.112244, 70.01429, 69.699997, 69.733337, -10, -10, -10, -10, -10, -10, -10, -10, -10, -10, -10, -10, -10, -10, -10, -10, -10, -10, -10, -10, -10, -10, -10, -10, -10, -10, -10, -10, -10, -10, -10, -10, -10, -10, -10, -10, -10, -10, -10, -10, -10, -10
71.150002, 70.96666, 71.5, 71.104164, 71.125, 71.125, 70.991074, 71.071426, 71.10714, 71.204086, 71.0625, 71.0625, 70.9375, 71.071426, 71.071426, 71.178574, 71.178574, 71.071426, 70.6875, 70.589287, 70.669647, 70.845238, 70.85714, 71.010201, 71.238098, 71.416664, 71.458336, 71.25, 71.214287, 71.0625, 71, 70.9375, 71.178574, 71.25, 71.428574, 71.535713, 71.571426, 71.571426, 71.464287, 71.428574, 71.464287, 71.535713, 71.64286, 71.60714, 71.875, 71.797615, 71.142853, 71.071426, 71, 71.044647, 71.214287, 71.35714, 71.428574, 71.35714, 71.428574, 71.464287, 71.5, 71.60714, 71.535713, 71.428574, 71.285713, 71.071426, 71.035713, 71.035713, 70.791664, 70.916664, 70.958336, 71.336739, 71.285713, 71.625, 71.469383, 71.270409, 71.198982, 71.035713, 71.071426, 71.285713, 71.464287, 71.571426, 71.5, 71.35714, 71, 70.8125, 70.6875, 70.5625, 70.785713, 71.010201, 71.488098, 71.666672, 71.571426, 71.428574, 71.178574, 71.071426, 71, 71, 71, 71.071426, 71.25, 71.428574, 71.678574, 71.785713, 71.75, 71.60714, 71.464287, 71.35714, 71.321426, 71.35714, 71.25, 71.178574, 71.17347, 71.601189, 71.747025, 71.75, 71.464287, 71.35714, 71.285713, 71.214287, 71.214287, 71.214287, 71.416664, 71.541664, 71.5, 71.678574, 71.785713, 71.821426, 71.714287, 71.5, 71.35714, 71.25, 71.214287, 71.5, 71.428574, 71.571426, 71.678574, 71.647957, 71.205353, 71.133926, 71.0625, 71.03125, 71.178574, 71.071426, 71.10714, 71.291664, 71.354164, 71.479164, 71.479164, 71.125, 71.21875, 71.21875, 71.25, 71.25, 71.666664, 71.5, 71.571426, 71.64286, 71.678574, 71.678574, 71.60714, 71.60714, 71.602043, 71.557144, 71.714287, 71.714287, 71.5625, 71.4375, 71.3125, 71.1875, 71.0625, 71.0625, 71, 70.9375, 70.954086, 70.64286, 70.724487, 70.976189, 70.919647, 71, 71.0625, 71.125, 71.125, 71, 70.9375, 70.9375, 71, 71.09375, 70.96875, 70.5, 70.78125, 70.785713, 70.8125, 71, 70.9375, 71, 70.785713, 70.64286, 70.875, 70.8125, 70.8125, 70.9375, 71.125, 71.3125, 71.4375, 71.64286, 71.571426, 71.571426, 71.540817, 71.571426, 71.64286, 71.64286, 71.714287, 71.714287, 71.5625, 71.625, 71.669647, 71.675003, 71.803574, 71.732147, 71.6875, 71.5625, 71.714287, 71.64286, 71.5, 71.428574, 71.39286, 71.214287, 71.410713, 71.678574, 71.464287, 71.821426, 71.811226, 71.375, 71.5, 71.4375, 71.5, 71.5, 71.3125, 71.1875, 71.125, 71.125, 71.25, 71.60714, 71.678574, 71.714287, 71.714287, 71.714287, 71.714287, 71.60714, 71.60714, 71.60714, 71.571426, 71.571426, 71.5, 71.5, 71.535713, 71.571426, 71.535713, 71.5, 71.464287, 71.464287, 71.5, 71.39286, 71.1875, 71.25, 71.160713, 71.089287, 71.125, 71.214287, 71.321426, 71.428574, 71.428574, 71.464287, 71.428574, 71.35714, 71.321426, 71.5, 71.541664, 71.214287, 71.25, 71.178574, 71.234695, 71.586739, 71.523811, 71.39286, 71.09375, 70.889877, 70.349998, -10, -10, -10, -10, -10, -10, -10, -10, -10, -10, -10, -10, -10, -10, -10, -10, -10, -10, -10, -10, -10, -10, -10, -10, -10, -10, -10, -10, -10, -10, -10, -10, -10, -10, -10, -10, -10, -10, -10, -10, -10, -10, -10, -10, -10, -10, -10, -10, -10, -10, -10, -10, -10, -10, -10, -10, -10, -10, -10, -10, -10, -10, -10, -10, -10, -10, -10, -10, -10, -10, -10, -10, -10, -10, -10, -10, -10, -10, -10, -10, -10, -10, -10, -10, -10, -10, -10, -10, -10, -10, -10, -10, -10, 72, 72.229164, 72.1875, 72.25, 72.214287, 72.214287, 72.14286, 72, 72, 71.9375, 72.178574, 72.25, 72, 72.0625, 72, 71.8125, 71.5625, 71.464287, 71.607147, 71.880959, 71.928574, 72.081627, 72.238098, 72.214287, 72.321426, 72.0625, 72.0625, 72.125, 72.214287, 72.214287, 72.285713, 72.125, 72.3125, 72.375, 72.375, 72.3125, 72.25, 72.3125, 72.410713, 72.5, 72.821426, 72.714287, 72.75, 72.68367, 72.484695, 72.367348, 72.0625, 72.1875, 72.1875, 72.3125, 72.60714, 72.5, 72.571426, 72.571426, 72.535713, 72.571426, 72.25, 72.0625, 71.9375, 71.75, 71.8125, 71.9375, 72.5, 72.708336, 72.625, 72.479591, 72.39286, 72.464287, 72.469383, 72.163261, 72.091835, 72.035713, 72.14286, 72.39286, 72.571426, 72.535713, 72.1875, 72.0625, 71.875, 72.071426, 71.75, 71.666664, 71.75, 71.946426, 72.270836, 72.333336, 72.35714, 72.321426, 72.25, 72.158165, 71.75, 71.8125, 71.857147, 72, 72.1875, 72.3125, 72.5, 72.785713, 72.785713, 72.714287, 72.60714, 72.25, 72.125, 72.174103, 72.137497, 71.946426, 72.301018, 72.479591, 72.640305, 72.678574, 72.5, 72.125, 72.09375, 72.0625, 72.0625, 72.35714, 72.35714, 72.464287, 72.64286, 72.785713, 72.85714, 72.85714, 72.785713, 72.34375, 72.15625, 71.96875, 72.089287, 72.14286, 72.25, 72.35714, 72.535713, 72.57653, 72.448982, 72.438774, 72.285713, 72.09375, 72.09375, 71.75, 72.303574, 72.25, 72.303574, 72.303574, 72.339287, 72.410713, 72.39286, 72.464287, 72.428574, 72.39286, 72.428574, 72.535713, 72.64286, 72.556122, 72.510201, 72.428574, 72.35714, 72.428574, 72.5, 72.571426, 72.64286, 72.571426, 72.25, 72.0625, 72, 71.9375, 71.9375, 71.785713, 72, 71.9375, 71.741074, 71.214287, 71.508926, 71.729164, 71.857147, 71.9375, 72, 72.0625, 72.125, 71.714287, 71.64286, 71.64286, 71.714287, 72.15625, 72.285713, 72.354164, 72.071426, 71.969383, 71.928574, 72.10714, 72.14286, 72.321426, 72.625, 72.5, 72.178574, 72.10714, 71.875, 72, 72.1875, 72.3125, 72.64286, 72.375, 72.535713, 72.64286, 72.688774, 72.75, 72.785713, 72.678574, 72.785713, 72.785713, 72.785713, 72.785713, 72.5625, 72.625, 72.625, 72.625, 72.5625, 72.714287, 72.64286, 72.535713, 72.428574, 72.35714, 72.428574, 72.25, 72.375, 72.5, 72.5, 72.6875, 72.651787, 72.375, 72.846939, 72.729591, 72.785713, 72.4375, 72.25, 72.125, 72.0625, 72.1875, 72.3125, 72.64286, 72.785713, 72.785713, 72.785713, 72.785713, 72.714287, 72.375, 72.3125, 72.3125, 72.25, 72.520409, 72.647957, 72.60714, 72.678574, 72.60714, 72.375, 72.375, 72.375, 72.60714, 72.64286, 72.535713, 72.464287, 72.428574, 72.321426, 72.0625, 72, 71.9375, 71.96875, 72.03125, 72.03125, 72.03125, 72, 72.214287, 72.321426, 72.428574, 72.5, 72.428574, 72.321426, 72.178574, 71.955353, 72.232147, 72.177086, 72.03125, 71.96875, 71.723213, -10, -10, -10, -10, -10, -10, -10, -10, -10, -10, -10, -10, -10, -10, -10, -10, -10, -10, -10, -10, -10, -10, -10, -10, -10, -10, -10, -10, -10, -10, -10, -10, -10, -10, -10, -10, -10, -10, -10, -10, -10, -10, -10, -10, -10
-10, -10, -10, 72.916664, 72.900002, 73.428574, 73.333328, 73.285713, 73.178574, 73.14286, 73.214287, 73.285713, 73.285713, 73.35714, 73.25, 73, 72.875, 72.75, 72.85714, 72.583336, 72.586739, 72.630959, 73.214287, 73.008926, 73.083336, 73, 73.0625, 73.0625, 73.25, 73.35714, 73.25, 73.25, 73.214287, 73.178574, 73.285713, 73.35714, 73.428574, 73.25, 73.25, 73.5, 73.612244, 73.64286, 73.714287, 73.571426, 73.375, 73.410713, 73.510201, 73.469383, 73.35714, 73.39286, 73.39286, 73.5, 73.678574, 73.571426, 73.535713, 73.464287, 73.39286, 73.25, 73.1875, 72.785713, 72.60714, 72.6875, 72.75, 73.14286, 73.39286, 73.535713, 73.428574, 73.418373, 73.0625, 73.125, 73.098213, 72.830353, 72.830353, 72.875, 73, 73.1875, 73.428574, 73.125, 73.0625, 73.0625, 73, 73.285713, 73.541664, 73.416664, 73.375, 73.214287, 73, 73.0625, 73, 73, 73.125, 73.107147, 72.901787, 73, 72.982147, 73.321426, 73.5, 73.5, 73.4375, 73.4375, 73.375, 73.34375, 73.438774, 73.395836, 73.294647, 73.299103, 73.199997, 72.946426, 73.044647, 73.169647, 73.294647, 73.383926, 73.375, 73.1875, 73.1875, 73.125, 73.1875, 73.28125, 73.25, 73.34375, 73.46875, 73.5625, 73.89286, 73.785713, 73.714287, 73.3125, 73.1875, 73.125, 73, 73, 73, 73.0625, 73.25, 73.348213, 73.581627, 73.612244, 73.571426, 73.535713, 73.5, 73.708336, 73.25, 73.25, 73.3125, 73.3125, 73.28125, 73.54847, 73.676025, 73.720238, 73.571426, 73.3125, 73.3125, 73.5, 73.785713, 73.455353, 73.383926, 73, 72.928574, 73.25, 73.3125, 73.60714, 73.4375, 73.375, 73.25, 73, 72.9375, 73.10714, 73.14286, 73.458336, 73.10714, 73.056122, 72.968369, 72.666664, 72.605446, 73, 72.809525, 72.958336, 73.25, 73.285713, 73.35714, 73.541664, 73.458336, 73.375, 73.416664, 73.339287, 73.339287, 73.23214, 73.125, 72.948982, 72.89286, 73.10714, 73.214287, 73.428574, 73.5, 73.459183, 73.428574, 73.153061, 73.081627, 73.14286, 73.321426, 73.5, 73.678574, 73.3125, 73.3125, 73.64286, 73.724487, 73.785713, 73.714287, 73.571426, 73.571426, 73.571426, 73.571426, 73.571426, 73.571426, 73.64286, 73.714287, 73.64286, 73.571426, 73.571426, 73.25, 73.1875, 73.125, 73, 73.0625, 73.25, 73.39286, 73.535713, 73.535713, 73.714287, 73.68367, 73.60714, 73.882652, 73.801025, 73.821426, 73.571426, 73.39286, 73.285713, 73.25, 73.464287, 73.571426, 73.678574, 73.785713, 73.785713, 73.785713, 73.714287, 73.571426, 73.1875, 73.125, 73.1875, 73.1875, 73.330353, 73.647957, 73.535713, 73.535713, 73.35714, 73.285713, 73.35714, 73.428574, 73.571426, 73.714287, 73.678574, 73.64286, 73.535713, 73.428574, 73.321426, 73.214287, 73, 72.9375, 72.60714, 72.794647, 72.651787, 72.75, 72.8125, 73, 73.125, 73.1875, 73.321426, 73.178574, 72.875, 72.8125, 72.875, 72.84375, 72.78125, 72.375, 72.428574, -10, -10, -10, -10, -10, -10, -10, -10, -10, -10, -10, -10, -10, -10, -10, -10, -10, -10, -10, -10, -10, -10, -10, -10, -10, -10, -10, -10, -10, -10, -10, -10, -10, -10, -10, -10, -10, -10, -10, -10, -10, -10, -10, -10, -10, -10, -10, -10, -10, -10, -10, -10, -10, -10, -10, -10, -10, -10, -10, -10, -10, -10, -10, -10, -10, -10, -10, -10, -10, -10, -10, -10, -10, -10, -10, -10, -10, -10, -10, -10, -10, -10, -10, -10, -10, -10, -10, -10, -10, -10, -10, -10, -10, -10, -10, -10, -10, 74.050003, 74.166664, 74.083336, 74.14286, 74.10714, 74.178574, 74.25, 74.25, 74.25, 74.214287, 74.14286, 74.14286, 74.14286, 74.178574, 74.505951, 74.5, 74.458336, 74.214287, 74.178574, 74, 73.9375, 73.9375, 74.178574, 74.214287, 74.321426, 74.285713, 74.35714, 74.0625, 74.178574, 74.178574, 73.9375, 74.285713, 74.35714, 74.464287, 74.60714, 74.68367, 74.678574, 74.5, 74.375, 74.071426, 74.178574, 74.214287, 74.5, 74.775513, 74.571426, 74.571426, 74.535713, 74.714287, 74.4375, 74.375, 74.3125, 74.1875, 74.125, 74.25, 74.375, 74.333336, 74, 74.035713, 74.14286, 74.125, 74.25, 74.125, 74.0625, 73.875, 73.8125, 73.8125, 73.75, 73.8125, 74.178574, 74.321426, 74.428574, 74.25, 73.85714, 74.0625, 74.321426, 74.35714, 74.5, 74.5, 74.35714, 74.214287, 74.10714, 73.8125, 73.8125, 73.875, 73.9375, 74.35714, 74.443886, 74.244896, 74.35714, 74.336739, 74.5, 74.60714, 74.571426, 74.60714, 74.375, 74.25, 74.15625, 74.071426, 74.452385, 74.443886, 74.538261, 74.442856, 74.188774, 74.017853, 74, 74.125, 74.133926, 74.35714, 74.25, 74.35714, 74.35714, 74.464287, 74.535713, 74.464287, 74.34375, 74.46875, 74.5625, 74.65625, 74.5625, 74.4375, 74.39286, 74.285713, 74.25, 74.178574, 74.132652, 73.75, 73.8125, 73.875, 74.0625, 74.35714, 74.428574, 74.464287, 74.428574, 74.39286, 74.35714, 74.25, 74.214287, 74.25, 74.25, 74.125, 74.276787, 74.693886, 74.773811, 74.64286, 74.571426, 74.3125, 74.714287, 74.785713, 74.663261, 74.510201, 74.583336, 74.583336, 74.428574, 74.64286, 74.785713, 74.785713, 74.714287, 74.535713, 74.285713, 74.321426, 74.35714, 74.428574, 74.5, 74.35714, 74.306114, 74.259193, 73.5, 73.993202, 74.261902, 74.571434, 74.708336, 74.428574, 74.464287, 74.535713, 74.535713, 74.464287, 74.39286, 74.428574, 74.5, 74.3125, 74.25, 74.125, 73.64286, 73.571426, 74, 74.285713, 74.464287, 74.3125, 74.339287, 74.60714, 74.133926, 74.260201, 74.25, 74.285713, 74.321426, 74.428574, 74.321426, 74.464287, 74.544647, 74.633926, 74.625, 74.464287, 74.3125, 74.3125, 74.178574, 74.214287, 74.214287, 74.214287, 74.5, 74.714287, 74.4375, 74.4375, 74.410713, 74.214287, 74.1875, 74.0625, 73.9375, 73.9375, 74.017853, 74.047623, 74.482147, 74.75, 74.821426, 74.647957, 74.535713, 74.704086, 74.622452, 74.714287, 74.535713, 74.5, 74.464287, 74.464287, 74.64286, 74.678574, 74.64286, 74.714287, 74.714287, 74.714287, 74.5, 74.375, 74.125, 74, 74.0625, 74.25, 74.520401, 74.473213, 74.375, 74.375, 73.928574, 73.85714, 74.1875, 74.428574, 74.464287, 74.5, 74.5, 74.571426, 74.375, 74.60714, 74.5, 74.464287, 74.397957, 74.091835, 74.23214, 73.908165, 73.526787, 73.6875, 73.464287, 73.875, 74, 74, 73.9375, 73.8125, 73.6875, 73.625, 73.6875, 73.78125, 73.822914, -10, -10, -10, -10, -10, -10, -10, -10, -10, -10, -10, -10, -10, -10, -10, -10, -10, -10, -10, -10, -10, -10, -10, -10, -10, -10, -10, -10, -10, -10, -10, -10, -10, -10, -10, -10, -10, -10, -10, -10, -10, -10, -10, -10, -10, -10, -10
-10, -10, -10, -10, -10, -10, 74.638885, 74.527779, 75.0625, 75.0625, 75.0625, 75.0625, 75.0625, 75.0625, 75.125, 75.35714, 75.39286, 75.428574, 75.5, 75.540817, 75.535713, 75.464287, 75.25, 75.178574, 75.071426, 75, 75.035713, 75.14286, 75, 75.125, 75.0625, 75.25, 75.178574, 74.875, 74.875, 74.875, 75.0625, 75.1875, 75.60714, 75.714287, 75.535713, 75.5, 75.4375, 75.5, 75.666664, 75.791664, 75.916664, 76.041664, 75.846939, 75.64286, 75.64286, 75.3125, 75.64286, 75.571426, 75.5, 75.5, 75.321426, 75.285713, 75.321426, 75.39286, 75.464287, 75.39286, 75.35714, 75, 75, 75, 74.883926, 74.714287, 74.571426, 74.535713, 74.5, 75.071426, 75.14286, 75.25, 75.285713, 75.25, 75.285713, 75.375, 75.285713, 75.35714, 75.35714, 75.464287, 75.1875, 75.0625, 75, 74.9375, 74.875, 74.571426, 75.071426, 75.10714, 75.285713, 75.346939, 75.244896, 75.321426, 75.346939, 75.464287, 75.5, 75.464287, 75.464287, 75.464287, 75.21875, 75.1875, 75.133926, 75.333336, 75.551025, 75.581627, 75.199997, 75.112244, 75.153061, 75.14286, 75.178574, 75.071426, 75.125, 75.0625, 75.5, 75.571426, 75.64286, 75.660713, 75.571426, 75.571426, 75.60714, 75.625, 75.714287, 75.571426, 75.25, 75.0625, 75.14286, 75.178574, 75.14286, 75.132652, 74.928574, 75, 74.535713, 74.9375, 75.0625, 75.0625, 75.125, 75.125, 75, 74.9375, 74.8125, 74.75, 74.8125, 74.84375, 74.875, 75.089287, 75.586739, 75.489586, 75.678574, 75.64286, 75.5, 75.60714, 75.64286, 75.581627, 75.540817, 75.5, 75.5, 75.535713, 75.714287, 75.821426, 75.821426, 75.785713, 75.678574, 75.5, 75.535713, 75.5, 75.535713, 75.571426, 75.464287, 75.448975, 75.478569, 75.416664, 75.309525, 75.523811, 75.5, 75.5, 75.39286, 75.35714, 75.39286, 75.5, 75.5, 75.5, 75.5, 75.5, 75.571426, 75.535713, 75.387756, 75.541664, 75.458336, 75.35714, 75.1875, 75.25, 75.1875, 75.352043, 75.464287, 75.331627, 75.331627, 75.1875, 75.1875, 74.928574, 75, 75.1875, 75.535713, 75.765312, 75.806114, 75.75, 75.401787, 75.375, 75.375, 75.916664, 76, 75.916664, 75.916664, 75.714287, 75.714287, 75.64286, 75.64286, 75.612244, 75.42347, 75.428574, 75.285713, 75.14286, 74.9375, 75.017853, 75.736115, 75.693886, 75.785713, 75.821426, 75.473213, 75.375, 75.311226, 75.229599, 75.5625, 75.4375, 75.60714, 75.60714, 75.60714, 75.714287, 75.714287, 75.4375, 75.5, 75.4375, 75.375, 75.375, 75.428574, 75.321426, 75.285713, 75.285713, 75.25, 75.367348, 75.223213, 75.35714, 75.25, 75.5, 75.5, 75.35714, 75.1875, 75.25, 75.3125, 75.3125, 75.375, 75.375, 75.64286, 75.60714, 75.64286, 75.719383, 75.418373, 75.301018, 75.229599, 74.92347, 75.035713, 75.125, 74.89286, 74.928574, 74.75, 74.8125, 74.8125, 74.8125, 74.5, 75.071426, 75.14286, 74.46666, -10, -10, -10, -10, -10, -10, -10, -10, -10, -10, -10, -10, -10, -10, -10, -10, -10, -10, -10, -10, -10, -10, -10, -10, -10, -10, -10, -10, -10, -10, -10, -10, -10, -10, -10, -10, -10, -10, -10, -10, -10, -10, -10, -10, -10, -10, -10, -10, -10, -10, -10, -10, -10, -10, -10, -10, -10, -10, -10, -10, -10, -10, -10, -10, -10, -10, -10, -10, -10, -10, -10, -10, -10, -10, -10, -10, -10, -10, -10, -10, -10, -10, -10, -10, -10, -10, -10, -10, -10, -10, -10, -10, -10, -10, -10, -10, -10, -10, -10, -10, -10, -10, 75.800003, 76.285713, 76.202385, 76.0625, 76, 76, 76.39286, 76.428574, 76.428574, 76.428574, 76.39286, 76.285713, 76.3125, 76.3125, 76.125, 76.0625, 75.9375, 75.8125, 75.8125, 75.875, 75.875, 75.9375, 76.14286, 75.875, 76.10714, 75.8125, 75.8125, 76.10714, 76.285713, 76.464287, 76.64286, 76.714287, 76.714287, 76.678574, 76.571426, 76.464287, 76.35714, 76.464287, 76.64286, 76.821426, 76.882652, 76.678574, 76.60714, 76.39286, 76.25, 76.39286, 76.428574, 76.535713, 76.464287, 76.428574, 76.464287, 76.571426, 76.678574, 76.64286, 76.571426, 76.285713, 76, 75.9375, 75.883926, 76.541664, 76.416664, 76.416664, 76.25, 76.071426, 76.178574, 76.214287, 76, 76, 76.25, 76.285713, 76.39286, 76.35714, 76.0625, 76.125, 76.125, 75.806114, 75.75, 76.214287, 76.10714, 76.291664, 76.035713, 76.10714, 76.0625, 76.125, 76.151787, 76.1875, 76.1875, 76.3125, 76.3125, 76.28125, 76.28125, 76.535713, 76.5, 76.464287, 76.397957, 76.333336, 76.294647, 76.3125, 76.125, 75.785713, 76.362244, 76.234688, 76.153061, 76.112244, 76.0625, 76.0625, 76.25, 76.5, 76.5, 76.5, 76.464287, 76.39286, 76.39286, 76.464287, 76.5, 76.464287, 76.125, 76, 76, 75.982147, 75.875, 75.866074, 75.821426, 75.964287, 76.125, 75.8125, 75.875, 75.8125, 75.875, 75.875, 75.71875, 75.59375, 75.53125, 75.53125, 75.6875, 75.90625, 75.9375, 76.151787, 76.419647, 76.489586, 76.714287, 76.714287, 76.525513, 76.1875, 76.25, 76.294647, 76.375, 76.714287, 76.714287, 76.714287, 76.85714, 76.85714, 76.85714, 76.85714, 76.785713, 76.60714, 76.60714, 76.535713, 76.535713, 76.535713, 76.428574, 76.367348, 76.199997, 76.285713, 76.425171, 76.812927, 76.520836, 76.4375, 76.3125, 76.1875, 76, 76.3125, 76.3125, 76.571426, 76.571426, 76.571426, 76.64286, 76.64286, 76.494896, 76.428574, 76.285713, 76.321426, 76.35714, 76.39286, 76.1875, 76.214287, 76.3125, 76.469383, 76.469383, 76.39286, 76.285713, 76.458336, 76.5, 76.39286, 76.60714, 76.801025, 76.821426, 76.75, 76.602043, 76.64286, 76.60714, 76.75, 76.821426, 76.75, 76.785713, 76.75, 76.714287, 76.60714, 76.571426, 76.540817, 76.352043, 76.39286, 76.321426, 76.14286, 76.14286, 76.234688, 76.559525, 76.765312, 76.821426, 76.785713, 76.64286, 76.571426, 76.791664, 76.791664, 76.64286, 76.678574, 76.60714, 76.535713, 76.464287, 76.5, 76.5, 76.428574, 76.5, 76.25, 76.1875, 76.1875, 76.35714, 76.25, 76.321426, 76.35714, 76.1875, 76.25, 76.037498, 76.1875, 76.382652, 76.428574, 76.428574, 76.39286, 76.35714, 76.39286, 76.35714, 76.428574, 76.428574, 76.464287, 76.60714, 76.60714, 76.821426, 76.969383, 76.739799, 76.586731, 76.367348, 76.051018, 76.071426, 76.035713, 76, 76, 75.928574, 75.928574, 76.071426, 76.255104, 76.583336, 76.452385, 75.800003, -10, -10, -10, -10, -10, -10, -10, -10, -10, -10, -10, -10, -10, -10, -10, -10, -10, -10, -10, -10, -10, -10, -10, -10, -10, -10, -10, -10, -10, -10, -10, -10, -10, -10, -10, -10, -10, -10, -10, -10, -10, -10, -10, -10, -10, -10, -10, -10
-10, -10, -10, -10, -10, -10, -10, -10, -10, 76.849998, 76.683334, 77.321426, 77.416672, 77.428574, 77.535713, 77.448975, 77.125, 77.0625, 77, 77, 77, 77.214287, 77.178574, 77.25, 77.14286, 76.9375, 76.9375, 76.875, 77.035713, 77.035713, 76.8125, 76.8125, 76.9375, 77.14286, 77.25, 77.35714, 77.464287, 77.571426, 77.678574, 77.714287, 77.714287, 77.64286, 77.3125, 77.25, 77.1875, 77.25, 77.4375, 77.5625, 77.616074, 77.714287, 77.4375, 77.25, 77.25, 77.1875, 77.25, 77.375, 77.464287, 77.428574, 77.428574, 77.428574, 77.535713, 77.627548, 77.714287, 77.464287, 77.428574, 77.285713, 77.295914, 77.571426, 77.5, 77.5, 77.35714, 76.785713, 77.0625, 77, 76.9375, 76.9375, 77.0625, 77.125, 77.1875, 77.0625, 76.875, 76.9375, 77.178574, 77.547615, 77.666664, 77.428574, 77.35714, 77.35714, 76.714287, 77.0625, 77.125, 77.125, 77.125, 77.0625, 77.0625, 77.285713, 77.285713, 77.39286, 77.464287, 77.535713, 77.64286, 77.64286, 77.535713, 77.464287, 77.35714, 77.0625, 77, 77.375, 77.290817, 77.080353, 77.071426, 76.821426, 77.39286, 77.39286, 77.5, 77.3125, 77.3125, 77.3125, 77.3125, 77, 77, 77.25, 77.25, 77.25, 77.125, 77.285713, 77.285713, 76.982147, 76.64286, 76.928574, 76.6875, 76.928574, 76.852043, 76.897957, 76.928574, 77, 76.928574, 76.928574, 76.53125, 76.40625, 76.14286, 76.178574, 76.583336, 77.160713, 77.178574, 77.285713, 77.321426, 77.339287, 77.5, 77.571426, 77.303574, 76.85714, 77.1875, 77.232147, 77.535713, 77.75, 77.75, 77.75, 77.821426, 77.625, 77.5625, 77.5, 77.375, 77.25, 77.3125, 77.3125, 77.375, 77.4375, 77.14286, 77.071426, 77.071426, 77.035713, 77.330353, 77.836739, 77.738098, 77.571426, 77.428574, 77.125, 77.583336, 77.428574, 77.571426, 77.64286, 77.64286, 77.64286, 77.714287, 77.64286, 77.366074, 77.410713, 77.25, 77.25, 77.35714, 77.285713, 77.285713, 77.25, 77.285713, 77.35714, 77.39286, 77.428574, 77.39286, 77.428574, 77.428574, 77.535713, 77.60714, 77.544647, 77.5625, 77.5, 77.693886, 77.75, 77.75, 77.5625, 77.5625, 77.5, 77.5, 77.5, 77.714287, 77.4375, 77.4375, 77.410713, 77.276787, 77.3125, 77.25, 77.0625, 77.214287, 77.295914, 77.333336, 77.544647, 77.6875, 77.625, 77.75, 77.714287, 77.678574, 77.678574, 77.714287, 77.75, 77.4375, 77.375, 77.3125, 77.3125, 77.3125, 77.1875, 77.25, 77.1875, 77.125, 77.25, 77.1875, 77.125, 77.428574, 77.428574, 77.5, 77.464287, 77.099998, 77.5, 77.303574, 77.571426, 77.571426, 77.3125, 77.464287, 77.5, 77.464287, 77.535713, 77.5, 77.3125, 77.4375, 77.4375, 77.821426, 77.948975, 77.836739, 77.68367, 77.520401, 77.0625, 76.785713, 77.0625, 77.214287, 77.214287, 77.178574, 77.214287, 77.35714, 77.540817, 77.64286, 77.183334, -10, -10, -10, -10, -10, -10, -10, -10, -10, -10, -10, -10, -10, -10, -10, -10, -10, -10, -10, -10, -10, -10, -10, -10, -10, -10, -10, -10, -10, -10, -10, -10, -10, -10, -10, -10, -10, -10, -10, -10, -10, -10, -10, -10, -10, -10, -10, -10, -10, -10, -10, -10, -10, -10, -10, -10, -10, -10, -10, -10, -10, -10, -10, -10, -10, -10, -10, -10, -10, -10, -10, -10, -10, -10, -10, -10, -10, -10, -10, -10, -10, -10, -10, -10, -10, -10, -10, -10, -10, -10, -10, -10, -10, -10, -10, -10, -10, -10, -10, -10, -10, -10, -10, -10, -10, -10, -10, 77.900002, 78.595238, 78.547615, 78.535713, 78.142853, 77.9375, 77.8125, 77.75, 77.6875, 77.75, 77.8125, 77.8125, 78.14286, 78.035713, 78, 78, 78.045914, 78.25, 77.9375, 77.830353, 77.89286, 77.964287, 78.071426, 78.285713, 78.464287, 78.64286, 78.719383, 78.67347, 78.714287, 78.64286, 78.4375, 78.3125, 78.25, 78.1875, 78.1875, 78.3125, 78.3125, 78.34375, 78.60714, 78.535713, 78.5, 78.464287, 78.39286, 78.464287, 78.375, 78.3125, 78.3125, 78.3125, 78.3125, 78.375, 78.455353, 78.5625, 78.60714, 78.571426, 78.39286, 78.397957, 78.5, 78.428574, 78.3125, 78.35714, 78.5, 78.25, 78, 77.821426, 77.85714, 77.964287, 78.10714, 78.14286, 77.8125, 77.625, 77.89286, 78.071426, 78.255104, 78.39286, 78.35714, 78.25, 78.214287, 78.291664, 78.214287, 78.321426, 78.35714, 78.428574, 78.35714, 78.321426, 78.39286, 78.39286, 78.48214, 78.48214, 78.446426, 78.553574, 78.571426, 78.3125, 78.25, 78.321426, 78.214287, 78.178574, 78.31633, 78.474487, 78.377548, 78.438774, 78.708336, 78.571426, 78.571426, 78.60714, 78.571426, 78.5, 78.5, 78.5, 78.666664, 78.666664, 78.178574, 78.050003, 78.382652, 78.346939, 78.464287, 78.5, 78.408165, 78.5, 78.25, 78.071426, 77.8125, 77.714287, 77.660713, 77.6875, 77.964287, 77.89286, 77.89286, 77.785713, 77.678574, 78.020836, 78.1875, 78.375, 78.428574, 78.35714, 78.39286, 78.1875, 77.989799, 78.14286, 78.214287, 78.596939, 78.583336, 78.428574, 78.479599, 78.60714, 78.785713, 78.785713, 78.785713, 78.714287, 78.64286, 78.375, 78.3125, 78.3125, 78.1875, 78.1875, 78.321426, 78.39286, 78.535713, 78.791664, 78.833336, 78.833336, 78.75, 78.556114, 78.836739, 78.702385, 78.5, 78.321426, 78.14286, 78.285713, 78.39286, 78.571426, 78.60714, 78.535713, 78.464287, 78.5, 78.3125, 78.510201, 78.612244, 78.39286, 78.35714, 78.0625, 77.9375, 77.9375, 78.178574, 78.25, 78.0625, 78.1875, 78.1875, 78.125, 78.428574, 78.428574, 78.5, 78.3125, 78.25, 78.25, 78.3125, 78.64286, 78.5625, 78.5625, 78.5, 78.4375, 78.375, 78.375, 78.4375, 78.714287, 78.64286, 78.571426, 78.571426, 78.571426, 78.571426, 78.60714, 78.428574, 78.35714, 78.428574, 78.25, 78.4375, 78.785713, 78.785713, 78.785713, 78.785713, 78.5625, 78.5, 78.4375, 78.455353, 78.738098, 78.693886, 78.64286, 78.571426, 78.5, 78.25, 78.3125, 78.464287, 78.428574, 78.5, 78.428574, 78.39286, 78.3125, 78.535713, 78.714287, 78.647957, 78.27755, 78.403061, 78.275513, 78.35714, 78.35714, 78.285713, 78.285713, 78.321426, 78.35714, 78.5, 78.5, 78.571426, 78.64286, 78.64286, 78.785713, 78.6875, 78.660713, 78.765312, 78.520401, 78.285713, 78.440475, 78.39286, 78.35714, 78.387756, 78.35714, 78.39286, 78.571426, 78.719383, 78.300003, -10, -10, -10, -10, -10, -10, -10, -10, -10, -10, -10, -10, -10, -10, -10, -10, -10, -10, -10, -10, -10, -10, -10, -10, -10, -10, -10, -10, -10, -10, -10, -10, -10, -10, -10, -10, -10, -10, -10, -10, -10, -10, -10, -10, -10, -10, -10, -10, -10, -10
-10, -10, -10, -10, -10, -10, -10, -10, -10, -10, -10, -10, 79.233337, 78.888885, 79.25, 79.059525, 78.875, 78.75, 78.666664, 78.428574, 78.464287, 78.75, 78.8125, 78.875, 78.8125, 78.8125, 78.75, 79.045914, 79.321426, 79.178574, 79.127548, 79.071426, 78.875, 78.785713, 79.25, 79.375, 79.714287, 79.755104, 79.464287, 79.64286, 79.3125, 79.520401, 79.535713, 79.5, 79.535713, 79.464287, 79.571426, 79.464287, 79.308037, 79.441963, 79.34375, 79.678574, 79.60714, 79.535713, 79.571426, 79.535713, 79.428574, 79.448975, 79.666672, 79.622452, 79.64286, 79.663261, 79.714287, 79.678574, 79.75, 79.348213, 79.205353, 79.133926, 79, 79.214287, 79.178574, 79.14286, 79.178574, 78.8125, 78.5, 78.591835, 78.622452, 79, 78.875, 78.75, 78.5625, 78.6875, 78.9375, 79.098213, 79.1875, 79.0625, 78.875, 78.875, 79.14286, 79.321426, 79.428574, 79.428574, 79.39286, 79.25, 79.178574, 79.214287, 79.214287, 79.285713, 79.1875, 79.1875, 79.3125, 79.375, 79.3125, 79.1875, 79.285713, 79.14286, 79.14286, 79.151787, 79.489799, 79.438774, 79.469383, 79.535713, 79.571426, 79.714287, 79.85714, 79.785713, 79.678574, 79.56633, 79.535713, 79.5, 79.571426, 79.454086, 79.050003, 79.489799, 79.489799, 79.64286, 79.60714, 79.561226, 79.5, 79.35714, 79.178574, 78.928574, 78.81633, 78.897957, 79, 79.14286, 79, 79, 78.98214, 78.946426, 79.089287, 79.23214, 79.285713, 79.428574, 79.321426, 79.0625, 79.285713, 79.64286, 79.791664, 79.916664, 79.67347, 79.571426, 79.60714, 79.561226, 79.60714, 79.5, 79.5, 79.5, 79.4375, 79.3125, 79.1875, 79.1875, 79.35714, 79.25, 79.125, 79.1875, 79.285713, 79.375, 79.591835, 79.535713, 79.464287, 79.39286, 79.367348, 79.357147, 79.270836, 79.125, 79, 78.9375, 79.125, 79.1875, 79.375, 79.375, 79.3125, 79.25, 79.1875, 79.125, 79.352043, 79.540817, 79.464287, 79.464287, 78.821426, 78.785713, 78.89286, 78.964287, 79, 79.1875, 79.1875, 79.125, 79.0625, 79.5, 79.5, 79.3125, 79.3125, 79.25, 79.1875, 79.25, 79.375, 79.64286, 79.714287, 79.64286, 79.571426, 79.571426, 79.571426, 79.571426, 79.64286, 79.60714, 79.571426, 79.64286, 79.678574, 79.678574, 79.714287, 79.60714, 79.5, 79.535713, 79.535713, 79.571426, 79.714287, 79.714287, 79.64286, 79.64286, 79.571426, 79.3125, 79.3125, 79.392853, 79.773811, 79.765312, 79.75, 79.678574, 79.60714, 79.535713, 79.5, 79.428574, 79.35714, 79.428574, 79.428574, 79.464287, 79.64286, 79.678574, 79.85714, 79.82653, 79.506119, 79.321426, 79.116074, 79.125, 79.125, 79.0625, 79.125, 78.928574, 79.1875, 79.3125, 79.571426, 79.64286, 79.678574, 79.60714, 79.4375, 79.5, 79.5, 79.5, 79.581627, 79.464287, 79.448975, 79.535713, 79.428574, 79.387756, 79.35714, 79.428574, 79.583328, 79.047615, -10, -10, -10, -10, -10, -10, -10, -10, -10, -10, -10, -10, -10, -10, -10, -10, -10, -10, -10, -10, -10, -10, -10, -10, -10, -10, -10, -10, -10, -10, -10, -10, -10, -10, -10, -10, -10, -10, -10, -10, -10, -10, -10, -10, -10, -10, -10, -10, -10, -10, -10, -10, -10, -10, -10, -10, -10, -10, -10, -10, -10, -10, -10, -10, -10, -10, -10, -10, -10, -10, -10, -10, -10, -10, -10, -10, -10, -10, -10, -10, -10, -10, -10, -10, -10, -10, -10, -10, -10, -10, -10, -10, -10, -10, -10, -10, -10, -10, -10, -10, -10, -10, -10, -10, -10, -10, -10, -10, -10, -10, -10, -10, 79.666664, 79.680946, 79.964287, 79.928574, 80.166664, 80.125, 80.041664, 79.85714, 79.89286, 79.75, 79.75, 79.8125, 79.8125, 79.946426, 80.5, 80.321426, 80.234688, 80.10714, 80.071426, 80.458336, 80.428574, 80.571426, 80.714287, 80.755104, 80.744896, 80.5625, 80.178574, 80.198975, 80.785713, 80.714287, 80.714287, 80.64286, 80.678574, 80.535713, 80.530617, 80.647957, 80.535713, 80.60714, 80.5, 80.464287, 80.535713, 80.535713, 80.5, 80.591835, 80.809525, 80.729599, 80.709183, 80.653061, 80.571426, 80.64286, 80.678574, 80.540817, 80.267853, 80.133926, 79.785713, 79.85714, 79.89286, 79.928574, 79.928574, 80, 80.583336, 80.547615, 80.410713, 80.214287, 79.875, 80.035713, 79.666664, 80.10714, 80.14286, 80, 80, 79.9375, 79.9375, 80, 80.125, 80.25, 80.3125, 80.3125, 80.25, 79.85714, 79.785713, 79.785713, 79.785713, 79.85714, 80.1875, 80.1875, 80.25, 80.5, 80.464287, 80.321426, 80.0625, 79.875, 79.875, 80.280617, 80.43367, 80.428574, 80.25, 80.3125, 80.375, 80.5625, 80.89286, 80.85714, 80.785713, 80.464287, 80.4375, 80.375, 80.64286, 80.525513, 80.342857, 80.489799, 80.418373, 80.464287, 80.1875, 80.1875, 80.1875, 80.0625, 80.14286, 79.928574, 79.836731, 79.877556, 79.964287, 80.10714, 80.071426, 80.14286, 80.214287, 80.214287, 80.125, 80.1875, 80.125, 80.1875, 80.0625, 79.9375, 80.321426, 80.551025, 80.719383, 80.785713, 80.627548, 80.571426, 80.571426, 80.4375, 80.5, 80.5, 80.5, 80.4375, 80.375, 80.3125, 80.125, 80.285713, 80.25, 80.178574, 80.285713, 80.39286, 80.540817, 80.4375, 80.455353, 80.4375, 80.3125, 80.1875, 80.0625, 80, 80, 80, 79.9375, 80, 80.125, 80.1875, 80.375, 80.375, 80.3125, 80.25, 80.25, 79.89286, 79.994896, 80.473213, 80.375, 80.571426, 80.708336, 80.708336, 80.791664, 80.75, 80.625, 80.321426, 80.321426, 80.35714, 80.39286, 80.571426, 80.571426, 80.571426, 80.535713, 80.464287, 80.39286, 80.464287, 80.3125, 80.375, 80.64286, 80.60714, 80.571426, 80.571426, 80.571426, 80.535713, 80.375, 80.3125, 80.25, 80.5, 80.64286, 80.714287, 80.785713, 80.75, 80.571426, 80.5, 80.428574, 80.39286, 80.375, 80.4375, 80.4375, 80.4375, 80.375, 80.3125, 80.3125, 80.591835, 80.738098, 80.795914, 80.85714, 80.581627, 80.591835, 80.535713, 80.535713, 80.3125, 80.25, 80.3125, 80.3125, 80.60714, 80.75, 80.75, 80.928574, 80.969383, 80.734688, 80.653061, 80.25, 80.125, 80.125, 80.125, 80.1875, 80.666664, 80.5, 80.571426, 80.64286, 80.64286, 80.571426, 80.3125, 80.1875, 80.25, 80.3125, 80.375, 80.64286, 80.571426, 80.591835, 80.4375, 80.3125, 80.276787, 80.25, 80.3125, 79.888885, -10, -10, -10, -10, -10, -10, -10, -10, -10, -10, -10, -10, -10, -10, -10, -10, -10, -10, -10, -10, -10, -10, -10, -10, -10, -10, -10, -10, -10, -10, -10, -10, -10, -10, -10, -10, -10, -10, -10, -10, -10, -10, -10, -10, -10, -10, -10, -10, -10, -10, -10, -10
-10, -10, -10, -10, -10, -10, -10, -10, -10, -10, -10, -10, -10, -10, -10, -10, 80.5, 81.071426, 81.095238, 81.035713, 80.89286, 80.89286, 80.89286, 80.85714, 80.85714, 80.85714, 80.85714, 81.040817, 81.285713, 81.178574, 80.955353, 81.035713, 81, 81.214287, 81.39286, 81.571426, 81.714287, 81.535713, 81.765312, 81.785713, 81.958336, 82.011902, 81.85714, 81.785713, 81.785713, 81.714287, 81.714287, 81.535713, 81.54847, 81.630104, 81.51786, 81.40625, 81.25, 81.1875, 81.1875, 81.1875, 81.428574, 81.591835, 81.809525, 81.693886, 81.464287, 81.375, 81.3125, 81.4375, 81.678574, 81.612244, 81.448975, 81.331627, 81.458336, 81.5, 81.666664, 81.75, 81.791664, 81.75, 81.60714, 81.57653, 81.42347, 81.428574, 81.285713, 81.285713, 81.5, 81.35714, 81.285713, 81.214287, 81.071426, 80.928574, 81, 81.14286, 81.35714, 81.464287, 81.5, 81.464287, 81.428574, 81.666664, 81.666664, 81.666664, 81.666664, 81.666664, 81.39286, 81.35714, 81.35714, 81.35714, 81.35714, 81.214287, 81.071426, 80.75, 80.75, 80.964287, 81.098213, 81.125, 81.25, 81.25, 81.205353, 81.591835, 81.714287, 81.785713, 81.714287, 81.602043, 81.571426, 81.3125, 81.4375, 81.602043, 81.492859, 81.334824, 81.272324, 81.28125, 80.928574, 81.125, 81.125, 81.0625, 80.9375, 80.875, 80.8125, 81.071426, 80.916664, 81.285713, 81.285713, 81.35714, 81.428574, 81.428574, 81.464287, 81.428574, 81.125, 81.1875, 81.0625, 80.9375, 81.142853, 81.482147, 81.598213, 81.625, 81.330353, 81.25, 81.25, 81.571426, 81.714287, 81.714287, 81.714287, 81.60714, 81.5, 81.35714, 81.214287, 81.0625, 81.125, 81.125, 81.35714, 81.39286, 81.43367, 81.35714, 81.341835, 81.35714, 81.125, 81.125, 81.0625, 80.714287, 81, 81.214287, 81.25, 81.35714, 81.464287, 81.5, 81.60714, 81.60714, 81.571426, 81.535713, 81.535713, 81.708336, 81.75, 81.64286, 81.60714, 81.64286, 81.678574, 81.714287, 81.785713, 81.75, 81.64286, 81.5, 81.3125, 81.571426, 81.60714, 81.714287, 81.64286, 81.571426, 81.5, 81.464287, 81.39286, 81.5, 81.535713, 81.375, 81.4375, 81.4375, 81.4375, 81.4375, 81.4375, 81.375, 81.375, 81.3125, 81.25, 81.25, 81.3125, 81.375, 81.4375, 81.5, 81.4375, 81.375, 81.3125, 81.25, 81.375, 81.4375, 81.64286, 81.64286, 81.571426, 81.535713, 81.571426, 81.653061, 81.520836, 81.571426, 81.625, 81.383926, 81.392853, 81.375, 81.375, 81.571426, 81.5, 81.5, 81.571426, 81.64286, 81.85714, 81.928574, 82.035713, 82.091835, 81.867348, 81.755104, 81.571426, 81.428574, 81.428574, 81.428574, 81.5, 81.571426, 81.60714, 81.64286, 81.678574, 81.4375, 81.375, 81.25, 81.151787, 81.25, 81.133926, 81.267853, 81.535713, 81.571426, 81.724487, 81.785713, 81.658165, 81.384354, 81.292854, 80.949997, -10, -10, -10, -10, -10, -10, -10, -10, -10, -10, -10, -10, -10, -10, -10, -10, -10, -10, -10, -10, -10, -10, -10, -10, -10, -10, -10, -10, -10, -10, -10, -10, -10, -10, -10, -10, -10, -10, -10, -10, -10, -10, -10, -10, -10, -10, -10, -10, -10, -10, -10, -10, -10, -10, -10, -10, -10, -10, -10, -10, -10, -10, -10, -10, -10, -10, -10, -10, -10, -10, -10, -10, -10, -10, -10, -10, -10, -10, -10, -10, -10, -10, -10, -10, -10, -10, -10, -10, -10, -10, -10, -10, -10, -10, -10, -10, -10, -10, -10, -10, -10, -10, -10, -10, -10, -10, -10, -10, -10, -10, -10, -10, -10, -10, -10, -10, -10, 81.416664, 82.083336, 82.0625, 81.875, 81.8125, 81.8125, 81.75, 81.75, 81.839287, 81.904762, 81.761909, 82.041664, 81.955353, 81.9375, 81.9375, 81.714287, 82.125, 82.1875, 82.3125, 82.571426, 82.64286, 82.785713, 82.821426, 82.85714, 82.867348, 82.85714, 82.785713, 82.5625, 82.714287, 82.714287, 82.60714, 82.401787, 82.410713, 82.25, 82.25, 82.0625, 82, 82, 82.0625, 82.35714, 82.581627, 82.583336, 82.482147, 82.464287, 82.375, 82.3125, 82.64286, 82.5, 82.473213, 82.581627, 82.540817, 82.5, 82.571426, 82.68367, 82.591835, 82.627548, 82.571426, 82.64286, 82.473213, 82.551025, 82.60714, 82.464287, 82.39286, 82.35714, 82.39286, 82.255104, 82.14286, 81.991074, 81.794647, 82.14286, 82.178574, 82.285713, 82.321426, 82.321426, 82.367348, 82.535713, 82.571426, 82.64286, 82.5, 82.428574, 82.35714, 82.25, 82.285713, 82.0625, 82.0625, 82.0625, 81.9375, 81.875, 81.8125, 81.571426, 81.714287, 81.785713, 82.125, 82.428574, 82.5, 82.448975, 82.330353, 82.375, 82.4375, 82.375, 82.401787, 82.678574, 82.60714, 82.714287, 82.571426, 82.464287, 82.39286, 82.25, 82.178574, 82.291664, 82.035713, 82.035713, 82, 82.051025, 82.364281, 82.25, 82.285713, 82.458336, 82.321426, 82.35714, 82.5, 82.64286, 82.64286, 82.64286, 82.5, 82.321426, 82.25, 82.178574, 82.214287, 82.535713, 82.785713, 82.862244, 82.785713, 82.330353, 82.071426, 82.10714, 82.5, 82.89286, 82.821426, 82.75, 82.64286, 82.34375, 82.21875, 82.285713, 82.285713, 82.214287, 82.285713, 82.39286, 82.25, 82.348213, 82.1875, 82.080353, 82.321426, 82.285713, 82.35714, 82.285713, 82.333336, 82.14286, 82.214287, 82.35714, 82.535713, 82.64286, 82.64286, 82.678574, 82.678574, 82.678574, 82.678574, 82.714287, 82.678574, 82.678574, 82.714287, 82.678574, 82.714287, 82.5625, 82.625, 82.6875, 82.625, 82.5, 82.571426, 82.60714, 82.678574, 82.75, 82.785713, 82.64286, 82.375, 82.3125, 82.3125, 82.25, 82.464287, 82.464287, 82.464287, 82.571426, 82.64286, 82.64286, 82.64286, 82.64286, 82.60714, 82.60714, 82.535713, 82.39286, 82.1875, 82.1875, 82.25, 82.375, 82.4375, 82.64286, 82.571426, 82.5, 82.464287, 82.60714, 82.678574, 82.714287, 82.714287, 82.64286, 82.64286, 82.678574, 82.714287, 82.64286, 82.67347, 82.714287, 82.510201, 82.591835, 82.5, 82.535713, 82.5, 82.39286, 82.464287, 82.5, 82.60714, 82.821426, 82.89286, 82.964287, 83.035713, 82.85714, 82.785713, 82.60714, 82.5, 82.571426, 82.571426, 82.75, 82.785713, 82.785713, 82.785713, 82.714287, 82.64286, 82.571426, 82.464287, 82.387756, 82.5, 82.133926, 82.267853, 82.375, 82.4375, 82.785713, 82.821426, 82.765312, 82.511902, 81.809998, -10, -10, -10, -10, -10, -10, -10, -10, -10, -10, -10, -10, -10, -10, -10, -10, -10, -10, -10, -10, -10, -10, -10, -10, -10, -10, -10, -10, -10, -10, -10, -10, -10, -10, -10, -10, -10, -10, -10, -10, -10, -10, -10, -10, -10, -10, -10, -10, -10, -10, -10, -10, -10, -10
-10, -10, -10, -10, -10, -10, -10, -10, -10, -10, -10, -10, -10, -10, -10, -10, -10, -10, 82.733337, 82.699997, 83.071426, 82.988098, 82.964287, 82.89286, 82.964287, 83.137756, 83.64286, 83.81945, 83.291664, 83.205353, 83, 83.321426, 83.541664, 83.35714, 83.125, 83.1875, 83.25, 83.3125, 83.4375, 83.5625, 83.625, 83.625, 83.625, 83.5625, 83.714287, 83.714287, 83.714287, 83.64286, 83.571426, 83.3125, 83.1875, 83.125, 83.25, 83.178574, 82.9375, 83.0625, 83.25, 83.4375, 83.5, 83.571426, 83.479599, 83.464287, 83.5, 83.60714, 83.678574, 83.678574, 83.571426, 83.5, 83.5, 83.571426, 83.535713, 83.517853, 83.517853, 83.375, 83.3125, 83.25, 83.321426, 83.39286, 83.39286, 83.125, 83.125, 83.125, 82.973213, 82.9375, 83.275513, 82.982147, 83.0625, 83, 83, 82.9375, 82.9375, 83.071426, 83.5, 83.64286, 83.785713, 83.4375, 83.3125, 83.25, 83.125, 83.125, 83.125, 83.0625, 83.0625, 82.9375, 83.071426, 83.035713, 83.208336, 83.25, 83.25, 83.14286, 83.285713, 83.35714, 83.270401, 83.017853, 82.964287, 83.241074, 83.3125, 83.714287, 83.785713, 83.678574, 83.75, 83.60714, 83.28125, 83.21875, 82.821426, 82.96875, 83.14286, 83, 83, 83.071426, 83.265312, 83.685715, 83.5, 83.377548, 83.285713, 83.25, 83.35714, 83.535713, 83.64286, 83.714287, 83.714287, 83.678574, 83.571426, 82.964287, 82.89286, 83.428574, 83.678574, 83.85714, 83.877548, 83.785713, 83.581627, 83.833336, 83.916664, 84.041664, 83.89286, 83.821426, 83.5625, 83.678574, 83.60714, 83.535713, 83.428574, 83.510201, 83.258331, 83.464287, 83.5, 83.321426, 83.285713, 83.080353, 83.270836, 83.333336, 83.166664, 83.367348, 83.321426, 83.285713, 83.321426, 83.125, 83.1875, 83.3125, 83.571426, 83.64286, 83.714287, 83.714287, 83.714287, 83.714287, 83.5625, 83.5625, 83.5625, 83.5, 83.571426, 83.5, 83.510201, 83.809525, 83.836739, 83.821426, 83.714287, 83.64286, 83.714287, 83.678574, 83.714287, 83.714287, 83.375, 83.3125, 83.25, 83.25, 83.25, 83.3125, 83.3125, 83.25, 83.535713, 83.60714, 83.60714, 83.678574, 83.678574, 83.678574, 83.678574, 83.64286, 83.535713, 83.464287, 83.428574, 83.464287, 83.571426, 83.64286, 83.678574, 83.64286, 83.60714, 83.60714, 83.714287, 83.821426, 83.928574, 83.928574, 83.85714, 83.785713, 83.785713, 83.785713, 83.75, 83.765312, 83.714287, 83.612244, 83.581627, 83.428574, 83.464287, 83.25, 83.25, 83.375, 83.375, 83.375, 83.64286, 83.64286, 83.5, 83.5625, 83.5, 83.5, 83.375, 83.375, 83.4375, 83.4375, 83.785713, 83.785713, 83.785713, 83.785713, 83.714287, 83.678574, 83.714287, 83.64286, 83.637756, 83.64286, 83.331627, 83.341835, 83.285713, 83.428574, 83.64286, 83.785713, 83.836739, 83.619041, -10, -10, -10, -10, -10, -10, -10, -10, -10, -10, -10, -10, -10, -10, -10, -10, -10, -10, -10, -10, -10, -10, -10, -10, -10, -10, -10, -10, -10, -10, -10, -10, -10, -10, -10, -10, -10, -10, -10, -10, -10, -10, -10, -10, -10, -10, -10, -10, -10, -10, -10, -10, -10, -10, -10, -10, -10, -10, -10, -10, -10, -10, -10, -10, -10, -10, -10, -10, -10, -10, -10, -10, -10, -10, -10, -10, -10, -10, -10, -10, -10, -10, -10, -10, -10, -10, -10, -10, -10, -10, -10, -10, -10, -10, -10, -10, -10, -10, -10, -10, -10, -10, -10, -10, -10, -10, -10, -10, -10, -10, -10, -10, -10, -10, -10, -10, -10, -10, -10, -10, -10, -10, 83.699997, 84.238098, 84.214287, 83.833336, 84.214287, 84.387756, 84.622452, 84.738098, 84.619041, 84.591835, 84.75, 84.5, 84.428574, 84.321426, 84.214287, 84.0625, 84.1875, 84.3125, 84.375, 84.375, 84.375, 84.3125, 84.5, 84.5, 84.428574, 84.5, 84.571426, 84.60714, 84.60714, 84.535713, 84.39286, 84.125, 84.178574, 84.14286, 84.178574, 84.321426, 84.5, 84.60714, 84.60714, 84.5, 84.428574, 84.5, 84.60714, 84.330353, 84.591835, 84.571426, 84.535713, 84.3125, 84.3125, 84.375, 84.473213, 84.591835, 84.591835, 84.1875, 84.125, 84.0625, 84, 84.125, 84.1875, 84.1875, 84.125, 84.053574, 83.702377, 83.806114, 84.096939, 84.244896, 84.39286, 84.32653, 83.964287, 83.64286, 83.8125, 83.946426, 84.1875, 84.3125, 84.714287, 84.571426, 84.25, 84.1875, 84.25, 84.285713, 84.35714, 84.321426, 84.321426, 84.25, 84.14286, 84.071426, 84.071426, 84.214287, 84.023811, 83.785713, 84.080353, 84.125, 84.017853, 83.698975, 83.67347, 84.241074, 84.535713, 84.678574, 84.678574, 84.60714, 84.64286, 84.571426, 84.5, 84.35714, 84.5, 84.0625, 84.0625, 84, 84, 84.0625, 84.479599, 84.864281, 84.60714, 84.205353, 84.125, 84.0625, 84.1875, 84.375, 84.4375, 84.64286, 84.571426, 84.571426, 84.428574, 84.541664, 84.583336, 84.428574, 84.704086, 84.85714, 84.85714, 84.785713, 84.714287, 84.785713, 84.85714, 84.89286, 84.85714, 84.785713, 84.714287, 84.696426, 84.660713, 84.696426, 84.625, 84.724487, 85.058334, 84.571426, 84.60714, 84.428574, 84.39286, 84.377548, 84.630959, 84.738098, 84.354164, 84.117348, 84.061226, 84.142853, 84.071426, 84.0625, 84.035713, 83.955353, 84.017853, 84.0625, 84.428574, 84.571426, 84.64286, 84.714287, 84.714287, 84.64286, 84.571426, 84.25, 84.1875, 84.1875, 84.258926, 84.809525, 84.765312, 84.714287, 84.571426, 84.428574, 84.3125, 84.25, 84.3125, 84.375, 84.3125, 84.535713, 84.5, 84.5, 84.5, 84.535713, 84.571426, 84.3125, 84.375, 84.4375, 84.375, 84.64286, 84.64286, 84.64286, 84.714287, 84.714287, 84.64286, 84.60714, 84.571426, 84.571426, 84.64286, 84.678574, 84.714287, 84.714287, 84.714287, 84.714287, 84.5625, 84.821426, 84.89286, 84.964287, 85, 84.928574, 84.928574, 84.85714, 84.714287, 84.64286, 84.571426, 84.571426, 84.375, 84.3125, 84.3125, 84.25, 84.1875, 84.5, 84.571426, 84.482147, 84.285713, 84.285713, 84.25, 84.25, 84.4375, 84.4375, 84.375, 84.571426, 84.714287, 84.714287, 84.85714, 84.85714, 84.785713, 84.785713, 84.64286, 84.64286, 84.785713, 84.790817, 84.836731, 84.785713, 84.469383, 84.205353, 83.85714, 84.1875, 84.375, 84.479164, 84.14286, 84.133331, -10, -10, -10, -10, -10, -10, -10, -10, -10, -10, -10, -10, -10, -10, -10, -10, -10, -10, -10, -10, -10, -10, -10, -10, -10, -10, -10, -10, -10, -10, -10, -10, -10, -10, -10, -10, -10, -10, -10, -10, -10, -10, -10, -10, -10, -10, -10, -10, -10, -10, -10, -10, -10, -10, -10
-10, -10, -10, -10, -10, -10, -10, -10, -10, -10, -10, -10, -10, -10, -10, -10, -10, -10, -10, -10, -10, 84.833336, 84.800003, 85.583336, 85.428574, 85.551025, 85.544647, 85.583336, 85.666664, 85.581627, 85.571426, 85.535713, 85.375, 85.071426, 84.964287, 85.202385, 85.333328, 85.331627, 85.367348, 85.458336, 85.482147, 85.14286, 85.10714, 85.3125, 85, 85.10714, 85.214287, 85.5625, 85.785713, 85.60714, 85.35714, 85.25, 85.178574, 85.25, 85.39286, 85.5, 85.64286, 85.678574, 85.4375, 85.375, 85.3125, 85.375, 85.64286, 85.330353, 85.392853, 85.375, 85.375, 85.571426, 85.571426, 85.4375, 85.473213, 85.581627, 85.510201, 85.25, 85.071426, 84.883926, 85, 85.125, 85.464287, 85.428574, 85.39286, 85.311226, 84.445572, 84.413261, 84.928574, 85.18367, 85.244896, 85.341835, 85.234695, 85.5, 85.071426, 85.18367, 85.1875, 85.25, 85.4375, 85.464287, 85.285713, 85.25, 85.214287, 85.25, 85.39286, 85.464287, 85.535713, 85.464287, 85.479599, 85.0625, 84.821426, 85.1875, 85.630951, 85.5, 85.017853, 84.9375, 84.9375, 85.25, 85.226189, 85.275513, 85.35714, 85.3125, 85.375, 85.3125, 85.3125, 85.464287, 85.35714, 85.25, 85.214287, 85.071426, 85.071426, 85.071426, 85.14286, 85.214287, 85.418373, 85.474998, 85.25, 85.142853, 85.285713, 85.204086, 85.047615, 85.198975, 85.214287, 85.125, 85.196426, 85.416664, 85.28125, 85.5, 85.428574, 85.1875, 85.419647, 85.5625, 85.625, 85.5625, 85.5625, 85.5625, 85.625, 85.6875, 85.625, 85.526787, 85.64286, 85.571426, 85.64286, 85.714287, 85.75, 85.831627, 85.871422, 85.5, 85.535713, 85.39286, 85.428574, 85.556114, 85.809525, 85.880959, 85.690475, 85.922615, 85.809532, 85.377548, 85.260201, 85.25, 84.973213, 84.627548, 84.698975, 84.75, 85.1875, 85.3125, 85.4375, 85.64286, 85.571426, 85.25, 85.125, 85, 85, 85.0625, 85.196426, 85.809525, 85.544647, 85.5, 85.375, 85, 85, 84.928574, 85.25, 85.25, 85.464287, 85.535713, 85.535713, 85.60714, 85.60714, 85.64286, 85.64286, 85.571426, 85.60714, 85.64286, 85.375, 85.4375, 85.4375, 85.4375, 85.714287, 85.714287, 85.678574, 85.60714, 85.60714, 85.678574, 85.836739, 85.85714, 85.85714, 85.785713, 85.714287, 85.785713, 85.755104, 85.663261, 85.734688, 85.785713, 85.928574, 85.928574, 85.928574, 85.85714, 85.5, 85.4375, 85.4375, 85.4375, 85.4375, 85.535713, 85.464287, 85.428574, 85.39286, 85.571426, 85.64286, 85.729599, 85.916664, 85.875, 85.791664, 85.791664, 85.60714, 85.678574, 85.64286, 85.64286, 85.75, 85.75, 85.821426, 85.821426, 85.5625, 85.5625, 85.4375, 85.4375, 85.785713, 85.755104, 85.714287, 85.64286, 85.428574, 85.428574, 85.666664, 85.25, 85.3125, 85.354164, -10, -10, -10, -10, -10, -10, -10, -10, -10, -10, -10, -10, -10, -10, -10, -10, -10, -10, -10, -10, -10, -10, -10, -10, -10, -10, -10, -10, -10, -10, -10, -10, -10, -10, -10, -10, -10, -10, -10, -10, -10, -10, -10, -10, -10, -10, -10, -10, -10, -10, -10, -10, -10, -10, -10, -10, -10, -10, -10, -10, -10, -10, -10, -10, -10, -10, -10, -10, -10, -10, -10, -10, -10, -10, -10, -10, -10, -10, -10, -10, -10, -10, -10, -10, -10, -10, -10, -10, -10, -10, -10, -10, -10, -10, -10, -10, -10, -10, -10, -10, -10, -10, -10, -10, -10, -10, -10, -10, -10, -10, -10, -10, -10, -10, -10, -10, -10, -10, -10, -10, -10, -10, -10, -10, -10, -10, -10, 86, 86.464287, 86.452385, 86.464287, 86.25, 86.25, 86.25, 86.3125, 86.3125, 86.571426, 86.875, 86.916664, 86.904762, 86.476189, 86.258926, 86.258926, 86.773811, 86.801025, 86.875, 86.791664, 86.5, 86.666664, 86.791664, 86.916664, 86.785713, 86.75, 86.60714, 86.1875, 86.125, 86.125, 86.39286, 86.535713, 86.60714, 86.64286, 86.571426, 86.428574, 86.35714, 86.39286, 86.535713, 86.678574, 86.556114, 86.591835, 86.571426, 86.60714, 86.64286, 86.64286, 86.64286, 86.678574, 86.4375, 86.375, 86.125, 85.9375, 86.117348, 86.285713, 86.35714, 86.464287, 86.39286, 86.321426, 86.239799, 86.152771, 86.095238, 85.8125, 85.982147, 86.089287, 86.267853, 86.484695, 86.571426, 86.35714, 86.321426, 86.285713, 86.25, 86.125, 86.125, 86.0625, 86.0625, 86.0625, 86.0625, 86.1875, 86.3125, 86.64286, 86.60714, 86.622452, 86.321426, 86.458336, 86.285713, 86.32653, 86.35714, 86.258507, 86.042854, 86.214287, 86.168373, 85.976196, 85.918373, 86.1875, 86.25, 86.25, 86.1875, 86.1875, 86.1875, 86.0625, 86, 86.0625, 86, 86, 86, 86.25, 86.0625, 86.25, 86.25, 86.125, 86.017853, 86.285713, 86.311226, 85.690475, 85.806114, 85.75, 85.821426, 86.133926, 86.416664, 86.40625, 86.40625, 86.34375, 86.25, 86.3125, 86.4375, 86.714287, 86.64286, 86.571426, 86.28125, 86.28125, 86.60714, 86.678574, 86.464287, 86.4375, 86.375, 86.4375, 86.5, 86.785713, 86.633926, 86.699997, 86.3125, 86.25, 86.285713, 86.321426, 86.510201, 86.583336, 86.708336, 86.738091, 86.68367, 86.586739, 86.377548, 86.331627, 86.39286, 86.32653, 86.428566, 86.345238, 86.291664, 86.0625, 86.1875, 86.571426, 86.4375, 86.375, 86.1875, 86, 85.875, 85.875, 86.25, 86.469383, 86.583336, 86.544647, 86.5, 86.375, 86.666664, 86.666664, 86.625, 86.464287, 86.464287, 86.464287, 86.535713, 86.535713, 86.60714, 86.678574, 86.64286, 86.64286, 86.535713, 86.535713, 86.60714, 86.535713, 86.571426, 86.571426, 86.571426, 86.571426, 86.64286, 86.714287, 86.544647, 86.321426, 86.928574, 86.979599, 86.928574, 86.85714, 86.785713, 86.714287, 86.785713, 86.755104, 86.455353, 86.517853, 86.5625, 86.75, 86.8125, 86.794647, 86.625, 86.5, 86.4375, 86.714287, 86.714287, 86.75, 86.64286, 86.571426, 86.571426, 86.535713, 86.571426, 86.64286, 86.729599, 86.714287, 86.75, 86.678574, 86.678574, 86.714287, 86.75, 86.75, 86.714287, 86.785713, 86.785713, 86.785713, 86.785713, 86.714287, 86.714287, 86.64286, 86.64286, 86.5625, 86.535713, 86.5625, 86.5, 86.571426, 86.60714, 86.571426, 86.535713, 86, 86.016663, -10, -10, -10, -10, -10, -10, -10, -10, -10, -10, -10, -10, -10, -10, -10, -10, -10, -10, -10, -10, -10, -10, -10, -10, -10, -10, -10, -10, -10, -10, -10, -10, -10, -10, -10, -10, -10, -10, -10, -10, -10, -10, -10, -10, -10, -10, -10, -10, -10, -10, -10, -10, -10, -10, -10, -10, -10
-10, -10, -10, -10, -10, -10, -10, -10, -10, -10, -10, -10, -10, -10, -10, -10, -10, -10, -10, -10, -10, -10, -10, -10, 86.833336, 86.777779, 86.9375, 86.770836, 86.767853, 86.958336, 87.1875, 87.60714, 87.785713, 87.89286, 87.89286, 87.846939, 87.583328, 87.581627, 87.581627, 87.845238, 87.872452, 87.785713, 87.678574, 87.60714, 87.5, 87.60714, 87.64286, 87.678574, 87.5, 87.3125, 87.39286, 87.35714, 87.39286, 87.535713, 87.571426, 87.535713, 87.3125, 87.25, 87.125, 87.125, 87.428574, 87.535713, 87.714287, 87.653061, 87.653061, 87.571426, 87.60714, 87.64286, 87.64286, 87.714287, 87.714287, 87.571426, 87.428574, 87.178574, 87.071426, 87.117348, 87.321426, 87.428574, 87.25, 87.25, 87, 86.918373, 87.166664, 87.010201, 86.964287, 86.918373, 86.964287, 87.205353, 87.469383, 87.64286, 87.5, 87.5, 87.5, 87.125, 86.916664, 86.875, 86.875, 87, 87.0625, 87.125, 87.1875, 87.535713, 87.678574, 87.60714, 87.622452, 87.39286, 87.39286, 87.1875, 87.285713, 87.3125, 87.462585, 87.037498, 87.428574, 87.178574, 87.583336, 87.5, 87, 87.10714, 87.214287, 87.285713, 87.35714, 87.1875, 87.0625, 87, 87.285713, 87.285713, 87.25, 87.125, 87.125, 87.125, 87.25, 87.125, 87.0625, 87.285713, 87.35714, 87.418373, 87.486115, 87.511902, 87.214287, 87.416664, 87.224487, 87.476189, 87.428574, 87.5, 87.464287, 87.428574, 87.535713, 87.64286, 87.714287, 87.4375, 87.375, 87.21875, 87.245537, 87.441963, 87.46875, 87.744896, 87.64286, 87.571426, 87.64286, 87.5, 87.5625, 87.5, 87.375, 87.1875, 87.125, 87.125, 87.25, 87.375, 87.5, 87.625, 87.5625, 87.5625, 87.482147, 87.267853, 87.469383, 87.464287, 87.377548, 87.224487, 87.081627, 87, 87.071426, 87.214287, 87.464287, 87.571426, 87.571426, 87.39286, 87.14286, 87.035713, 87.035713, 87.14286, 87.321426, 87.428574, 87.464287, 87.428574, 87.39286, 87.35714, 87.367348, 87.571426, 87.60714, 87.64286, 87.535713, 87.375, 87.375, 87.4375, 87.64286, 87.3125, 87.25, 87.125, 87.1875, 87.3125, 87.535713, 87.535713, 87.535713, 87.60714, 87.410713, 87.5, 87.785713, 87.765312, 88.041664, 87.928574, 87.979599, 87.928574, 87.85714, 87.785713, 87.714287, 87.785713, 87.755104, 87.520401, 87.448975, 87.3125, 87.5, 87.85714, 87.732147, 87.5, 87.60714, 87.571426, 87.714287, 87.785713, 87.75, 87.64286, 87.571426, 87.571426, 87.60714, 87.60714, 87.4375, 87.544647, 87.5625, 87.6875, 87.598213, 87.526787, 87.5625, 87.5, 87.5625, 87.714287, 87.5625, 87.625, 87.598213, 87.455353, 87.619041, 87.809525, 87.773811, 87.678574, 87.714287, 87.348213, 87.60714, 87.60714, 87.5, 87.571426, 87.571426, 87.488098, -10, -10, -10, -10, -10, -10, -10, -10, -10, -10, -10, -10, -10, -10, -10, -10, -10, -10, -10, -10, -10, -10, -10, -10, -10, -10, -10, -10, -10, -10, -10, -10, -10, -10, -10, -10, -10, -10, -10, -10, -10, -10, -10, -10, -10, -10, -10, -10, -10, -10, -10, -10, -10, -10, -10, -10, -10, -10, -10, -10, -10, -10, -10, -10, -10, -10, -10, -10, -10, -10, -10, -10, -10, -10, -10, -10, -10, -10, -10, -10, -10, -10, -10, -10, -10, -10, -10, -10, -10, -10, -10, -10, -10, -10, -10, -10, -10, -10, -10, -10, -10, -10, -10, -10, -10, -10, -10, -10, -10, -10, -10, -10, -10, -10, -10, -10, -10, -10, -10, -10, -10, -10, -10, -10, -10, -10, -10, -10, -10, -10, -10, -10, 87.25, 87.452385, 87.448975, 88.202385, 88.464287, 88.714287, 88.85714, 88.928574, 88.75, 88.741074, 88.738098, 88.755104, 88.755104, 88.645836, 88.669647, 88.625, 88.5625, 88.714287, 88.4375, 88.4375, 88.375, 88.3125, 88.3125, 88.1875, 88.428574, 88.5, 88.571426, 88.678574, 88.4375, 88.375, 88.25, 88.214287, 88.294647, 88.357147, 88.4375, 88.4375, 88.714287, 88.714287, 88.714287, 88.4375, 88.4375, 88.4375, 88.4375, 88.714287, 88.714287, 88.60714, 88.428574, 88.178574, 88.071426, 87.883926, 88.1875, 88.3125, 88.205353, 88.142853, 88.5, 88.583336, 88.1875, 87.991074, 87.800003, 88.061226, 88.18367, 88.169647, 88.303574, 88.4375, 88.60714, 88.60714, 88.60714, 88.464287, 87.979164, 87.64286, 87.64286, 88.321426, 88.39286, 88.464287, 88.5, 88.60714, 88.714287, 88.4375, 88.482147, 88.3125, 88.3125, 88.3125, 88.535713, 88.571426, 88.554428, 88.364281, 88.535713, 88.525513, 88.5, 88.428574, 88.285713, 87.714287, 87.89286, 88.469383, 88.459183, 88.5, 88.321426, 88.321426, 88.25, 88.17347, 88.14286, 88.265312, 88.25, 88.321426, 88.464287, 88.321426, 88.321426, 88.285713, 88.25, 88.244896, 88.166672, 88.153061, 88.14286, 88.25, 88.32653, 88.354164, 88.28125, 88.28125, 88.375, 88.285713, 88.35714, 88.39286, 88.5, 88.5, 88.5, 88.428574, 88.459183, 88.647957, 88.60714, 88.693871, 88.60714, 88.571426, 88.678574, 88.678574, 88.714287, 88.4375, 88.375, 88.469383, 88.35714, 88.479599, 88.464287, 88.64286, 88.571426, 88.571426, 88.5, 88.428574, 88.5, 88.571426, 88.60714, 88.60714, 88.3125, 88.25, 87.85714, 87.991074, 87.912498, 87.897957, 88.383926, 88.75, 88.64286, 88.464287, 88.35714, 88.238098, 88.011902, 87.8125, 87.9375, 88.125, 88.25, 88.3125, 88.3125, 88.3125, 88.321426, 88.714287, 88.714287, 88.678574, 88.535713, 88.535713, 88.535713, 88.64286, 88.5, 88.14286, 88.071426, 87.928574, 87.964287, 88.3125, 88.3125, 88.3125, 88.3125, 88.571426, 88.612244, 88.714287, 88.785713, 88.801025, 88.821426, 88.85714, 88.669647, 88.625, 88.625, 88.5625, 88.714287, 88.5625, 88.535713, 88.581627, 88.267853, 88.5, 88.375, 88.5625, 88.836739, 88.4375, 88.4375, 88.4375, 88.5625, 88.625, 88.5625, 88.4375, 88.60714, 88.60714, 88.60714, 88.5, 88.428574, 88.35714, 88.428574, 88.64286, 88.68367, 88.464287, 88.714287, 88.4375, 88.64286, 88.64286, 88.64286, 88.785713, 88.82653, 88.455353, 88.541664, 88.880959, 88.880959, 88.785713, 88.714287, 88.3125, 88.64286, 88.64286, 88.571426, 88.375, 88.375, 87.777779, -10, -10, -10, -10, -10, -10, -10, -10, -10, -10, -10, -10, -10, -10, -10, -10, -10, -10, -10, -10, -10, -10, -10, -10, -10, -10, -10, -10, -10, -10, -10, -10, -10, -10, -10, -10, -10, -10, -10, -10, -10, -10, -10, -10, -10, -10, -10, -10, -10, -10, -10, -10, -10, -10, -10, -10, -10, -10, -10
-10, -10, -10, -10, -10, -10, -10, -10, -10, -10, -10, -10, -10, -10, -10, -10, -10, -10, -10, -10, -10, -10, -10, -10, -10, -10, -10, 88.583336, 88.642853, 89.416672, 89.64286, 89.821426, 89.85714, 89.85714, 89.785713, 89.785713, 89.785713, 89.75, 89.75, 89.5, 89.5, 89.714287, 89.714287, 89.714287, 89.64286, 89.375, 89.25, 89.1875, 89.1875, 89.1875, 89.464287, 89.535713, 89.571426, 89.64286, 89.64286, 89.571426, 89.464287, 89.459183, 89.586739, 89.658165, 89.714287, 89.678574, 89.64286, 89.571426, 89.5, 89.35714, 89.428574, 89.5, 89.5, 89.571426, 89.571426, 89.5, 89.25, 89.125, 89, 89, 89.321426, 89.464287, 89.377548, 89.413261, 89.428574, 89.5, 89.5, 89.275513, 88.800003, 89.132652, 89.053574, 89.428574, 89.571426, 89.571426, 89.571426, 89.60714, 89.571426, 89.464287, 89.190475, 89.375, 89.5, 89.5, 89.5, 89.571426, 89.571426, 89.60714, 89.714287, 89.64286, 89.571426, 89.535713, 89.428574, 89.535713, 89.60714, 89.60714, 89.649658, 89.557144, 89.4375, 89.67347, 89.64286, 89.571426, 89.464287, 89.625, 89.75, 89.57653, 89.56633, 89.571426, 89.39286, 89.25, 88.901787, 89.008926, 88.982147, 89.107147, 89.214287, 89.285713, 89.464287, 89.428574, 89.428574, 89.285713, 88.9375, 88.875, 88.9375, 89, 89.0625, 89.1875, 89.464287, 89.464287, 89.125, 89.125, 89.125, 89.0625, 89.125, 89.0625, 89.0625, 89.125, 89.428574, 89.48214, 89.584183, 89.70153, 89.40625, 89.5, 89.375, 89.3125, 89.571426, 89.571426, 89.64286, 89.64286, 89.64286, 89.647957, 89.64286, 89.801025, 89.678574, 89.591835, 89.464287, 89.3125, 89.419647, 89.333336, 89.714287, 89.64286, 89.535713, 89.5, 89.428574, 89.428574, 89.625, 89.275513, 88.974998, 89.720238, 89.617348, 89.785713, 89.714287, 89.60714, 89.571426, 89.452385, 88.726189, 88.714287, 88.785713, 89.1875, 89.142853, 89.285713, 89.285713, 89.285713, 89.295914, 89.5, 89.5, 89.375, 89.535713, 89.60714, 89.535713, 89.60714, 89.64286, 89.791664, 89.916664, 89.916664, 89.851196, 89.535713, 89.535713, 89.464287, 89.535713, 89.60714, 89.68367, 89.678574, 89.64286, 89.419647, 89.375, 89.375, 89.383926, 89.583336, 89.836739, 89.85714, 89.785713, 89.714287, 89.714287, 89.64286, 89.571426, 89.571426, 89.4375, 89.5625, 89.544647, 89.5, 89.5, 89.5, 89.4375, 89.5625, 89.5, 89.714287, 89.714287, 89.714287, 89.5, 89.3125, 89.25, 88.928574, 89.25, 89.4375, 89.473213, 89.67347, 89.714287, 89.64286, 89.375, 89.375, 89.375, 89.714287, 89.82653, 89.663261, 89.761902, 89.880959, 89.880959, 89.785713, 89.785713, 89.612244, 89.5, 89.678574, 89.587502, 88.916664, 89, -10, -10, -10, -10, -10, -10, -10, -10, -10, -10, -10, -10, -10, -10, -10, -10, -10, -10, -10, -10, -10, -10, -10, -10, -10, -10, -10, -10, -10, -10, -10, -10, -10, -10, -10, -10, -10, -10, -10, -10, -10, -10, -10, -10, -10, -10, -10, -10, -10, -10, -10, -10, -10, -10, -10, -10, -10, -10, -10, -10, -10, -10, -10, -10, -10, -10, -10, -10, -10, -10, -10, -10, -10, -10, -10, -10, -10, -10, -10, -10, -10, -10, -10, -10, -10, -10, -10, -10, -10, -10, -10, -10, -10, -10, -10, -10, -10, -10, -10, -10, -10, -10, -10, -10, -10, -10, -10, -10, -10, -10, -10, -10, -10, -10, -10, -10, -10, -10, -10, -10, -10, -10, -10, -10, -10, -10, -10, -10, -10, -10, -10, -10, -10, -10, -10, -10, 90.066666, 90.571426, 90.541664, 90.5625, 90.5625, 90.5, 90.64286, 90.571426, 90.25, 90.3125, 90.3125, 90.375, 90.714287, 90.714287, 90.714287, 90.678574, 90.60714, 90.5, 90.428574, 90.464287, 90.5, 90.535713, 90.60714, 90.60714, 90.4375, 90.60714, 90.5, 90.428574, 90.459183, 90.693886, 90.872452, 90.964287, 90.89286, 90.5625, 90.4375, 90.3125, 89.928574, 90.25, 90.3125, 90.25, 90.25, 90.1875, 90.0625, 90.214287, 90.178574, 90.035713, 90.10714, 90.321426, 90.5, 90.448975, 90.484688, 90.5, 90.571426, 90.678574, 90.489799, 90.235718, 90.346939, 90.382652, 90.535713, 90.571426, 90.464287, 90.464287, 90.3125, 90.375, 90.375, 90.380943, 90.285713, 90.285713, 90.35714, 90.25, 90.151787, 90.294647, 90.366074, 90.714287, 90.60714, 90.5, 90.428574, 90.35714, 90.535713, 90.375, 90.3125, 90.459183, 90.35714, 90.35714, 90.428574, 90.39286, 90.428574, 90.464287, 90.5, 90.678574, 90.68367, 90.637756, 90.4375, 90.3125, 89.928574, 89.744896, 90.071426, 90.044647, 90.107147, 90, 90, 90.0625, 90.321426, 90.39286, 90.125, 90.0625, 89.678574, 89.714287, 89.785713, 89.928574, 90.535713, 90.571426, 90.571426, 90.39286, 90.35714, 90.125, 90.0625, 90.125, 90.0625, 89.785713, 90.1875, 90.3125, 90.60714, 90.693886, 90.535713, 90.64286, 90.5, 90.375, 90.3125, 90.3125, 90.3125, 90.375, 90.60714, 90.714287, 90.755104, 90.785713, 90.943886, 90.714287, 90.419647, 90.348213, 90.3125, 90.765312, 90.916664, 90.785713, 90.64286, 90.25, 90.125, 90.214287, 90.25, 90.285713, 90.204086, 90.185715, 90.545914, 90.653061, 90.821426, 90.714287, 90.64286, 90.678574, 90.595238, 90.652771, 90.666664, 90.666664, 90.5, 90.341835, 90.25, 90.178574, 90.10714, 89.883926, 90.125, 90.1875, 90.3125, 90.375, 90.571426, 90.339287, 90.544647, 90.801025, 90.85714, 90.89286, 90.85714, 90.801025, 90.64286, 90.60714, 90.535713, 90.535713, 90.5, 90.348213, 90.3125, 90.3125, 90.25, 89.928574, 89.928574, 90.258926, 90.738098, 90.836739, 90.85714, 90.785713, 90.714287, 90.714287, 90.678574, 90.64286, 90.64286, 90.64286, 90.678574, 90.4375, 90.3125, 90.3125, 90.3125, 90.60714, 90.714287, 90.678574, 90.75, 90.821426, 90.89286, 90.836739, 90.476189, 90.377548, 90.416664, 90.285713, 90.3125, 90.410713, 90.734688, 90.785713, 90.75, 90.375, 90.375, 90.3125, 90.4375, 90.473213, 90.510201, 90.59523, 90.395836, 90.458336, 90.64286, 90.714287, 90.755104, 90.821426, 91.096939, 91.099998, -10, -10, -10, -10, -10, -10, -10, -10, -10, -10, -10, -10, -10, -10, -10, -10, -10, -10, -10, -10, -10, -10, -10, -10, -10, -10, -10, -10, -10, -10, -10, -10, -10, -10, -10, -10, -10, -10, -10, -10, -10, -10, -10, -10, -10, -10, -10, -10, -10, -10, -10, -10, -10, -10, -10, -10, -10, -10, -10, -10, -10, -10
-10, -10, -10, -10, -10, -10, -10, -10, -10, -10, -10, -10, -10, -10, -10, -10, -10, -10, -10, -10, -10, -10, -10, -10, -10, -10, -10, -10, -10, -10, 90.833336, 90.888885, 91.4375, 91.4375, 91.4375, 91.4375, 91.375, 91, 91.3125, 91.3125, 91.375, 91.714287, 91.714287, 91.714287, 91.714287, 91.678574, 91.64286, 91.535713, 91.464287, 91.5, 91.464287, 91.571426, 91.64286, 91.64286, 91.4375, 91.375, 91.3125, 91.339287, 91.544647, 91.669647, 91.928574, 91.89286, 91.785713, 91.64286, 91.5, 91.666664, 91.5, 91.571426, 91.3125, 91.25, 91.1875, 90.85714, 90.85714, 91.0625, 90.875, 91.178574, 91.125, 91.3125, 91.581627, 91.581627, 91.571426, 91.60714, 91.714287, 91.602043, 91.457146, 91.530617, 91.459183, 91.5, 91.25, 91.125, 91.1875, 91.1875, 91.25, 91.5, 91.25, 91.25, 91.25, 91, 90.85714, 90.887756, 91.294647, 91.366074, 91.785713, 91.5, 91.4375, 91.14286, 91.285713, 91.267853, 91.291664, 91.395836, 91.091843, 91, 90.964287, 91, 91.1875, 91.1875, 91.25, 91.3125, 91.5, 91.535713, 91.693886, 91.64286, 91.464287, 91.458336, 91.267853, 91.102043, 91.193886, 91.204086, 91.071426, 90.875, 90.8125, 90.9375, 91, 91.214287, 91.25, 91.5, 91.666664, 91.708336, 91.791664, 91.64286, 91.678574, 91.64286, 91.535713, 91.5, 91.464287, 91.428574, 91.428574, 91.35714, 91.541664, 91.428574, 91.535713, 91.571426, 91.571426, 91.5, 91.464287, 91.535713, 91.535713, 91.535713, 91.3125, 91.3125, 91.375, 91.4375, 91.5625, 91.660713, 91.928574, 91.794647, 91.5625, 91.419647, 91.57653, 91.571426, 91.836739, 91.785713, 91.821426, 91.375, 91.1875, 91.125, 91.0625, 90.928574, 91, 90.918373, 91.162498, 91.446426, 91.508926, 91.625, 91.714287, 91.60714, 91.64286, 91.547623, 91.452377, 91.5, 91.428574, 91.5, 91.341835, 91.125, 90.89286, 90.85714, 90.89286, 90.964287, 91.035713, 91.333336, 91.821426, 91.541664, 91.780617, 91.908165, 91.872452, 91.85714, 91.75, 91.8125, 91.732147, 91.785713, 91.75, 91.60714, 91.60714, 91.3125, 91.3125, 91.035713, 91.071426, 91.10714, 91.550003, 91.875, 91.617348, 91.845238, 91.836739, 91.85714, 91.785713, 91.714287, 91.714287, 91.714287, 91.64286, 91.571426, 91.5, 91.5, 91.5, 91.5, 91.571426, 91.571426, 91.714287, 91.755104, 91.591835, 91.622452, 91.678574, 91.821426, 91.836739, 91.619041, 91.556114, 91.125, 91.166664, 91.5, 91.60714, 91.755104, 91.785713, 91.785713, 91.60714, 91.60714, 91.535713, 91.375, 91.4375, 91.375, 91.25, 91.14286, 91.25, 91.35714, 91.39286, 91.969383, 91.952385, 91.785721, 91.840004, -10, -10, -10, -10, -10, -10, -10, -10, -10, -10, -10, -10, -10, -10, -10, -10, -10, -10, -10, -10, -10, -10, -10, -10, -10, -10, -10, -10, -10, -10, -10, -10, -10, -10, -10, -10, -10, -10, -10, -10, -10, -10, -10, -10, -10, -10, -10, -10, -10, -10, -10, -10, -10, -10, -10, -10, -10, -10, -10, -10, -10, -10, -10, -10, -10, -10, -10, -10, -10, -10, -10, -10, -10, -10, -10, -10, -10, -10, -10, -10, -10, -10, -10, -10, -10, -10, -10, -10, -10, -10, -10, -10, -10, -10, -10, -10, -10, -10, -10, -10, -10, -10, -10, -10, -10, -10, -10, -10, -10, -10, -10, -10, -10, -10, -10, -10, -10, -10, -10, -10, -10, -10, -10, -10, -10, -10, -10, -10, -10, -10, -10, -10, -10, -10, -10, -10, -10, -10, -10, -10, -10, 92.099998, 92.5, 92.452385, 92.428574, 92.428574, 92.672615, 92.535713, 92.60714, 92.60714, 92.714287, 92.714287, 92.714287, 92.714287, 92.714287, 92.714287, 92.4375, 92.375, 92.375, 92.3125, 92.60714, 92.678574, 92.678574, 92.64286, 92.571426, 92.571426, 92.571426, 92.64286, 92.714287, 92.714287, 92.714287, 92.678574, 92.64286, 92.535713, 92.428574, 92.464287, 92.5, 92.5, 92.5, 92.428574, 92.5, 92.458336, 92, 91.875, 92, 92.125, 92.535713, 92.64286, 92.571426, 92.5, 92.428574, 92.35714, 92.321426, 92.35714, 92.397957, 92.428574, 92.1875, 92.125, 92.0625, 92.125, 92.1875, 92.5, 92.5, 92.35714, 92.285713, 92.25, 92.5, 92.5, 92.601196, 92.443886, 92.525513, 92.714287, 92.64286, 92.64286, 92.875, 92.505104, 92.205353, 92.229164, 92.630959, 92.851196, 92.833336, 92.75, 92.666664, 92.1875, 92.1875, 92.25, 92.3125, 92.4375, 92.714287, 92.714287, 92.60714, 92.428574, 92.285713, 92.193871, 92.044647, 92.107147, 92.089287, 92.029762, 91.946434, 91.64286, 91.75, 91.821426, 91.89286, 92.464287, 92.530617, 92.571426, 92.535713, 92.64286, 92.60714, 92.64286, 92.75, 92.785713, 92.785713, 92.785713, 92.714287, 92.64286, 92.60714, 92.5, 92.464287, 92.5, 92.464287, 92.3125, 92.10714, 92.14286, 92.482147, 92.511902, 92.438774, 92.285713, 92.367348, 92.702385, 92.765312, 92.85714, 92.89286, 92.6875, 92.6875, 92.75, 92.68367, 92.755104, 92.75, 92.732147, 92.5625, 92.5625, 92.3125, 92.35714, 92.285713, 92.14286, 92.375, 92.416664, 92.5, 92.428574, 92.571426, 92.64286, 92.714287, 92.714287, 92.375, 92.3125, 92.1875, 92.1875, 92.3125, 92.25, 92.25, 92.080353, 92.25, 92.583336, 92.791664, 92.958336, 93, 93.041664, 93.041664, 92.89286, 93.125, 92.852043, 92.943886, 92.872452, 92.821426, 92.625, 92.6875, 92.669647, 92.714287, 92.64286, 92.464287, 92.35714, 92.35714, 92.35714, 92.666664, 92.833336, 92.916664, 93, 92.785713, 92.755104, 92.708336, 92.642853, 92.517853, 92.455353, 92.571426, 92.64286, 92.714287, 92.4375, 92.375, 92.3125, 92.3125, 92.3125, 92.571426, 92.64286, 92.64286, 92.75, 92.755104, 92.392853, 92.419647, 92.46875, 92.59375, 92.638397, 92.690475, 92.663261, 92.875, 92.875, 92.571426, 92.520401, 92.540817, 92.571426, 92.714287, 92.678574, 92.637756, 92.535713, 92.484688, 92.612244, 92.5, 92.875, 92.833336, 92.958336, 93.083336, 92.625, 92.528572, 92.53334, -10, -10, -10, -10, -10, -10, -10, -10, -10, -10, -10, -10, -10, -10, -10, -10, -10, -10, -10, -10, -10, -10, -10, -10, -10, -10, -10, -10, -10, -10, -10, -10, -10, -10, -10, -10, -10, -10, -10, -10, -10, -10, -10, -10, -10, -10, -10, -10, -10, -10, -10, -10, -10, -10, -10, -10, -10, -10, -10, -10, -10, -10, -10, -10
