-10, -10, -10, -10, -10, -10, -10, 9.25, 9.166666, 9.1875, 9.1875, 9.3125, 9.4375, 9.5625, 9.4910717, 9.3125, 9.5, 9.3482141, 9.3125, 9.25, 9.125, 9.25, 9.3125, 9.375, 9.375, 9.375, 9.375, 9.375, 9.3125, 9.25, 9.25, 9.3125, 9.4375, 9.5, 9.5, 9.4375, 9.3125, 9.1875, 9.125, 9.125, 9.1875, 9.25, 9.25, 9.1875, 9.0625, 9.1875, 9.3125, 9.375, 9.5, 9.375, 9.375, 9.375, 9.25, 9.25, 9.1875, 9.25, 9.4375, 9.5625, 9.5625, 9.4375, 9.25, 9.0625, 9, 9, 9.0625, 9.1875, 9.3125, 9.4375, 9.5625, 9.625, 9.5625, 9.5, 9.375, 9.25, 9.3125, 9.3125, 9.3125, 9.25, 9.25, 9.375, 9.375, 9.375, 9.25, 9.125, 9.1875, 9.3125, 9.3125, 9.375, 9.4375, 9.5, 9.5625, 9.625, 9.6875, 9.6875, 9.625, 9.4375, 9.25, 9.125, 9.25, 9.3125, 9.3125, 9.375, 9.375, 9.4375, 9.4375, 9.4375, 9.5, 9.4375, 9.5, 9.4375, 9.375, 9.4375, 9.5, 9.5625, 9.5, 9.4375, 9.3125, 9.1875, 9.125, 9.0625, 9.0625, 9.0625, 9, 9, 9, 9.1875, 9.375, 9.4375, 9.4375, 9.3125, 9.25, 9.25, 9.3125, 9.25, 9.25, 9.25, 9.25, 9.375, 9.3125, 9.25, 9.1875, 9.3125, 9.5, 9.625, 9.625, 9.4375, 9.3125, 9.1875, 9.125, 9.1875, 9.3125, 9.4375, 9.5, 9.375, 9.1875, 9.125, 9.25, 9.4458332, -10, -10, -10, 9.5, 9.208333, 9.25, 9.3125, 9.25, 22.166668, 9.416667, 9.3125, 9.34375, 9.34375, 9.40625, 9.59375, 9.625, 9.5625, 9.4375, 9.2767859, 9.375, 9.375, 9.4375, 9.375, 9.3125, 9.25, 9.1875, 9.1875, 9.0625, 9.125, 9.25, 9.25, 9.3125, 9.3125, 9.1875, 9.1875, 9.25, 9.3125, 9.375, 9.3125, 9.1875, 9.0625, 9, 9, 9.0625, 9.125, 9.1875, 9.1875, 9.25, 9.3125, 9.375, 9.4375, 9.375, 9.25, 9.125, 9.0625, 9.125, 9.1875, 9.25, 9.375, 9.4910717, 9.8571424, 10.153061, 10.377551, 10.617347, 10.904762, -10, -10, -10, -10, -10, 22.25, 22, 21.910713, 22.291666, 22.458334, 22.883335, -10, -10, -10, 23.5625, 23.729166, 23.84375, 23.875, 23.875, 23.9375, 24.125, 24.4375, 24.6875, 24.8125, 24.8125, 24.8125, 24.8125, 24.875, 25.0625, 25.25, 25.4375, 25.5, 25.4375, 25.4375, 25.4375, 25.625, 25.848213, 25.9375, 26, 26, 26, 26.1875, 26.375, 26.4375, 26.75, 26.8125, 26.9375, 27.125, 27.0625, 27.125, 27.3125, 27.6875, 27.973213, 28.25, 28.25, 28.125, 28.125, 28.25, 28.5, 28.75, 29, 29.0625, 29.3125, 29.4375, 29.5, 29.59375, 29.59375, 29.65625, 29.78125, 29.875, 29.875, 29.9375, 30.125, 30.25, 30.5, 30.8125, 30.973213, 31, 30.964287, 30.9375, 31.15625, 31.46875, 31.71875, 31.96875, 32.0625, 32.166664, 11.25, 11.479167, 11.803572, 11.988095, 12.589286, 13.544643, 13.892857, 14.196428, 14.5625, 14.857143, 15.0625, 15.330357, 15.938775, 18.222223, 19.011904, 19.595238, 20.006802, 20.482143, 20.741072, 20.8125, 20.696428, 20.575001, 20.348213, 20.5, 20.846939, 20.964285, 21.0051, 20.84375, 20.6875, 20.8125, 20.8125, 20.875, 21.0625, 21.125, 21.1875, 21.357143, 21.424107, 21.481251, 21.510416, 21.834822, 21.901787, 22.125, 22.125, 22.25, 22.4375, 22.5625, 22.8125, 22.875, 22.875, 22.9375, 22.875, 22.75, 22.8125, 22.883928, 23.3125, 23.416668, 23.566666, -10, -10, -10, -10, -10, -10, -10, -10, -10, -10, -10, -10, -10, -10, -10, -10, -10, 9.125, 9.083333, 9.125, 9.1875, 9.25, 9.3125, 9.4375, 9.3660717, 9.25, 9.4375, 9.2857141, 9.25, 9.1875, 9.0625, 9.125, 9.1875, 9.1875, 9.1875, 9.1875, 9.1875, 9.1875, 9.125, 9.0625, 9, 9.0625, 9.1875, 9.3125, 9.3125, 9.25, 9.125, 9, 9, 9, 9.0625, 9.0625, 9.0625, 9.0625, 9, 9.125, 9.1875, 9.1875, 9.25, 9.125, 9.125, 9.125, 9.0625, 9.0625, 9, 9.0625, 9.1875, 9.3125, 9.375, 9.375, 9.25, 9.125, 9.0625, 9, 9.0625, 9.125, 9.1875, 9.25, 9.3125, 9.375, 9.3125, 9.25, 9.125, 9.0625, 9.1875, 9.25, 9.3125, 9.25, 9.25, 9.3125, 9.25, 9.25, 9.125, 9, 9.0625, 9.125, 9.125, 9.1875, 9.25, 9.3125, 9.3125, 9.375, 9.4375, 9.4375, 9.4375, 9.3125, 9.125, 9, 9.0625, 9.0625, 9.0625, 9.125, 9.125, 9.1875, 9.1875, 9.25, 9.3125, 9.25, 9.3125, 9.1875, 9.1875, 9.3125, 9.4375, 9.5, 9.375, 9.25, 9.0625, 9, 9, 9, 9.0625, 9.0625, 9, 9, 8.9375, 9.0625, 9.1875, 9.1875, 9.1875, 9.0625, 9, 9, 9.0625, 9.0625, 9.0625, 9.0625, 9.0625, 9.125, 9.125, 9.125, 9.0625, 9.1875, 9.3125, 9.375, 9.375, 9.1875, 9.0625, 9, 9, 9.125, 9.25, 9.3125, 9.3125, 9.1875, 9.125, 9.25, 9.5500002, 9.5111113, -10, -10, -10, -10, 9.145833, 9.125, 9.166667, 22.75, 22.361113, 22.416668, 9.083333, 9.166667, 9.1875, 9.3125, 9.5, 9.5, 9.375, 9.1875, 9.0267859, 9.125, 9.125, 9.1875, 9.125, 9.0625, 9.0625, 9, 8.9375, 8.875, 8.9375, 9.0625, 9.125, 9.125, 9.0625, 9, 9, 9.0625, 9.125, 9.125, 9.125, 9.0625, 9, 9, 9, 9, 9.0625, 9.125, 9.125, 9.1875, 9.1875, 9.1875, 9.1875, 9.125, 9.0625, 9, 9, 9.125, 9.1875, 9.3125, 9.5, 9.7767859, 11.291667, 11.865476, 11.508928, 11.758928, 12.041666, -10, -10, -10, -10, -10, 22.25, 22, 21.910713, 22.21875, 22.427084, 22.591667, -10, -10, -10, 23.583334, 23.791666, 23.875, 23.9375, 24, 24.0625, 24.25, 24.5625, 24.75, 24.875, 24.875, 24.8125, 24.75, 24.8125, 24.9375, 25.125, 25.375, 25.4375, 25.4375, 25.375, 25.375, 25.625, 25.955357, 26.0625, 26.1875, 26.125, 26.0625, 26.25, 26.4375, 26.5625, 26.875, 26.875, 26.9375, 27.125, 27.169643, 27.1875, 27.375, 27.625, 27.848213, 28.1875, 28.125, 28.03125, 28.03125, 28.15625, 28.46875, 28.75, 29, 29.0625, 29.25, 29.3125, 29.375, 29.46875, 29.59375, 29.78125, 29.90625, 30, 29.9375, 29.9375, 30.0625, 30.125, 30.3125, 30.53125, 30.660713, 30.625, 30.589287, 30.59375, 30.84375, 31.427084, 31.709822, 31.96875, 32.0625, 11, 11, 11.166667, 11.428572, 11.794643, 12.223215, 13.183675, 13.580357, 14.098214, 14.6875, 15.089287, 15.375, 15.785713, 17.833334, 19, 19.765306, 20.224489, 20.354166, 20.482143, 20.625, 20.535713, 20.473215, 20.512501, 20.455357, 20.8125, 21.053572, 21.21875, 21.21875, 21.09375
-10, -10, -10, -10, -10, -10, -10, 9, 9, 9.0625, 9.1875, 9.1875, 9.1875, 9.25, 9.1785717, 9.0625, 9.25, 9.1607141, 9.125, 9.125, 9, 9, 9.0625, 9.0625, 9.0625, 9.0625, 9, 9, 9, 9, 9, 8.9375, 9.0267859, 9.1607141, 9.125, 9.1875, 9.0625, 9, 9, 9, 9.0625, 9.0625, 9.0625, 9.0625, 9, 9.0625, 9.0625, 9.0625, 9.0625, 9, 9, 9, 9, 9, 9, 9, 9.0625, 9.125, 9.1875, 9.25, 9.1875, 9.125, 9.0625, 9, 9, 9, 9, 9, 9.0625, 9.125, 9.125, 9.125, 9.0625, 9.0625, 9.1875, 9.25, 9.3125, 9.3125, 9.25, 9.25, 9.1875, 9.125, 9.0625, 9, 9, 9, 9, 9.0625, 9.125, 9.1875, 9.1875, 9.25, 9.3125, 9.3125, 9.3125, 9.1875, 9.0625, 9, 9, 9, 9, 9, 9, 9, 9, 9.125, 9.25, 9.25, 9.25, 9.125, 9.125, 9.25, 9.375, 9.375, 9.1875, 9.0625, 8.9375, 8.9375, 9, 9, 9, 9, 8.9375, 8.9375, 8.9375, 9, 9.0625, 9.0625, 9.0625, 9, 9, 9, 9.0625, 9.0625, 9.0625, 9.0625, 9, 9, 9, 9, 9, 9.125, 9.1875, 9.1875, 9.1875, 9.0625, 9, 9, 9, 9.0625, 9.125, 9.125, 9.125, 9.0625, 9.1339283, 9.5, 9.7333336, -10, -10, -10, -10, -10, 9.1111107, 9.083333, 22.625, 22.666666, 22.458334, 22.527779, 22.25, 21.958332, 9.083333, 9.166667, 9.25, 9.3125, 9.25, 9.125, 9.0267859, 9.0625, 9.0625, 9.125, 9.0625, 9, 9, 8.9375, 8.875, 8.875, 8.875, 8.9375, 9, 9, 9, 9, 9, 9.0625, 9.125, 9.125, 9.125, 9.0625, 9, 9, 9, 9, 9.0625, 9.125, 9.125, 9.125, 9.0625, 9, 9, 9, 9, 9, 9.0625, 9.25, 9.4250002, 9.333333, 9.583333, 10.035714, 11.7, 12.338572, -10, -10, -10, -10, -10, -10, -10, -10, -10, -10, -10, 22.09375, 22.302084, 22.455557, -10, -10, -10, -10, 23.888887, 23.8125, 23.854166, 24, 24.1875, 24.3125, 24.625, 24.75, 24.8125, 24.875, 24.875, 24.8125, 24.875, 24.9375, 25, 25.1875, 25.25, 25.375, 25.3125, 25.392857, 25.794643, 26.133926, 26.3125, 26.375, 26.25, 26.125, 26.1875, 26.3125, 26.5, 26.8125, 26.8125, 26.9375, 27.125, 27.276787, 27.375, 27.5625, 27.6875, 27.8125, 28.125, 28.0625, 28.03125, 28.03125, 28.09375, 28.40625, 28.6875, 28.9375, 29.0625, 29.1875, 29.25, 29.375, 29.46875, 29.59375, 29.78125, 29.90625, 30, 30, 30, 30.0625, 30.0625, 30.25, 30.456249, 30.1875, 30.017857, 29.839287, 29.915178, 30.447916, 31.194941, 31.629463, 31.90625, 32.0625, 11, 10.875, 10.916667, 11.0625, 11.270833, 11.714286, 12.326531, 13.430357, 13.991072, 14.723214, 15.554421, 15.969388, 16.612244, 18.816328, 19.520834, 20.142857, 20.4375, 20.375, 20.4375, 20.410713, 20.178572, 20.107143, 20.200001, 20.267857, 20.732143, 20.919643, 21.125, 21.0625, 21, 20.8125, 20.8125, 20.875, 20.875, 21.0625, 21.0625, 21.0625, 21.125, 21.125, 21.0625, 21.1875, 21.3125, 21.473213, 21.75, 21.875, 22.0625, 22.223213, 22.142857, 22.227678, 22.34375, 22.53125, 22.897322, 23.035713, 23, 23, 23.008928, 23.375, 23.4375, 23.533333, -10, -10, -10, -10, -10, -10, -10, -10, -10, -10, -10, -10, -10, -10, -10, -10, -10, 9, 9, 9, 9.0625, 9, 8.9375, 9, 8.9285717, 8.875, 9.0625, 9.0357141, 9.0625, 9.0625, 9, 9, 9.0625, 9.0625, 9.0625, 9, 8.9375, 8.9375, 8.9375, 9, 9, 8.9375, 8.9642859, 9.0357141, 9, 9.0625, 9, 9, 9, 9, 9.0625, 9.0625, 9.0625, 9.0625, 9, 9, 9, 9, 9, 9, 9, 9, 9, 9, 9, 9, 9, 9, 9.0625, 9.125, 9.125, 9.125, 9.0625, 9, 9, 9, 9, 9, 9, 9, 9, 9, 9, 9.0625, 9.125, 9.1875, 9.25, 9.25, 9.1875, 9.125, 9.0625, 9, 9, 9, 9, 9, 9, 9, 9, 9, 9, 9.0625, 9.125, 9.1875, 9.1875, 9.125, 9.0625, 9, 9, 9, 9, 9, 9, 9, 9, 9.0625, 9.125, 9.125, 9.125, 9.0625, 9.0625, 9.125, 9.125, 9.0625, 8.875, 8.8125, 8.8125, 8.875, 9, 9, 9, 9, 8.9375, 8.9375, 8.9375, 8.9375, 9, 9, 9, 9, 9, 9, 9, 9, 9, 9, 9, 9, 9, 9, 9, 9.0625, 9.0625, 9.0625, 9.0625, 9, 9, 9, 9, 9, 9, 9, 9, 9.0625, 9.2172613, 9.666667, -10, -10, -10, -10, -10, -10, 22, 22, 22.5, 22.625, 22.645834, 22.583334, 22.333334, 22.055555, 22, 21.875, 9.083333, 9.125, 9.125, 9.0625, 8.9642859, 8.9375, 8.9375, 9, 9, 9, 9, 8.9375, 8.875, 8.875, 8.875, 8.9375, 9, 9, 9, 9, 9, 9.0625, 9.125, 9.125, 9.125, 9.0625, 9, 9, 9, 9, 9.0625, 9.125, 9.125, 9.125, 9.0625, 9, 9, 9, 9, 9, 9.083333, 9.333333, 9.5666666, -10, -10, -10, -10, -10, -10, -10, -10, -10, -10, -10, -10, -10, -10, -10, -10, 22, 22.194445, -10, -10, -10, -10, -10, -10, 23.833334, 23.916666, 24.0625, 24.3125, 24.4375, 24.6875, 24.75, 24.776787, 24.875, 24.767857, 24.875, 24.910713, 25, 25, 25, 25.0625, 25.25, 25.357143, 25.580357, 26.107143, 26.446426, 26.625, 26.625, 26.375, 26.1875, 26.125, 26.1875, 26.375, 26.6875, 26.75, 26.9375, 27.125, 27.214287, 27.339287, 27.607143, 27.741072, 27.875, 28.0625, 28, 27.96875, 27.96875, 28.03125, 28.34375, 28.625, 28.875, 29, 29.125, 29.25, 29.4375, 29.625, 29.75, 29.8125, 29.75, 29.714287, 29.75, 29.857143, 30, 30, 30.1875, 30.424999, 29.892859, 29.773809, 29.601191, 29.690475, 30.485416, 31.319941, 31.691963, 31.96875, 32.0625, 32.333332, 11, 11, 11.1875, 11.354166, -10, 12.214287, 13.6625, 14.618367, 15.448979, 17.781746, 18.345238, 18.857141, 19.5, 19.9375, 20.25, 20.3125, 20.125, 20.0625, 19.973213, 19.741072, 19.794643, 20.119644, 20.267857, 20.669643, 20.75, 20.9375, 20.875, 20.9375
-10, -10, -10, -10, -10, -10, -10, 9, 9, 9, 9, 8.875, 8.75, 8.75, 8.75, 8.875, 9, 9, 9, 9, 9, 9, 9.0625, 9.0625, 9.0625, 9, 8.9375, 8.9375, 8.9375, 9, 9, 8.9375, 8.9642859, 9.0357141, 9, 9.0625, 9, 9, 9, 9, 9, 9, 9, 9, 9, 9, 9, 9, 9, 9, 9, 9, 9, 9, 9, 9, 9, 9, 9.0625, 9.125, 9.125, 9.125, 9.0625, 9, 9, 9, 9, 9, 9, 8.9375, 8.9375, 8.9375, 8.9375, 9, 9, 9, 9, 9.0625, 9.0625, 9.0625, 9.0625, 9, 9, 9, 9, 9, 9, 9, 9, 9, 9, 9, 9, 9, 9, 9, 9, 9, 9, 9, 9, 9, 9, 9, 9, 9, 9, 9, 9, 9, 9, 9, 8.9375, 8.875, 8.75, 8.75, 8.8125, 8.875, 9, 9, 9, 9, 9, 9, 9, 9, 9, 9, 9, 8.9375, 8.875, 8.875, 8.875, 8.9375, 9, 9, 9, 9, 9, 9, 9, 9, 9, 9, 9, 8.9375, 8.9375, 8.9375, 8.9375, 9, 9, 9, 9, 9.083333, 9.2896814, -10, -10, -10, -10, -10, -10, 22, 22.055555, 22.125, 22.53125, 22.71875, 22.8125, 22.75, 22.4375, 22.104166, 21.952383, 21.75, 21.583332, 9, 9, 9, 9, 9, 9, 9, 9, 9, 9, 9, 8.875, 8.8125, 8.8125, 8.8125, 8.9375, 9, 9, 9, 9, 9, 9, 9, 9, 9, 9, 9, 9, 9, 9.0625, 9.125, 9.125, 9.125, 9.0625, 9, 9.0625, 9.083333, 9, 9, -10, -10, -10, -10, -10, -10, -10, -10, -10, -10, -10, -10, -10, -10, -10, -10, -10, -10, -10, -10, -10, -10, -10, -10, -10, -10, -10, -10, 23.916666, 24, 24.125, 24.125, 24.330357, 24.583334, 24.705359, 24.875, 24.767857, 24.9375, 24.973213, 25.0625, 25.0625, 24.875, 24.875, 25.0625, 25.232143, 25.625, 26.044643, 26.375, 26.669643, 26.741072, 26.5625, 26.375, 26.3125, 26.3125, 26.401787, 26.625, 26.6875, 26.875, 27.0625, 27.214287, 27.276787, 27.607143, 27.803572, 28.044643, 28.125, 28.0625, 27.96875, 27.90625, 28.03125, 28.34375, 28.625, 28.875, 29, 29.125, 29.3125, 29.5625, 29.8125, 29.9375, 29.9375, 29.741072, 29.380953, 29.321428, 29.419643, 29.625, 29.794643, 30.0625, 30.362499, 30.459185, 30.761904, 30.833334, 30.596939, 30.704166, 31.413691, 31.723213, 32, 32.0625, 11, 11, 11, 11.1875, 11.249999, -10, 12.636735, 14.447619, 17.25238, 17.851191, 18.751699, 19.188776, 19.510204, 19.75, 19.9375, 20.0625, 20.0625, 19.875, 19.8125, 19.723213, 19.5625, 19.806549, 20.098215, 20.375, 20.607143, 20.6875, 20.75, 20.625, 20.6875, 20.6875, 20.75, 20.875, 20.9375, 21, 21, 21, 21, 21.0625, 20.96875, 20.84375, 20.78125, 20.888393, 21.178572, 21.5, 21.75, 21.941963, 21.799107, 21.758928, 21.875, 22.03125, 22.522322, 22.785713, 22.9375, 23.0625, 23.125, 23.375, 23.4375, 23.583332, -10, -10, -10, -10, -10, -10, -10, -10, -10, -10, -10, -10, -10, -10, -10, -10, -10, 9, 9, 9, 9, 8.9375, 8.875, 8.875, 8.875, 8.875, 8.9375, 8.9375, 8.9375, 9, 9, 9, 9, 9, 9, 8.9375, 8.9375, 8.9375, 8.9375, 9, 9, 8.9375, 8.9642859, 9.0357141, 9, 9.0625, 9, 9, 9, 9, 9, 9, 9, 9, 9, 9, 9, 9, 8.9375, 8.9375, 8.9375, 8.9375, 9, 9, 9, 9, 9, 9, 9, 9, 9, 9, 9, 9, 9, 9, 9, 9, 9, 8.9375, 8.875, 8.875, 8.875, 8.9375, 9, 9, 9, 9.0625, 9.0625, 9.0625, 9.0625, 9, 9, 9, 9, 9, 9, 9, 9, 9, 8.9375, 8.875, 8.875, 8.875, 8.9375, 9, 9, 9, 9, 9, 9, 9, 9, 9, 9, 9, 9, 9, 9, 9, 9, 9, 8.9375, 8.875, 8.75, 8.75, 8.8125, 8.875, 9, 9, 9, 9, 9, 9, 9, 9, 9, 9, 8.9375, 8.8125, 8.75, 8.75, 8.8125, 8.9375, 9, 8.9375, 8.875, 8.875, 8.875, 8.9375, 9, 9, 9, 9, 9, 8.9375, 8.875, 8.875, 8.875, 8.9375, 9, 9, 9, -10, -10, -10, -10, -10, -10, -10, -10, 21.666666, 21.791666, 21.90625, 22.21875, 22.575893, 22.8125, 22.8125, 22.5, 22.1875, 22, 21.75, 21.579367, 21.458332, 9, 9, 8.875, 8.916667, 8.9375, 9, 9, 8.9375, 8.875, 8.8125, 8.75, 8.75, 8.8125, 8.875, 8.9375, 9, 9, 9, 9, 9, 9, 9, 9, 9, 9, 8.9375, 8.9375, 8.9375, 8.9375, 9, 9, 9, 9, 9, 9.083333, 9.1111107, -10, -10, -10, -10, -10, -10, -10, -10, -10, -10, -10, -10, -10, -10, -10, -10, -10, -10, -10, -10, -10, -10, -10, -10, -10, -10, -10, -10, -10, -10, 23.822916, 23.854166, 23.953125, 24, 24.267857, 24.458334, 24.580359, 24.6875, 24.642857, 24.9375, 25.035713, 25.125, 25.125, 24.8125, 24.6875, 24.8125, 25.044643, 25.616072, 26.044643, 26.232143, 26.544643, 26.491072, 26.4375, 26.3125, 26.3125, 26.3125, 26.419643, 26.794643, 26.928572, 27.125, 27.1875, 27.169643, 27.151787, 27.482143, 27.803572, 28.142857, 28.25, 28.3125, 28.169643, 28, 28.0625, 28.25, 28.5625, 28.8125, 29, 29.1875, 29.4375, 29.6875, 29.9375, 29.9375, 29.875, 29.678572, 29.255953, 29.133928, 29.0625, 29.1875, 29.4375, 30.229166, 30.750893, 31.102041, 31.295918, 31.285715, 31.132654, 31.280951, 31.455357, 31.732143, 32, 32.0625, 32.111111, 12, 12.04762, 12.285714, 12.392856, -10, 16.366667, 17.677778, 18.451019, 18.765306, 19.372025, 19.904762, 20.178572, 20.1875, 20.0625, 20, 19.9375, 19.8125, 19.8125, 19.598213, 19.464285, 19.779762, 20.035715, 20.375, 20.482143, 20.5, 20.5, 20.375, 20.4375
-10, -10, -10, -10, -10, -10, -10, 9, 9, 9, 8.9375, 8.9375, 8.9375, 8.9375, 9, 8.9375, 8.9375, 8.9375, 8.9375, 8.9375, 8.9375, 8.9375, 8.9375, 9, 9, 8.9375, 8.875, 8.875, 8.875, 8.875, 8.875, 8.8125, 8.8125, 8.875, 8.9375, 9, 9, 9, 9, 9, 9, 9, 9, 9, 9, 9, 8.9375, 8.875, 8.8125, 8.8125, 8.875, 8.9375, 9, 9, 9, 9, 9, 9, 9, 9, 9, 9, 9, 8.9375, 8.9375, 8.9375, 8.9375, 9, 9, 8.9375, 8.875, 8.875, 8.875, 8.9375, 9, 9, 9, 9, 9, 8.9375, 8.875, 8.875, 8.875, 8.875, 8.9375, 8.875, 8.875, 8.9375, 8.9375, 8.9375, 8.8125, 8.6875, 8.6875, 8.75, 8.875, 9, 8.9375, 8.9375, 8.9375, 8.9375, 9, 9, 8.9375, 8.9375, 8.9375, 8.9375, 9, 9, 9, 9, 9, 9, 8.9375, 8.875, 8.8125, 8.8125, 8.875, 8.9375, 9, 9, 9, 9, 9, 9, 9, 9, 9, 8.9375, 8.8125, 8.625, 8.5625, 8.625, 8.6875, 8.8125, 8.8125, 8.6875, 8.625, 8.6875, 8.75, 8.875, 9, 9, 9, 9, 9, 8.9375, 8.875, 8.875, 8.875, 8.9375, 9, 9, -10, -10, -10, -10, -10, -10, -10, 21, 21, 21.5, 21.541666, 21.71875, 22.09375, 22.558037, 22.8125, 22.8125, 22.5, 22.25, 22.125, 21.857143, 21.601191, 21.400793, 21, 21, 8.875, 8.916667, 8.875, 8.9375, 8.9375, 8.8125, 8.75, 8.625, 8.5, 8.5625, 8.6875, 8.75, 8.875, 8.9375, 8.875, 8.9375, 8.9375, 8.9375, 8.9375, 8.9375, 8.9375, 8.9375, 9, 8.9375, 8.9375, 8.875, 8.875, 8.9375, 8.9375, 9, 9, 9, -10, -10, -10, -10, -10, -10, -10, -10, -10, -10, -10, -10, -10, -10, -10, -10, -10, -10, -10, -10, -10, -10, -10, -10, -10, -10, -10, -10, -10, -10, -10, -10, 23.71875, 23.6875, 23.703125, 23.875, 24.174107, 24.395834, 24.580359, 24.705357, 24.767857, 25.0625, 25.160713, 25.125, 25.125, 24.8125, 24.6875, 24.75, 24.982143, 25.544643, 25.9375, 26.053574, 26.357143, 26.303572, 26.3125, 26.25, 26.375, 26.375, 26.5, 27.026787, 27.232143, 27.4375, 27.375, 27.1875, 26.964287, 27.232143, 27.703571, 27.892857, 28.166666, 28.395834, 28.276787, 28.125, 28.125, 28.1875, 28.5, 28.75, 28.9375, 29.25, 29.5, 29.8125, 30.125, 30.125, 30.0625, 29.803572, 29.255953, 29.008928, 28.8125, 28.8125, 29.178572, 30.229166, 30.84375, 31.357143, 31.5625, 31.625, 31.455357, 31.475, 31.6875, 31.8125, 32.0625, 32, 32, 16, 16.111113, 16.25, 16.361113, 19.25, 17.885714, 18.809525, 19.2875, 19.401787, 19.642857, 19.976191, 20.285713, 20.294643, 20.25, 20.125, 20, 19.875, 19.75, 19.5, 19.446428, 19.770834, 20.035715, 20.3125, 20.3125, 20.3125, 20.25, 20.1875, 20.25, 20.375, 20.5625, 20.75, 21, 21.0625, 21.0625, 21.0625, 21, 21.0625, 21.03125, 20.90625, 20.84375, 20.888393, 20.991072, 21.1875, 21.25, 21.34375, 21.40625, 21.53125, 21.71875, 21.875, 22.125, 22.3125, 22.5, 22.6875, 22.9375, 23.1875, 23.25, 23.354166, -10, -10, -10, -10, -10, -10, -10, -10, -10, -10, -10, -10, -10, -10, -10, -10, -10, 9, 9, 9, 8.875, 8.8125, 8.8125, 8.8125, 8.875, 8.8125, 8.8125, 8.8125, 8.8125, 8.8125, 8.75, 8.6875, 8.6875, 8.75, 8.75, 8.75, 8.6875, 8.6875, 8.6875, 8.625, 8.625, 8.5625, 8.5625, 8.625, 8.6875, 8.8125, 8.875, 8.875, 8.875, 8.875, 8.875, 8.875, 8.875, 8.875, 8.875, 8.9375, 8.875, 8.75, 8.6875, 8.6875, 8.75, 8.8125, 8.8125, 8.8125, 8.875, 8.9375, 9, 9, 9, 8.9375, 8.875, 8.8125, 8.75, 8.75, 8.8125, 8.875, 8.9375, 9, 9, 8.875, 8.8125, 8.8125, 8.8125, 8.9375, 9, 9, 9, 9, 9, 8.875, 8.8125, 8.8125, 8.75, 8.75, 8.75, 8.625, 8.625, 8.75, 8.8125, 8.8125, 8.6875, 8.5, 8.5, 8.625, 8.8125, 8.9375, 8.8125, 8.75, 8.6875, 8.75, 8.875, 8.9375, 8.875, 8.875, 8.875, 8.8125, 8.9375, 8.9375, 8.9375, 9, 9, 9, 9, 8.9375, 8.875, 8.8125, 8.75, 8.75, 8.8125, 8.8125, 8.8125, 8.875, 8.875, 8.9375, 9, 8.9375, 8.875, 8.8125, 8.6875, 8.5625, 8.5, 8.5, 8.5, 8.625, 8.6875, 8.625, 8.5625, 8.5625, 8.625, 8.6875, 8.8125, 8.8125, 8.75, 8.75, 8.75, 8.75, 8.75, 8.8125, 8.9375, 9.020833, 9, -10, -10, -10, -10, -10, -10, -10, -10, 20.75, 20.833334, 21.1875, 21.354166, 21.59375, 22.03125, 22.558037, 22.8125, 22.875, 22.5625, 22.3125, 22.1875, 21.857143, 21.559525, 21.363094, 21, 20.916666, 8.833333, 8.8888893, 8.875, 8.9375, 8.875, 8.6875, 8.5625, 8.375, 8.25, 8.3125, 8.4375, 8.5, 8.625, 8.75, 8.75, 8.875, 8.875, 8.8125, 8.75, 8.75, 8.8125, 8.875, 8.9375, 8.8125, 8.75, 8.6875, 8.708333, 8.916667, 8.916667, 9, 9, 9, -10, -10, -10, -10, -10, -10, -10, -10, -10, -10, -10, -10, -10, -10, -10, -10, -10, -10, -10, -10, -10, -10, -10, -10, -10, -10, -10, -10, -10, -10, -10, -10, 23.71875, 23.6875, 23.703125, 23.875, 24.174107, 24.395834, 24.553572, 24.642857, 24.875, 25.0625, 25.1875, 25.125, 25.125, 25, 24.9375, 25, 25.0625, 25.57143, 25.910713, 25.928574, 26.294643, 26.178572, 26.25, 26.25, 26.4375, 26.4375, 26.5625, 27.026787, 27.169643, 27.375, 27.3125, 27.25, 27.0625, 27.3125, 27.810715, 27.955357, 28.291666, 28.520834, 28.464287, 28.3125, 28.25, 28.1875, 28.4375, 28.6875, 28.875, 29.25, 29.5, 29.875, 30.25, 30.232143, 30.041666, 29.8125, 29.291666, 29.008928, 28.642857, 28.5, 28.875, 30.291666, 31.008928, 31.544643, 31.59375, 31.53125, 31.34375, 31.4375, 31.5625, 31.75, 32, 32, 19, 18.666666, 18.861113, 17.821428, 17.904762, 19.25, 18.9, 19.395834, 19.4375, 19.4375, 19.455357, 19.797619, 20.285713, 20.294643, 20.375, 20.1875, 20.0625, 20, 19.875, 19.6875, 19.633928, 19.770834, 19.803572, 20, 20, 20.0625, 20.0625, 20, 20
-10, -10, -10, -10, -10, -10, -10, 8.75, 8.75, 8.75, 8.625, 8.5625, 8.5625, 8.5625, 8.6875, 8.625, 8.625, 8.625, 8.5625, 8.5625, 8.5, 8.4375, 8.4375, 8.5, 8.5, 8.5, 8.4375, 8.4375, 8.4375, 8.375, 8.375, 8.3125, 8.3125, 8.375, 8.4375, 8.625, 8.6875, 8.6875, 8.6875, 8.625, 8.625, 8.625, 8.625, 8.6875, 8.75, 8.8125, 8.75, 8.5625, 8.4375, 8.4375, 8.5, 8.5625, 8.5625, 8.5625, 8.6875, 8.75, 8.8125, 8.875, 8.875, 8.8125, 8.75, 8.625, 8.5, 8.5, 8.5625, 8.625, 8.6875, 8.75, 8.75, 8.6875, 8.6875, 8.75, 8.8125, 8.875, 8.875, 8.8125, 8.75, 8.8125, 8.875, 8.8125, 8.8125, 8.75, 8.625, 8.5625, 8.5, 8.375, 8.375, 8.5, 8.5625, 8.5625, 8.4375, 8.25, 8.25, 8.4375, 8.6875, 8.8125, 8.6875, 8.5625, 8.4375, 8.5, 8.625, 8.6875, 8.625, 8.625, 8.625, 8.625, 8.75, 8.75, 8.75, 8.8125, 8.875, 8.875, 8.875, 8.75, 8.625, 8.5625, 8.5, 8.5, 8.5625, 8.5625, 8.5625, 8.625, 8.6875, 8.8125, 8.9375, 8.875, 8.8125, 8.75, 8.5625, 8.5625, 8.5, 8.4375, 8.5, 8.5625, 8.625, 8.625, 8.5, 8.4375, 8.4375, 8.4375, 8.5625, 8.5625, 8.5, 8.5, 8.5, 8.5625, 8.625, 8.75, 8.916667, 9.0277777, -10, -10, -10, -10, -10, -10, 20, 20, 20.125, 20.6875, 20.8125, 20.9375, 21.125, 21.375, 21.875, 22.464287, 22.75, 22.875, 22.553572, 22.25, 22.223213, 21.857143, 21.559525, 21.196428, 20.9375, 20.8125, 20.5, 20.416668, 8.833333, 8.9375, 8.791667, 8.5625, 8.375, 8.125, 8.0625, 8.1875, 8.3125, 8.375, 8.4375, 8.5, 8.5625, 8.75, 8.75, 8.6875, 8.5625, 8.5625, 8.6875, 8.75, 8.8125, 8.625, 8.5, 8.583333, 8.6111107, -10, -10, 9, 9, 9, -10, -10, -10, -10, -10, -10, -10, -10, -10, -10, -10, -10, 18, -10, -10, -10, -10, -10, -10, 22.375, 22.25, 22.0625, 22.041668, -10, -10, -10, -10, -10, -10, -10, 23.875, 24, 23.71875, 23.6875, 23.828125, 24.125, 24.46875, 24.5625, 24.625, 24.642857, 24.875, 25, 25.0625, 24.9375, 24.875, 24.875, 25, 25.232143, 25.3125, 25.714287, 26.035713, 25.964287, 26.25, 26, 25.854166, 25.883928, 26.116072, 26.223213, 26.49107, 27.0625, 27.169643, 27.4375, 27.375, 27.3125, 27.25, 27.5, 27.908928, 27.910713, 28.166666, 28.360119, 28.4375, 28.3125, 28.25, 28.0625, 28.3125, 28.5625, 28.8125, 29.1875, 29.4375, 29.8125, 30.125, 30.107143, 29.916666, 29.758928, 29.5, 29.3125, 28.973213, 28.895834, 29.020407, 30.666666, 31.321428, 31.75, 31.71875, 31.53125, 31.21875, 31.291666, 31.583334, 31.8125, 32.0625, 32, 19, 18.75, 18.958334, 18.9375, 18.85, 19.116072, 19.071428, 19.348213, 19.3125, 19.375, 19.330357, 19.735119, 20.285713, 20.294643, 20.4375, 20.25, 20.1875, 20.1875, 20.0625, 19.9375, 19.8125, 19.6875, 19.625, 19.75, 19.8125, 19.9375, 20, 20, 20, 20.0625, 20.3125, 20.5625, 20.875, 21.0625, 21.0625, 21.0625, 20.875, 20.75, 20.625, 20.625, 20.75, 20.875, 21.09375, 21.21875, 21.21875, 21.21875, 21.1875, 21.3125, 21.5625, 21.8125, 22, 22, 22, 22.0625, 22.25, 22.625, 22.910713, 22.895834, 22.711111, -10, -10, -10, -10, -10, -10, -10, -10, -10, -10, -10, -10, -10, -10, -10, -10, 8.5, 8.5, 8.5, 8.375, 8.3125, 8.3125, 8.3125, 8.5, 8.5, 8.5, 8.5, 8.375, 8.3125, 8.25, 8.25, 8.3125, 8.375, 8.375, 8.3125, 8.1875, 8.1875, 8.1875, 8.125, 8.125, 8.0625, 8.0625, 8.125, 8.1875, 8.375, 8.4375, 8.4375, 8.4375, 8.375, 8.375, 8.375, 8.375, 8.4375, 8.5, 8.5625, 8.5, 8.3125, 8.3125, 8.3125, 8.375, 8.4375, 8.3125, 8.3125, 8.4375, 8.5, 8.5625, 8.625, 8.625, 8.5625, 8.5, 8.375, 8.25, 8.25, 8.3125, 8.375, 8.4375, 8.5, 8.5, 8.4375, 8.5625, 8.6875, 8.8125, 8.875, 8.75, 8.625, 8.5, 8.5625, 8.625, 8.5625, 8.5625, 8.5, 8.375, 8.3125, 8.25, 8.125, 8.125, 8.25, 8.3125, 8.3125, 8.25, 8.125, 8.125, 8.3125, 8.5, 8.5625, 8.4375, 8.3125, 8.1875, 8.25, 8.375, 8.4375, 8.375, 8.375, 8.375, 8.375, 8.5, 8.5, 8.5625, 8.6875, 8.75, 8.75, 8.6875, 8.5, 8.375, 8.3125, 8.25, 8.25, 8.3125, 8.3125, 8.3125, 8.375, 8.4375, 8.5625, 8.6875, 8.625, 8.5625, 8.5, 8.375, 8.4375, 8.375, 8.3125, 8.3125, 8.3125, 8.375, 8.4375, 8.375, 8.3125, 8.3125, 8.25, 8.3125, 8.3125, 8.25, 8.25, 8.25, 8.3125, 8.5, 8.645833, 8.9722223, -10, -10, -10, -10, -10, -10, -10, 20, 20.083334, 20.333334, 20.723213, 20.875, 21.0625, 21.25, 21.5, 22, 22.482143, 22.75, 22.9375, 22.741072, 22.5, 22.366072, 21.836309, 21.488094, 21.133928, 20.9375, 20.75, 20.5, 20.361113, 20.166668, 8.916667, 8.7222223, 8.375, 8.25, 8.0625, 8, 8.0625, 8.125, 8.125, 8.1875, 8.25, 8.375, 8.5625, 8.5625, 8.5, 8.3125, 8.3125, 8.4375, 8.5, 8.5625, 8.583333, 8.416667, -10, -10, -10, -10, 9, 18, 18, -10, -10, -10, -10, -10, -10, -10, -10, -10, -10, 18.25, 18.333332, 18.25, -10, -10, -10, -10, -10, -10, 22.25, 22.25, 22.125, 22.194445, 22.625, 22.75, 23, 23, 23, 23.25, 23.5, 23.833334, 24, 23.8125, 23.833334, 24.0625, 24.375, 24.65625, 24.75, 24.776787, 24.866072, 25.0625, 25.25, 25.25, 25.116072, 24.791666, 24.830357, 25, 25.357143, 25.5, 25.723213, 26.035713, 26, 26.25, 26.0625, 25.854166, 25.883928, 25.991072, 26.035713, 26.276785, 26.955357, 27.205357, 27.625, 27.625, 27.625, 27.5625, 27.6875, 27.971428, 27.875, 28.041666, 28.172619, 28.330357, 28.3125, 28.25, 28.125, 28.3125, 28.5625, 28.8125, 29.1875, 29.4375, 29.8125, 30.125, 30.107143, 29.916666, 29.758928, 29.625, 29.5625, 29.455357, 29.520834, 30.166666, 30.75, 31.285715, 31.833332, 31.825893, 31.65625, 31.236607, 31.309523, 31.708334, 31.875, 32.145832, 32, 19, 19, 19.053572, 18.8125, 18.6625, 18.741072, 18.727678, 19.004463, 19.03125, 19.21875, 19.1875, 19.464285, 19.919643, 19.919643, 20.205357, 20.1875, 20.1875, 20.25, 20.0625, 20, 19.875, 19.75, 19.6875, 19.75, 19.8125, 19.9375, 20, 20, 20
-10, -10, -10, -10, -10, -10, -10, 8.25, 8.25, 8.25, 8.1875, 8.125, 8.125, 8.125, 8.25, 8.25, 8.1875, 8.1875, 8.0625, 8.0625, 8.0625, 8.0625, 8.125, 8.125, 8.125, 8.0625, 8.0625, 8.125, 8.125, 8.125, 8.0625, 8, 8, 8, 8, 8.125, 8.1875, 8.1875, 8.1875, 8.125, 8.125, 8.125, 8.125, 8.1875, 8.25, 8.3125, 8.3125, 8.1875, 8.1875, 8.1875, 8.25, 8.3125, 8.1875, 8.1875, 8.25, 8.25, 8.3125, 8.375, 8.375, 8.3125, 8.25, 8.125, 8, 8.0625, 8.125, 8.1875, 8.25, 8.25, 8.25, 8.1875, 8.3125, 8.4375, 8.5625, 8.625, 8.5, 8.375, 8.25, 8.3125, 8.375, 8.375, 8.4375, 8.375, 8.25, 8.1875, 8.0625, 8, 8, 8.0625, 8.125, 8.125, 8.125, 8.0625, 8.0625, 8.1875, 8.3125, 8.3125, 8.25, 8.125, 8, 8.0625, 8.125, 8.1875, 8.1875, 8.1875, 8.1875, 8.1875, 8.25, 8.25, 8.3125, 8.4375, 8.5, 8.5, 8.4375, 8.25, 8.125, 8.0625, 8, 8, 8.0625, 8.125, 8.125, 8.1875, 8.25, 8.3125, 8.4375, 8.375, 8.3125, 8.3125, 8.25, 8.375, 8.3125, 8.1875, 8.1875, 8.1875, 8.3125, 8.4375, 8.375, 8.25, 8.1875, 8.0625, 8.0625, 8.0625, 8, 8, 8, 8.125, 8.333333, 8.5277777, -10, -10, -10, -10, -10, -10, -10, 20, 20, 20.0625, 20.321428, 20.723213, 20.875, 21.125, 21.3125, 21.59375, 22.09375, 22.53125, 22.669643, 22.714285, 22.479593, 22.142857, 22.025511, 21.354166, 21.258928, 21, 20.875, 20.625, 20.4375, 20.333334, 20.111113, 19.875, 19.833332, 8.25, 8.125, 8, 8, 8, 8, 8, 8, 8.0625, 8.25, 8.375, 8.375, 8.3125, 8.125, 8.1875, 8.375, 8.479167, 8.416667, -10, -10, -10, -10, -10, -10, 18.125, 18.083334, 18, 18, -10, -10, -10, -10, -10, -10, -10, -10, -10, 18.333334, 18.444445, 18.4375, 19.5, 20.232143, 21.071428, 21.589287, 21.875, 22, 22.1875, 22.25, 22.21875, 22.333334, 22.666666, 22.75, 22.916666, 22.916666, 23.083334, 23.25, 23.5, 23.8125, 23.9375, 24, 24, 24.25, 24.5, 24.75, 24.875, 24.964287, 25.098213, 25.1875, 25.4375, 25.375, 25.241072, 24.916666, 24.892857, 25.0625, 25.544643, 25.857143, 26.089287, 26.223213, 26.125, 26.25, 26.0625, 25.854166, 25.883928, 25.866072, 25.879463, 26.008928, 26.473213, 26.852041, 27.395834, 27.392857, 27.5, 27.5, 27.75, 27.946426, 28.0625, 28.125, 28.089287, 28.223213, 28.1875, 28.1875, 28.0625, 28.214287, 28.544643, 28.803572, 29.1875, 29.4375, 29.75, 30, 29.982143, 29.791666, 29.696428, 29.6875, 29.6875, 29.705357, 30.17687, 30.383928, 31, 31.486607, 31.927082, 31.950893, 31.78125, 31.330357, 31.354166, 31.833334, 31.9375, 32.229164, 19, 19, 19, 19.071428, 18.4375, 18.4125, 18.464285, 18.415178, 18.754463, 18.78125, 19.03125, 19.125, 19.321428, 19.5625, 19.5625, 19.830357, 19.9375, 20.0625, 20.1875, 20.0625, 20.0625, 20, 19.9375, 19.875, 19.875, 19.875, 19.9375, 20.0625, 20.0625, 20.0625, 20, 20.0625, 20.1875, 20.375, 20.625, 20.75, 20.875, 20.875, 20.723213, 20.5, 20.696428, 21.011906, 21.303572, 21.65625, 21.647322, 21.09375, 20.992559, 21.029762, 21.315475, 21.553572, 21.65625, 21.65625, 21.65625, 21.59375, 21.625, 21.8125, 22.125, 22.517857, 22.5, 22.533331, -10, -10, -10, -10, -10, -10, -10, -10, -10, -10, -10, -10, -10, -10, -10, -10, 8, 8, 8, 8, 8, 8, 8, 8.125, 8.125, 8.0625, 8.0625, 7.9375, 7.9375, 8, 8.0625, 8.125, 8.125, 8.125, 8.0625, 8.0625, 8.125, 8.125, 8.125, 8.0625, 8, 8, 8, 8, 8.0625, 8.0625, 8.0625, 8.0625, 8, 8, 8, 7.9375, 8, 8.0625, 8.0625, 8.125, 8.0625, 8.0625, 8.0625, 8.125, 8.25, 8.1875, 8.1875, 8.1875, 8.0625, 8.0625, 8.125, 8.125, 8.125, 8.125, 8.0625, 8, 8, 8, 8, 8, 8, 8, 8, 8.125, 8.25, 8.375, 8.375, 8.25, 8.125, 8, 8.0625, 8.1875, 8.3125, 8.375, 8.3125, 8.1875, 8.0625, 8, 8, 8, 8, 8, 8, 8, 8, 8, 8.0625, 8.125, 8.125, 8.125, 8.0625, 8, 8, 8, 8, 8, 8, 8, 8.0625, 8.0625, 8.0625, 8.125, 8.1875, 8.25, 8.25, 8.1875, 8.0625, 8, 8, 8, 8, 8, 8.0625, 8.0625, 8.0625, 8.125, 8.125, 8.1875, 8.1875, 8.1875, 8.1875, 8.125, 8.1875, 8.125, 8.0625, 8.125, 8.125, 8.1875, 8.25, 8.1875, 8.125, 8.0625, 8, 8, 8, 8, 8, 8.0625, 8.145833, 8.2777777, -10, -10, -10, -10, -10, -10, -10, 20, 20, 20, 20.0625, 20.321428, 20.660713, 20.8125, 21.0625, 21.1875, 21.53125, 22.03125, 22.513393, 22.607143, 22.166666, 21.761904, 21.333334, 21.316328, 21.041666, 20.946428, 20.6875, 20.625, 20.4375, 20.3125, 20.25, 20.083334, 19.916666, 19.888887, 8.166667, 8.083333, 8, 8, 8, 8, 8, 8, 8, 8.125, 8.1875, 8.1875, 8.1875, 8.125, 8.208333, 8.333333, 8.3888893, -10, -10, -10, -10, -10, 18.75, 18.541668, 18.25, 18.171875, 18.0625, -10, -10, -10, -10, -10, -10, -10, -10, -10, -10, 18.416666, 18.583332, 18.8125, 19.666666, 20.599207, 21.285713, 21.726191, 21.833334, 21.916666, 22, 22.232143, 22.3125, 22.5, 22.5625, 22.633928, 23.020834, 23.116072, 23.375, 23.53125, 23.71875, 23.90625, 23.96875, 24, 24, 24.25, 24.5, 24.75, 24.9375, 25.026787, 25.160713, 25.1875, 25.375, 25.3125, 25.116072, 24.791666, 24.705357, 24.875, 25.482143, 26.026787, 26.3125, 26.4375, 26.3125, 26.25, 26.0625, 25.791666, 25.821428, 25.866072, 25.941963, 26.133928, 26.660713, 26.765306, 27.035715, 27.142857, 27.214285, 27.4375, 27.5625, 27.723213, 27.875, 28, 28.026787, 28.098213, 28.0625, 28.0625, 28.0625, 28.276787, 28.607143, 28.9375, 29.375, 29.5, 29.714287, 29.8125, 29.8125, 29.875, 29.875, 29.9375, 29.9375, 30.017857, 30.404762, 30.8125, 31.0625, 31.415178, 31.802082, 31.888393, 31.8125, 31.424107, 31.385416, 31.833334, 31.90625, 32.1875, 19, -10, -10, -10, 18.041666, 18.15, 18.151785, 18.308035, 18.754463, 18.78125, 19.09375, 19.125, 19.25, 19.25, 19.25, 19.330357, 19.5, 19.6875, 19.875, 19.9375, 20, 20, 20, 20, 20, 20, 20, 20.0625, 20.0625, 20.0625
-10, -10, -10, -10, -10, -10, -10, 8, 8, 8, 8, 8.0625, 8.125, 8.125, 8.1875, 8.125, 8, 8, 7.9375, 7.9375, 8, 8.0625, 8.125, 8.125, 8.125, 8.0625, 8.0625, 8.125, 8.125, 8.125, 8.0625, 8.0625, 8.0625, 8.0625, 8.0625, 8, 8, 8, 8, 8, 8, 8, 7.9375, 7.9375, 7.9375, 7.9375, 8, 8, 8.0625, 8.0625, 8.0625, 8.1875, 8.125, 8.125, 8.125, 8, 8, 8, 8, 8, 8, 8, 8, 8, 8, 8, 8, 8, 8.0625, 8.0625, 8.125, 8.1875, 8.1875, 8.1875, 8.125, 8.0625, 8, 8, 8.0625, 8.125, 8.125, 8.125, 8.0625, 8, 7.9375, 7.875, 7.875, 7.875, 7.9375, 8, 8, 8, 8, 8, 8, 8, 8, 8, 8, 8, 8, 8, 8, 8, 8, 8, 8, 8, 8.0625, 8.125, 8.125, 8.125, 8.0625, 8, 8, 8, 8, 8, 8, 8.0625, 8.0625, 8.0625, 8.0625, 8, 8, 8, 8, 8, 8, 8, 8, 8, 8, 8, 8, 8, 8, 8, 8, 8, 8, 8, 8, 8, 8.083333, 8.1944437, -10, -10, -10, -10, -10, -10, -10, 19.666668, 19.833334, 19.9375, 19.9375, 19.9375, 20.133928, 20.410713, 20.625, 20.9375, 21.0625, 21.46875, 21.96875, 22.495537, 22.544643, 22.25, 21.857143, 21.4375, 21.133928, 20.729166, 20.571428, 20.4375, 20.4375, 20.3125, 20.1875, 20.125, 20, 19.9375, 19.916666, 20.25, 20.291668, 8, 8, 8, 8, 8, 8, 8, 8.0625, 8.0625, 8.0625, 8.0625, 8.083333, 8.1944437, -10, -10, -10, -10, -10, -10, 19, 18.833334, 18.673613, 18.421875, 18.390625, 18.270834, -10, -10, -10, -10, -10, -10, -10, -10, -10, 19.416668, 18.979166, 19.083332, 19.3125, 19.821428, 20.78274, 21.392857, 21.794643, 21.90625, 22.03125, 22.15625, 22.450893, 22.5, 22.5625, 22.5, 22.517857, 23.104168, 23.294643, 23.625, 23.65625, 23.78125, 23.90625, 23.90625, 24, 24.0625, 24.3125, 24.625, 24.875, 25, 25.089287, 25.160713, 25.1875, 25.375, 25.375, 25.303572, 25.041666, 24.955357, 25.0625, 25.5, 26.026787, 26.25, 26.3125, 26.1875, 26.0625, 26, 26, 26, 26, 26.03125, 26.241072, 26.6875, 26.964287, 27.15625, 27.1875, 27.25, 27.1875, 27.1875, 27.366072, 27.8125, 28.142857, 28.3125, 28.3125, 28.25, 28.1875, 28.25, 28.401787, 28.732143, 29.0625, 29.5, 29.5625, 29.776787, 29.875, 29.875, 30, 30, 30.0625, 30.0625, 30.125, 30.383928, 30.6875, 30.875, 31.165178, 31.489582, 31.647322, 31.762501, 31.433035, 31.415178, 31.6875, 31.78125, 32.0625, 19, -10, -10, -10, 17.722221, 18.362499, 18.348213, 18.558035, 18.683037, 18.78125, 18.90625, 18.9375, 19, 18.875, 18.8125, 18.830357, 19, 19.1875, 19.4375, 19.625, 19.75, 19.875, 19.9375, 20, 20, 20, 20, 20.0625, 20.0625, 20.0625, 20, 19.9375, 20, 20.0625, 20.276787, 20.607143, 20.803572, 21, 21.098213, 21.125, 21.446428, 21.690477, 21.532738, 21.508928, 21.178572, 20.602678, 20.763393, 20.918156, 21.346725, 21.428572, 21.3125, 21.125, 21, 20.9375, 21.017857, 21.458334, 21.741072, 22.044643, 22.125, 22.041666, 21.666666, -10, -10, -10, -10, -10, -10, -10, -10, -10, -10, -10, -10, -10, -10, -10, 8, 8, 8, 8, 8.125, 8.25, 8.25, 8.25, 8.125, 7.9375, 7.9375, 7.9375, 7.9375, 8, 7.9375, 7.9375, 7.9375, 7.9375, 8, 8.0625, 8.125, 8.125, 8.125, 8.0625, 8.0625, 8.0625, 8.0625, 8.0625, 8, 8, 8, 8, 8, 8, 8, 7.9375, 7.9375, 7.9375, 7.9375, 8, 8, 8, 8, 8, 8.125, 8.125, 8.125, 8.125, 8, 8, 8, 8, 8, 8, 8, 7.9375, 7.9375, 7.9375, 7.9375, 8, 8, 8.0625, 8.0625, 8.0625, 8.0625, 8, 8, 8, 8, 8, 8, 8.0625, 8.125, 8.125, 8.125, 8.0625, 8, 7.875, 7.75, 7.6875, 7.6875, 7.8125, 7.9375, 8, 8, 8, 8, 8, 8, 8, 8, 8, 8, 8, 8, 8, 8, 8, 8, 8, 8, 8, 8, 8, 8, 8, 8, 8, 8, 8, 8, 8, 8.0625, 8.0625, 8.0625, 8.0625, 8, 8, 8, 8, 8, 8, 8, 8, 8, 8, 8, 7.9375, 7.875, 7.8125, 7.8125, 7.875, 7.9375, 8, 8, 8.0625, 8.083333, -10, -10, -10, -10, -10, -10, -10, -10, 19, 19.527779, 19.75, 19.875, 20, 19.910713, 19.946428, 20.303572, 20.491072, 20.8125, 20.9375, 21.352678, 21.989584, 22.549109, 22.607143, 22.1875, 21.732143, 21.1875, 20.622023, 20.383928, 20.25, 20.125, 20.0625, 20.017857, 20.0625, 20.0625, 20, 19.875, 19.875, 19.916666, 19.944445, 19.791668, 8, 8, 8, 8, 8, 8, 8, 8, 8, 8, -10, -10, -10, -10, -10, 18.5, 18.833332, 18.875, 19, 18.875, 18.786459, 18.765625, 18.765625, 18.677084, -10, -10, -10, -10, 18.214287, -10, -10, -10, 20.5, 19.777779, 19.541666, 19.572916, 19.71875, 20.1875, 21.166668, 21.642857, 21.9375, 21.90625, 21.995537, 22.263393, 22.53125, 22.59375, 22.53125, 22.40625, 22.455357, 23.041668, 23.294643, 23.625, 23.59375, 23.65625, 23.71875, 23.65625, 23.75, 23.875, 24.125, 24.5, 24.8125, 25, 25.125, 25.1875, 25.1875, 25.25, 25.25, 25.125, 25.1875, 25.1875, 25.3125, 25.6875, 26.026787, 26.15625, 26.1875, 26.0625, 26, 26.03125, 26.125, 26.1875, 26.25, 26.34375, 26.5, 26.625, 26.75, 26.84375, 26.875, 26.9375, 26.875, 26.8125, 27.044643, 27.729166, 28.142857, 28.4375, 28.4375, 28.4375, 28.4375, 28.4375, 28.526787, 28.794643, 29.0625, 29.4375, 29.375, 29.553572, 29.732143, 29.803572, 30, 30, 30, 30, 30, 30.258928, 30.625, 30.8125, 31.09375, 31.21875, 31.415178, 31.637501, 31.46875, 31.272322, 31.5, 31.638393, 31.916666, 32, -10, -10, -10, -10, 18.862499, 18.827381, 18.839285, 18.732143, 18.75, 18.8125, 18.875, 18.9375, 18.75, 18.625, 18.5, 18.5625, 18.8125, 19.0625, 19.375, 19.5, 19.625, 19.758928, 20, 20, 20.0625, 20, 20.0625, 20.0625, 20.0625
-10, -10, -10, -10, -10, -10, -10, 8, 8, 7.9375, 7.875, 7.875, 7.9375, 7.9375, 8, 8, 7.9375, 8, 8, 8, 8, 7.9375, 7.9375, 7.9375, 7.9375, 8, 8, 8, 8, 7.9375, 7.875, 7.9553571, 8.0124998, 7.8839283, 7.8839283, 7.75, 7.8125, 7.875, 7.9375, 8, 8, 8, 7.9375, 7.9375, 7.9375, 7.9375, 8, 8, 8, 8, 7.9375, 8, 8, 8, 8.0625, 8, 8, 8, 8, 8, 8, 8, 7.9375, 7.9375, 7.9375, 7.9375, 8, 8, 8.0625, 8.0625, 8.0625, 8.0625, 8, 8, 8, 8, 8, 8, 8.0625, 8.125, 8.125, 8.125, 8.0625, 8, 7.875, 7.75, 7.6875, 7.6875, 7.8125, 7.9375, 8, 8, 7.9375, 7.9375, 7.9375, 7.9375, 8, 8, 8, 8, 8, 8, 8, 8, 8, 8, 8, 8, 8, 8, 8, 8, 8, 8, 8, 8, 8, 8, 8, 8, 8, 8, 8, 8, 8, 8, 8, 8, 8, 8, 8, 8, 8, 8, 7.9375, 7.875, 7.8125, 7.8125, 7.8125, 7.875, 7.9375, 7.9375, 8.0625, 8.1111107, -10, -10, -10, -10, -10, -10, -10, 19.125, 19, 19.458334, 19.625, 19.8125, 20.0625, 20.035713, 20.0625, 20.303572, 20.428572, 20.6875, 20.875, 21.375, 22.065475, 22.580359, 22.75, 22.544643, 21.904764, 21.336735, 20.434523, 20.196428, 20, 19.8125, 19.6875, 19.642857, 19.8125, 19.875, 19.875, 19.75, 19.6875, 19.6875, 19.708334, 19.527779, 18.875, 8, 8, 8, 8, 8, 8, 8, 8, -10, -10, -10, -10, -10, -10, -10, 18.888887, 18.916666, 19.0625, 19.0625, 19.015625, 19.078125, 19.140625, 19.135418, 19.166668, 18.916668, 18.541668, 18.625, 18.559525, 19, 19.392857, 20.166668, 20.571428, 20.309525, 20.380951, 20.09375, 20.09375, 20.375, 21.175596, 21.642857, 21.9375, 21.90625, 22.058037, 22.388393, 22.65625, 22.71875, 22.53125, 22.40625, 22.392857, 22.916668, 23.232143, 23.4375, 23.40625, 23.46875, 23.46875, 23.46875, 23.625, 23.8125, 24.0625, 24.375, 24.6875, 24.875, 25, 25.0625, 25.0625, 25.0625, 25.0625, 25, 25.0625, 25.125, 25.25, 25.5625, 25.732143, 25.78125, 25.875, 25.8125, 25.875, 26.09375, 26.1875, 26.25, 26.4375, 26.5625, 26.8125, 26.9375, 27, 27.0625, 27, 27.0625, 26.9375, 26.8125, 27.107143, 27.827381, 28.205357, 28.5625, 28.5, 28.4375, 28.330357, 28.392857, 28.645834, 28.866072, 29.133928, 29.375, 29.1875, 29.366072, 29.690475, 29.803572, 30.0625, 30.0625, 30.0625, 30.0625, 30.0625, 30.25, 30.5, 30.75, 31, 31.0625, 31.254465, 31.470833, 31.125, 30.986607, 31.178572, 31.495537, 31.770834, 32, 32, -10, -10, -10, 19.15, 19.055555, 18.901785, 18.690475, 18.6875, 18.625, 18.6875, 18.75, 18.5625, 18.4375, 18.3125, 18.4375, 18.723213, 18.9375, 19.1875, 19.25, 19.4375, 19.571428, 19.875, 19.9375, 20, 20, 20, 20, 20, 20, 20, 20.125, 20.25, 20.464287, 20.732143, 20.803572, 20.8125, 20.955357, 21.25, 21.375, 21.491072, 21.104166, 20.946428, 20.75, 20.790178, 21.114584, 21.138393, 21.28125, 21.3125, 21.15625, 20.784225, 20.40625, 20.444941, 20.571428, 21.083334, 21.428572, 21.625, 21.8125, 21.625, 21.583332, -10, -10, -10, -10, -10, -10, -10, -10, -10, -10, -10, -10, -10, -10, -10, 8, 7.9166665, 7.8125, 7.6875, 7.625, 7.6875, 7.6875, 7.8125, 7.875, 7.875, 8, 8, 8, 8, 7.9375, 7.9375, 7.9375, 7.9375, 8, 8, 7.9375, 7.875, 7.75, 7.625, 7.7678571, 7.8874998, 7.8214283, 7.8214283, 7.625, 7.625, 7.6875, 7.8125, 7.9375, 8, 8, 7.9375, 7.9375, 7.875, 7.875, 7.9375, 7.9375, 8, 8, 7.9375, 7.9375, 7.9375, 7.9375, 8, 8, 8, 7.9375, 7.875, 7.8125, 7.75, 7.75, 7.75, 7.8125, 7.875, 7.9375, 8, 8, 8.0625, 8.0625, 8.0625, 8.0625, 8, 8, 8, 8, 8, 8, 8, 8, 8, 8, 8, 8, 7.875, 7.75, 7.6875, 7.6875, 7.8125, 7.9375, 8, 8, 7.875, 7.875, 7.875, 7.875, 8, 8, 8, 8, 7.9375, 7.9375, 7.9375, 7.9375, 8, 8, 8, 8, 8, 8, 8, 8, 8, 8, 8, 8, 8, 8.0625, 8.125, 8.125, 8.125, 8.0625, 8, 8, 8, 8, 8, 8, 8, 8, 8, 8, 8, 8, 7.9375, 7.875, 7.8125, 7.8125, 7.8125, 7.875, 8, 8.020833, 8.083333, -10, -10, -10, -10, -10, -10, 19.25, 19.166668, 19.083334, 19, 19.208334, 19.4375, 19.6875, 20, 20.035713, 20.125, 20.428572, 20.553572, 20.8125, 20.9375, 21.383928, 22.211309, 22.651787, 22.875, 22.5625, 21.404764, 20.806122, 20.247023, 20.071428, 19.8125, 19.625, 19.4375, 19.392857, 19.5625, 19.6875, 19.75, 19.625, 19.5625, 19.4375, 19.375, 19.395834, 18.916666, 18.833332, 8, 8, 8, 8, 8, 8, 8, -10, -10, -10, -10, -10, -10, -10, 18.916666, 19.020834, 19.1875, 19.1875, 19.203125, 19.265625, 19.28125, 19.322918, 19.027779, 18.861113, 18.611113, 18.666666, 18.732143, 19.083334, 19.452379, 20.253969, 20.607143, 20.708334, 20.8125, 20.71875, 20.65625, 20.875, 21.404762, 21.776785, 22, 22.03125, 22.183037, 22.513393, 22.736607, 22.78125, 22.59375, 22.46875, 22.383928, 22.726191, 23.136906, 23.232143, 23.1875, 23.25, 23.3125, 23.544643, 23.75, 23.9375, 24.0625, 24.3125, 24.625, 24.8125, 24.9375, 25, 25, 25, 25.0625, 25.0625, 25.125, 25.1875, 25.3125, 25.5625, 25.660713, 25.65625, 25.6875, 25.625, 25.75, 26.03125, 26.1875, 26.25, 26.4375, 26.5625, 26.8125, 26.875, 26.9375, 27, 26.9375, 27.0625, 26.9375, 26.875, 27.169643, 27.889881, 28.205357, 28.5, 28.4375, 28.4375, 28.36607, 28.330357, 28.699406, 28.857143, 29.0625, 29.125, 29, 29.151787, 29.502975, 29.616072, 29.875, 29.9375, 30, 30.0625, 30.0625, 30.25, 30.5, 30.75, 31, 30.9375, 31.035715, 31.158333, 30.75, 30.705357, 30.991072, 31.446428, 31.75, 32, 32, 32, -10, -10, -10, -10, 19.008928, 18.590477, 18.4375, 18.3125, 18.3125, 18.4375, 18.3125, 18.25, 18.3125, 18.5, 18.754463, 18.84375, 18.96875, 18.96875, 19.125, 19.383928, 19.75, 19.875, 20, 19.9375, 19.875, 19.875, 19.875
-10, -10, -10, -10, -10, -10, -10, 7.875, 7.75, 7.625, 7.5, 7.3125, 7.375, 7.4375, 7.625, 7.8125, 7.875, 8, 8, 8, 8, 7.9375, 7.9375, 7.9375, 7.9375, 8, 7.9375, 7.875, 7.75, 7.5625, 7.5, 7.5803571, 7.7624998, 7.7589283, 7.6964283, 7.5, 7.4375, 7.5, 7.6875, 7.875, 7.9375, 7.9375, 7.8125, 7.75, 7.75, 7.75, 7.875, 7.9375, 7.9375, 7.875, 7.875, 7.875, 7.9375, 7.9375, 7.875, 7.875, 7.875, 7.8125, 7.75, 7.625, 7.5, 7.5625, 7.625, 7.75, 7.875, 7.9375, 7.9375, 7.9375, 7.9375, 7.9375, 8, 8, 7.9375, 7.9375, 7.9375, 7.9375, 8, 8, 8, 7.9375, 7.875, 7.875, 7.875, 7.9375, 7.9375, 7.875, 7.8125, 7.8125, 7.875, 7.9375, 8, 8, 7.875, 7.875, 7.875, 7.875, 8, 8, 8, 8, 7.9375, 7.9375, 7.9375, 7.9375, 8, 8, 8, 8, 8, 8, 8, 8, 8, 8, 8, 8, 8, 8.125, 8.25, 8.3125, 8.3125, 8.1875, 8.0625, 8, 8, 8, 7.9375, 7.9375, 7.9375, 7.9375, 8, 7.9375, 7.9375, 7.875, 7.8125, 7.8125, 7.6875, 7.75, 7.75, 7.875, 8.083333, 8.0277777, -10, -10, -10, -10, -10, -10, 19, 19.166666, 19.111113, 19.0625, 19, 19.1875, 19.4375, 19.6875, 20.0625, 20.160713, 20.3125, 20.678572, 20.741072, 20.9375, 21.0625, 21.508928, 22.380953, 22.732143, 22.892857, 22.1875, 21.148811, 20.642857, 20.041666, 19.883928, 19.625, 19.303572, 18.9375, 18.892857, 19.0625, 19.25, 19.375, 19.3125, 19.25, 19.125, 19.0625, 19.0625, 18.9375, 18.888887, 19, 18.875, 8, 8, 8, 8, 8, -10, -10, -10, -10, -10, -10, -10, 19, 19.083334, 19.125, 19.125, 19.15625, 19.28125, 19.375, 19.427084, 19.145834, 19.083334, 19.136906, 19.061224, 19.326532, 19.479166, 19.732141, 20.315477, 20.669643, 20.875, 21, 21.03125, 21.03125, 21.241072, 21.571428, 21.848213, 21.9375, 21.964287, 22.19643, 22.535715, 22.767857, 22.84375, 22.71875, 22.65625, 22.5625, 22.705357, 23.083334, 23.107143, 23.125, 23.125, 23.1875, 23.482143, 23.6875, 23.875, 24, 24.1875, 24.5, 24.75, 24.8125, 24.875, 24.875, 24.875, 25, 25, 25.0625, 25.125, 25.125, 25.375, 25.473213, 25.575893, 25.75, 25.75, 25.875, 26.09375, 26.125, 26.1875, 26.375, 26.544643, 26.8125, 26.9375, 27, 27.0625, 27, 27.0625, 27, 27, 27.303572, 27.764881, 28, 28.25, 28.1875, 28.3125, 28.30357, 28.330357, 28.761906, 28.857143, 29, 29, 28.875, 28.964287, 29.377975, 29.553572, 29.8125, 29.9375, 30.03125, 30.15625, 30.21875, 30.40625, 30.625, 30.8125, 31, 30.9375, 30.964287, 30.958334, 30.678572, 30.633928, 30.991072, 31.446428, 31.75, 32, 32, 32, -10, -10, -10, -10, 18.6875, 18.292856, 18.125, 18.0625, 18.125, 18.3125, 18.25, 18.25, 18.3125, 18.5625, 18.816963, 18.90625, 18.96875, 18.90625, 19, 19.196428, 19.5, 19.6875, 19.875, 19.8125, 19.75, 19.75, 19.75, 19.8125, 19.8125, 19.919643, 20.377977, 20.669643, 20.75, 20.6875, 20.5, 20.517857, 20.75, 20.75, 20.875, 20.901787, 21.214287, 21.294643, 21.5, 21.4375, 21.3125, 21.25, 21.1875, 21.125, 20.712797, 20.28125, 20.319941, 20.272322, 20.5625, 20.8125, 21, 21.25, 21.25, 21.25, -10, -10, -10, -10, -10, -10, -10, -10, -10, -10, -10, -10, -10, -10, -10, 7.75, 7.5833335, 7.4375, 7.25, 7, 7.0625, 7.125, 7.3125, 7.5625, 7.6875, 7.875, 7.875, 7.875, 7.875, 7.875, 7.9375, 7.9375, 7.875, 7.8125, 7.75, 7.75, 7.625, 7.5, 7.4375, 7.4553571, 7.6999998, 7.6964283, 7.6339283, 7.5, 7.4375, 7.5, 7.6875, 7.875, 7.9375, 7.9375, 7.75, 7.625, 7.625, 7.625, 7.8125, 7.875, 7.8125, 7.75, 7.6875, 7.6875, 7.8125, 7.8125, 7.75, 7.75, 7.6875, 7.5625, 7.5, 7.375, 7.25, 7.3125, 7.4375, 7.625, 7.75, 7.8125, 7.75, 7.6875, 7.6875, 7.6875, 7.75, 7.75, 7.6875, 7.6875, 7.6875, 7.6875, 7.75, 7.75, 7.75, 7.6875, 7.6875, 7.75, 7.8125, 7.875, 7.9375, 7.875, 7.875, 7.9375, 7.9375, 7.9375, 7.875, 7.8125, 7.6875, 7.75, 7.8125, 7.875, 8, 8, 7.9375, 7.9375, 7.875, 7.875, 7.875, 7.8125, 7.8125, 7.75, 7.75, 7.8125, 7.875, 7.9375, 8, 8, 8, 8, 8, 8, 8, 8.1875, 8.375, 8.4375, 8.4375, 8.25, 8.0625, 8, 8, 8, 7.9375, 7.9375, 7.9375, 7.875, 7.875, 7.75, 7.6875, 7.625, 7.6875, 7.8125, 7.8125, 7.9375, 7.875, 7.96875, 8.125, -10, -10, -10, -10, -10, -10, -10, 18.75, 19.0625, 19.190475, 19.1875, 19.125, 19.25, 19.4375, 19.6875, 20, 20.125, 20.375, 20.625, 20.75, 20.875, 21.026787, 21.616072, 22.369049, 22.625, 22.392857, 21.607143, 20.523811, 20.142857, 19.8125, 19.6875, 19.375, 18.782738, 18.479166, 18.5, 18.625, 18.875, 18.96875, 19.0625, 19, 19, 18.96875, 19, 18.9375, 18.916666, 18.916666, 18.75, 18.458332, 8, 8, 8, 8, -10, -10, -10, -10, -10, -10, 19, 19, 19.145834, 19.25, 19.3125, 19.375, 19.4375, 19.5, 19.520834, 19.270834, 19.395834, 19.741072, 20.244049, 20.226191, 19.791666, 19.928572, 20.409227, 20.723213, 21, 21.0625, 21.25, 21.3125, 21.5, 21.75, 21.919643, 21.9375, 22.026787, 22.232143, 22.491072, 22.8125, 22.973213, 22.9375, 22.875, 22.75, 22.803572, 23.083334, 23.285715, 23.303572, 23.375, 23.4375, 23.794643, 24, 24.125, 24.1875, 24.25, 24.4375, 24.6875, 24.6875, 24.6875, 24.75, 24.8125, 25, 25.0625, 25.0625, 25, 24.9375, 25.0625, 25.24107, 25.565477, 25.803572, 25.875, 25.9375, 26.0625, 26, 26, 26.25, 26.482143, 26.875, 27.333334, 27.357143, 27.375, 27.25, 27.25, 27.1875, 27.25, 27.5, 27.723213, 27.9375, 28.125, 28.125, 28.1875, 28.17857, 28.267857, 28.699406, 28.919643, 29.125, 29.1875, 29.125, 29.125, 29.395834, 29.5, 29.8125, 30, 30.09375, 30.28125, 30.28125, 30.40625, 30.625, 30.75, 30.9375, 30.875, 30.839287, 30.770834, 30.5625, 30.758928, 31.116072, 31.589287, 31.8125, 32, 31.9375, 31.916666, -10, -10, -10, -10, 18.375, 18.066666, 17.9375, 17.875, 17.9375, 18.1875, 18.1875, 18.25, 18.3125, 18.5625, 18.816963, 18.90625, 18.96875, 18.90625, 19, 19.125, 19.25, 19.5, 19.6875, 19.6875, 19.625, 19.5625, 19.5625
-10, -10, -10, -10, -10, -10, -10, 7.625, 7.416667, 7.3125, 7.125, 7, 7.1875, 7.25, 7.375, 7.5, 7.5, 7.625, 7.625, 7.6875, 7.6875, 7.75, 7.8125, 7.75, 7.6875, 7.5625, 7.5625, 7.625, 7.5, 7.4375, 7.375, 7.3125, 7.5, 7.625, 7.5625, 7.5625, 7.5, 7.5625, 7.75, 7.875, 7.9375, 7.875, 7.625, 7.4375, 7.375, 7.375, 7.5625, 7.625, 7.5625, 7.5, 7.4375, 7.4375, 7.5625, 7.5625, 7.5, 7.5, 7.4375, 7.3125, 7.25, 7.125, 7, 7.0625, 7.1875, 7.375, 7.5, 7.5625, 7.5, 7.4375, 7.4375, 7.4375, 7.5, 7.5, 7.4375, 7.5, 7.5, 7.5, 7.5625, 7.5, 7.5, 7.4375, 7.4375, 7.5625, 7.6875, 7.75, 7.8125, 7.75, 7.75, 7.8125, 7.8125, 7.75, 7.625, 7.5625, 7.5, 7.5625, 7.625, 7.6875, 7.75, 7.75, 7.6875, 7.6875, 7.6875, 7.75, 7.8125, 7.75, 7.6875, 7.5625, 7.5, 7.625, 7.75, 7.875, 8, 8, 8, 8, 8, 8, 8, 8.25, 8.5, 8.6875, 8.7232141, 8.3928566, 8.1339283, 8, 8, 8, 7.9375, 7.9375, 7.9375, 7.8125, 7.75, 7.5625, 7.4375, 7.375, 7.4375, 7.5625, 7.625, 7.8125, 7.875, 8.0625, 8.229167, -10, -10, -10, -10, -10, 18, 18, 18.645834, 18.875, 19.214287, 19.3125, 19.375, 19.4375, 19.5625, 19.75, 19.9375, 20, 20.1875, 20.4375, 20.6875, 20.90625, 21.120537, 21.65625, 22.226192, 22.145834, 21.571428, 20.775511, 20.377977, 20.053572, 19.75, 19.428572, 18.9375, 18.345238, 17.979166, 18.0625, 18.125, 18.375, 18.53125, 18.6875, 18.75, 18.875, 18.90625, 19, 18.9375, 18.875, 18.75, 18.5625, 18.305555, 18.125, 18.166668, 7.875, 7.875, -10, -10, -10, -10, -10, -10, 19, 19, 19.208334, 19.3125, 19.5, 19.625, 19.625, 19.625, 19.5625, 19.5625, 19.6875, 20.053572, 20.1875, 20.133928, 20.104166, 20.214285, 20.513393, 20.857143, 21.125, 21.1875, 21.5, 21.625, 21.8125, 22, 22, 21.9375, 21.995537, 22.232143, 22.491072, 22.875, 23.066963, 23.1875, 23.1875, 23.125, 23.169641, 23.258333, 23.494047, 23.345238, 23.6875, 23.75, 24.169643, 24.25, 24.25, 24.25, 24.25, 24.375, 24.625, 24.625, 24.6875, 24.875, 25, 25.1875, 25.1875, 25.125, 25, 25, 25.09375, 25.27232, 25.627977, 25.803572, 25.90625, 25.96875, 25.9375, 25.875, 25.875, 26.125, 26.482143, 26.9375, 27.645834, 27.669643, 27.6875, 27.5, 27.4375, 27.375, 27.4375, 27.5625, 27.6875, 27.9375, 28.0625, 28.1875, 28.3125, 28.410713, 28.5625, 28.803572, 29.053572, 29.25, 29.375, 29.375, 29.25, 29.3125, 29.375, 29.6875, 29.9375, 30.03125, 30.21875, 30.21875, 30.34375, 30.5625, 30.6875, 30.875, 30.9375, 30.875, 30.8125, 30.8125, 31, 31.3125, 31.669643, 31.875, 31.9375, 31.8125, 31.75, -10, -10, -10, -10, 18, 17.733332, 17.6875, 17.75, 17.8125, 18.125, 18.1875, 18.3125, 18.4375, 18.5625, 18.65625, 18.71875, 18.78125, 18.84375, 18.875, 18.9375, 18.9375, 19.0625, 19.25, 19.1875, 19.1875, 19.1875, 19.25, 19.375, 19.5, 19.669643, 20.065477, 20.357143, 20.375, 20.375, 20.25, 20.25, 20.375, 20.375, 20.625, 20.97768, 21.433037, 21.700893, 21.834822, 21.5, 21.3125, 21.044643, 20.75, 20.6875, 20.459822, 20.21875, 20.09375, 19.96875, 20, 20.03125, 20.197916, 20.59375, 20.754463, 20.84375, -10, -10, -10, -10, -10, -10, -10, -10, -10, -10, -10, -10, -10, -10, -10, 7.375, 7.2500005, 7.1875, 7.0625, 7, 7.1875, 7.25, 7.3125, 7.375, 7.3125, 7.375, 7.375, 7.4375, 7.4375, 7.5, 7.5625, 7.5, 7.4375, 7.3125, 7.3125, 7.4375, 7.375, 7.375, 7.375, 7.25, 7.375, 7.4375, 7.375, 7.4375, 7.4375, 7.5, 7.625, 7.6875, 7.6875, 7.625, 7.4375, 7.25, 7.25, 7.25, 7.375, 7.4375, 7.3125, 7.25, 7.1875, 7.1875, 7.3125, 7.3125, 7.25, 7.25, 7.1875, 7.125, 7.125, 7.0625, 7, 7.0625, 7.125, 7.25, 7.3125, 7.3125, 7.25, 7.1875, 7.1875, 7.1875, 7.25, 7.25, 7.1875, 7.25, 7.3125, 7.3125, 7.375, 7.3125, 7.25, 7.1875, 7.1875, 7.3125, 7.4375, 7.5, 7.5625, 7.5, 7.5, 7.5625, 7.5625, 7.5, 7.375, 7.3125, 7.3125, 7.375, 7.4375, 7.5, 7.5, 7.5, 7.4375, 7.4375, 7.5, 7.5625, 7.625, 7.5625, 7.4375, 7.3125, 7.25, 7.375, 7.5625, 7.8125, 8.0357141, 8.0625, 8.0625, 8, 8, 8, 8.0625, 8.3125, 8.5625, 8.75, 8.7232141, 8.4553566, 8.1964283, 8.0625, 8.0625, 8, 7.9375, 7.9375, 7.9375, 7.8125, 7.6875, 7.4375, 7.25, 7.125, 7.1875, 7.3125, 7.375, 7.5625, 7.625, 7.875, 8, -10, -10, -10, -10, -10, -10, 18, 18.479168, 18.75, 19.151787, 19.3125, 19.4375, 19.5625, 19.6875, 19.8125, 19.875, 19.875, 20, 20.3125, 20.625, 20.875, 21.214287, 21.803572, 22.107143, 21.675596, 20.897961, 20.294643, 19.919643, 19.6875, 19.4375, 19.178572, 18.75, 18.095238, 17.622023, 17.625, 17.625, 17.8125, 17.96875, 18.1875, 18.3125, 18.5625, 18.65625, 18.75, 18.6875, 18.625, 18.5, 18.3125, 18.229166, 18.166666, 18.277779, 7.8333335, 7.8333335, -10, -10, -10, -10, -10, -10, 19, 19, 19.1875, 19.3125, 19.625, 19.8125, 19.875, 19.9375, 19.8125, 19.875, 20, 20.303572, 20.375, 20.214287, 20.375, 20.5, 20.65625, 20.928572, 21.1875, 21.1875, 21.4375, 21.5625, 21.625, 21.75, 21.75, 21.6875, 21.808037, 22.107143, 22.428572, 22.8125, 23.129463, 23.375, 23.4375, 23.4375, 23.276785, 23.049999, 23.199406, 23.041666, 23.645834, 23.741072, 24.125, 24.25, 24.3125, 24.4375, 24.375, 24.375, 24.5625, 24.5625, 24.625, 24.901787, 25.020834, 25.020834, 25.330357, 25.196428, 25.125, 25, 24.875, 24.892857, 25.221727, 25.459822, 25.763393, 25.84375, 25.901787, 25.982143, 26.053572, 26.3125, 26.544643, 26.875, 27.520834, 27.544643, 27.6875, 27.669643, 27.625, 27.625, 27.625, 27.6875, 27.75, 27.9375, 28.125, 28.3125, 28.375, 28.5625, 28.75, 28.8125, 29.125, 29.3125, 29.5, 29.5, 29.375, 29.4375, 29.5, 29.8125, 30.0625, 30.09375, 30.21875, 30.21875, 30.28125, 30.5, 30.625, 30.8125, 31, 31, 31.0625, 31.125, 31.3125, 31.5625, 31.75, 31.9375, 31.875, 31.6875, 31.583334, 17.75, -10, -10, -10, 17.4375, 17.270832, 17.4375, 17.708334, 17.875, 18.151787, 18.1875, 18.25, 18.3125, 18.4375, 18.5, 18.625, 18.75, 18.875, 18.9375, 18.767857, 18.705357, 18.75, 18.9375, 18.9375, 19, 19, 19.0625
-10, -10, -10, -10, -10, -10, -10, 7.25, 7.166667, 7.125, 7, 7, 7.125, 7.125, 7.125, 7.125, 7.0625, 7.125, 7.125, 7.1875, 7.1875, 7.25, 7.3125, 7.25, 7.1875, 7.0625, 7.125, 7.25, 7.25, 7.3125, 7.25, 7.125, 7.1875, 7.1875, 7.1875, 7.3125, 7.375, 7.4375, 7.5, 7.5, 7.5, 7.4375, 7.3125, 7.1875, 7.125, 7.125, 7.1875, 7.1875, 7.125, 7.125, 7.0625, 7.0625, 7.125, 7.125, 7.125, 7.125, 7.0625, 7, 7, 7, 7, 7, 7, 7.0625, 7.0625, 7.0625, 7.0625, 7, 7, 7, 7, 7, 7, 7.0625, 7.125, 7.125, 7.125, 7.0625, 7, 7, 7.0625, 7.1875, 7.3125, 7.3125, 7.3125, 7.25, 7.25, 7.3125, 7.3125, 7.25, 7.125, 7.0625, 7.0625, 7.125, 7.1875, 7.25, 7.25, 7.25, 7.1875, 7.1875, 7.25, 7.3125, 7.375, 7.3125, 7.1875, 7.0625, 7, 7.125, 7.375, 7.6875, 7.9732141, 8.0625, 8.0625, 8, 8, 8, 8.0625, 8.3125, 8.5625, 8.6875, 8.6607141, 8.3928566, 8.1339283, 8.0625, 8.0625, 8, 8, 8, 8, 7.875, 7.6875, 7.4375, 7.1875, 7.0625, 7.0625, 7.125, 7.25, 7.375, 7.4375, 7.625, 7.666667, -10, -10, -10, -10, -10, -10, 18, 18.312502, 18.625, 19.151787, 19.4375, 19.5625, 19.6875, 19.75, 19.75, 19.8125, 19.875, 19.973213, 20.3125, 20.625, 20.875, 21.276787, 21.866072, 22.125, 21.559525, 20.714287, 20.151787, 19.75, 19.5, 19.071428, 18.803572, 18.4375, 17.738094, 17.443451, 17.375, 17.375, 17.4375, 17.53125, 17.6875, 17.875, 18.395834, 18.513393, 18.625, 18.5, 18.375, 18.3125, 18.1875, 18.125, 18.1875, 18.208334, 18.375, 18.404762, -10, -10, -10, -10, -10, -10, 19, 19, 19.1875, 19.375, 19.71875, 19.9375, 20, 20.0625, 19.96875, 20, 20.0625, 20.125, 20.080357, 19.982143, 20.395834, 20.607143, 20.78125, 20.991072, 21.1875, 21.1875, 21.375, 21.4375, 21.5, 21.625, 21.6875, 21.75, 21.84375, 22, 22.25, 22.625, 23.066963, 23.410713, 23.5, 23.5, 23.214285, 22.924999, 23.074406, 22.979166, 23.708334, 23.866072, 24.25, 24.375, 24.4375, 24.5, 24.4375, 24.375, 24.5, 24.625, 24.6875, 24.901787, 24.958334, 24.833334, 25.151785, 25.196428, 25.0625, 24.955357, 24.75, 24.642857, 24.971727, 25.522322, 25.90625, 26.15625, 26.214287, 26.357143, 26.366072, 26.5, 26.6875, 26.982143, 27.476192, 27.489796, 27.75, 27.794643, 27.8125, 27.875, 27.8125, 27.75, 27.75, 27.875, 28.125, 28.4375, 28.4375, 28.625, 28.75, 28.75, 29.125, 29.3125, 29.5625, 29.5625, 29.5, 29.5625, 29.5625, 29.875, 30.0625, 30.0625, 30.125, 30.0625, 30.125, 30.375, 30.5625, 30.8125, 31, 31, 31.0625, 31.125, 31.3125, 31.5625, 31.75, 31.9375, 31.8125, 31.5625, 31.416668, 17.5, 17.166668, 17.125, 17.0625, 17.28125, 17.229166, 17.40625, 17.645834, 17.6875, 17.933037, 18, 18.125, 18.25, 18.375, 18.348213, 18.339287, 18.5, 18.5625, 18.6875, 18.580357, 18.517857, 18.5, 18.5625, 18.5, 18.5625, 18.625, 18.75, 19, 19.1875, 19.3125, 19.4375, 19.5, 19.5, 19.6875, 19.8125, 19.9375, 20, 20, 20.25, 20.867559, 21.334822, 21.763393, 21.834822, 21.6875, 21.5, 21.116072, 20.6625, 20.482143, 20.1875, 20.1875, 20, 20, 19.9375, 19.78125, 19.822916, 20.09375, 20.191963, 20.34375, 20.055555, -10, -10, -10, -10, -10, -10, -10, -10, -10, -10, -10, -10, -10, -10, 7.125, 7.0833335, 7.0625, 7, 7, 7.0625, 7.0625, 7.0625, 7.0625, 7, 7, 7, 7.0625, 7.0625, 7.125, 7.125, 7.0625, 7.0625, 7, 7.0625, 7.125, 7.125, 7.125, 7.0625, 7, 7, 7, 7, 7.0625, 7.125, 7.1875, 7.25, 7.25, 7.25, 7.1875, 7.125, 7.0625, 7, 7, 7, 7, 7, 7, 7, 7, 7, 7, 7, 7, 7, 7, 7, 7, 7, 7, 7, 7, 7, 7, 7, 7, 7, 7, 7, 7, 7, 7.0625, 7.125, 7.125, 7.125, 7.0625, 7, 6.9375, 6.9375, 7, 7.0625, 7.125, 7.125, 7.125, 7.125, 7.125, 7.125, 7.0625, 7, 7, 7, 7, 7, 7, 7, 7, 7, 7, 7.0625, 7.125, 7.1875, 7.1875, 7.125, 7.0625, 7, 7.0625, 7.25, 7.5625, 7.8482141, 8, 8.0625, 8, 8, 7.9375, 7.9375, 8.1428566, 8.520833, 8.6696434, 8.6607141, 8.3303566, 8.0714283, 8, 7.9375, 7.9375, 7.9375, 7.9375, 8, 7.9375, 7.8125, 7.625, 7.375, 7.1875, 7.0625, 7, 7.0625, 7.125, 7.1875, 7.34375, 7.375, -10, -10, -10, -10, -10, -10, 18, 18.250002, 18.5, 18.919643, 19.25, 19.4375, 19.5625, 19.6875, 19.6875, 19.75, 19.875, 19.910713, 20.25, 20.5625, 20.9375, 21.4375, 21.9375, 22.136906, 21.317461, 20.619047, 20.059525, 19.5, 19.166666, 18.696428, 18.392857, 18.0625, 17.633928, 17.339285, 17.125, 17, 16.9375, 17, 17.0625, 17.25, 17.815477, 18.211309, 18.303572, 18.142857, 17.9375, 17.875, 17.8125, 17.8125, 18, 18.083334, 18.166666, 18.186506, 17.65, -10, -10, -10, 18.5, 18.6875, 18.9375, 19, 19.125, 19.25, 19.59375, 19.8125, 19.9375, 20.0625, 19.96875, 20, 20, 20, 19.973213, 19.982143, 20.395834, 20.598215, 20.8125, 21, 21.0625, 21.125, 21.1875, 21.25, 21.375, 21.5, 21.625, 21.75, 21.84375, 22, 22.25, 22.5625, 22.96875, 23.410713, 23.473213, 23.4375, 23.285713, 22.924999, 22.958334, 22.863094, 23.583334, 23.803572, 24.1875, 24.3125, 24.4375, 24.5625, 24.5625, 24.5, 24.5625, 24.6875, 24.8125, 25.026787, 24.958334, 24.663691, 24.901785, 24.883928, 24.8125, 24.783482, 24.671875, 24.609375, 24.810268, 25.375, 25.84375, 26.191963, 26.276787, 26.419643, 26.366072, 26.5, 26.6875, 26.919643, 27.25, 27.25, 27.375, 27.544643, 27.6875, 27.875, 27.9375, 27.875, 27.875, 27.9375, 28.1875, 28.5, 28.5625, 28.75, 28.8125, 28.8125, 29.0625, 29.25, 29.4375, 29.5, 29.5625, 29.625, 29.6875, 29.875, 30, 30, 30, 30, 30.125, 30.4375, 30.6875, 30.767857, 30.821428, 30.75, 30.8125, 30.919643, 31.354166, 31.625, 31.8125, 31.9375, 31.75, 31.5, 31.333334, 17.375, 17.111113, 17.083334, 17.125, 17.15625, 17.21875, 17.40625, 17.583334, 17.5, 17.651787, 17.75, 17.9375, 18.125, 18.1875, 18.098213, 18.026787, 18.1875, 18.3125, 18.4375, 18.392857, 18.330357, 18.25, 18.25, 18.125, 18.1875, 18.3125, 18.4375
-10, -10, -10, -10, -10, -10, -10, 7, 7, 7, 7, 7, 7, 7, 7, 7, 7, 7, 7, 7, 7, 7, 7, 7, 7, 7, 7, 7, 7, 7, 7, 6.9375, 6.875, 6.8125, 6.8125, 6.875, 6.9375, 7, 7, 7, 7, 7, 7, 7, 7, 7, 7, 7, 7, 7, 7, 7, 7, 7, 7, 7, 7, 7, 7, 7, 7, 7, 7, 7, 7, 7, 7, 7, 7, 7, 6.9375, 6.875, 6.875, 6.875, 7, 7.0625, 7.0625, 7.0625, 7, 6.9375, 6.9375, 6.9375, 6.9375, 7, 7, 7, 7, 7, 7, 7, 7, 7, 7, 7, 7, 7, 7, 7, 7, 7, 7, 7, 7, 7, 7, 7, 7, 7, 7.125, 7.4375, 7.7232141, 7.9375, 8.0625, 8, 8, 7.9375, 7.875, 8.0446434, 8.5029764, 8.5267859, 8.5, 8.1875, 7.875, 7.8125, 7.6875, 7.75, 7.75, 7.8125, 7.9375, 7.9375, 7.9375, 7.8125, 7.625, 7.375, 7.1875, 7.0625, 7, 7, 7, 7.125, 7.166667, -10, -10, -10, -10, -10, 18, 18, 18.166668, 18.3125, 18.625, 18.9375, 19.125, 19.375, 19.5625, 19.625, 19.75, 19.875, 19.910713, 20.25, 20.5625, 20.90625, 21.34375, 21.790178, 22.172619, -10, -10, -10, 19.0625, 18.708332, 18.258928, 18.026787, 17.8125, 17.446428, 17.214285, 16.9375, 16.8125, 16.75, 16.919643, 16.96875, 17.125, 17.565477, 17.836309, 17.834822, 17.705357, 17.5625, 17.5625, 17.5625, 17.5625, 17.6875, 17.8125, 18, 18.014881, 17.6, 17.4375, 17.25, 17.5, 18.25, 18.458334, 18.8125, 18.9375, 19.0625, 19.125, 19.40625, 19.625, 19.8125, 20, 19.90625, 19.9375, 19.9375, 19.875, 19.9375, 20.017857, 20.333334, 20.491072, 20.6875, 20.8125, 20.8125, 20.9375, 20.9375, 21, 21.1875, 21.375, 21.5625, 21.75, 21.875, 22, 22.25, 22.5, 22.875, 23.285713, 23.348213, 23.375, 23.357143, 23.0625, 23, 23.008928, 23.333334, 23.553572, 23.8125, 23.9375, 24.125, 24.3125, 24.4375, 24.4375, 24.5, 24.625, 24.6875, 24.839287, 24.708334, 24.351191, 24.589285, 24.633928, 24.625, 24.564732, 24.484375, 24.484375, 24.779018, 25.375, 25.901785, 26.330357, 26.44643, 26.607143, 26.553572, 26.5625, 26.6875, 26.857143, 26.9375, 27, 27.125, 27.419643, 27.625, 27.875, 27.9375, 27.875, 27.875, 27.875, 28.125, 28.4375, 28.5625, 28.8125, 28.875, 28.875, 29, 29.1875, 29.375, 29.5, 29.6875, 29.75, 29.8125, 29.9375, 30, 30, 30.0625, 30.0625, 30.25, 30.5, 30.625, 30.580357, 30.508928, 30.4375, 30.53125, 30.700893, 31.148809, 31.571428, 31.803572, 31.9375, 31.8125, 31.5, 31.333334, 17.303572, 17.083334, 17.0625, 17.09375, 17.239584, 17.291666, 17.458334, 17.739584, 17.583334, 17.667412, 17.6875, 17.8125, 17.9375, 18.0625, 18.035713, 18.026787, 18.3125, 18.375, 18.392857, 18.410713, 18.330357, 18.3125, 18.3125, 18.125, 18.125, 18.1875, 18.25, 18.4375, 18.5, 18.5625, 18.6875, 18.75, 18.9375, 19.294643, 19.5625, 19.741072, 19.674999, 19.803572, 19.866072, 20.229166, 20.553572, 20.62245, 20.642857, 20.273809, 20.190475, 20.295918, 20.2875, 20.232143, 20, 19.9375, 19.75, 19.6875, 19.5625, 19.4375, 19.455357, 19.625, 19.6875, 19.875, 19.833334, -10, -10, -10, -10, -10, -10, -10, -10, -10, -10, -10, -10, -10, -10, 7.25, 7.1666665, 7.125, 7.0625, 7, 7, 7, 7, 7, 7, 7, 7, 7, 7, 7, 7, 7, 6.9375, 6.9375, 6.9375, 6.9375, 7, 7, 7, 6.9375, 6.875, 6.8125, 6.8125, 6.875, 6.9375, 7, 7, 7, 7, 7, 7, 7, 7, 7, 7, 7, 7, 7, 7, 7, 7, 7, 7, 7, 7, 7, 7, 7, 7, 7, 7, 7, 7, 7, 7, 7, 7, 7, 6.875, 6.75, 6.75, 6.75, 6.875, 7, 7, 7, 7, 6.9375, 6.9375, 6.9375, 6.9375, 7, 7, 7, 7, 7, 7, 7, 7, 7, 7, 7, 7, 7, 7, 7, 7, 7, 7, 7, 7, 7, 7, 7, 7, 7, 7.0625, 7.3125, 7.5625, 7.8125, 8, 8, 8, 7.9375, 7.8125, 7.9196429, 8.3779764, 8.4017859, 8.4375, 8.0625, 7.75, 7.6875, 7.5625, 7.6875, 7.625, 7.625, 7.6875, 7.75, 7.875, 7.875, 7.8125, 7.625, 7.375, 7.1875, 7.0625, 7, 7, 7.125, 7.166667, -10, -10, -10, -10, -10, 18, 18, 18.145834, 18.25, 18.5625, 18.875, 19, 19.3125, 19.5, 19.625, 19.875, 20, 20.035713, 20.3125, 20.5625, 20.875, 21.25, 21.642857, 22.208334, -10, -10, -10, 18.4375, 18.145832, 17.758928, 17.526787, 17.375, 17.071428, 16.946428, 16.6875, 16.5625, 16.5625, 16.669643, 16.736607, 16.9375, 17.208334, 17.586309, 17.522322, 17.455357, 17.3125, 17.25, 17.1875, 17.125, 17.125, 17.25, 17.4375, 17.473213, 17.387501, 17.208334, 17.166666, 17.333334, 18, 18.28125, 18.669643, 18.875, 19.0625, 19.0625, 19.28125, 19.5, 19.6875, 19.9375, 19.90625, 20, 20.0625, 20.125, 20.25, 20.25, 20.3125, 20.375, 20.5625, 20.75, 20.75, 20.875, 20.875, 20.875, 21.125, 21.375, 21.625, 21.9375, 22.0625, 22.1875, 22.375, 22.5625, 22.875, 23.160713, 23.160713, 23.125, 23.232143, 23.0625, 23.125, 23.1875, 23.25, 23.4375, 23.625, 23.75, 23.875, 24, 24.1875, 24.25, 24.4375, 24.625, 24.8125, 24.9375, 24.8125, 24.580357, 24.446428, 24.5625, 24.5, 24.564732, 24.640625, 24.765625, 25.122768, 25.71875, 26.169643, 26.5625, 26.482143, 26.5, 26.25, 26.276787, 26.607143, 26.910715, 27.0625, 27.0625, 27.080357, 27.395834, 27.616072, 27.875, 27.9375, 27.875, 27.875, 27.875, 28.0625, 28.3125, 28.5, 28.75, 28.875, 28.9375, 29, 29.125, 29.25, 29.375, 29.625, 29.75, 29.875, 30, 30, 30, 30.125, 30.1875, 30.4375, 30.625, 30.59375, 30.361607, 30.165178, 30.09375, 30.21875, 30.450893, 30.916666, 31.491072, 31.794643, 31.9375, 31.875, 18, 18, 17.238096, 17, 17, 17.125, 17.402779, -10, -10, 17.9375, 17.833334, 17.90625, 17.9375, 18, 18, 18.0625, 18.098213, 18.151787, 18.4375, 18.375, 18.330357, 18.455357, 18.3125, 18.3125, 18.25, 18.0625, 18.0625, 18.125, 18.125
-10, -10, -10, -10, -10, -10, -10, 7.375, 7.25, 7.1875, 7.0625, 7, 7, 7, 7, 7, 7, 7, 6.9375, 6.875, 6.8125, 6.8125, 6.875, 6.9375, 6.9375, 6.9375, 6.9375, 6.9375, 7, 7, 7, 6.9375, 6.875, 6.8125, 6.8125, 6.875, 6.9375, 7.0625, 7.0625, 7.0625, 7.0625, 6.9375, 6.9375, 6.9375, 6.9375, 7, 7, 7, 7, 7, 7, 7, 7, 7, 7, 7, 7, 7, 7, 7, 7, 7, 7, 7, 7, 7, 7, 7, 7, 7, 6.875, 6.75, 6.75, 6.75, 6.875, 7, 7, 7, 7, 6.9375, 6.9375, 6.9375, 6.9375, 7, 7, 7, 7, 7, 7, 7, 7, 7, 7, 7, 7, 7, 7, 7, 7, 7, 7, 7, 7, 7, 7, 7, 7, 7, 7, 7.1875, 7.4375, 7.6875, 7.9375, 8, 8, 7.9375, 7.8125, 7.8571429, 8.2529764, 8.2767859, 8.3125, 8, 7.75, 7.6875, 7.5625, 7.6875, 7.625, 7.5625, 7.5, 7.4642859, 7.625, 7.7946429, 7.875, 7.8125, 7.5625, 7.3125, 7.125, 7, 7, 7.1964283, 7.416667, -10, -10, -10, -10, -10, 18, 18, 18.125, 18.1875, 18.4375, 18.75, 18.982143, 19.3125, 19.5625, 19.6875, 19.875, 19.9375, 19.9375, 20.25, 20.5, 20.78125, 21.03125, 21.357143, 21.989584, -10, -10, -10, 17.571428, 17.5, 17.375, 17.151787, 16.875, 16.714285, 16.5625, 16.375, 16.3125, 16.375, 16.482143, 16.611607, 16.75, 16.75, 17.166666, 17.084822, 17.080357, 17, 16.8125, 16.6875, 16.625, 16.625, 16.875, 17, 17.0625, 17.0625, 17.03125, 17.0625, 17.25, 17.5625, 17.90625, 18.419643, 18.75, 19, 19.09375, 19.34375, 19.65625, 19.84375, 20.0625, 20, 20.0625, 20.1875, 20.28125, 20.34375, 20.21875, 20.15625, 20.1875, 20.4375, 20.6875, 20.75, 20.875, 20.875, 20.875, 21.125, 21.375, 21.625, 21.9375, 22.0625, 22.1875, 22.446428, 22.75, 22.875, 23.089287, 23.035713, 23.0625, 23.357143, 23.1875, 23.3125, 23.25, 23.267857, 23.535713, 23.625, 23.75, 23.75, 23.875, 24, 24.125, 24.3125, 24.5, 24.8125, 25, 25, 24.830357, 24.625, 24.5625, 24.625, 24.796875, 25.015625, 25.265625, 25.515625, 25.71875, 25.964287, 26.125, 26.044643, 26.125, 26.178572, 26.375, 26.669643, 26.928572, 26.910713, 26.916666, 27.142857, 27.458334, 27.741072, 27.875, 28, 28, 28, 28, 28.0625, 28.25, 28.5, 28.75, 28.9375, 29, 29.0625, 29.1875, 29.25, 29.375, 29.53125, 29.65625, 29.90625, 30.03125, 30.125, 30.125, 30.25, 30.375, 30.5625, 30.678572, 30.322916, 29.96875, 29.727678, 29.71875, 29.96875, 30.232143, 30.791666, 31.428572, 31.776787, 31.9375, 31.9375, -10, -10, -10, -10, -10, -10, -10, -10, -10, 18.3125, 18.270834, 18.28125, 18.21875, 18.15625, 18.03125, 18, 18.125, 18.3125, 18.625, 18.625, 18.455357, 18.517857, 18.3125, 18.3125, 18.392857, 18.275, 18.166666, 18.303572, 18, 17.964287, 17.9375, 18, 18.196428, 18.5625, 18.875, 19.267857, 19.375, 19.303572, 19.174999, 19.428572, 19.635715, 19.553572, 19.544643, 19.508928, 19.708334, 19.5, 19.517857, 19.5, 19.5625, 19.625, 19.5, 19.375, 19.1875, 19.125, 19.125, 19.098213, 19.142857, 19.3125, 19.1875, 19.3125, 19.364584, 19.083332, -10, -10, -10, -10, -10, -10, -10, -10, -10, -10, -10, -10, -10, 7.5, 7.3333335, 7.25, 7.0625, 7, 7, 6.9375, 6.875, 6.875, 6.875, 6.9375, 6.9375, 6.875, 6.75, 6.75, 6.8125, 6.875, 6.875, 6.8125, 6.8125, 6.8125, 6.9375, 6.9375, 6.875, 6.75, 6.625, 6.625, 6.6875, 6.8125, 6.9375, 7.0625, 7.0625, 7.0625, 7.0625, 6.875, 6.8125, 6.8125, 6.8125, 6.9375, 7, 7, 7, 7, 6.9375, 6.9375, 6.9375, 6.9375, 7, 7, 7, 7, 7, 7, 6.9375, 6.875, 6.8125, 6.75, 6.8125, 6.875, 6.9375, 6.9375, 6.875, 6.875, 6.75, 6.625, 6.6875, 6.625, 6.75, 6.9375, 6.9375, 7, 7, 7, 7, 7, 7, 7, 7, 7, 7, 7, 7, 7, 7, 7, 7, 7, 7, 7, 7, 7, 6.9375, 6.875, 6.875, 6.875, 6.9375, 7, 7, 7, 7, 7, 7, 7.125, 7.3125, 7.5, 7.6875, 7.8125, 7.875, 7.875, 7.8125, 7.8392859, 8.0446434, 8.1071434, 8.1875, 8, 7.8125, 7.75, 7.6875, 7.75, 7.625, 7.5, 7.25, 7.1785717, 7.4821429, 7.7232146, 7.9375, 7.9375, 7.6875, 7.4375, 7.1875, 7, 7, 7.2678566, 7.666667, -10, -10, -10, -10, 18, 18, 18, 18.1875, 18.1875, 18.4375, 18.75, 18.982143, 19.4375, 19.6875, 19.75, 19.875, 19.875, 19.9375, 20.3125, 20.625, 20.90625, 21.09375, 21.419643, 22.03125, -10, -10, -10, 17.25, 16.833332, 16.8125, 16.625, 16.375, 16.276785, 16.125, 16.0625, 16.125, 16.25, 16.419643, 16.674107, 16.875, 16.830357, 16.9375, 16.78125, 16.75, 16.6875, 16.5625, 16.4375, 16.3125, 16.1875, 16.3125, 16.375, 16.5, 16.6875, 16.9375, 17, 17.1875, 17.375, 17.71875, 18.232143, 18.625, 18.9375, 19.125, 19.40625, 19.71875, 19.90625, 20.0625, 20, 20.0625, 20.1875, 20.28125, 20.34375, 20.21875, 20.09375, 20.1875, 20.4375, 20.6875, 20.875, 20.9375, 20.9375, 20.9375, 21.125, 21.375, 21.625, 21.9375, 22.0625, 22.25, 22.508928, 22.8125, 22.9375, 23.026787, 23, 23.125, 23.3125, 23.25, 23.375, 23.375, 23.5, 23.723213, 23.75, 23.8125, 23.6875, 23.75, 23.8125, 24, 24.25, 24.5, 24.8125, 24.9375, 25, 24.9375, 24.8125, 24.8125, 24.875, 25.09375, 25.34375, 25.59375, 25.84375, 25.9375, 26.026787, 26.089287, 25.982143, 26.0625, 26.241072, 26.4375, 26.732143, 26.991072, 26.973213, 27.041666, 27.267857, 27.583334, 27.803572, 27.875, 28.0625, 28.0625, 28.0625, 28.125, 28.0625, 28.267857, 28.598213, 28.75, 29, 29, 29.125, 29.1875, 29.25, 29.3125, 29.415178, 29.71875, 29.96875, 30.21875, 30.3125, 30.375, 30.5, 30.5625, 30.6875, 30.616072, 30.072916, 29.79018, 29.59375, 29.6875, 30.111607, 30.5625, 30.84375, 31.491072, 31.714287, 31.9375, 32, -10, -10, -10, -10, -10, -10, -10, -10, -10, 18.5625, 18.458334, 18.375, 18.28125, 18.15625, 18.09375, 18.125, 18.25, 18.5, 18.75, 18.6875, 18.517857, 18.517857, 18.3125, 18.3125, 18.473213, 18.424999, 18.095238, 18.160715, 17.75
-10, -10, -10, -10, -10, -10, -10, 7.75, 7.5, 7.375, 7.125, 7, 6.9375, 6.8125, 6.6875, 6.6875, 6.75, 6.875, 6.9375, 6.875, 6.75, 6.75, 6.8125, 6.875, 6.875, 6.75, 6.6875, 6.625, 6.75, 6.8125, 6.75, 6.6875, 6.5625, 6.5625, 6.625, 6.75, 6.875, 7, 7.0625, 7.0625, 7.0625, 6.8125, 6.6875, 6.625, 6.625, 6.8125, 6.875, 6.9375, 6.9375, 6.875, 6.8125, 6.8125, 6.8125, 6.875, 6.9375, 6.9375, 6.9375, 6.9375, 7, 7, 6.875, 6.75, 6.625, 6.5, 6.5625, 6.6875, 6.8125, 6.8125, 6.75, 6.6875, 6.625, 6.625, 6.75, 6.6875, 6.6875, 6.8125, 6.8125, 6.9375, 7, 7, 6.9375, 6.9375, 6.875, 6.8125, 6.8125, 6.75, 6.75, 6.75, 6.8125, 6.875, 6.9375, 7, 6.9375, 6.875, 6.8125, 6.8125, 6.875, 6.9375, 6.875, 6.75, 6.75, 6.6875, 6.75, 6.8125, 6.75, 6.8125, 6.875, 6.9375, 7, 7.0625, 7.1875, 7.3125, 7.4375, 7.5625, 7.625, 7.625, 7.625, 7.6875, 7.8125, 7.9375, 8.0625, 8, 7.9375, 7.9375, 7.9375, 7.9375, 7.75, 7.5, 7.1875, 7.1160717, 7.4196429, 7.7232146, 7.9375, 8, 7.75, 7.5, 7.25, 6.9375, 6.9375, 7.2053566, 7.7708335, -10, -10, -10, -10, -10, 18, 18, 18.25, 18.3125, 18.5625, 18.875, 19.044643, 19.4375, 19.6875, 19.75, 19.875, 19.9375, 20.0625, 20.5, 20.875, 21.15625, 21.34375, 21.629463, 22.125, 22.6875, 22, 18.666668, 17.214287, 16.595238, 16.354168, 16.133928, 15.875, 15.776786, 15.6875, 15.6875, 15.8125, 15.9375, 16, 16.267857, 16.4375, 16.517857, 16.75, 16.6875, 16.75, 16.75, 16.598213, 16.330357, 16.0625, 15.8125, 15.8125, 15.75, 15.875, 16.169643, 16.770834, 16.973213, 17.21875, 17.34375, 17.71875, 18.232143, 18.625, 19, 19.25, 19.53125, 19.84375, 19.96875, 20.0625, 20.0625, 20.125, 20.25, 20.34375, 20.34375, 20.21875, 20.15625, 20.3125, 20.5625, 20.8125, 21, 21, 21, 21, 21.125, 21.375, 21.625, 21.9375, 22.125, 22.3125, 22.571428, 22.875, 22.9375, 22.964287, 22.9375, 23, 23.125, 23.125, 23.3125, 23.5, 23.857143, 24.098213, 24.125, 24.125, 23.9375, 23.9375, 24, 24.1875, 24.375, 24.5625, 24.8125, 24.875, 25, 25.0625, 25, 25, 25.0625, 25.25, 25.4375, 25.625, 25.75, 25.8125, 25.8125, 25.794643, 25.75, 25.875, 26.178572, 26.5, 26.794643, 27.053572, 27.035713, 27.041666, 27.267857, 27.520834, 27.678572, 27.75, 28, 28.098213, 28.125, 28.1875, 28.0625, 28.205357, 28.544643, 28.8125, 29, 29.0625, 29.1875, 29.25, 29.25, 29.3125, 29.352678, 29.65625, 29.90625, 30.15625, 30.25, 30.3125, 30.4375, 30.5, 30.625, 30.616072, 30.135416, 29.94643, 29.78125, 29.875, 30.392857, 31.052082, 31.267857, 31.763393, 31.816965, 31.9375, 32, -10, -10, -10, -10, -10, -10, -10, 18.333332, 18.208332, 18.40625, 18.25, 18.234375, 18.15625, 18.09375, 18.09375, 18.0625, 18.125, 18.3125, 18.4375, 18.375, 18.375, 18.3125, 18.125, 18.0625, 18.160713, 18.174999, 17.845238, 17.910715, 17.5, 17.464287, 17.4375, 17.571428, 18.175594, 18.627975, 18.736607, 18.857143, 18.6875, 18.5, 18.46875, 18.616072, 18.963394, 18.700893, 18.691965, 18.727678, 19.145834, 19.232143, 19.25, 19.214287, 19.223213, 19.1875, 19.1875, 19.0625, 19, 19, 19.125, 19.160713, 19.0625, 18.9375, 18.705357, 18.913691, 19.180059, 19.25, -10, -10, -10, -10, -10, -10, -10, -10, -10, -10, -10, -10, -10, 7.5, 7.3333335, 7.25, 7.0625, 7, 6.9375, 6.8125, 6.6875, 6.625, 6.6875, 6.75, 6.75, 6.75, 6.625, 6.625, 6.6875, 6.6875, 6.6875, 6.5625, 6.5, 6.4375, 6.5625, 6.6875, 6.6875, 6.625, 6.5, 6.4375, 6.4375, 6.5625, 6.6875, 6.875, 7, 7.0625, 7, 6.6875, 6.5625, 6.4375, 6.4375, 6.625, 6.625, 6.6875, 6.6875, 6.625, 6.5625, 6.5625, 6.5625, 6.6875, 6.8125, 6.8125, 6.8125, 6.75, 6.75, 6.75, 6.625, 6.5, 6.375, 6.25, 6.3125, 6.4375, 6.5625, 6.5625, 6.5, 6.4375, 6.5, 6.625, 6.8125, 6.75, 6.625, 6.625, 6.625, 6.8125, 6.9375, 6.9375, 6.8125, 6.75, 6.6875, 6.625, 6.625, 6.5625, 6.5, 6.5, 6.625, 6.75, 6.8125, 6.875, 6.75, 6.625, 6.5625, 6.5625, 6.6875, 6.8125, 6.75, 6.625, 6.625, 6.5625, 6.6875, 6.75, 6.625, 6.625, 6.625, 6.6875, 6.8125, 6.8125, 6.9375, 7.0625, 7.125, 7.3125, 7.375, 7.375, 7.375, 7.4375, 7.5, 7.625, 7.8125, 7.875, 7.9375, 8, 8, 7.9375, 7.75, 7.5, 7.1875, 7.0535717, 7.2946429, 7.5982146, 7.8125, 7.9375, 7.75, 7.4375, 7.0803571, 6.75, 6.75, 7.0803566, 7.7375002, -10, -10, -10, -10, -10, 18, 18, 18.25, 18.375, 18.625, 18.9375, 19.107143, 19.4375, 19.6875, 19.75, 19.9375, 20.0625, 20.25, 20.75, 21.125, 21.40625, 21.59375, 21.870537, 22.25, 22.708334, 22.333334, 17.933334, 16.959185, 16.095238, 15.791667, 15.508928, 15.1875, 15.089286, 15.125, 15.25, 15.5625, 15.6875, 15.8125, 16.125, 16.294643, 16.5625, 16.75, 16.75, 16.642857, 16.333332, 16.32653, 15.892857, 15.75, 15.5625, 15.5, 15.4375, 15.53125, 15.763393, 16.442709, 16.707588, 17.15625, 17.583334, 17.959822, 18.40625, 18.78125, 19.03125, 19.34375, 19.59375, 19.84375, 20.03125, 20.0625, 20.0625, 20.0625, 20.125, 20.15625, 20.15625, 20.09375, 20.15625, 20.375, 20.625, 20.875, 21, 21, 21.0625, 21.125, 21.3125, 21.5625, 21.75, 21.9375, 22.125, 22.3125, 22.508928, 22.875, 22.875, 22.901787, 23, 23.125, 23.25, 23.25, 23.4375, 23.6875, 24.214285, 24.410713, 24.375, 24.25, 24, 24, 24.0625, 24.3125, 24.375, 24.5, 24.6875, 24.6875, 24.875, 25, 25, 25, 25.0625, 25.1875, 25.3125, 25.4375, 25.5, 25.5, 25.508928, 25.770834, 25.928572, 26.0625, 26.491072, 26.723213, 26.875, 27.125, 27.098213, 27.166666, 27.375, 27.4375, 27.5625, 27.625, 27.875, 28.035713, 28.0625, 28.125, 28.0625, 28.205357, 28.544643, 28.8125, 29, 29.0625, 29.25, 29.375, 29.4375, 29.5625, 29.540178, 29.78125, 29.96875, 30.15625, 30.25, 30.3125, 30.375, 30.4375, 30.5625, 30.616072, 30.229166, 30.10268, 29.9375, 29.96875, 30.464285, 31.302082, 31.453125, 31.859375, 31.841518, 31.90625, 31.9375, -10, -10, -10, -10, -10, -10, 17.75, 18, 17.888887, 18, 17.8125, 17.84375, 17.84375, 17.90625, 18.03125, 18, 17.9375, 18.0625, 18.125, 18.125, 18.125, 18, 17.8125, 17.6875, 17.785713, 17.799999, 17.407738, 17.5, 17.223213
-10, -10, -10, -10, -10, -10, -10, 7.375, 7.25, 7.1875, 7.0625, 7, 6.9375, 6.8125, 6.625, 6.5, 6.5, 6.5, 6.5625, 6.625, 6.5625, 6.5625, 6.5625, 6.5, 6.4375, 6.3125, 6.25, 6.1875, 6.3125, 6.4375, 6.4375, 6.375, 6.3125, 6.3125, 6.375, 6.5, 6.625, 6.75, 6.875, 7, 6.875, 6.625, 6.4375, 6.25, 6.25, 6.375, 6.375, 6.5, 6.5, 6.4375, 6.375, 6.3125, 6.3125, 6.4375, 6.625, 6.625, 6.625, 6.5625, 6.5, 6.5, 6.375, 6.25, 6.125, 6, 6.0625, 6.1875, 6.3125, 6.3125, 6.25, 6.1875, 6.3125, 6.5, 6.6875, 6.625, 6.4375, 6.375, 6.375, 6.5625, 6.6875, 6.6875, 6.5625, 6.5, 6.4375, 6.375, 6.375, 6.3125, 6.25, 6.25, 6.375, 6.5, 6.5625, 6.625, 6.5, 6.375, 6.3125, 6.3125, 6.4375, 6.5625, 6.5, 6.375, 6.375, 6.3125, 6.5, 6.625, 6.5, 6.5625, 6.5, 6.5, 6.6875, 6.625, 6.75, 6.875, 6.875, 7.0625, 7.0625, 7.0625, 7.0625, 7.125, 7.25, 7.4375, 7.6875, 7.8125, 7.9375, 8, 8, 7.875, 7.625, 7.375, 7.125, 7.0892859, 7.2321429, 7.4285717, 7.625, 7.7946429, 7.6875, 7.375, 6.9107141, 6.5625, 6.5625, 6.9464283, 7.5375004, -10, -10, -10, -10, -10, 18, 18, 18.1875, 18.3125, 18.5625, 18.8125, 18.9375, 19.3125, 19.5625, 19.75, 20.0625, 20.25, 20.5, 21, 21.375, 21.6875, 21.9375, 22.21875, 22.46875, 22.71875, 22.5, 16.222223, 15.809525, 15.678572, 15.354167, 15.133928, 14.875, 14.8125, 14.875, 15, 15.3125, 15.4375, 15.633928, 16.145834, 16.410715, 16.6875, 16.8125, 16.705357, 16.288691, 15.895833, 15.520408, 15.580357, 15.4375, 15.178572, 14.875, 14.875, 15.084822, 15.424108, 16.130209, 16.332588, 16.65625, 17.391157, 18.001488, 18.584822, 19.03125, 19.21875, 19.4375, 19.625, 19.75, 19.9375, 20, 20.0625, 20.125, 20.1875, 20.1875, 20.125, 20.0625, 20.125, 20.3125, 20.5625, 20.8125, 20.9375, 21, 21.125, 21.25, 21.4375, 21.6875, 21.8125, 21.9375, 22.1875, 22.4375, 22.625, 22.875, 22.9375, 22.9375, 23.0625, 23.125, 23.125, 23.1875, 23.3125, 23.6875, 24.258928, 24.3125, 24.375, 24.1875, 24, 24, 24.0625, 24.3125, 24.4375, 24.5625, 24.75, 24.75, 24.875, 25, 25, 25, 25, 25, 25.03125, 25.09375, 25.15625, 25.21875, 25.392857, 25.895834, 26.053572, 26.25, 26.4375, 26.625, 26.8125, 27, 27.0625, 27.125, 27.0625, 27.125, 27.25, 27.482143, 27.875, 28.160713, 28.1875, 28.3125, 28.25, 28.25, 28.469643, 28.803572, 28.928572, 29.0625, 29.1875, 29.3125, 29.4375, 29.625, 29.696428, 29.9375, 30, 30.125, 30.125, 30.1875, 30.25, 30.3125, 30.5, 30.625, 30.5625, 30.433037, 30.25, 30.15625, 30.526785, 31.395832, 31.515625, 31.921875, 31.859375, 31.90625, 31.9375, 31.833332, -10, -10, -10, -10, -10, 17.458334, 17.75, 17.666666, 17.5, 17.3125, 17.375, 17.4375, 17.5625, 17.75, 17.8125, 17.6875, 17.75, 17.8125, 17.75, 17.8125, 17.6875, 17.5, 17.375, 17.455357, 17.525, 17.241072, 17.19643, 17.098213, 17.0625, 17.1875, 17.258928, 17.760416, 18.002975, 18.049107, 18.133928, 18.09375, 18.0625, 18.09375, 18.116072, 18.25625, 18.053572, 18.116072, 18.25, 18.46875, 18.75, 18.8125, 18.870537, 18.941963, 18.84375, 18.84375, 18.678572, 18.5625, 18.625, 18.6875, 18.875, 18.875, 18.8125, 18.767857, 18.976191, 19.148809, 19.208332, -10, -10, -10, -10, -10, -10, -10, -10, -10, -10, -10, -10, -10, 7.375, 7.25, 7.1875, 7.0625, 7, 6.9375, 6.8125, 6.625, 6.4375, 6.375, 6.3125, 6.3125, 6.375, 6.375, 6.375, 6.375, 6.3125, 6.25, 6.1875, 6.125, 6.0625, 6.125, 6.25, 6.3125, 6.3125, 6.3125, 6.3125, 6.375, 6.4375, 6.5, 6.625, 6.75, 6.9375, 6.875, 6.625, 6.4375, 6.1875, 6.125, 6.1875, 6.125, 6.25, 6.25, 6.1875, 6.1875, 6.125, 6.125, 6.25, 6.375, 6.375, 6.375, 6.3125, 6.25, 6.25, 6.1875, 6.125, 6.0625, 6, 6, 6.0625, 6.125, 6.125, 6.125, 6.0625, 6.1875, 6.375, 6.5, 6.5, 6.3125, 6.1875, 6.1875, 6.3125, 6.4375, 6.4375, 6.3125, 6.25, 6.1875, 6.125, 6.125, 6.0625, 6, 6, 6.125, 6.25, 6.3125, 6.375, 6.25, 6.125, 6.0625, 6.0625, 6.1875, 6.3125, 6.3125, 6.25, 6.25, 6.1875, 6.3125, 6.4375, 6.375, 6.5625, 6.6500001, 6.5416665, 6.9375, 6.7083335, 6.75, 6.875, 6.8125, 7, 6.875, 6.875, 6.875, 6.9375, 7.125, 7.3125, 7.5625, 7.75, 7.9375, 8, 8, 7.875, 7.625, 7.375, 7.1875, 7.0625, 7, 7.0625, 7.1875, 7.4196429, 7.375, 7.125, 6.6607141, 6.3125, 6.375, 6.7083335, 7.3833332, -10, -10, -10, -10, -10, 18, 18.125, 18.208334, 18.3125, 18.5, 18.8125, 19.044643, 19.375, 19.625, 19.75, 20.089287, 20.419643, 20.607143, 21.0625, 21.3125, 21.5625, 21.875, 22.15625, 22.46875, 22.71875, 22.75, 15.571428, 15.408164, 15.428572, 15.104167, 14.883928, 14.625, 14.5625, 14.625, 14.75, 15.125, 15.25, 15.526785, 16.154762, 16.316965, 16.535713, 16.395832, 16.330357, 15.91369, 15.416666, 15.234694, 15.330357, 15.321428, 15.253572, 14.883928, 14.883928, 14.897322, 15.111608, 15.567709, 15.832589, 16.017857, 16.412699, 17.702381, 18.668156, 19.191963, 19.40625, 19.53125, 19.5625, 19.625, 19.8125, 19.9375, 20.0625, 20.125, 20.25, 20.25, 20.1875, 20.125, 20.1875, 20.375, 20.625, 20.875, 21, 21.125, 21.3125, 21.5, 21.625, 21.8125, 21.8125, 21.875, 22.125, 22.3125, 22.5625, 22.8125, 22.9375, 23, 23.125, 23.125, 23.0625, 23.125, 23.1875, 23.5, 23.964287, 24.0625, 24.25, 24.1875, 24.0625, 24, 24, 24.1875, 24.25, 24.375, 24.5625, 24.625, 24.8125, 25, 25, 25, 25, 24.875, 24.78125, 24.799107, 24.989584, 25.147322, 25.392857, 25.895834, 26.053572, 26.25, 26.4375, 26.625, 26.8125, 27.0625, 27.125, 27.125, 27.0625, 27, 27.133928, 27.544643, 27.8125, 28.160713, 28.1875, 28.3125, 28.375, 28.285715, 28.233929, 28.732143, 28.794643, 29.0625, 29.125, 29.3125, 29.5, 29.75, 29.875, 29.9375, 30, 30, 30, 30, 30, 30.1875, 30.4375, 30.6875, 30.8125, 30.78125, 30.598213, 30.401787, 30.633928, 31.145832, 31.328125, 31.703125, 31.765625, 31.875, 31.9375, 31.888887, 16, 16.5, 16.5625, 16.6875, 16.8125, 17.34375, 17.25, 17.25, 17.125, 17.0625, 17.25, 17.3125, 17.4375, 17.625, 17.6875, 17.5625, 17.5625, 17.5625, 17.4375, 17.5, 17.375, 17.1875, 17.0625, 17.125, 17.25, 17.1875, 17.214287, 17.223213
-10, -10, -10, -10, -10, -10, -10, 7.125, 7.0833335, 7.0625, 7, 7, 7, 6.875, 6.6875, 6.4375, 6.25, 6.125, 6.0625, 6.125, 6.1875, 6.1875, 6.1875, 6.125, 6, 6, 6, 6, 6.0625, 6.125, 6.1875, 6.1875, 6.25, 6.3125, 6.375, 6.375, 6.375, 6.4375, 6.5, 6.6875, 6.625, 6.4375, 6.3125, 6.125, 6.0625, 6.0625, 6, 6.0625, 6.0625, 6.0625, 6.0625, 6, 6, 6.0625, 6.1875, 6.1875, 6.1875, 6.125, 6, 6, 6, 6, 6, 6, 6, 6, 6, 6, 6, 6, 6.125, 6.25, 6.3125, 6.3125, 6.25, 6.125, 6.125, 6.1875, 6.1875, 6.1875, 6.125, 6.0625, 6.0625, 6.0625, 6.0625, 6.0625, 6, 6, 6.0625, 6.125, 6.125, 6.125, 6.0625, 6, 6, 6, 6.0625, 6.125, 6.125, 6.125, 6.15625, 6.21875, 6.46875, 6.71875, 6.875, 7.125, 7.2125001, 7.1041665, 7.4375, 7.2083335, 7.0178571, 7.1964288, 7.125, 7.375, 7.1836734, 7.166667, 7.1964283, 7.2321429, 7.4375, 7.625, 7.75, 7.875, 8, 8, 8, 7.8125, 7.5625, 7.3125, 7, 6.8125, 6.625, 6.5625, 6.6875, 6.9196429, 6.9375, 6.75, 6.3482141, 6.125, 6.25, 6.541667, -10, -10, -10, -10, -10, -10, -10, 18.375, 18.3125, 18.3125, 18.455357, 18.895834, 19.151787, 19.5, 19.6875, 19.75, 20.151787, 20.482143, 20.732143, 21.125, 21.25, 21.5, 21.75, 22.125, 22.5, 22.75, 22.9375, 15.938775, 15.35, 15.25, 14.9375, 14.8125, 14.5625, 14.4375, 14.375, 14.464286, 14.848214, 14.9375, 15.276785, 15.842262, 16.004465, 16.098213, 15.895833, 15.591836, 15.28869, 14.958333, 14.8125, 14.8125, 15.071428, 15.164286, 14.785714, 14.883928, 14.834822, 15.004464, 15.109375, 15.359375, 15.6875, 16.050171, 17.108843, 18.543156, 19.147322, 19.34375, 19.40625, 19.4375, 19.5, 19.75, 19.9375, 20.0625, 20.1875, 20.3125, 20.3125, 20.25, 20.125, 20.1875, 20.375, 20.625, 20.9375, 21.125, 21.3125, 21.5625, 21.75, 21.875, 22, 21.875, 21.875, 22, 22.125, 22.4375, 22.6875, 22.9375, 23.0625, 23.125, 23.125, 23, 23.0625, 23.1875, 23.4375, 23.794643, 24, 24.25, 24.25, 24.1875, 24.0625, 23.9375, 24.0625, 24.125, 24.25, 24.5, 24.6875, 24.910713, 25.0625, 25.0625, 25, 25, 24.8125, 24.71875, 24.799107, 25.096725, 25.334822, 25.642857, 26.083334, 26.178572, 26.3125, 26.375, 26.571428, 26.875, 27.0625, 27.1875, 27.125, 27.0625, 27, 27.133928, 27.544643, 27.75, 28.0625, 28.125, 28.3125, 28.5, 28.473215, 28.412498, 28.732143, 28.794643, 29, 29.0625, 29.25, 29.5, 29.75, 29.9375, 30, 30.0625, 30.0625, 30.0625, 30.0625, 30, 30.25, 30.5, 30.6875, 30.8125, 30.75, 30.598213, 30.479912, 30.665178, 30.90625, 31.078125, 31.4375, 31.609375, 31.8125, 31.9375, 31.916666, 32, 16.666666, 16.708334, 16.791666, 16.875, 17.09375, 17.083334, 17.0625, 16.9375, 16.875, 16.9375, 17, 17.0625, 17.125, 17.151787, 17.125, 17.196428, 17.21875, 17.125, 17.125, 17.09375, 17.03125, 17, 17.125, 17.25, 17.15625, 17.120537, 17.066963, 16.90625, 17, 17, 17.03125, 17.1875, 17.375, 17.5625, 17.71875, 17.75, 17.6875, 17.6875, 17.625, 17.65625, 17.84375, 17.96875, 18.21875, 18.375, 18.4375, 18.46875, 18.40625, 18.34375, 18.34375, 18.241072, 18.125, 18.3125, 18.4375, 18.75, 18.9375, 19, 19, 19, 19, 19, -10, -10, -10, -10, -10, -10, -10, -10, -10, -10, -10, -10, -10, 7.125, 7.0833335, 7.0625, 7, 7, 6.9375, 6.8125, 6.5625, 6.3125, 6.125, 6, 6, 6, 6.0625, 6.0625, 6.0625, 6.0625, 6, 6, 6, 6, 6, 6, 6, 6, 6.0625, 6.1875, 6.3125, 6.3125, 6.3125, 6.3125, 6.3125, 6.4375, 6.4375, 6.3125, 6.1875, 6.0625, 6, 6, 6, 6.0625, 6.0625, 6.0625, 6.0625, 6, 6, 6, 6.0625, 6.0625, 6.0625, 6.0625, 6, 6, 6, 6, 6, 6, 6, 6, 6, 6, 6, 6, 6.0625, 6.125, 6.125, 6.125, 6.125, 6.0625, 6.0625, 6.0625, 6, 6, 6, 6, 6, 6, 6, 6, 6, 6, 6, 6, 6, 6, 6, 6, 6, 6, 6, 6, 6, 6, 6.03125, 6.2008929, 6.78125, 7.1741071, 7.5, 7.8125, 8.1714287, 8.083333, 8.3571424, 8.1309528, 8.291667, 8.416667, 8.375, 8.541667, 8.2619047, 7.541667, 7.5714283, 7.6696429, 7.9732141, 8.25, 8.2946434, 8.1428566, 8.1339283, 8, 8, 7.8035717, 7.3541665, 7.0714283, 6.75, 6.5625, 6.375, 6.25, 6.3125, 6.4821429, 6.5, 6.4375, 6.2053571, 6.0625, 6.25, 6.4375, -10, -10, -10, -10, -10, -10, -10, 18.625, 18.416666, 18.375, 18.517857, 18.931549, 19.214287, 19.5625, 19.6875, 19.75, 20.160715, 20.690477, 20.973215, 21.3125, 21.3125, 21.4375, 21.5625, 21.883928, 22.458334, 22.741072, 22.723213, 18.42857, 15.992857, 15.5625, 15.142857, 15, 14.75, 14.6875, 14.5, 14.401786, 14.5625, 14.5625, 14.901785, 15.467262, 15.522322, 15.32653, 14.95238, 14.724489, 14.520833, 14.4375, 14.375, 14.5625, 14.892857, 15.008036, 14.629464, 14.727678, 14.678572, 14.910714, 15, 15.1875, 15.375, 15.705357, 16.630953, 18.013607, 18.704082, 19.041666, 19.107143, 19.25, 19.419643, 19.678572, 19.9375, 20, 20.125, 20.25, 20.25, 20.25, 20.125, 20.125, 20.3125, 20.5625, 20.90625, 21.1875, 21.4375, 21.75, 21.90625, 22, 22.0625, 21.875, 21.875, 21.9375, 22, 22.3125, 22.5625, 22.875, 23.0625, 23.125, 23.125, 23, 23.0625, 23.125, 23.3125, 23.5625, 23.8125, 24.125, 24.1875, 24.125, 24, 23.875, 24, 24.125, 24.25, 24.5, 24.6875, 24.910713, 25.0625, 25.0625, 25, 25, 24.8125, 24.71875, 24.799107, 25.159225, 25.459822, 25.758928, 26, 26, 26.125, 26.1875, 26.446428, 26.8125, 27, 27.25, 27.1875, 27.125, 27.0625, 27.133928, 27.544643, 27.8125, 28.1875, 28.3125, 28.625, 28.8125, 28.785715, 28.662498, 28.857143, 28.857143, 29, 29, 29.125, 29.375, 29.625, 29.875, 29.9375, 30, 30, 29.9375, 29.9375, 29.875, 30.125, 30.553572, 30.75, 30.839287, 30.875, 30.785713, 30.823662, 30.96875, 30.96875, 31.0625, 31.328125, 31.53125, 31.78125, 32.0625, 32.083332, 16.333334, 16.6, 16.822916, 16.875, 17, 17, 17, 17, 16.875, 16.75, 16.6875, 16.59375, 16.5625, 16.5, 16.544643, 16.6875, 16.696428, 16.674107, 16.5, 16.4375, 16.53125, 16.59375, 16.6875, 16.8125, 16.9375, 16.90625, 16.78125, 16.65625
-10, -10, -10, -10, -10, -10, -10, 7.125, 7.0833335, 7.0625, 7, 7, 6.9375, 6.8125, 6.5625, 6.3125, 6.125, 6, 6, 6, 6.0625, 6.0625, 6.0625, 6.0625, 6, 6, 6, 6, 6, 6, 6, 6, 6, 6.0625, 6.125, 6.125, 6.125, 6.125, 6.125, 6.1875, 6.25, 6.1875, 6.125, 6.0625, 6, 6, 6, 6, 6, 6, 6, 6, 6, 6, 6, 6, 6, 6, 6, 6, 6, 6, 6, 6, 6, 6, 6, 6, 6, 6, 6, 6, 6, 6, 6.0625, 6.0625, 6.0625, 6.0625, 6, 6, 6, 6, 6, 6, 6, 6, 6, 6, 6, 6, 6, 6, 6, 6, 6, 6, 6, 6, 6, 6, 6.1383929, 6.7008929, 7.5561223, 8.0204077, 8.3571424, 8.5714283, 8.5874996, 8.541666, 8.75, 8.583334, 8.75, 8.8214283, 8.7857141, 8.8928576, 8.6887751, 8.104167, 8.0714283, 8.3010206, 8.5408163, 8.8214283, 8.7053576, 8.4553566, 8.2767849, 8.0625, 8, 7.8660717, 7.5416665, 7.2589283, 6.7083335, 6.4196429, 6.1875, 6.0625, 6.0625, 6.125, 6.125, 6.125, 6.0625, 6, 6.25, 6.3333335, -10, -10, -10, -10, -10, -10, -10, 18.875, 18.666666, 18.625, 18.705357, 19.056549, 19.276787, 19.5625, 19.6875, 19.6875, 20.098215, 20.857143, 21.178572, 21.5, 21.4375, 21.5, 21.5, 21.785713, 22.440477, 22.511906, 22.207483, 18.666666, 16.910204, 15.979166, 15.392857, 15.125, 14.8125, 14.6875, 14.4375, 14.276786, 14.375, 14.3125, 14.642857, 14.946428, 14.90625, 14.848214, 14.458333, 14.3125, 14.125, 14.1875, 14.395833, 14.5625, 14.892857, 14.954464, 14.691964, 14.665178, 14.4375, 14.5, 14.580357, 15.041667, 15.446428, 15.75, 16.214287, 16.722223, 17.309525, 18.75, 18.94643, 19.1875, 19.294643, 19.491072, 19.6875, 19.6875, 19.75, 19.875, 20, 20.232143, 20.25, 20.4375, 20.625, 20.8125, 21.15625, 21.40625, 21.6875, 22.0625, 22.15625, 22.15625, 22.125, 21.875, 21.875, 21.875, 21.875, 22.125, 22.375, 22.75, 23, 23.125, 23.125, 23, 23, 23.0625, 23.1875, 23.4375, 23.75, 24.0625, 24.1875, 24.125, 24, 23.875, 24, 24.125, 24.25, 24.5, 24.6875, 24.910713, 25.0625, 25.0625, 25, 25, 24.875, 24.8125, 24.955357, 25.377975, 25.678572, 25.9375, 26, 26, 26, 26.0625, 26.321428, 26.6875, 26.9375, 27.3125, 27.3125, 27.3125, 27.25, 27.258928, 27.5625, 27.8125, 28.125, 28.3125, 28.625, 28.8125, 28.866072, 28.799999, 28.866072, 28.866072, 29, 29, 29.125, 29.375, 29.625, 29.875, 29.875, 29.9375, 29.9375, 29.875, 30, 30, 30.1875, 30.616072, 30.6875, 30.714287, 30.875, 30.848213, 31.011162, 31.15625, 31.03125, 31.089287, 31.372768, 31.584822, 31.84375, 32.125, 32.166664, 16.333334, 16.6, 16.791666, 16.78125, 16.78125, 16.65625, 16.642857, 16.833334, 16.708334, 16.416666, 16.330357, 16.25, 16.34375, 16.178572, 16.325893, 16.4375, 16.383928, 16.299107, 16.125, 15.928572, 16.09375, 16.21875, 16.375, 16.375, 16.5, 16.46875, 16.178572, 16.178572, 16, 16.133928, 16.325001, 16.291668, 16.741072, 16.928572, 17.125, 17.25, 17.1875, 17.0625, 17.0625, 17.125, 17.348213, 17.5, 17.59375, 17.71875, 17.78125, 17.90625, 18, 18, 18, 18.0625, 18.0625, 18.125, 18.3125, 18.5, 18.75, 18.9375, 19, 19, 19, 19, 19, -10, -10, -10, -10, -10, -10, -10, -10, -10, -10, -10, -10, -10, 7, 7, 7, 7, 7, 6.9375, 6.875, 6.625, 6.375, 6.1875, 6, 6, 6, 6.0625, 6.0625, 6.0625, 6.0625, 6, 6, 6.0625, 6.0625, 6.0625, 6.0625, 6, 6, 6, 6, 6, 6, 5.9375, 5.9375, 5.9375, 5.9375, 6, 6, 6, 6, 6, 6, 6, 6, 6, 6, 6, 6, 6, 6, 6, 6, 6, 6, 6, 6, 6, 6, 6, 6, 6, 6, 6, 6, 6, 6, 6, 6, 6, 6, 6.0625, 6.0625, 6.0625, 6.0625, 6, 6, 6, 6, 6, 6, 6, 6, 6, 6, 6, 6, 6, 6, 6, 6, 6, 6, 6, 6, 6, 6, 6.2455359, 7.2008929, 8.0044641, 8.4866066, 8.75, 8.875, 8.9375, 9, 9, 9, 9.03125, 9.09375, 9.09375, 9.15625, 9.0089283, 8.666667, 8.5714283, 8.5446434, 8.6607141, 8.8125, 8.8928576, 8.6428566, 8.4642849, 8.3125, 8.25, 8.1160717, 7.8541665, 7.6339283, 6.8809524, 6.6938777, 6.5, 6.3673468, 6.25, 6.1071429, 6, 6, 6, 6, 6.2589283, 6.5000005, -10, -10, -10, -10, -10, -10, 19, 19, 18.833332, 18.75, 18.857143, 19.226191, 19.276787, 19.5625, 19.625, 19.625, 20.008928, 20.642857, 21.238094, 21.633928, 21.6875, 21.75, 21.625, 21.785713, 22.377977, 22.252977, 20.537697, 19.204082, 17.421429, 16.729166, 16.071428, 15.520834, 15.116072, 14.8125, 14.4375, 14.151786, 14.0625, 14, 14.25, 14.375, 14.375, 14.25, 14.125, 14.0625, 14.044643, 14.125, 14.364583, 14.46875, 14.602678, 14.410714, 14.183036, 14.09375, 14, 14.0625, 14.25, 15.041667, 15.464285, 15.8125, 16.107143, 16.285715, 16.836735, 18.458334, 18.714287, 19.089287, 19.169643, 19.303572, 19.5, 19.4375, 19.571428, 19.895834, 20.116072, 20.419643, 20.4375, 20.625, 20.6875, 20.8125, 21.09375, 21.28125, 21.5625, 21.9375, 22.03125, 22.15625, 22.1875, 22, 22, 21.9375, 21.9375, 22.125, 22.375, 22.6875, 22.9375, 23.0625, 23.0625, 23, 23, 23.0625, 23.1875, 23.4375, 23.75, 24, 24.125, 24.0625, 24, 23.9375, 24.0625, 24.125, 24.25, 24.729166, 24.919643, 25.129463, 25.15625, 25.09375, 25, 25, 24.9375, 24.9375, 25.125, 25.450893, 25.78125, 26.03125, 26.09375, 26.0625, 26, 26, 26.258928, 26.625, 26.8125, 27.1875, 27.25, 27.3125, 27.375, 27.4375, 27.5625, 27.8125, 28.0625, 28.25, 28.5625, 28.75, 28.8125, 28.9375, 28.875, 28.875, 29, 29, 29.0625, 29.25, 29.5, 29.6875, 29.6875, 29.75, 29.75, 29.75, 30, 30.125, 30.3125, 30.678572, 30.625, 30.526787, 30.625, 30.6875, 30.984375, 31.15625, 31.125, 31.151787, 31.435268, 31.647322, 31.875, 32.1875, 32.249996, 16.125, 16.299999, 16.591667, 16.708334, 16.708334, 16.541666, 16.267857, 16.583334, 16.416666, 15.958334, 15.839285, 15.794643, 15.96875, 15.90625, 15.825893, 15.8125, 15.696428, 15.736607, 15.732143, 15.6875, 15.71875, 15.78125, 15.946428, 16.012501, 16.017857, 16.09375, 15.90625, 15.90625
-10, -10, -10, -10, -10, -10, -10, 7, 7, 7, 7, 7, 6.9375, 6.9375, 6.75, 6.5, 6.3125, 6.0625, 6, 6, 6, 6, 5.9375, 5.875, 5.875, 5.8125, 5.875, 5.9375, 5.9375, 6, 6, 6, 6, 6, 6, 5.9375, 5.8125, 5.75, 5.6875, 5.75, 5.875, 5.875, 5.9375, 5.9375, 5.9375, 6, 6, 6, 6, 6, 6, 6, 6, 6, 6, 6, 6, 6, 6, 6, 6, 6, 6, 6, 6, 6, 6, 6, 6, 6, 6, 6, 6, 6, 6, 6, 6, 6, 6, 6, 6, 6, 6, 6, 6, 6, 6, 6, 6, 6, 6, 6, 6, 6, 6, 6, 6, 6, 6.0625, 6.1875, 6.5714288, 7.6071429, 8.4107141, 8.8303566, 9, 9, 9, 9, 9, 9, 9, 8.9375, 8.875, 8.8125, 8.6875, 8.625, 8.5, 8.4375, 8.4732141, 8.5625, 8.7053576, 8.5803566, 8.5267849, 8.5, 8.5, 8.4285717, 8.4523811, 8.3265305, 8.1388884, 8.0714283, 8, 7.8571429, 6.7142859, 6.4897957, 6.25, 6.1071429, 6, 6, 6.2589283, 6.5000005, -10, -10, -10, -10, -10, -10, 19, 19, 18.916666, 18.8125, 18.901787, 19.080357, 19.169643, 19.5, 19.625, 19.6875, 19.946428, 20.580357, 21.113094, 21.571428, 21.875, 21.875, 21.75, 21.723213, 22.252977, 21.940477, 19.925169, 18.785713, 17.821428, 17.229166, 16.918367, 15.9375, 15.428572, 15.0625, 14.6875, 14.3125, 14.089286, 13.9375, 14.0625, 14.1875, 14.1875, 14.1875, 14.0625, 14.0625, 14.044643, 14, 14.107141, 14.188775, 13.977678, 13.8125, 13.71875, 13.65625, 13.6875, 13.75, 14.071428, 15.0625, 15.517857, 15.875, 16, 16, 16.547617, 18.208334, 18.464287, 18.776787, 18.857143, 18.991072, 19.25, 19.25, 19.321428, 19.645834, 19.803572, 20.178572, 20.520834, 20.741072, 20.75, 20.8125, 20.96875, 21.03125, 21.3125, 21.6875, 21.888393, 22.15625, 22.223213, 21.955357, 21.979166, 22, 22.0625, 22.25, 22.4375, 22.6875, 22.875, 23, 23, 23, 23, 23, 23, 23.214287, 23.544643, 23.803572, 24, 23.9375, 23.9375, 23.9375, 24.0625, 24.0625, 24.25, 24.958332, 25.125, 25.28125, 25.21875, 25.09375, 25.0625, 25.0625, 25.0625, 25.0625, 25.1875, 25.46875, 25.78125, 26.03125, 26.09375, 26.0625, 26, 26, 26.25, 26.5625, 26.848213, 27.1875, 27.3125, 27.3125, 27.375, 27.4375, 27.5625, 27.8125, 28, 28.125, 28.375, 28.5, 28.5625, 28.75, 28.75, 28.8125, 28.9375, 28.9375, 29, 29.160713, 29.4375, 29.5625, 29.5625, 29.625, 29.625, 29.6875, 29.9375, 30.0625, 30.1875, 30.491072, 30.4375, 30.401787, 30.5625, 30.6875, 30.96875, 31.125, 31.15625, 31.308037, 31.642857, 31.834822, 32, 32.25, 32.333332, 15.75, 15.966667, 16.258333, -10, -10, -10, 15.767857, 16.083334, 15.979166, 15.583334, 15.526785, 15.482143, 15.65625, 15.65625, 15.611607, 15.5625, 15.4375, 15.517857, 15.607143, 15.625, 15.5625, 15.455357, 15.508928, 15.5125, 15.517857, 15.6875, 15.6875, 15.8125, 15.580357, 15.589286, 15.7, 15.791667, 16.241072, 16.366072, 16.5625, 16.625, 16.625, 16.625, 16.625, 16.875, 17.098213, 17.125, 17.21875, 17.15625, 17.34375, 17.59375, 17.8125, 18, 18, 18, 18, 18, 18.0625, 18.1875, 18.4375, 18.6875, 18.875, 19, 19, 19, 19, -10, -10, -10, -10, -10, -10, -10, -10, -10, -10, -10, -10, -10, 7, 7, 7, 7, 7, 7, 7, 6.8125, 6.5625, 6.3125, 6.0625, 6, 6, 6, 5.9375, 5.8125, 5.6875, 5.625, 5.5625, 5.625, 5.75, 5.8125, 5.9375, 5.9375, 5.9375, 5.9375, 5.875, 5.875, 5.8125, 5.6875, 5.6875, 5.625, 5.625, 5.625, 5.5625, 5.6875, 5.7946429, 5.8125, 5.9375, 5.9375, 5.9375, 6, 6, 6, 6, 6, 6, 5.9375, 5.875, 5.875, 5.8125, 5.8125, 5.8125, 5.8125, 5.875, 5.9375, 6, 6, 5.9375, 5.9375, 5.9375, 5.9375, 6, 6, 6, 6, 6, 6, 6, 6, 6, 6, 6, 6, 6, 6, 6, 6, 6, 6, 6, 6, 6, 6, 5.9375, 5.9375, 5.9375, 5.9375, 6, 6, 6, 6.0625, 6.25, 6.6964288, 7.75, 8.2857141, 8.625, 8.8125, 8.875, 8.9375, 8.9375, 8.9375, 8.9375, 8.9375, 8.9375, 8.8125, 8.6875, 8.5625, 8.5, 8.375, 8.25, 8.1875, 8.1875, 8.2857141, 8.4017859, 8.4910717, 8.5, 8.5625, 8.5, 8.5625, 8.5, 8.4761906, 8.4897957, 8.4285717, 8.3775511, 8.083333, 7.7619042, 6.875, 6.6071429, 6.3125, 6.1428571, 6.3214283, 6.5000005, -10, -10, -10, -10, -10, -10, 19, 19, 19, 18.875, 18.901787, 19.044643, 19.169643, 19.5, 19.6875, 19.75, 19.875, 20.309523, 20.809523, 21.258928, 21.71875, 21.84375, 21.78125, 21.808037, 22.169643, 21.869049, 19.976191, 19.2551, 18.448978, 18, 17.428572, 16.4375, 15.75, 15.276786, 14.857143, 14.392857, 14.196428, 14, 14.0625, 14.0625, 14.0625, 14.0625, 14, 14.125, 14.169643, 14.1875, 13.8125, 13.627975, 13.535714, 13.53125, 13.4375, 13.4375, 13.5, 13.5, 13.892857, 15.083333, 15.571428, 15.9375, -10, -10, -10, 18.166668, 18.357143, 18.526787, 18.5625, 18.6875, 19, 19.125, 19.196428, 19.583334, 19.741072, 20.178572, 20.645834, 20.928572, 20.9375, 20.9375, 21, 20.96875, 21.1875, 21.4375, 21.669643, 21.90625, 21.973213, 21.767857, 21.800594, 22.083334, 22.241072, 22.5, 22.625, 22.8125, 22.9375, 23, 22.9375, 22.875, 22.8125, 22.75, 22.6875, 22.910715, 23.440477, 23.732143, 24, 24, 24, 24, 24.0625, 24, 24.25, 24.958332, 25.1875, 25.34375, 25.28125, 25.15625, 25.0625, 24.955357, 24.9375, 24.9375, 25.125, 25.46875, 25.71875, 25.90625, 25.96875, 26, 26.035713, 26.0625, 26.3125, 26.625, 27.017857, 27.3125, 27.5, 27.4375, 27.4375, 27.4375, 27.5, 27.6875, 27.75, 27.875, 28, 28.125, 28.25, 28.5, 28.625, 28.75, 28.875, 28.901787, 29.107143, 29.276785, 29.5, 29.5, 29.4375, 29.4375, 29.4375, 29.5625, 29.8125, 30, 30.125, 30.25, 30.1875, 30.1875, 30.375, 30.5625, 30.75, 30.964287, 31.138393, 31.424107, 31.799107, 31.959822, 32.0625, 32.25, 32.375, 15.666667, 15.741667, 15.841667, -10, -10, -10, 15.357142, 15.583334, 15.541666, 15.208334, 15.214285, 15.263393, 15.46875, 15.53125, 15.46875, 15.3125, 15.25, 15.375, 15.544643, 15.625, 15.5, 15.330357, 15.383928, 15.360714, 15.330357, 15.678572, 15.669643, 15.8125
