-10, -10, -10, -10, -10, -10, -10, -10, -10, -10, -10, -10, -10, -10, -10, -10, -10, -10, -10, -10, -10, -10, -10, -10, -10, -10, -10, -10, -10, -10, -10, -10, -10, -10, -10, -10, -10, -10, -10, -10, -10, -10, -10, -10, -10, -10, -10, -10, -10, 96.75, 96.416672, 96.035713, 95.291664, 94.568451, 94.053574, 93.273804, 91.916672, 91.160713, 90.5625, 89.955353, 89.113091, 88.383926, 87.458344, 86.959824, 86.272324, 85.311012, 84.464287, 83.75, 82.75, 82.053574, 81.401779, 80.892853, 80.050591, 79.163689, 78.392853, 77.622025, 76.883926, 75.964287, 74.952385, 74.011902, 73.416664, 72.90625, 72.40625, 71.690475, 70.300598, 69.642853, 69, 68.383926, 67.714287, 66.726189, 65.916664, 65.1875, 64.410713, 63.714287, 63.080357, 62.598213, 61.386902, 60.552383, 59.434525, 58.821426, 58.241074, 57.467262, 56.595238, 55.809525, 55.1875, 54.642857, 54.0625, 53.258926, 52.35714, 51.571426, 50.694939, 50.022324, 49.227676, 48.410713, 47.785713, 47.125, 46.267857, 45.35714, 44.67857, 44.071426, 42.708336, 42.142857, 41.553574, 40.717262, 39.946426, 39.214287, 38.363094, 37.642857, 36.726192, 35.916668, 35.1875, 34.276787, 33.57143, 33.0625, 32.5625, 32.071426, 31, 30.142857, 29.193451, 28.455357, 27.598213, 26.636904, 26.098213, 25.5625, 25.0625, 23.997023, 23.029762, 21.904762, 21.410715, 20.875, 20.489582, 19.983334, -10, -10, -10, 8.5, 8.75, 8.75, 8.78125, 8.875, 9.1339283, 9.645833, 9.7321434, 9.65625, 9.3616066, 9.03125, 8.875, 8.875, 8.875, 8.9375, 9, 9, 9, 9, 9, 9, 9, 9, 9, 9, 9, 9, 9, 9, 8.9375, 8.9375, 8.9375, 8.9375, 9, 9, 9.125, 9.3125, 9.5625, 9.8125, 9.9375, 10, 10, 10.0625, 10.0625, 10.0625, 10.0625, 10.0625, 10.1875, 10.3125, 10.294643, 10.3, 10.553572, 10.544643, 10.5625, 10.375, 10.25, 10.25, 10.25, 10.375, 10.375, 10.375, 10.375, 10, 9.5357141, 9.25, 9, 9, 9, 9, 9, 9, 9, 9, 9, 9, 9, 9, 9, 8.9375, 8.9375, 8.9375, 8.9375, 9, 9, 9, 9, 9, 9, 9, 9.0625, 9.0625, 9.0625, 9.0625, 9, 9.125, 9.0625, 9.0625, 9.0625, 8.916667, 9.083333, 9.333333, 9.583333, 9.75, -10, -10, -10, -10, -10, -10, -10, -10, -10, -10, -10, -10, -10, -10, -10, -10, 41.5, 41.666664, 41.333332, 41.472225, 41.625, 41.916668, 42.208332, 42.544643, 42.729168, -10, -10, -10, 42.666668, -10, -10, -10, -10, -10, -10, -10, -10, -10, -10, -10, -10, -10, -10, -10, -10, -10, -10, -10, -10, -10, 23.35, 24.011904, 23.746939, 23.24762, 22.857143, 22.493877, 23.083334, 22.944445, 22.166668, -10, -10, -10, -10, -10, -10, -10, -10, -10, -10, -10, -10, -10, -10, -10, -10, -10, -10, -10, -10, -10, -10, -10, -10, -10, -10, -10, -10, -10, -10, -10, -10, -10, -10, -10, -10, -10, -10, -10, -10, -10, -10, -10, -10, -10, -10, -10, -10, -10, -10, -10, -10, -10, -10, -10, -10, -10, -10, -10, -10, -10, -10, -10, -10, -10, -10, -10, -10, -10, -10, -10, -10, -10, -10, -10, -10, -10, -10, -10, -10, -10, -10, -10, -10, -10, -10, -10, -10, -10, -10, -10, -10, -10, -10, -10, -10, -10, -10, -10, -10, -10, -10, -10, -10, -10, -10, -10, -10, 96.625, 96.238098, 95.714279, 94.934517, 94.401779, 93.928574, 93.202377, 92.020836, 91.23214, 90.580353, 89.955353, 89.050591, 88.205353, 87.517853, 87.03125, 86.397324, 85.498512, 84.488098, 83.75, 82.958336, 82.303574, 81.360123, 80.821426, 79.979164, 79.267853, 78.464279, 77.702377, 77.0625, 76.14286, 74.946434, 74.25, 73.595238, 72.916664, 72.25, 71.467262, 70.184525, 69.535706, 68.9375, 68.4375, 67.821426, 66.797615, 65.958336, 65.1875, 64.348213, 63.535713, 62.973213, 62.51786, 61.607147, 60.599998, 59.416668, 58.714287, 58.116074, 57.342262, 56.678574, 55.872025, 55.133926, 54.464287, 53.892857, 53.1875, 52.276787, 51.464287, 50.861607, 50.15625, 49.299107, 48.35714, 47.67857, 47.0625, 46.258926, 45.428574, 44.785713, 44.133926, 42.863094, 42.214287, 41.63393, 40.895832, 40.1875, 39.392857, 38.443451, 37.714287, 36.872025, 35.988094, 35.196426, 34.276787, 33.57143, 33, 32.5, 32, 31.166666, 30.392857, 29.360119, 28.5625, 27.678572, 26.744047, 26.098213, 25.517857, 25, 24.050594, 23.208334, 21.916666, 21.375, 20.767857, 20.354166, 19.933332, -10, -10, -10, 8.333333, 8.5, 8.5, 8.53125, 8.625, 8.84375, 9.125, 9.25, 9.28125, 9.1875, 8.84375, 8.75, 8.6875, 8.6875, 8.875, 8.9375, 9, 9, 9, 9, 9, 9, 9, 9, 9, 9, 9, 9, 8.9375, 8.8125, 8.75, 8.75, 8.8125, 8.9375, 9, 9.1875, 9.4375, 9.6875, 9.9375, 10, 10.0625, 10.0625, 10.125, 10.125, 10.0625, 10.0625, 10.125, 10.25, 10.3125, 10.3125, 10.3125, 10.375, 10.4375, 10.4375, 10.3125, 10.1875, 10.125, 10.125, 10.1875, 10.1875, 10.1875, 10.1875, 9.875, 9.5178566, 9.25, 9, 9, 9, 9, 9, 9, 9, 9, 9, 9, 9, 9, 9, 8.9375, 8.9375, 8.9375, 8.9375, 9, 9, 9, 9, 9, 9, 9, 9.0625, 9.0625, 9.0625, 9.0625, 9.0625, 9.25, 9.3125, 9.375, 9.166667, -10, -10, -10, -10, -10, -10, -10, -10, -10, -10, -10, -10, -10, -10, -10, -10, -10, -10, 41.75, 41.875, 42, 41.666668, 41.694443, 41.375, 41.497025, 41.802082, 42.044643, 42.3125, 42.544643, 42.645832, -10, -10, -10, -10, -10, -10, -10, -10, -10, -10, -10, -10, -10, -10, -10, -10, -10, -10, -10, -10, -10, -10, -10, -10, -10, -10, 24.966665, 25.257143, 24.422224, 24.333334, 24.015306, 23.7449, 23.476192, -10, -10, -10, -10, -10, -10, -10, -10, -10, -10, -10, -10
-10, -10, -10, -10, -10, -10, -10, -10, -10, -10, -10, -10, -10, -10, -10, -10, -10, -10, -10, -10, -10, -10, -10, -10, -10, -10, -10, -10, -10, -10, -10, -10, -10, -10, -10, -10, -10, -10, -10, -10, -10, -10, -10, -10, -10, -10, -10, -10, 97.5, 96.75, 96.226189, 95.535713, 94.764877, 94.258926, 93.678574, 93.068451, 92.125, 91.48214, 90.622025, 89.955353, 89.050591, 88.205353, 87.517853, 87.03125, 86.334824, 85.605659, 84.559525, 83.85714, 83.083336, 82.491074, 81.610123, 80.886902, 79.979164, 79.267853, 78.464279, 77.702377, 77.0625, 76.288689, 74.946434, 74.214287, 73.678574, 73.041664, 72.375, 71.300598, 70.279762, 69.607147, 69, 68.446426, 67.821426, 66.726189, 65.851189, 65.1875, 64.392853, 63.60714, 62.806545, 62.375, 61.702385, 60.516663, 59.380951, 58.607143, 58.116074, 57.458332, 56.85714, 55.830357, 55.071426, 54.383926, 53.785713, 53.125, 52.267853, 51.39286, 50.754463, 50.09375, 49.290176, 48.285713, 47.57143, 47, 46.25, 45.5, 44.892857, 44.196426, 43.089287, 42.392857, 41.622025, 41.0625, 40.321426, 39.464287, 38.523811, 37.892857, 37.041668, 36.059525, 35.276787, 34.455357, 33.595238, 33, 32.4375, 31.892857, 31.3125, 30.571428, 29.380953, 28.598215, 27.678572, 26.744047, 26.098213, 25.486607, 24.96875, 24.227678, 23.422621, 22.1, 21.303572, 20.651787, 20.1875, 19.950001, -10, -10, -10, 8.25, 8.25, 8.25, 8.28125, 8.5, 8.708333, 9, 9.21875, 9.21875, 9.1071434, 8.614583, 8.5, 8.4375, 8.5625, 8.8125, 8.9375, 9, 9, 9, 9, 9, 9, 9, 9, 9, 9, 9, 8.9375, 8.8125, 8.625, 8.5, 8.5625, 8.6875, 8.875, 9.0625, 9.3125, 9.5625, 9.8125, 10, 10, 10.0625, 10.0625, 10.0625, 10.0625, 10, 10, 10.1875, 10.3125, 10.3125, 10.3125, 10.25, 10.25, 10.3125, 10.3125, 10.1875, 10.0625, 10, 10, 10, 9.9375, 9.9375, 9.875, 9.625, 9.4375, 9.1875, 9, 9, 9, 9, 9, 9, 9, 9, 9, 9, 9, 9, 9, 8.9375, 8.9375, 8.9375, 8.9375, 9, 9, 9, 9, 9, 9, 9, 9.0625, 9.125, 9.1875, 9.3125, 9.4375, 9.604167, 9.333333, 9.416667, -10, -10, -10, -10, -10, -10, -10, -10, -10, -10, -10, -10, -10, -10, -10, -10, 41.125, 41, 41.25, 41.666668, 41.75, 41.833332, 41.5, 41.458332, 41.5, 41.6875, 42.052082, 42.294643, 42.4375, 42.5, 42.541664, -10, -10, -10, -10, -10, -10, -10, -10, -10, -10, -10, -10, -10, -10, -10, -10, -10, -10, -10, -10, -10, -10, -10, -10, -10, -10, -10, 25.860001, 26.544447, 26.416666, 25.423471, 24.590136, 23.991667, -10, -10, -10, -10, -10, -10, -10, -10, -10, -10, -10, -10, -10, -10, -10, -10, -10, -10, -10, -10, -10, -10, -10, -10, -10, -10, -10, -10, -10, -10, -10, -10, -10, -10, -10, -10, -10, -10, -10, -10, -10, -10, -10, -10, -10, -10, -10, -10, -10, -10, -10, -10, -10, -10, -10, -10, -10, -10, -10, -10, -10, -10, -10, -10, -10, -10, -10, -10, -10, -10, -10, -10, -10, -10, -10, -10, -10, -10, -10, -10, -10, -10, -10, -10, -10, -10, -10, -10, -10, -10, -10, -10, -10, -10, -10, -10, -10, -10, -10, -10, -10, -10, -10, -10, -10, -10, -10, -10, 97.5, 96.875, 96.297623, 95.464287, 94.595238, 94.071426, 93.428574, 92.854164, 92.041664, 91.446426, 90.622025, 89.883926, 88.943451, 88.142853, 87.4375, 86.861603, 86.21875, 85.700897, 84.702377, 84.14286, 83.154762, 82.607147, 81.717262, 80.803574, 80.0625, 79.258926, 78.428574, 77.785713, 77.125, 76.288689, 75.130951, 74.464287, 73.720238, 73.041664, 72.145836, 71.145836, 70.383926, 69.723213, 69.125, 68.392853, 67.642853, 66.630951, 65.744049, 65.125, 64.446426, 63.714287, 62.806545, 62.267857, 61.678574, 60.516663, 59.380951, 58.535713, 58.0625, 57.625, 57.071426, 55.895832, 55.071426, 54.383926, 53.785713, 53.125, 52.267853, 51.35714, 50.67857, 50.0625, 49.113094, 48.214287, 47.55357, 47, 46.25, 45.428574, 44.714283, 44.017857, 43.130955, 42.383926, 41.577381, 41, 40.3125, 39.464287, 38.595242, 38, 36.958336, 36.142857, 35.339287, 34.464287, 33.595238, 33, 32.375, 31.785713, 31.3125, 30.642857, 29.238096, 28.321428, 27.410715, 26.785713, 26.125, 25.433035, 24.861607, 24.352678, 23.610121, 22.495834, 21.565477, 20.672619, 20.196428, 20, -10, -10, -10, 8, 8, 8, 8, -10, -10, -10, 9.21875, 9.197917, 9.1227684, 8.739583, 8.625, 8.5625, 8.6875, 8.8125, 8.8125, 8.8125, 8.8125, 8.875, 8.9375, 9, 9, 9, 9, 9, 9, 9, 8.875, 8.6875, 8.4375, 8.3125, 8.4375, 8.625, 8.9375, 9.1875, 9.4375, 9.6875, 9.875, 10, 10, 10.0625, 10.0625, 10.0625, 10.0625, 10, 10, 10.1875, 10.3125, 10.3125, 10.3125, 10.1875, 10.125, 10.125, 10.125, 10, 9.875, 9.875, 9.875, 9.875, 9.8125, 9.75, 9.625, 9.375, 9.25, 9.0625, 8.9375, 9, 9, 9, 9, 9, 9, 9, 9, 9.0625, 9.0625, 9.0625, 9.0625, 8.9375, 8.9375, 8.9375, 8.9375, 9, 9, 9, 9, 9, 9, 9, 9.125, 9.25, 9.354167, 9.416667, 9.583333, 9.7222223, -10, -10, -10, -10, -10, -10, -10, -10, -10, -10, -10, -10, -10, -10, -10, 41.25, 41.208336, 41.25, 41.083332, 41, 41.083332, 41.4375, 41.5, 41.5625, 41.4375, 41.25, 41.25, 41.375, 41.802082, 42.107143, 42.25, 42.3125, 42.291664, -10, -10, -10, -10, -10, -10, -10, -10, -10, -10, -10, -10, -10, -10, -10, -10, -10, -10, -10, -10, -10, -10, -10, -10, -10, -10, -10, -10, 27.053335, 27.285715, 26.707485, 25.375851, 25.061905, -10, -10, -10, -10, -10, -10, -10, -10, -10, -10, -10, -10
-10, -10, -10, -10, -10, -10, -10, -10, -10, -10, -10, -10, -10, -10, -10, -10, -10, -10, -10, -10, -10, -10, -10, -10, -10, -10, -10, -10, -10, -10, -10, -10, -10, -10, -10, -10, -10, -10, -10, -10, -10, -10, -10, -10, -10, -10, -10, -10, 97.625, 97.150002, 96.314285, 95.214287, 94.571426, 94.035713, 93.321426, 92.794647, 91.934525, 91.321426, 90.559525, 90.071426, 89.091843, 88.279762, 87.508926, 86.785706, 86.1875, 85.669647, 84.702377, 84.241074, 83.5, 82.761909, 81.761902, 80.696426, 80, 79.25, 78.428574, 77.785713, 77.125, 76.288689, 75.130951, 74.535713, 73.782738, 73.113091, 71.958336, 71.002983, 70.375, 69.758926, 69.041664, 68.267853, 67.455353, 66.607147, 65.744049, 64.979164, 64.446426, 63.830357, 62.976189, 62.276787, 61.642857, 60.666664, 59.693451, 58.85714, 58.258926, 57.705357, 57.205357, 56.157738, 55.154758, 54.36607, 53.67857, 53.0625, 52.258926, 51.392857, 50.754463, 50.09375, 49.144344, 48.25, 47.629463, 47.03125, 46.28125, 45.428574, 44.714283, 44.017857, 43.276787, 42.455357, 41.523811, 40.892857, 40.25, 39.392857, 38.595242, 38, 36.89167, 35.892857, 35.098213, 34.330357, 33.577381, 33, 32.3125, 31.67857, 31.25, 30.642857, 29.125002, 28.25, 27.401787, 26.785713, 26.125, 25.370535, 24.754463, 24.34375, 23.830359, 22.6625, 21.690477, 20.589285, 20.102678, 19.875, -10, -10, -10, -10, 8, 8, 8, -10, -10, -10, 9.3125, 9.229167, 9.1227684, 8.739583, 8.5625, 8.5, 8.625, 8.75, 8.75, 8.6875, 8.625, 8.6875, 8.8125, 8.9375, 9, 9, 9, 8.9375, 8.875, 8.8125, 8.625, 8.5, 8.375, 8.3125, 8.5, 8.6875, 9, 9.3125, 9.5625, 9.8125, 9.9375, 10, 10, 10.0625, 10.0625, 10.0625, 10.0625, 10, 10, 10.125, 10.25, 10.25, 10.25, 10.125, 10, 10, 10.0625, 9.9732141, 9.7678566, 9.7678566, 9.75, 9.8125, 9.75, 9.625, 9.4375, 9.25, 9.1607141, 8.9642859, 8.9375, 8.9375, 9, 9, 9, 9, 9, 9, 9, 9.0625, 9.0625, 9.0625, 9.0625, 9, 9, 9, 9, 9, 9, 9, 9, 9, 9, 9, 9.083333, 9.25, 9.3888893, -10, -10, -10, -10, -10, -10, -10, -10, -10, -10, -10, -10, -10, -10, -10, 40, 40, 40, 40.75, 40.722225, 40.75, 40.8125, 40.8125, 40.90625, 41.03125, 41.15625, 41.133926, 40.830357, 40.666668, 40.833332, 41.053574, 41.552082, 41.888393, 41.977676, 41.979168, 42.095238, 41.857143, 42.125, 42.125, 42, 41.625, 41.275002, -10, -10, -10, -10, -10, -10, -10, -10, -10, -10, -10, -10, -10, -10, -10, -10, -10, -10, -10, -10, -10, -10, -10, 27.666666, 27.404764, 27.781746, 27.688889, 28.666666, -10, -10, -10, -10, -10, -10, -10, -10, -10, -10, -10, -10, -10, -10, -10, -10, -10, -10, -10, -10, -10, -10, -10, -10, -10, -10, -10, -10, -10, -10, -10, -10, -10, -10, -10, -10, -10, -10, -10, -10, -10, -10, -10, -10, -10, -10, -10, -10, -10, -10, -10, -10, -10, -10, -10, -10, -10, -10, -10, -10, -10, -10, -10, -10, -10, -10, -10, -10, -10, -10, -10, -10, -10, -10, -10, -10, -10, -10, -10, -10, -10, -10, -10, -10, -10, -10, -10, -10, -10, -10, -10, -10, -10, -10, -10, -10, -10, -10, -10, -10, -10, -10, -10, -10, -10, -10, -10, 97.625, 97.150002, 96.385712, 95.392853, 94.678574, 94.214287, 93.267853, 92.651794, 91.836304, 91.357147, 90.488098, 89.928574, 89.428566, 88.208336, 87.428574, 86.678574, 86.0625, 85.482147, 84.678574, 84.241074, 83.5, 82.761909, 81.761902, 80.696426, 80, 79.25, 78.428574, 77.785713, 77.125, 76.288689, 75.047615, 74.464287, 73.729164, 73.196426, 72.041672, 70.898811, 70.375, 69.803574, 69.104164, 68.214287, 67.276787, 66.428574, 65.785713, 64.895828, 64.455353, 63.9375, 63, 62.214287, 61.589287, 60.833332, 59.898811, 59.035713, 58.330353, 57.723213, 57.205357, 56.157738, 55.154758, 54.36607, 53.67857, 53.0625, 52.113098, 51.25, 50.629463, 50.03125, 49.135418, 48.32143, 47.736607, 47.09375, 46.290176, 45.35714, 44.607143, 43.955357, 43.267857, 42.526787, 41.630951, 40.809525, 40.1875, 39.383926, 38.595242, 38, 36.89167, 35.964287, 35.276787, 34.342262, 33.541668, 32.892857, 32.1875, 31.49107, 31.017857, 30.455357, 29.22024, 28.226191, 27.366072, 26.67857, 26.0625, 25.290178, 24.64732, 24.21875, 23.642859, 22.722023, 21.833334, 20.571428, 20.035715, 19.760416, -10, -10, -10, -10, 8, 8, -10, -10, -10, -10, 9.625, 9.458334, 9.2790184, 8.802083, 8.53125, 8.4375, 8.5, 8.5625, 8.5625, 8.4375, 8.375, 8.4375, 8.625, 8.8125, 8.875, 8.875, 8.8125, 8.6875, 8.625, 8.5625, 8.375, 8.3125, 8.25, 8.3125, 8.5625, 8.75, 9.125, 9.4375, 9.625, 9.8125, 9.8125, 9.8125, 9.875, 9.875, 9.9375, 9.9375, 9.9375, 10, 10, 10.0625, 10.125, 10.125, 10.125, 10.0625, 10, 10, 10, 9.8482141, 9.5803566, 9.5803566, 9.625, 9.75, 9.6875, 9.5, 9.25, 9.0625, 9.0357141, 8.9017859, 8.9375, 8.9375, 9, 9, 9, 9, 9, 9, 9, 9.0625, 9.0625, 9.0625, 9.0625, 9, 8.9375, 8.9375, 8.9375, 8.9375, 9.0625, 9.083333, 9, 9, 9, -10, -10, -10, -10, -10, -10, -10, -10, -10, -10, -10, -10, -10, -10, -10, 39.625, 39.75, 39.875, 40, 40, 40, 40, 40.357143, 40.541668, 40.5, 40.5, 40.5625, 40.743752, 40.864582, 41.177082, 40.883926, 40.651787, 40.479168, 40.708332, 40.910713, 41.21875, 41.59375, 41.633926, 41.666668, 41.904762, 42.015873, 42.32143, 42.333332, 42.25, 41.916668, 41.600002, 41.958336, -10, -10, -10, -10, -10, -10, -10, -10, -10, -10, -10, -10, -10, -10, -10, -10, -10, -10, -10, -10, -10, -10, -10, -10, 28.366669, 28.360001, -10, -10, -10, -10, -10, -10, -10, -10, -10, -10, -10, -10
-10, -10, -10, -10, -10, -10, -10, -10, -10, -10, -10, -10, -10, -10, -10, -10, -10, -10, -10, -10, -10, -10, -10, -10, -10, -10, -10, -10, -10, -10, -10, -10, -10, -10, -10, -10, -10, -10, -10, -10, -10, -10, -10, -10, -10, -10, -10, -10, 97.625, 97.233337, 96.564285, 95.488091, 94.857132, 94.39286, 93.434525, 92.714294, 91.690475, 91.178574, 90.5, 89.845238, 88.993202, 88.270836, 87.375, 86.571426, 86.0625, 85.428574, 84.785713, 84.303574, 83.51786, 82.761909, 81.540482, 80.571426, 79.892853, 78.895836, 78.214287, 77.580353, 77, 76.226189, 75.047615, 74.279762, 73.550591, 73.008926, 71.854172, 70.886909, 70.339287, 69.803574, 69.104164, 68.214287, 67.276787, 66.5, 65.955353, 65.011902, 64.351189, 63.723213, 62.934525, 62.142853, 61.535713, 61, 60.104168, 59.214287, 58.339287, 57.67857, 57.133926, 56.261902, 55.226189, 54.44643, 53.785713, 52.895832, 51.907738, 51.07143, 50.549107, 49.96875, 49.135418, 48.392857, 47.84375, 47.15625, 46.299107, 45.285713, 44.42857, 43.785713, 43.125, 42.339287, 41.535713, 40.702381, 40.1875, 39.491074, 38.535717, 37.928574, 36.82917, 35.955357, 35.205357, 34.235119, 33.625, 32.809525, 32.125, 31.410713, 30.848213, 30.276785, 29.199406, 28.190475, 27.366072, 26.67857, 26.0625, 25.258928, 24.535713, 24.09375, 23.522322, 22.800594, 21.833334, 20.535713, 19.910715, 19.572916, 19.083332, -10, -10, -10, 8, 8, -10, -10, -10, -10, 9.65625, 9.479167, 9.296875, 8.90625, 8.59375, 8.4375, 8.375, 8.375, 8.3125, 8.1875, 8.125, 8.1875, 8.375, 8.5625, 8.625, 8.625, 8.5625, 8.4375, 8.375, 8.3125, 8.1875, 8.1875, 8.1875, 8.375, 8.625, 8.8125, 9.1875, 9.375, 9.5, 9.625, 9.5625, 9.5625, 9.6875, 9.75, 9.875, 9.9375, 9.9375, 10, 10, 10, 10, 10, 10, 10, 10, 9.9375, 9.875, 9.6607141, 9.3928566, 9.4553566, 9.5625, 9.6875, 9.625, 9.375, 9.125, 9, 8.9732141, 8.9017859, 8.9375, 8.9375, 9, 9, 9, 9, 9, 9, 9, 9.0625, 9.0625, 9.0625, 9, 8.875, 8.8125, 8.8125, 8.9375, 9.020833, 9.083333, 9.1111107, -10, -10, -10, -10, -10, -10, -10, -10, -10, -10, -10, -10, -10, -10, -10, 38.416664, 38.583336, 38.75, 39.416668, 39.5, 39.583332, 39.666668, 39.678574, 39.714287, 39.5625, 39.741074, 39.946426, 39.96875, 40.09375, 40.21875, 40.368752, 40.596725, 41.302082, 41.050598, 40.818451, 40.613094, 40.708332, 40.803574, 41.03125, 41.28125, 41.321426, 41.354168, 41.571426, 41.761902, 41.991074, 42.0625, 42.125, 41.973213, 41.762501, 42.013889, 41.916664, -10, -10, -10, -10, -10, -10, -10, -10, -10, -10, -10, -10, -10, -10, -10, -10, -10, -10, -10, -10, -10, -10, -10, -10, -10, -10, -10, -10, -10, -10, -10, -10, -10, -10, -10, -10, -10, -10, -10, -10, -10, -10, -10, -10, -10, -10, -10, -10, -10, -10, -10, -10, -10, -10, -10, -10, -10, -10, -10, -10, -10, -10, -10, -10, -10, -10, -10, -10, -10, -10, -10, -10, -10, -10, -10, -10, -10, -10, -10, -10, -10, -10, -10, -10, -10, -10, -10, -10, -10, -10, -10, -10, -10, -10, -10, -10, -10, -10, -10, -10, -10, -10, -10, -10, -10, -10, -10, -10, -10, -10, -10, -10, -10, -10, -10, -10, -10, -10, -10, -10, -10, -10, -10, -10, -10, -10, -10, -10, -10, -10, -10, -10, -10, 97.625, 97.316673, 96.742851, 95.5, 94.892853, 94.39286, 93.434525, 92.714294, 91.836304, 91.321426, 90.6875, 89.857147, 89.238091, 88.333336, 87.5, 86.75, 85.958336, 85.321426, 84.714279, 84.041664, 83.446426, 82.708336, 81.540482, 80.717262, 79.964287, 78.976196, 78.321426, 77.413689, 76.866074, 76.154762, 74.967262, 74.101189, 73.455353, 72.901787, 72.020836, 71.020836, 70.419647, 69.866074, 69.104164, 68.214287, 67.276787, 66.571426, 66.125, 65.199402, 64.547615, 63.598213, 62.800598, 62.071426, 61.309525, 60.821426, 60.125, 59.276787, 58.35714, 57.67857, 57.125, 56.375, 55.297619, 54.464287, 53.848213, 52.976189, 51.836311, 51.035713, 50.53125, 49.96875, 49.28125, 48.535717, 47.96875, 47.21875, 46.308037, 45.35714, 44.607143, 43.809525, 43.125, 42.339287, 41.535713, 40.702381, 40.25, 39.669643, 38.705357, 38, 36.983929, 36.026787, 35.214287, 34.306549, 33.732143, 32.872025, 32.133926, 31.375, 30.754463, 30.165178, 29.355656, 28.404762, 27.324406, 26.607141, 26, 25.25, 24.464285, 23.924107, 23.397322, 22.675594, 21.785713, 20.369047, 19.696428, 19.322916, 18.912697, 8, 8, 8, 8, 8, -10, -10, -10, -10, 9.75, 9.541667, 9.28125, 8.7366066, 8.40625, 8.1875, 8.125, 8.1875, 8.1875, 8.125, 8.0625, 8.0625, 8.1875, 8.3125, 8.375, 8.375, 8.3125, 8.1875, 8.125, 8.0625, 8, 8.0625, 8.125, 8.3125, 8.5625, 8.75, 9.0625, 9.25, 9.3125, 9.375, 9.3125, 9.3125, 9.5, 9.625, 9.8125, 9.9375, 9.9375, 10, 10, 10, 10, 10, 10, 9.9375, 9.875, 9.75, 9.625, 9.4732141, 9.2678566, 9.3303566, 9.4375, 9.5625, 9.5, 9.3125, 9.125, 9.0625, 9.0357141, 8.9642859, 9, 8.9375, 9, 9, 9, 9, 9, 9, 9, 9, 9, 8.9375, 8.8125, 8.7678566, 8.8125, 8.8125, 8.916667, 9.0277777, -10, -10, -10, -10, -10, -10, -10, -10, -10, -10, -10, -10, -10, -10, -10, -10, 37.875, 38.277775, 38.472225, 38.666668, 39.25, 39.375, 39.4375, 39.4375, 39.303574, 38.75, 39.071426, 39.449406, 39.6875, 39.6875, 39.8125, 39.9375, 40.150002, 40.516369, 41.53125, 41.363098, 41.353741, 40.863094, 40.895832, 40.928574, 41.03125, 41.09375, 41.008926, 40.979168, 41.196426, 41.386902, 41.678574, 41.8125, 42.044643, 42.160713, 42.1875, 42.104168, 42.111111, -10, -10, -10, -10, -10, -10, -10, -10, -10, -10, -10, -10, -10, -10, -10, -10, -10, -10, -10, -10, -10, -10, -10, -10, -10, -10, -10, -10, -10, -10, -10, -10, -10, -10, 35.5, 35.416664, 35.520836
-10, -10, -10, -10, -10, -10, -10, -10, -10, -10, -10, -10, -10, -10, -10, -10, -10, -10, -10, -10, -10, -10, -10, -10, -10, -10, -10, -10, -10, -10, -10, -10, -10, -10, -10, -10, -10, -10, -10, -10, -10, -10, -10, -10, -10, -10, -10, -10, 97.5, 97.166672, 96.714279, 95.642853, 95, 94.419647, 93.434525, 92.75, 91.943451, 91.446426, 90.75, 89.669647, 88.892853, 88.267853, 87.571426, 86.928566, 85.916672, 85.330353, 84.75, 83.895828, 83.267853, 82.6875, 81.576187, 80.824402, 80.089287, 79.226196, 78.571426, 77.413689, 76.839287, 76.142853, 74.967262, 74.029762, 73.392853, 72.830353, 72.0625, 71.163689, 70.544647, 70.008926, 69.145836, 68.214287, 67.276787, 66.571426, 66.15625, 65.438988, 64.757439, 63.767857, 62.69643, 62, 61.291668, 60.821426, 60.133926, 59.163689, 58.35714, 57.723213, 57.133926, 56.154758, 55.214287, 54.482143, 53.955357, 53.047615, 51.732143, 50.92857, 50.40625, 49.90625, 49.21875, 48.584824, 48, 47.25, 46.285713, 45.35714, 44.535713, 43.702381, 43.0625, 42.330357, 41.607143, 40.809525, 40.25, 39.598213, 38.757439, 38.03125, 37.227676, 36.348213, 35.464287, 34.511906, 33.857143, 32.934525, 32.142857, 31.303572, 30.64732, 30.177084, 29.529762, 28.539682, 27.349207, 26.547619, 25.85, 25.1875, 24.383928, 23.754463, 23.25, 22.665178, 21.785713, 20.223215, 19.553572, 19.09375, 18.809523, 17.5, 16.799999, 8, 8.3500004, 8.5, -10, -10, -10, -10, 9.875, 9.625, 9.28125, 8.6607141, 8.34375, 8.0625, 8, 8, 8, 8, 8, 8, 8.0625, 8.125, 8.125, 8.125, 8.0625, 8, 8, 8, 8, 8, 8.0625, 8.1875, 8.4375, 8.6875, 8.9375, 9.125, 9.125, 9.125, 9.0625, 9.0625, 9.3125, 9.4375, 9.6875, 9.875, 9.875, 10, 10, 10, 10, 9.9375, 9.9375, 9.875, 9.8125, 9.6875, 9.4375, 9.25, 9.125, 9.1875, 9.3125, 9.375, 9.3125, 9.1875, 9.0625, 9, 9, 9, 9, 9, 9, 9, 9, 9, 9, 9, 9, 9, 9, 8.9375, 8.8125, 8.7678566, 8.75, 8.75, -10, -10, -10, -10, -10, -10, -10, -10, -10, -10, -10, -10, -10, -10, -10, -10, 37.416664, 37.583336, 37.75, 38.145832, 38.354168, 38.5625, 38.875, 39.0625, 39.1875, 39.1875, 38.991074, 38.75, 38.883926, 39.369049, 39.6875, 39.75, 39.8125, 39.875, 40.056252, 40.422619, 41.446426, 41.625, 41.666664, 41.446426, 41.3125, 41.178574, 40.916668, 40.821426, 40.6875, 40.75, 40.892857, 41.208332, 41.428574, 41.5625, 41.875, 42.110714, 42.071426, 42.008926, 41.895832, -10, -10, -10, -10, -10, -10, -10, -10, -10, -10, -10, -10, -10, -10, -10, -10, -10, -10, -10, -10, -10, -10, -10, -10, -10, -10, -10, -10, -10, -10, -10, -10, -10, -10, -10, 35.444443, 35.680557, 36.180557, 36.477776, -10, -10, -10, -10, -10, -10, -10, -10, -10, -10, -10, -10, -10, -10, -10, -10, -10, -10, -10, -10, -10, -10, -10, -10, -10, -10, -10, -10, -10, -10, -10, -10, -10, -10, -10, -10, -10, -10, -10, -10, -10, -10, -10, -10, -10, -10, -10, -10, -10, -10, -10, -10, -10, -10, -10, -10, -10, -10, -10, -10, -10, -10, -10, -10, -10, -10, -10, -10, -10, -10, -10, -10, -10, -10, -10, -10, -10, -10, -10, -10, -10, -10, -10, -10, -10, -10, -10, -10, -10, -10, -10, -10, -10, -10, 97.5, 97.25, 96.821426, 95.492859, 94.833336, 94.178574, 93.363091, 92.785706, 92.041664, 91.517853, 90.761902, 89.741074, 89, 88.392853, 87.758926, 86.952377, 85.988098, 85.455353, 84.928574, 83.854164, 83.142853, 82.5, 81.635712, 80.895836, 80.151787, 79.435371, 78.816322, 77.520836, 76.755951, 76.071426, 75.008926, 74.029762, 73.392853, 72.830353, 72.041664, 71.276787, 70.616074, 70.071426, 69.145836, 68.285713, 67.455353, 66.595238, 66.15625, 65.584824, 64.828865, 63.901787, 62.958332, 62.083332, 61.345238, 60.821426, 60.196426, 59.342258, 58.452377, 57.830357, 56.967262, 56.020832, 55.142857, 54.535713, 54.0625, 53.110115, 51.886902, 51, 50.388393, 49.875, 49.1875, 48.535713, 47.821426, 47.080357, 46.214287, 45.348213, 44.535713, 43.702381, 43.0625, 42.258926, 41.5, 40.892857, 40.3125, 39.678574, 38.864582, 38.09375, 37.308037, 36.455357, 35.526787, 34.761906, 33.875, 32.970238, 32.142857, 31.303572, 30.64732, 30.197918, -10, -10, -10, 26.529762, 25.85, 25.196428, 24.3125, 23.64732, 23.21875, 22.678572, 21.821428, 20.202381, 19.517859, 19, 18.642857, 17.666666, 16.866667, 8, 8.6999998, 10.366667, -10, -10, -10, -10, 10.1875, 9.770833, 9.2276783, 8.5535717, 8.25, 8, 8, 8, 8, 8, 8, 8, 8, 8, 8, 8.0625, 8.0625, 8.0625, 8.0625, 8, 8, 8, 8.125, 8.1875, 8.4375, 8.6875, 8.8125, 9, 9, 9, 9, 9, 9.1875, 9.3125, 9.5625, 9.8125, 9.875, 9.9375, 9.9375, 9.9375, 9.9375, 9.9375, 9.9375, 9.9375, 10, 9.9375, 9.5714283, 9.3035717, 9.1875, 9.3125, 9.5446434, 9.625, 9.4285717, 9.4910717, 9.166667, 9.0714283, 9, 9.0714283, 9.416667, 9.3265305, 9.3928576, 9.3928576, 9.3214283, 9.3214283, 9.1428566, 9.0625, 9, 9, 9, 9, 9, 9.0678577, -10, -10, -10, -10, -10, -10, -10, -10, -10, -10, -10, -10, -10, -10, -10, -10, -10, 37.5, 37.361111, 37.472225, 37.6875, 37.958332, 38.1875, 38.375, 38.625, 38.8125, 38.9375, 38.9375, 38.741074, 38.5, 38.633926, 39.181549, 39.5625, 39.75, 39.875, 39.875, 39.84375, 40.089287, 40.916664, 41.625, 41.738098, 41.696426, 41.491074, 41.095238, 40.738094, 40.508926, 40.375, 40.4375, 40.5625, 40.75, 40.857143, 40.875, 41.25, 41.592857, 41.696426, 41.758926, 41.770832, 41.5, -10, -10, -10, -10, -10, -10, -10, -10, -10, -10, -10, -10, -10, -10, -10, -10, -10, -10, -10, -10, -10, -10, -10, -10, -10, -10, -10, -10, -10, -10, -10, -10, -10, -10, 35.952381, 36.154762
-10, -10, -10, -10, -10, -10, -10, -10, -10, -10, -10, -10, -10, -10, -10, -10, -10, -10, -10, -10, -10, -10, -10, -10, -10, -10, -10, -10, -10, -10, -10, -10, -10, -10, -10, -10, -10, -10, -10, -10, -10, -10, -10, -10, -10, -10, -10, -10, 97.5, 97.25, 96.821426, 95.492859, 94.761909, 94.071426, 93.154762, 92.607147, 92.125, 91.625, 90.666672, 89.752975, 89, 88.392853, 87.758926, 86.952377, 85.988098, 85.392853, 84.75, 83.684517, 83, 82.375, 81.785713, 80.895836, 80.1875, 79.526779, 78.910713, 77.833336, 76.943451, 76.142853, 75.008926, 74.214287, 73.571426, 72.809525, 71.979164, 71.267853, 70.544647, 69.964287, 69.083336, 68.339287, 67.633926, 66.827377, 66.34375, 65.71875, 65.078865, 64.002975, 63.065475, 62.145832, 61.291668, 60.714287, 60.133926, 59.333332, 58.452377, 57.830357, 56.967262, 55.791668, 55, 54.455357, 54, 53.3125, 51.821426, 50.964283, 50.263393, 49.8125, 49.125, 48.455357, 47.642857, 46.910713, 46.142853, 45.401787, 44.714287, 43.872025, 43.133926, 42.267857, 41.57143, 41, 40.3125, 39.57143, 38.924107, 38.165176, 37.370537, 36.464287, 35.5625, 34.837795, 33.910713, 32.991074, 32.142857, 31.303572, 30.64732, 30.281252, -10, -10, -10, 26.511906, 25.85, 25.205357, 24.276787, 23.535713, 23.166666, 22.666666, 22.095238, 20.222221, 19.267859, 18.770834, 18.455357, 17.678572, 16.775, 8, 9.8714285, 11.509524, 12.458333, 12.428572, 11.75, 11.5, 10.5625, 10, 9.2991066, 8.5714283, 8.25, 8, 8, 8, 8, 8, 8, 8, 8, 8, 8, 8.0625, 8.0625, 8.0625, 8.0625, 8, 8, 8, 8.1875, 8.25, 8.5, 8.75, 8.8125, 9, 9, 9, 9, 9, 9.125, 9.1875, 9.375, 9.625, 9.75, 9.875, 9.9375, 10, 10, 10, 10.080357, 10.270833, 10.428572, 10.5, 10.133928, 9.8660717, 9.5, 9.8125, 10.044643, 10.1875, 10.666667, 10.178572, 9.6190481, 9.5102034, 9.4285717, 9.5102034, 10.166667, 10.761905, 10.916667, 10.916667, 10.75, 9.9642859, 9.3928566, 9.1696434, 9, 9, 9, 9, 9.083333, 9.2571421, -10, -10, -10, -10, -10, -10, -10, -10, -10, -10, -10, -10, -10, -10, 37.375, 37.625, 37.625, 37.5, 37.395832, 37.479168, 37.625, 37.910713, 38.125, 38.25, 38.375, 38.625, 38.8125, 38.9375, 38.875, 38.8125, 38.883926, 39.252975, 39.553574, 39.78125, 39.90625, 39.96875, 39.96875, 40.138393, 40.666664, 41.458332, 41.696426, 41.71875, 41.553574, 41.095238, 40.800594, 40.696426, 40.583332, 40.395832, 40.419643, 40.571426, 40.940475, 40.919643, 41.1875, 41.369644, 41.383926, 41.540176, 41.625, 41.416668, -10, -10, -10, -10, -10, -10, -10, -10, -10, -10, -10, -10, -10, -10, -10, -10, -10, -10, -10, -10, -10, -10, -10, -10, -10, -10, -10, -10, -10, -10, -10, -10, -10, -10, 37.833332, 38.000004, 38.154762, 38.591496, 40.8125, 41.300003, -10, -10, -10, -10, -10, -10, -10, -10, -10, -10, -10, -10, -10, -10, -10, -10, -10, -10, -10, -10, -10, -10, -10, -10, -10, -10, -10, -10, -10, -10, -10, -10, -10, -10, -10, -10, -10, -10, -10, -10, -10, -10, -10, -10, -10, -10, -10, -10, -10, -10, -10, -10, -10, -10, -10, -10, -10, -10, -10, -10, -10, -10, -10, -10, -10, -10, -10, -10, -10, -10, -10, -10, -10, -10, -10, -10, -10, -10, -10, -10, -10, -10, -10, -10, -10, -10, -10, -10, -10, -10, -10, -10, 97.458336, 97.01667, 96.642853, 95.588089, 94.75, 94.071426, 93.092262, 92.428574, 91.955353, 91.482147, 90.479172, 89.8125, 89.071426, 88.392853, 87.642853, 86.773804, 86.029762, 85.383926, 84.64286, 83.660713, 83.0625, 82.4375, 81.857147, 80.791672, 80.116074, 79.446426, 78.803574, 78, 77.077377, 76.214279, 75.01786, 74.285713, 73.75, 72.833328, 71.979164, 71.267853, 70.473213, 69.85714, 69.020836, 68.392853, 67.8125, 67.059525, 66.53125, 65.697914, 65.007439, 64.044647, 63.136906, 62.208332, 61.446426, 60.785713, 60.196426, 59.333332, 58.380951, 57.723213, 56.904762, 55.791668, 54.886906, 54.3125, 53.8125, 53.133926, 51.571426, 50.785713, 50.138393, 49.741074, 48.979168, 48.3125, 47.455357, 46.669643, 45.964287, 45.321426, 44.651787, 44.017857, 43.205357, 42.276787, 41.57143, 41, 40.25, 39.392857, 38.754463, 38.09375, 37.361607, 36.535713, 35.866074, 35.194939, 34.060715, 32.970238, 32.142857, 31.375, 30.595238, 30.250002, -10, -10, -10, 26.654762, 25.921429, 25.214287, 24.276787, 23.464285, 23.054165, -10, -10, -10, 19.035715, 18.604168, 18.375, 17.857143, 16.791666, 16, 13.466667, 13.754762, 12.638888, 12.428571, 11.833333, 11.583333, 10.875, 10.154761, 9.3080359, 8.5714283, 8.25, 8, 8, 8, 8, 8.0625, 8.0357141, 7.9642859, 8, 7.9375, 8, 8.0625, 8.0625, 8.0625, 8.0625, 8, 8, 8, 8.1875, 8.3125, 8.5625, 8.8125, 8.875, 9, 9, 9, 9, 9.0625, 9.125, 9.1875, 9.375, 9.5625, 9.75, 9.875, 9.9375, 10.0625, 10.125, 10.25, 10.455357, 10.770833, 11.053572, 11.392858, 11.081633, 10.811225, 10.916667, 10.785714, 11.051021, 11.214286, 11.285714, 11.204082, 11.111112, 11.047619, 11, 10.964286, 11.04762, 11.224489, 11.357142, 11.428572, 11.357142, 10.877551, 9.742857, 9.2529764, 9.0625, 9.0500002, 9, -10, -10, -10, -10, -10, -10, -10, -10, -10, -10, -10, -10, -10, -10, -10, 36.25, 36.333336, 37, 37.333332, 37.464283, 37.4375, 37.395832, 37.375, 37.5625, 37.848213, 38, 38.125, 38.1875, 38.375, 38.625, 38.875, 38.9375, 39, 39.0625, 39.169643, 39.446426, 39.895832, 40.044643, 40.125, 40, 39.90625, 40.0625, 41.013607, 41.446426, 41.736607, 41.678574, 41.157738, 40.622025, 40.520409, 40.482994, 40.4375, 40.544643, 40.821426, 41.065475, 40.982143, 41.142857, 41.119644, 41.008926, 41.196426, 41.25, 41.3125, 41.375, 41.5, 41.75, 42, -10, -10, -10, -10, -10, -10, -10, -10, -10, -10, -10, -10, -10, -10, -10, -10, -10, -10, -10, -10, -10, -10, -10, -10, -10, -10, -10, -10, -10, -10, 38.299999, 38.466667
-10, -10, -10, -10, -10, -10, -10, -10, -10, -10, -10, -10, -10, -10, -10, -10, -10, -10, -10, -10, -10, -10, -10, -10, -10, -10, -10, -10, -10, -10, -10, -10, -10, -10, -10, -10, -10, -10, -10, -10, -10, -10, -10, -10, -10, -10, -10, -10, 97.583336, 97.088097, 96.714279, 95.695236, 94.666664, 94.008926, 93.083336, 92.35714, 91.848206, 91.357147, 90.300598, 89.458336, 88.821426, 88.25, 87.571426, 86.619041, 86.071426, 85.375, 84.535713, 83.636902, 83.0625, 82.5, 81.964287, 80.708336, 79.991074, 79.196426, 78.48214, 77.892853, 77.041664, 76.205353, 75.130951, 74.428574, 73.875, 72.749992, 72.0625, 71.258926, 70.428574, 69.785713, 69.125, 68.464287, 67.892853, 67.166664, 66.5625, 65.684525, 64.976189, 63.854168, 63.178574, 62.333332, 61.571426, 60.702381, 60.125, 59.291668, 58.309525, 57.660713, 56.833332, 55.904762, 54.845238, 54.1875, 53.6875, 53.0625, 51.684525, 50.744045, 50.116074, 49.700897, 48.864586, 48.15625, 47.122025, 46.357143, 45.767857, 45.28125, 44.736607, 44.15625, 43.299107, 42.357143, 41.678574, 40.916668, 40.1875, 39.348213, 38.642857, 38.03125, 37.361607, 36.678574, 35.961311, 35.302082, 34.123215, 32.979164, 32.214287, 31.553572, 30.535715, 30.09524, 29.3125, 28.78125, 28.15625, 26.899553, 26.196428, 25.172621, 24.285715, 23.5, 23.022915, -10, -10, -10, 18.741072, 18.458334, 18.28125, 17.785715, 16.708332, 16.133333, 14.280001, 14.205714, 12.638888, 12.321428, 11.875, 11.625, 11.098214, 9.9880953, 9.0714283, 8.4285717, 8.1875, 8, 8, 8, 8, 8.0625, 8.0357141, 7.9642859, 8, 7.9375, 8, 8.0625, 8.0625, 8.0625, 8.0625, 8, 8, 8, 8.125, 8.25, 8.4375, 8.625, 8.75, 8.875, 8.9375, 9.0625, 9.125, 9.3125, 9.5625, 9.625, 9.8125, 9.9375, 10.1875, 10.25, 10.375, 10.5, 10.5625, 10.8125, 11.017857, 11.333333, 11.616072, 11.75, 11.508928, 11.530612, 11.5, 11.464286, 11.419643, 11.5625, 11.625, 11.553572, 11.52381, 11.469388, 11.428572, 11.397959, 11.416667, 11.571428, 11.6875, 11.8125, 11.75, 11.267858, 10.367857, 9.6462584, 9.5, 9.5333338, -10, -10, -10, -10, -10, -10, -10, -10, -10, -10, -10, -10, -10, 35.416664, 35.583336, 35.75, 36.166668, 36.222225, 36.75, 37.0625, 37.223213, 37.25, 37.3125, 37.25, 37.4375, 37.723213, 37.9375, 38.169643, 38.25, 38.4375, 38.625, 38.875, 39, 39.0625, 39.0625, 39.0625, 39.290176, 39.739582, 39.950893, 40.03125, 39.875, 39.71875, 39.8125, 40.279594, 40.839287, 41.194939, 41.278572, 40.729168, 40.526787, 40.209187, 40.465984, 40.625, 40.732143, 40.821426, 41.002975, 40.919643, 41, 40.919643, 40.9375, 41.125, 41.21875, 41.291668, 41.416668, 41.583332, 41.791668, 41.916668, 41.75, -10, -10, -10, -10, -10, -10, -10, -10, -10, -10, -10, -10, -10, -10, -10, -10, -10, -10, -10, -10, -10, -10, -10, -10, -10, -10, -10, -10, -10, -10, -10, 40, 40.263393, 40.859375, 41.150002, -10, -10, -10, -10, -10, -10, -10, -10, -10, -10, -10, -10, -10, -10, -10, -10, -10, -10, -10, -10, -10, -10, -10, -10, -10, -10, -10, -10, -10, -10, -10, -10, -10, -10, -10, -10, -10, -10, -10, -10, -10, -10, -10, -10, -10, -10, -10, -10, -10, -10, -10, -10, -10, -10, -10, -10, -10, -10, -10, -10, -10, -10, -10, -10, -10, -10, -10, -10, -10, -10, -10, -10, -10, -10, -10, -10, -10, -10, -10, -10, -10, -10, -10, -10, -10, -10, -10, -10, -10, -10, -10, 98.5, 97.708336, 97.076187, 96.505951, 95.470238, 94.583328, 94.008926, 93.226189, 92.214279, 91.642853, 91.116074, 90.279762, 89.351189, 88.714279, 88.125, 87.446426, 86.702377, 86.0625, 85.258926, 84.35714, 83.678574, 83.133926, 82.395836, 81.892853, 80.645836, 79.991074, 79.196426, 78.410713, 77.714279, 77.017853, 76.205353, 75.339279, 74.678574, 73.833336, 72.678566, 72, 71.104164, 70.357147, 69.723213, 69.125, 68.392853, 67.785713, 67.25, 66.6875, 65.872025, 65.119049, 63.583336, 62.857143, 62.1875, 61.517857, 60.702381, 59.833332, 58.970242, 58.142857, 57.473213, 56.892857, 55.976189, 54.907738, 54.133926, 53.580357, 53, 51.738098, 50.922619, 50.092262, 49.660713, 48.833336, 48.133926, 47.00893, 46.214287, 45.642857, 45.21875, 44.71875, 44.15625, 43.299107, 42.357143, 41.678574, 40.916668, 40.1875, 39.276787, 38.5, 37.9375, 37.3125, 36.642857, 35.732143, 35.111607, 34.216965, 33.081848, 32.308037, 31.633928, 30.642857, 29.928572, 29.255951, 28.708334, 28.125, 27.102678, 26.368303, 25.351191, 24.380953, 23.607143, 22.908333, -10, -10, -10, 18.375, 18.25, 18.125, 17.660715, 16.708332, 16.266666, -10, -10, -10, 12.214286, 11.854167, 11.625, 11.129464, 10.081845, 9.2857151, 8.4732141, 8.1964283, 8, 8, 8, 8, 8.0625, 8.0357141, 7.9642859, 8, 7.9375, 8, 8, 8, 8, 8, 8, 8, 8, 8.0625, 8.1875, 8.3125, 8.4375, 8.625, 8.8125, 9.0803566, 9.34375, 9.53125, 9.84375, 10.285714, 10.357142, 10.5, 10.464286, 10.642858, 10.5625, 10.75, 10.9375, 11, 11.25, 11.455357, 11.708333, 11.928572, 11.9375, 11.8125, 11.6875, 11.625, 11.5625, 11.5625, 11.625, 11.5625, 11.5625, 11.625, 11.732143, 11.75, 11.75, 11.6875, 11.6875, 11.6875, 11.75, 11.75, 11.446428, 10.7875, 10.793651, 10.930556, 10.716667, -10, -10, -10, -10, -10, -10, -10, -10, -10, -10, -10, -10, 35.166664, 35.444443, 35.638889, 35.833332, 36.125, 36.166668, 36.1875, 36.4375, 36.660713, 36.8125, 37.107143, 37.125, 37.3125, 37.598213, 37.8125, 38.169643, 38.375, 38.669643, 38.794643, 38.875, 39, 39, 39.125, 39.0625, 39.227676, 39.614582, 39.763393, 39.90625, 39.875, 39.84375, 39.883926, 40.182144, 40.295918, 40.694939, 40.849998, 40.5625, 40.455357, 40.464287, 40.761902, 40.8125, 40.919643, 40.946426, 41.145832, 41.169643, 41.1875, 41.0625, 41, 41.0625, 41.03125, 41, 41.205357, 41.520832, 41.772324, 41.875, 41.666668, 41.375, 41.25, -10, -10, -10, -10, -10, -10, -10, -10, -10, -10, -10, -10, -10, -10, -10, -10, -10, -10, -10, -10, -10, -10, -10, -10, -10, -10, -10, -10, -10
-10, -10, -10, -10, -10, -10, -10, -10, -10, -10, -10, -10, -10, -10, -10, -10, -10, -10, -10, -10, -10, -10, -10, -10, -10, -10, -10, -10, -10, -10, -10, -10, -10, -10, -10, -10, -10, -10, -10, -10, -10, -10, -10, -10, -10, -10, -10, 98.666664, 97.983337, 97.242851, 96.648804, 95.511909, 94.690475, 94.125, 93.553574, 92.184517, 91.5, 90.875, 90.258926, 89.315483, 88.714279, 88.125, 87.51786, 86.809517, 85.979164, 85.196426, 84.348213, 83.678574, 83.133926, 82.1875, 81.714287, 80.75, 80.125, 79.339287, 78.535713, 77.630951, 76.955353, 76.196426, 75.339279, 74.678574, 73.833336, 72.678566, 72, 70.958328, 70.357147, 69.767853, 69.1875, 68.339287, 67.678574, 67.125, 66.5, 65.630951, 64.928574, 63.625004, 62.92857, 62.083332, 61.517857, 60.738098, 59.75, 58.907742, 58.133926, 57.401787, 56.785713, 56.142853, 55.104164, 54.285713, 53.392857, 52.82143, 51.946426, 51.208332, 50.154762, 49.64286, 48.770836, 48.258926, 47.25893, 46.196426, 45.535713, 44.986607, 44.53125, 44.03125, 43.290176, 42.357143, 41.678574, 40.916668, 40.041668, 39.205357, 38.450893, 37.90625, 37.28125, 36.66518, 35.69643, 35.035713, 34.181252, 33.206848, 32.379463, 31.642857, 30.642857, 29.845238, 29.254463, 28.638393, 28.0625, 27.258928, 26.524553, 25.494049, 24.309523, 23.535715, 22.741665, 22.200001, -10, -10, 18.5, 18.273809, 18, 17.607143, 16.833332, 16.433332, -10, -10, -10, 12.107143, 11.833334, 11.625, 11.129464, 10.144345, 9.4642849, 8.4970245, 8.2053566, 8, 8, 8, 8, 8.0625, 8.0357141, 7.9642859, 8, 7.9375, 8, 8, 8, 8, 8, 8, 8, 8, 8, 8.125, 8.25, 8.375, 8.6964283, 9.145833, 9.5089283, 9.84375, 10.03125, 10.34375, 10.821428, 10.6875, 10.8125, 10.75, 10.8125, 10.839286, 11.107143, 11.232143, 11.3125, 11.5, 11.625, 11.75, 11.875, 11.8125, 11.75, 11.6875, 11.6875, 11.625, 11.5, 11.4375, 11.25, 11.3125, 11.583333, 11.732143, 11.75, 11.6875, 11.625, 11.625, 11.625, 11.625, 11.625, 11.386905, 11.05, 11.066667, 11.316668, -10, -10, -10, -10, -10, -10, -10, -10, -10, -10, -10, -10, 34.857143, 35.15873, 35.458332, 35.586311, 35.625, 35.928574, 35.928574, 36, 36.125, 36.348213, 36.5625, 36.919643, 37, 37.125, 37.3125, 37.5625, 37.919643, 38.1875, 38.482143, 38.544643, 38.5625, 38.75, 38.8125, 39, 39.0625, 39.227676, 39.552082, 39.700893, 39.84375, 39.75, 39.6875, 39.571426, 39.682144, 39.883926, 40.172619, 40.620834, 40.5625, 40.517857, 40.401787, 40.678574, 40.916668, 41.0625, 41.125, 41, 40.9375, 40.9375, 40.875, 40.9375, 41, 40.90625, 40.8125, 40.892857, 41.145832, 41.397324, 41.5, 41.5, 41.694443, 41.642857, 42.166668, -10, -10, -10, -10, -10, -10, -10, -10, -10, -10, -10, -10, -10, -10, -10, -10, -10, -10, -10, -10, -10, -10, -10, -10, -10, -10, -10, -10, 41.53125, 41.420834, 41.182293, 41.099998, -10, -10, -10, -10, -10, -10, -10, -10, -10, -10, -10, -10, -10, -10, -10, -10, -10, -10, -10, -10, -10, -10, -10, -10, -10, -10, -10, -10, -10, -10, -10, -10, -10, -10, -10, -10, -10, -10, -10, -10, -10, -10, -10, -10, -10, -10, -10, -10, -10, -10, -10, -10, -10, -10, -10, -10, -10, -10, -10, -10, -10, -10, -10, -10, -10, -10, -10, -10, -10, -10, -10, -10, -10, -10, -10, -10, -10, -10, -10, -10, -10, -10, -10, -10, -10, -10, -10, -10, -10, -10, -10, 98.625, 98.150002, 97.535706, 96.827377, 95.5, 94.845238, 94.267853, 93.491074, 92.22023, 91.544647, 90.9375, 90.267853, 89.315483, 88.714279, 88.125, 87.589287, 86.916664, 86.041664, 85.205353, 84.348213, 83.607147, 82.964279, 82, 81.309525, 80.541664, 80, 79.339287, 78.571426, 77.547623, 76.892853, 76.1875, 75.339279, 74.678574, 73.833336, 72.824402, 72.071426, 70.967262, 70.428574, 69.875, 69.25, 68.285713, 67.571426, 67, 66.3125, 65.535706, 64.821426, 63.708336, 62.99107, 62.092262, 61.517857, 60.738098, 59.75, 58.907742, 58.133926, 57.401787, 56.785713, 56.133926, 55.288689, 54.535713, 53.589287, 52.815475, 52.196426, 51.476189, 50.404762, 49.630951, 48.854168, 48.321426, 47.267857, 46.196426, 45.464287, 44.816963, 44.40625, 43.90625, 43.28125, 42.357143, 41.678574, 40.979168, 40.157738, 39.217262, 38.486607, 37.90625, 37.28125, 36.59375, 35.464287, 34.785713, 33.947918, 33.165176, 32.433037, 31.714287, 30.642857, 29.845238, 29.191963, 28.495537, 27.96875, 27.21875, 26.609375, 25.735121, 24.630951, 23.630953, 22.755951, 22.133333, 21.5, 20.928572, 19, 18.690475, 18.258928, 17.636906, 16.916666, 16.6, -10, -10, -10, 12, 11.791667, 11.59375, 11.098214, 10.166667, 9.5357141, 8.604167, 8.2678566, 8.0625, 8, 8, 8, 8, 8, 8, 8, 8, 8, 8, 8, 8, 8, 8, 8, 8, 8.0625, 8.1875, 8.375, 8.5625, 8.9464283, 9.520833, 9.9464283, 10.34375, 10.53125, 10.78125, 11.0625, 11.0625, 11.125, 11.0625, 11, 10.964286, 11.232143, 11.232143, 11.25, 11.375, 11.4375, 11.669643, 11.732143, 11.479167, 11.392857, 11.375, 11.473214, 11.4375, 11.3125, 11.1875, 10.9375, 11.0625, 11.541666, 11.696428, 11.75, 11.625, 11.5625, 11.53125, 11.5, 11.4375, 11.5, 11.277778, -10, -10, -10, -10, -10, -10, -10, -10, -10, -10, -10, -10, -10, 34.25, 34.75, 35.029762, 35.150299, 35.261906, 35.169643, 35.25, 35.607143, 35.785713, 35.875, 35.9375, 36.0625, 36.3125, 36.669643, 36.9375, 37.0625, 37.1875, 37.4375, 37.732143, 38.0625, 38.419643, 38.482143, 38.4375, 38.5625, 38.625, 38.8125, 38.9375, 39.09375, 39.15625, 39.34375, 39.53125, 39.625, 39.75, 39.696426, 39.700001, 39.508926, 39.654762, 40.183334, 40.375, 40.571426, 40.696426, 41, 41.107143, 41.1875, 41.125, 40.9375, 40.75, 40.75, 40.75, 40.875, 40.9375, 40.78125, 40.625, 40.580357, 40.842262, 41.293156, 41.428574, 41.5625, 41.833332, 41.794643, 42.194447, -10, -10, -10, -10, -10, -10, -10, -10, -10, -10, -10, -10, -10, -10, -10, -10, -10, -10, -10, -10, -10, -10, -10, -10, -10, -10, -10, -10
-10, -10, -10, -10, -10, -10, -10, -10, -10, -10, -10, -10, -10, -10, -10, -10, -10, -10, -10, -10, -10, -10, -10, -10, -10, -10, -10, -10, -10, -10, -10, -10, -10, -10, -10, -10, -10, -10, -10, -10, -10, -10, -10, -10, -10, -10, -10, 98.875, 98.350006, 97.505943, 96.791672, 95.5, 95.116074, 94.580353, 93.761909, 92.273804, 91.58036, 90.9375, 90.321426, 89.607147, 88.809517, 88.125, 87.327377, 86.75, 85.916664, 85.142853, 84.401787, 83.678574, 82.714279, 81.660713, 80.934525, 80.4375, 79.9375, 79.339287, 78.571426, 77.547623, 76.892853, 76.1875, 75.339279, 74.60714, 73.726196, 72.907738, 72.196426, 71.154762, 70.452377, 69.875, 69.25, 68.285713, 67.571426, 67, 66.3125, 65.464279, 64.714287, 63.791668, 63.05357, 62.110119, 61.517857, 60.738098, 59.75, 59.053574, 58.205353, 57.419643, 56.785713, 56.125, 55.401787, 54.67857, 53.714287, 52.877975, 52.196426, 51.660713, 50.583332, 49.773811, 48.895832, 48.321426, 47.476189, 46.446426, 45.422619, 44.714287, 44.25, 43.75, 43.1875, 42.276787, 41.535717, 41.03125, 40.188988, 39.248512, 38.522324, 37.9375, 37.25, 36.450893, 35.440475, 34.785713, 33.802086, 33.09375, 32.352676, 31.535715, 30.702379, 29.916666, 29.077379, 28.390625, 27.859375, 27.171875, 26.640625, 25.991074, 24.559523, 23.559525, 22.693451, 22.1625, 21.428572, 20.809525, 19.678572, 19.041666, 18.227678, 17.565477, 16.9375, 16.666666, -10, -10, -10, 12, 11.75, 11.5625, 11.09375, 10.5, 9.8973217, 8.885417, 8.4241066, 8.125, 8, 8, 8, 8, 8, 8, 8, 8, 8, 8, 8, 8, 8, 8, 8, 8, 8.0625, 8.25, 8.5625, 8.9910717, 9.4910717, 10.083333, 10.508928, 10.78125, 10.90625, 11.03125, 11.0625, 11.125, 11.1875, 11.107143, 10.791667, 10.660714, 10.794643, 10.857143, 10.9375, 11.0625, 11.1875, 11.482143, 11.517858, 11.122025, 10.964285, 10.9375, 11.098214, 11.1875, 11.1875, 11.0625, 10.8125, 11, 11.541666, 11.696428, 11.8125, 11.6875, 11.5625, 11.572917, 11.5, 11.333333, -10, -10, -10, -10, -10, -10, -10, -10, -10, -10, -10, -10, -10, -10, -10, 35.200001, 35.041668, 35.116074, 35.186012, 34.970238, 34.857143, 34.919643, 35.357143, 35.785713, 35.875, 35.9375, 35.9375, 36.125, 36.491074, 37.020832, 37.241074, 37.375, 37.5, 37.625, 37.875, 38.169643, 38.232143, 38.1875, 38.3125, 38.4375, 38.625, 38.75, 38.9375, 38.9375, 39.125, 39.375, 39.5625, 39.8125, 39.8125, 39.75, 39.6875, 39.696426, 40.083332, 40.375, 40.5, 40.6875, 40.9375, 41.214287, 41.25, 41.25, 41, 40.75, 40.75, 40.75, 40.875, 40.9375, 40.75, 40.5625, 40.455357, 40.654762, 41.136906, 41.366074, 41.6875, 42.145832, 42.169643, 42.270836, 42.125, 42.25, 42.416664, -10, -10, -10, -10, -10, -10, -10, -10, -10, -10, -10, -10, -10, -10, -10, -10, -10, -10, -10, -10, -10, -10, -10, -10, -10, 42.625, 42.483334, 42.086311, 41.599998, -10, -10, -10, -10, -10, -10, -10, -10, -10, -10, -10, -10, -10, -10, -10, -10, -10, -10, -10, -10, -10, -10, -10, -10, -10, -10, -10, -10, -10, -10, -10, -10, -10, -10, -10, -10, -10, -10, -10, -10, -10, -10, -10, -10, -10, -10, -10, -10, -10, -10, -10, -10, -10, -10, -10, -10, -10, -10, -10, -10, -10, -10, -10, -10, -10, -10, -10, -10, -10, -10, -10, -10, -10, -10, -10, -10, -10, -10, -10, -10, -10, -10, -10, -10, -10, -10, -10, -10, -10, -10, -10, 99.083336, 98.350006, 97.434517, 96.75, 95.75, 95.366074, 94.705353, 93.690483, 92.345238, 91.616074, 91, 90.383926, 89.785713, 88.833328, 88.125, 87.264877, 86.571426, 85.747025, 85.133926, 84.4375, 83.595238, 82.642853, 81.827377, 81.113091, 80.416664, 79.875, 79.184525, 78.5, 77.601181, 77, 76.25, 75.35714, 74.60714, 73.726196, 72.907738, 72.196426, 71.363091, 70.630951, 70, 69.258926, 68.285713, 67.571426, 67, 66.25, 65.285713, 64.571426, 64, 63.258926, 62.315475, 61.642857, 60.809525, 59.875, 59.196426, 58.383926, 57.523808, 56.892857, 56.196426, 55.297615, 54.67857, 53.758926, 52.940475, 52.214287, 51.660713, 50.666668, 49.845238, 48.8125, 48.25, 47.642857, 46.696426, 45.380951, 44.64286, 44.125, 43.625, 43.125, 42.267857, 41.5, 41, 40.157738, 39.270832, 38.558037, 37.96875, 37.21875, 36.308037, 35.5, 34.892857, 33.895836, 33.133926, 32.330357, 31.464285, 30.523809, 29.821428, 28.934523, 28.25, 27.71875, 27.09375, 26.504463, 25.532738, 24.25, 23.309525, 22.776787, 22.241072, 21.404762, 20.785713, 19.901787, 19, 18.116072, 17.377977, 16.8125, 16.499998, -10, -10, -10, 12, 11.791666, 11.59375, 11.09375, 10.4375, 9.6830349, 8.8407736, 8.4151783, 8.125, 8, 8, 8, 8, 7.9375, 7.9375, 7.9375, 7.9375, 8, 8, 8, 8, 8, 8, 8, 8.0625, 8.1875, 8.46875, 8.90625, 9.3973217, 9.9598217, 10.458333, 10.741072, 10.9375, 10.9375, 11, 11, 11.0625, 11.1875, 11.169643, 10.916667, 10.767857, 10.625, 10.625, 10.6875, 10.8125, 11, 11.294643, 11.330358, 10.997025, 10.901785, 10.9375, 11.098214, 11.1875, 11.1875, 11.0625, 10.875, 11.0625, 11.541666, 11.589286, 11.75, 11.625, 11.541667, 11.513889, -10, -10, -10, -10, -10, -10, -10, -10, -10, -10, -10, -10, 34.166664, 34.416664, 34.6875, 34.9375, 35.0625, 35.107143, 35.0625, 35.209824, 35.133926, 34.845238, 34.705357, 34.732143, 35.232143, 35.660713, 35.8125, 35.9375, 36, 36.125, 36.383926, 36.770832, 36.991074, 37.354168, 37.482143, 37.59375, 37.65625, 37.78125, 37.875, 37.9375, 38.0625, 38.25, 38.3125, 38.4375, 38.696426, 38.958332, 39.169643, 39.375, 39.4375, 39.5625, 39.633926, 39.833332, 39.866074, 39.875, 40.083332, 40.375, 40.4375, 40.696426, 41.145832, 41.38393, 41.375, 41.3125, 41, 40.75, 40.75, 40.6875, 40.8125, 40.8125, 40.625, 40.5625, 40.4375, 40.508926, 40.958332, 41.178574, 41.5625, 42.083332, 42.169643, 42.291668, 42.083332, 42.25, 42.444443, 42.708336, -10, -10, -10, -10, -10, -10, -10, -10, -10, -10, -10, -10, -10, -10, -10, -10, -10, -10, -10, -10, -10, -10, -10, -10
-10, -10, -10, -10, -10, -10, -10, -10, -10, -10, -10, -10, -10, -10, -10, -10, -10, -10, -10, -10, -10, -10, -10, -10, -10, -10, -10, -10, -10, -10, -10, -10, -10, -10, -10, -10, -10, -10, -10, -10, -10, -10, -10, -10, -10, -10, -10, 98.833336, 98.199997, 97.372017, 96.678574, 95.666664, 95.1875, 94.517853, 93.467262, 92.386902, 91.467262, 90.883926, 90.258926, 89.705353, 88.726189, 88.0625, 87.184517, 86.392853, 85.723213, 85.133926, 84.4375, 83.595238, 82.642853, 81.973213, 81.184525, 80.479164, 79.645836, 78.970238, 78.25, 77.497025, 76.892853, 76.1875, 75.410713, 74.714287, 73.788696, 73.0625, 72.267853, 71.589287, 70.809525, 70.1875, 69.446426, 68.297615, 67.60714, 67, 66.104164, 65.214279, 64.491074, 63.892857, 63.1875, 62.482143, 61.883926, 61.023811, 59.958332, 59.30357, 58.5, 57.619049, 57, 56.258926, 55.244049, 54.607143, 54.008926, 53.145832, 52.35714, 51.767857, 50.833336, 49.988098, 48.791668, 48.0625, 47.446426, 46.883926, 45.630951, 44.75, 44.098213, 43.5, 42.955357, 42.196426, 41.482143, 41, 40.303574, 39.413689, 38.714287, 37.916668, 37.1875, 36.276787, 35.57143, 35, 33.958336, 33.142857, 32.330357, 31.464285, 30.523809, 29.821428, 28.788691, 28.142857, 27.625, 27.0625, 26.514881, 25.259523, 24.085714, 23.36508, 22.901787, 22.341072, 21.279762, 20.721428, 20.202381, 19.02857, 18.238096, 17.002977, 16.5625, 16.270832, 15.666667, -10, -10, 12, 11.833333, 11.625, 11.125, 10.40625, 9.5044641, 8.8169641, 8.40625, 8.125, 8, 8, 8, 8, 7.875, 7.9017859, 8.0446434, 8.1160717, 8.1875, 8.125, 8.0625, 8, 8, 8, 8, 8.1339283, 8.604167, 8.9776783, 9.40625, 9.8348217, 10.200893, 10.375, 10.5625, 10.6875, 10.75, 10.875, 10.9375, 11.0625, 11.1875, 11.169643, 10.979167, 10.803572, 10.517857, 10.517857, 10.5625, 10.75, 10.9375, 11.169643, 11.205358, 10.872025, 10.776785, 10.8125, 10.973214, 11.0625, 11.125, 11.0625, 11, 11.1875, 11.458333, 11.464286, 11.625, 11.520833, 11.472222, -10, -10, -10, -10, -10, -10, -10, -10, -10, -10, -10, -10, 34.166664, 34.277775, 34.527775, 34.791668, 34.958332, 35, 35.21875, 35.1875, 35.09375, 34.941963, 34.595238, 34.598213, 34.794643, 35.116074, 35.544643, 35.5625, 35.6875, 35.75, 35.875, 36.133926, 36.458332, 36.741074, 37.395836, 37.49107, 37.71875, 37.700893, 37.65625, 37.857143, 37.75, 37.75, 37.839287, 37.982143, 38.1875, 38.477676, 38.739582, 38.950893, 39.09375, 39.25, 39.375, 39.571426, 39.958332, 40.160713, 40.160713, 40, 40.125, 40, 40.392857, 40.970833, 41.214287, 41.375, 41.25, 41.0625, 40.875, 40.875, 40.75, 40.8125, 40.71875, 40.53125, 40.53125, 40.40625, 40.571426, 41.020832, 41.241074, 41.5, 41.714287, 41.919643, 42.053574, 42.0625, 42.1875, 42.333332, 42.472225, 42.375, 42.25, 42, 41.625, 41.583336, -10, -10, -10, -10, -10, -10, -10, -10, -10, -10, -10, -10, -10, -10, -10, -10, -10, -10, -10, 43, 43, 42.8125, 42.208332, -10, -10, -10, -10, -10, -10, -10, -10, -10, -10, -10, -10, -10, -10, -10, -10, -10, -10, -10, -10, -10, -10, -10, -10, -10, -10, -10, -10, -10, -10, -10, -10, -10, -10, -10, -10, -10, -10, -10, -10, -10, -10, -10, -10, -10, -10, -10, -10, -10, -10, -10, -10, -10, -10, -10, -10, -10, -10, -10, -10, -10, -10, -10, -10, -10, -10, -10, -10, -10, -10, -10, -10, -10, -10, -10, -10, -10, -10, -10, -10, -10, -10, -10, -10, -10, -10, -10, -10, -10, -10, -10, 98.875, 98.324997, 97.443451, 96.428574, 95.535713, 94.991074, 94.375, 93.529762, 92.351189, 91.422623, 90.821426, 90.25, 89.633926, 88.619041, 88.0625, 87.229164, 86.455353, 85.73214, 85.133926, 84.4375, 83.666664, 82.75, 82.035713, 81.339287, 80.693451, 79.842262, 78.866074, 78.10714, 77.392853, 76.785713, 76.125, 75.401787, 74.714287, 73.788696, 73.0625, 72.267853, 71.589287, 70.809525, 70.1875, 69.446426, 68.369049, 67.714279, 66.833336, 65.970238, 65.205353, 64.526779, 63.809525, 63.125, 62.473213, 61.955357, 61.130955, 60.020832, 59.3125, 58.5, 57.619049, 57, 56.258926, 55.172615, 54.42857, 53.830357, 53.1875, 52.48214, 51.857143, 50.666668, 49.988098, 48.613094, 47.928574, 47.4375, 47, 45.934521, 45.107147, 44.119045, 43.419643, 42.785713, 42.125, 41.464287, 40.9375, 40.1875, 39.401787, 38.67857, 37.916668, 37.1875, 36.276787, 35.57143, 35, 34.104168, 33.214287, 32.276787, 31.285715, 30.464285, 29.790178, 28.757441, 28.129463, 27.549107, 27.03125, 26.525297, -10, -10, -10, 22.5625, 22.091072, 21.047619, 20.554762, -10, -10, -10, 16.669643, 16.262501, 15.645834, 15.219048, -10, -10, 12.125, 11.874999, 11.53125, 10.986607, 10.3125, 9.4241066, 8.7098217, 8.34375, 8.0625, 8, 8, 8, 8, 7.875, 7.9017859, 8.0446434, 8.1160717, 8.25, 8.25, 8.1875, 8.125, 8.0625, 8.0714283, 8.333333, 8.5625, 9.041667, 9.5816326, 9.71875, 10.022322, 10.263393, 10.25, 10.375, 10.5, 10.625, 10.8125, 10.9375, 11.125, 11.25, 11.232143, 11.104167, 10.928572, 10.642857, 10.705357, 10.75, 10.875, 11, 11.0625, 11.098214, 10.955357, 10.883928, 10.8125, 10.875, 10.9375, 11.0625, 11.1875, 11.25, 11.4375, 11.4375, 11.416667, 11.5, 11.527778, -10, -10, -10, -10, -10, -10, -10, -10, -10, -10, -10, -10, 34.25, 34.361111, 34.427082, 34.583332, 34.75, 34.75, 34.71875, 34.71875, 34.71875, 34.71875, 34.723213, 34.541668, 34.785713, 34.982143, 35.1875, 35.4375, 35.4375, 35.473213, 35.5, 35.741074, 35.866074, 36.145832, 36.366074, 37.083336, 37.511902, 37.739582, 37.575893, 37.46875, 37.544643, 37.5625, 37.535713, 37.419643, 37.598213, 37.8125, 38.27232, 38.661457, 38.904018, 39.015625, 39.1875, 39.1875, 39.092262, 39.809521, 40.035713, 40.10714, 39.9375, 39.9375, 39.8125, 40.276787, 40.970833, 41.107143, 41.3125, 41.125, 41.0625, 41, 41, 40.875, 40.875, 40.78125, 40.65625, 40.71875, 40.65625, 40.75, 40.9375, 41.0625, 41.125, 41.214287, 41.32143, 41.491074, 41.669643, 41.875, 42.125, 42.291668, 42.25, 42.166668, 41.916668, 41.666668, 41.638889, 41.5, -10, -10, -10, -10, -10, -10, -10, -10, -10, -10, -10, -10, -10, -10, -10, -10, -10, -10
-10, -10, -10, -10, -10, -10, -10, -10, -10, -10, -10, -10, -10, -10, -10, -10, -10, -10, -10, -10, -10, -10, -10, -10, -10, -10, -10, -10, -10, -10, -10, -10, -10, -10, -10, -10, -10, -10, -10, -10, -10, -10, -10, -10, -10, -10, 99.25, 98.75, 98.267853, 97.651787, 96.404762, 95.392853, 94.696426, 94.0625, 93.258926, 92.297615, 91.386902, 90.821426, 90.25, 89.633926, 88.619041, 88.133926, 87.5, 86.767853, 85.928566, 85.276779, 84.5625, 83.535713, 82.928574, 82.25, 81.380951, 80.702377, 79.833336, 78.720238, 78.035713, 77.3125, 76.60714, 75.955353, 75.330353, 74.705353, 73.788696, 73.0625, 72.205353, 71.410713, 70.785713, 70.1875, 69.446426, 68.440475, 67.821426, 66.904762, 65.866074, 65.205353, 64.571426, 63.872025, 63.133926, 62.401787, 61.776787, 61.107143, 60.020832, 59.3125, 58.5, 57.547623, 56.892857, 56.196426, 55.163689, 54.35714, 53.651787, 53.017857, 52.410713, 51.839287, 50.666668, 49.833336, 48.654762, 47.991074, 47.383926, 46.892857, 46.101189, 45.241074, 44.190475, 43.366074, 42.67857, 42.0625, 41.482143, 40.96875, 40.21875, 39.379463, 38.67857, 37.916668, 37.041668, 36.24107, 35.584824, 35.03125, 34.28125, 33.357143, 32.464287, 31.297621, 30.5, 29.790178, 28.903275, 28.165178, 27.464285, 26.892857, 26.452381, -10, -10, -10, 22.5, 22.038095, 20.726191, 20.549208, -10, -10, -10, 16.4375, 16.116667, 15.447917, 14.740079, 13.6875, 13.089286, 12.34375, 11.947916, 11.46875, 10.848213, 10.1875, 9.2678566, 8.5714283, 8.25, 8, 8, 8, 8, 8, 7.875, 7.9017859, 8.0446434, 8.1160717, 8.25, 8.25, 8.1875, 8.125, 8.1339283, 8.4047613, 8.7619047, 9.0625, 9.541667, 9.8526783, 10.03125, 10.09375, 10.15625, 10.0625, 10.125, 10.3125, 10.5, 10.75, 10.9375, 11.125, 11.25, 11.25, 11.3125, 11.169643, 10.892857, 10.892857, 10.875, 10.9375, 11, 11, 11.0625, 11.0625, 11, 10.9375, 10.96875, 10.958333, 11.083333, 11.25, 11.5, 11.708333, 11.645833, 11.388889, -10, -10, -10, -10, -10, -10, -10, -10, -10, -10, -10, -10, 34, 34.380951, 34.416668, 34.520832, 34.614582, 34.625, 34.65625, 34.46875, 34.375, 34.40625, 34.375, 34.4375, 34.5, 34.5, 34.785713, 35, 35.1875, 35.25, 35.25, 35.285713, 35.375, 35.678574, 35.732143, 35.75, 35.875, 36.583336, 37.211903, 37.382439, 37.325893, 37.15625, 37.294643, 37.375, 37.410713, 37.357143, 37.57143, 37.714287, 38.20982, 38.6436, 38.904018, 39.078125, 39.25, 39.169643, 38.82143, 38.944443, 39.869045, 40.035713, 40, 40, 39.875, 40.276787, 40.845833, 40.875, 41.125, 40.9375, 40.964287, 41.035713, 41, 40.9375, 40.875, 40.78125, 40.71875, 40.84375, 40.78125, 40.9375, 40.946426, 40.729168, 40.625, 40.526787, 40.75893, 40.991074, 41.294643, 41.625, 41.875, 42.125, 42.3125, 42.25, 42, 41.714287, 41.666668, 41.555557, -10, -10, -10, -10, -10, -10, -10, -10, -10, -10, -10, -10, -10, -10, -10, -10, -10, -10, 43, 43, 42.955357, 42.611111, -10, -10, -10, -10, -10, -10, -10, -10, -10, -10, -10, -10, -10, -10, -10, -10, -10, -10, -10, -10, -10, -10, -10, -10, -10, -10, -10, -10, -10, -10, -10, -10, -10, -10, -10, -10, -10, -10, -10, -10, -10, -10, -10, -10, -10, -10, -10, -10, -10, -10, -10, -10, -10, -10, -10, -10, -10, -10, -10, -10, -10, -10, -10, -10, -10, -10, -10, -10, -10, -10, -10, -10, -10, -10, -10, -10, -10, -10, -10, -10, -10, -10, -10, -10, -10, -10, -10, -10, -10, -10, 99.5, 98.816666, 98.434525, 97.901787, 96.488098, 95.375, 94.589279, 94, 93.25, 92.369041, 91.494049, 90.738098, 90.196426, 89.571426, 88.764877, 88.205353, 87.580353, 86.946426, 85.952377, 85.285706, 84.5625, 83.452377, 82.857147, 82.1875, 81.309517, 80.702377, 79.833336, 78.866074, 78.10714, 77.258926, 76.5, 75.892853, 75.25, 74.526779, 73.776779, 72.955353, 72.16964, 71.392853, 70.678574, 70.125, 69.4375, 68.440475, 67.821426, 66.967262, 65.982147, 65.300591, 64.678574, 63.934525, 63.142853, 62.330353, 61.598213, 60.92857, 60.0625, 59.303574, 58.464287, 57.630951, 56.809525, 56.196426, 55.348213, 54.285713, 53.571426, 52.892857, 52.330357, 51.660713, 50.642857, 49.833336, 48.863098, 48.241074, 47.580353, 46.767857, 46.19643, 45.3125, 44.315475, 43.491074, 42.595238, 42, 41.5, 41, 40.25, 39.357143, 38.67857, 37.880951, 36.8125, 36.098213, 35.504463, 35.03125, 34.28125, 33.428574, 32.642857, 31.309525, 30.607143, 29.96875, 29.072916, 28.236607, 27.410713, 26.785713, 26.5, -10, -10, -10, -10, -10, 20.392857, -10, -10, -10, -10, 16.333334, 15.991667, 15.447917, 14.983631, 13.902778, 13.273808, 12.578125, 12.036458, 11.421875, 10.709822, 10.09375, 9.3214283, 8.6785717, 8.3125, 8.0625, 8, 8, 8, 8, 7.9375, 7.9642859, 8.1071434, 8.1160717, 8.125, 8.0625, 8.0089283, 8.208333, 8.3839283, 8.7797613, 9.1994047, 9.5, 9.916667, 10.133928, 10.1875, 10.1875, 10.125, 10, 10, 10.1875, 10.375, 10.5625, 10.75, 10.875, 11, 11.0625, 11.125, 11.0625, 11, 11, 11, 11, 11, 11, 11, 11.03125, 11, 11, 11.15625, 11.166666, -10, -10, 11.666667, 11.944444, 11.861111, -10, -10, -10, -10, -10, -10, -10, -10, -10, -10, -10, -10, 33.583336, 34, 34.301586, 34.276787, 34.520832, 34.46875, 34.5, 34.46875, 34.34375, 34.3125, 34.375, 34.34375, 34.28125, 34.34375, 34.3125, 34.5625, 34.8125, 35, 35.125, 35.125, 35.160713, 35.25, 35.553574, 35.544643, 35.625, 35.6875, 36.197918, 36.886013, 37.069939, 37.075893, 36.9375, 37.107143, 37.25, 37.348213, 37.294643, 37.44643, 37.526787, 37.888393, 38.131695, 38.630207, 38.917412, 39.28125, 39.263393, 38.84375, 39.041668, 39.627975, 39.964287, 40.125, 40.125, 40, 40.205357, 40.583927, 40.767857, 41, 40.9375, 40.901787, 40.910713, 40.875, 40.875, 40.875, 40.90625, 40.90625, 40.96875, 40.90625, 41, 41.008926, 40.854168, 40.8125, 40.4949, 40.75893, 40.866074, 41.044643, 41.25, 41.464287, 41.794643, 42.125, 42.1875, 42, 41.839287, 41.75, 41.666668, -10, -10, -10, -10, -10, -10, -10, -10, -10, -10, -10, -10, -10, -10, -10, -10, -10, -10
-10, -10, -10, -10, -10, -10, -10, -10, -10, -10, -10, -10, -10, -10, -10, -10, -10, -10, -10, -10, -10, -10, -10, -10, -10, -10, -10, -10, -10, -10, -10, -10, -10, -10, -10, -10, -10, -10, -10, -10, -10, -10, -10, -10, -10, -10, 99.5, 99.066666, 98.577377, 97.964287, 96.250008, 95.357147, 94.553574, 94, 93.25, 92.35714, 91.678574, 90.916664, 90.321426, 89.651787, 88.872017, 88.267853, 87.660713, 87.125, 86.184517, 85.535706, 84.583336, 83.416664, 82.678574, 82.017853, 81.166664, 80.577377, 80, 79, 78.25, 77.446426, 76.523811, 75.892853, 75.1875, 74.419647, 73.714279, 72.946426, 72.16964, 71.321426, 70.571426, 70, 69.25, 68.428574, 67.785713, 66.967262, 66.190483, 65.550591, 64.9375, 64, 63.142853, 62.267853, 61.35714, 60.67857, 60.0625, 59.321426, 58.535713, 57.776787, 56.880951, 56.205357, 55.348213, 54.285713, 53.571426, 52.892857, 52.258926, 51.482143, 50.619049, 49.895836, 49.133926, 48.5625, 47.580353, 46.5625, 45.94643, 45.3125, 44.404762, 43.678574, 42.619049, 42, 41.5, 41, 40.25, 39.285713, 38.57143, 37.964287, 36.88393, 35.994049, 35.361607, 34.90625, 34.21875, 33.419643, 32.642857, 31.309525, 30.535715, 29.861607, 29.15625, 28.361607, 27.535713, 26.702381, 26.433334, -10, -10, -10, -10, -10, 20.190475, -10, -10, -10, -10, -10, 15.991667, 15.427084, 15.086736, 13.998512, 13.348215, 12.828125, 12.140625, 11.408482, 10.678572, 10.0625, 9.3571434, 8.7544641, 8.34375, 8.09375, 8, 8, 8, 8, 8, 8, 8, 7.9375, 7.96875, 8.03125, 8.0401783, 8.3869047, 8.7410717, 9.208333, 9.6994047, 9.9285717, 10, 10.0625, 10.0625, 10.0625, 10.0625, 10, 10.0625, 10.3125, 10.5, 10.6875, 10.8125, 10.875, 11, 11, 11.0625, 10.9375, 10.84375, 10.90625, 10.90625, 10.96875, 11, 11, 11, 11.03125, 11.0625, 11.1875, 11.522322, 11.654166, -10, -10, -10, -10, -10, -10, -10, -10, -10, -10, -10, -10, -10, -10, -10, -10, 33.75, 33.722225, 33.9375, 34.101189, 34.089287, 34.1875, 34.15625, 34.1875, 34.09375, 33.90625, 33.84375, 34.044643, 34.147324, 34.15625, 34.1875, 34.125, 34.25, 34.5625, 34.8125, 35, 35.125, 35.160713, 35.1875, 35.5, 35.557144, 35.508926, 35.580357, 35.78125, 36.564583, 36.757439, 36.90625, 36.9375, 37, 37.25, 37.348213, 37.330357, 37.401787, 37.464287, 37.830357, 38.100445, 38.598957, 38.886162, 39.21875, 39.200893, 38.71875, 38.791668, 39.342262, 39.857143, 40.125, 40.1875, 40.0625, 40.071426, 40.321426, 40.625, 40.857143, 40.9375, 40.901787, 40.848213, 40.75, 40.75, 40.75, 40.8125, 40.8125, 40.839287, 40.8125, 40.9375, 40.946426, 40.729168, 40.75, 40.67857, 40.589287, 40.6875, 40.794643, 41, 41.214287, 41.607143, 42, 42.125, 42.0625, 41.964287, 41.875, 41.833336, 42, 42, 42, -10, -10, -10, 42, 42, 42, -10, -10, -10, -10, -10, -10, -10, 42.083336, 42.633331, 42.866074, 43, 43, -10, -10, -10, -10, -10, -10, -10, -10, -10, -10, -10, -10, -10, -10, -10, -10, -10, -10, -10, -10, -10, -10, -10, -10, -10, -10, -10, -10, -10, -10, -10, -10, -10, -10, -10, -10, -10, -10, -10, -10, -10, -10, -10, -10, -10, -10, -10, -10, -10, -10, -10, -10, -10, -10, -10, -10, -10, -10, -10, -10, -10, -10, -10, -10, -10, -10, -10, -10, -10, -10, -10, -10, -10, -10, -10, -10, -10, -10, -10, -10, -10, -10, -10, -10, -10, -10, -10, -10, -10, -10, -10, 99.75, 99.25, 98.452377, 97.785713, 96.375008, 95.571426, 94.59523, 94.071426, 93.366074, 92.369049, 91.714279, 90.916664, 90.321426, 89.651787, 88.872017, 88.205353, 87.598213, 87.0625, 86.175591, 85.535706, 84.654762, 83.523811, 82.75, 81.913689, 81.166664, 80.541664, 79.761909, 78.970238, 78.276787, 77.633926, 76.809525, 75.976196, 75.232147, 74.348213, 73.60714, 72.883926, 72.014877, 71.321426, 70.616074, 70.0625, 69.258926, 68.357147, 67.678574, 67.133926, 66.324409, 65.559517, 64.901779, 64.083328, 63.205353, 62.276787, 61.35714, 60.67857, 60.0625, 59.392857, 58.714287, 57.800598, 56.880951, 56.267857, 55.526787, 54.380951, 53.678574, 52.955357, 52.217262, 51.226189, 50.535713, 49.791668, 49.205357, 48.633926, 47.642853, 46.625, 45.738098, 45.0625, 44.446426, 43.821426, 42.788692, 42.071426, 41.517857, 41, 40.25, 39.285713, 38.5, 37.857143, 36.82143, 35.985119, 35.290176, 34.727676, 34.049107, 33.348213, 32.696426, 31.488096, 30.595238, 29.892857, 29.1875, 28.339285, 27.5, 26.671131, 26.391668, -10, -10, -10, -10, -10, -10, -10, -10, -10, -10, -10, 15.916666, 15.71875, 15.334822, 14.427083, 13.535715, 12.917411, 12.171875, 11.502232, 10.785713, 10.125, 9.4017859, 8.8303566, 8.375, 8.125, 8, 8, 8, 8, 8, 8, 8, 7.9375, 7.90625, 7.96875, 8.0401783, 8.5119047, 9.0535717, 9.5744047, 9.8660717, 10, 10, 10, 10, 10, 10, 10, 10.125, 10.3125, 10.4375, 10.625, 10.6875, 10.75, 10.9375, 10.9375, 11, 10.9375, 10.84375, 10.90625, 10.90625, 10.96875, 11, 11.03125, 11.0625, 11.15625, 11.3125, 11.625, 12.043155, 12.179999, -10, -10, -10, -10, -10, -10, -10, -10, -10, -10, -10, -10, -10, -10, -10, 34, 33.738094, 33.541668, 33.6875, 33.705357, 33.714287, 33.57143, 33.75, 33.875, 33.8125, 33.75, 33.6875, 33.857143, 34.053574, 34.0625, 34.0625, 34, 34.0625, 34.375, 34.6875, 34.9375, 35.0625, 35.125, 35.25, 35.446426, 35.637501, 35.571426, 35.642857, 35.78125, 36.231251, 36.495537, 36.90625, 36.9375, 37.125, 37.1875, 37.3125, 37.5, 37.660713, 37.75, 37.910713, 38.05357, 38.333332, 38.616074, 39.013393, 39.129463, 39.010418, 39.041668, 39.342262, 39.848213, 40.0625, 40.1875, 40.125, 40, 40.071426, 40.375, 40.544643, 40.75, 40.776787, 40.848213, 40.875, 40.857143, 40.75, 40.8125, 40.75, 40.76786, 40.5625, 40.75, 40.803574, 40.604168, 40.75, 40.625, 40.6875, 40.75, 40.75, 40.875, 41.026787, 41.419643, 41.75, 41.875, 41.875, 41.839287, 41.8125, 41.854168, 42, 42, 42, -10, -10, -10, 41.875, 41.958332, 41.958332, 41.916664, -10, -10, -10, -10, -10, -10, 41.944447, 42.422222
-10, -10, -10, -10, -10, -10, -10, -10, -10, -10, -10, -10, -10, -10, -10, -10, -10, -10, -10, -10, -10, -10, -10, -10, -10, -10, -10, -10, -10, -10, -10, -10, -10, -10, -10, -10, -10, -10, -10, -10, -10, -10, -10, -10, -10, -10, 99.75, 99.25, 98.26786, 97.535713, 96.354172, 95.535713, 94.59523, 94.071426, 93.366074, 92.369049, 91.714279, 90.916664, 90.321426, 89.651787, 88.872017, 88.133926, 87.473213, 86.821426, 86.068451, 85.5, 84.476189, 83.547623, 82.642853, 81.806549, 81.25, 80.595238, 79.833336, 79.116074, 78.419647, 77.821426, 77.050598, 76.154762, 75.303574, 74.35714, 73.60714, 72.883926, 71.869041, 71.25, 70.598213, 70.0625, 69.321426, 68.464287, 67.595238, 67.0625, 66.428574, 65.559517, 64.928566, 64.127975, 63.205353, 62.3125, 61.35714, 60.67857, 60.0625, 59.455357, 58.892857, 58.041668, 57.059525, 56.410713, 55.714287, 54.476192, 53.857143, 53.125, 52.288689, 51.244045, 50.598213, 50.017857, 49.205357, 48.67857, 47.758926, 46.794643, 45.809525, 45.071426, 44.517857, 44, 42.958336, 42.142857, 41.535713, 41, 40.25, 39.285713, 38.428574, 37.75, 36.904762, 36.011906, 35.205357, 34.517857, 33.848213, 33.205357, 32.571426, 31.654762, 30.5, 29.821428, 29.1875, 28.446428, 27.511906, 26.706846, 26.391668, -10, -10, -10, -10, -10, -10, -10, -10, -10, -10, -10, 15.833333, 15.25, 15.053572, 14.333333, 13.607143, 12.865328, 12.140625, 11.470982, 10.785713, 10.125, 9.4017859, 8.8303566, 8.375, 8.125, 8, 8, 8, 8, 8, 8, 8, 7.9375, 7.90625, 7.96875, 8.1026783, 8.6994047, 9.2678576, 9.5535717, 9.75, 9.8125, 9.875, 9.9375, 10, 10, 10, 10, 10.125, 10.3125, 10.375, 10.5625, 10.6875, 10.794643, 10.9375, 10.9375, 10.9375, 10.875, 10.84375, 10.90625, 10.90625, 10.90625, 10.9375, 11.078125, 11.276786, 11.5625, 11.96875, 12.359375, 12.824405, -10, -10, -10, -10, -10, -10, -10, -10, -10, -10, -10, -10, -10, -10, -10, 33.4375, 33.541668, 33.397324, 33.260418, 33.3125, 33.285713, 33.339287, 33.3125, 33.3125, 33.5, 33.607143, 33.678574, 33.625, 33.669643, 33.834824, 33.8125, 33.875, 33.9375, 33.96875, 34.25, 34.5, 34.75, 34.9375, 35, 35.1875, 35.321426, 35.575001, 35.633926, 35.74107, 35.78125, 35.924107, 36.28125, 36.90625, 37.071426, 37.25, 37.1875, 37.1875, 37.25, 37.4375, 37.660713, 37.785713, 37.946426, 38.083332, 38.26786, 38.745537, 38.879463, 39.03125, 39.0625, 39.196426, 39.732143, 39.875, 40.0625, 40.0625, 39.9375, 40.008926, 40.25, 40.357143, 40.5625, 40.625, 40.6875, 40.8125, 40.732143, 40.6875, 40.75, 40.625, 40.70536, 40.473213, 40.526787, 40.732143, 40.8125, 41.035713, 40.830357, 40.696426, 40.625, 40.625, 40.6875, 40.839287, 41.169643, 41.375, 41.4375, 41.5, 41.625, 41.732143, 41.875, 42.0625, 42.0625, 42.0625, 42, 41.8125, 41.75, 41.8125, 41.8125, 41.75, 41.611111, -10, -10, -10, -10, -10, 41.5, 41.958336, 42.423809, 42.678574, 42.9375, 43, -10, -10, -10, -10, -10, -10, -10, -10, -10, -10, -10, -10, -10, -10, -10, -10, -10, -10, -10, -10, -10, -10, -10, -10, -10, -10, -10, -10, -10, -10, -10, -10, -10, -10, -10, -10, -10, -10, -10, -10, -10, -10, -10, -10, -10, -10, -10, -10, -10, -10, -10, -10, -10, -10, -10, -10, -10, -10, -10, -10, -10, -10, -10, -10, -10, -10, -10, -10, -10, -10, -10, -10, -10, -10, -10, -10, -10, -10, -10, -10, -10, -10, -10, -10, -10, -10, -10, -10, -10, -10, -10, 99.833336, 99.099998, 98.101189, 97.35714, 96.449402, 95.595238, 94.702377, 94.133926, 93.446426, 92.476189, 91.630951, 91, 90.375, 89.714287, 88.726189, 88.133926, 87.508926, 86.654762, 86.08036, 85.428574, 84.360123, 83.607147, 82.714279, 81.660721, 81.071426, 80.553574, 79.833336, 79.116074, 78.491074, 78, 77.220238, 76.226189, 75.383926, 74.535713, 73.702377, 73.0625, 72.029755, 71.392853, 70.622025, 70.0625, 69.321426, 68.535713, 67.702377, 67.0625, 66.321426, 65.464279, 64.75, 63.958332, 63.133926, 62.36607, 61.535713, 60.619045, 59.991074, 59.392857, 58.875, 58.041668, 57.059525, 56.339283, 55.696426, 54.726192, 54.0625, 53.258926, 52.297615, 51.315475, 50.705357, 50.080357, 49.151787, 48.57143, 47.6875, 46.982143, 45.952385, 45.142853, 44.535713, 44.0625, 43.220238, 42.226189, 41.589287, 41, 40.25, 39.285713, 38.357143, 37.67857, 37.071426, 36.145832, 35.214287, 34.410713, 33.785713, 33.125, 32.392857, 31.714287, 30.535715, 29.571428, 28.982143, 28.375, 27.627977, 26.907738, 26.6, -10, -10, -10, -10, -10, -10, -10, -10, -10, -10, -10, -10, 15, 14.625, 14.25, 13.633928, 12.943453, 12.165178, 11.433036, 10.785713, 10.125, 9.1934528, 8.6517849, 8.25, 8.0625, 8, 8, 8, 8, 8, 8, 8, 8, 8.03125, 8.15625, 8.34375, 8.7410717, 9.2053576, 9.4285717, 9.5625, 9.625, 9.75, 9.875, 10, 10, 10.0625, 10.125, 10.3125, 10.4375, 10.4375, 10.5625, 10.696428, 11.044643, 11.196428, 11.419643, 11.333333, 11.041667, 10.915178, 10.90625, 10.90625, 10.977678, 11.354167, 11.415816, 11.964286, 12.28125, 12.857142, 12.921875, 13.303572, -10, -10, -10, -10, -10, -10, -10, -10, -10, -10, -10, -10, -10, 32.5, 32.625, 33.125, 33.34375, 33.272324, 33.09375, 33.0625, 33, 33.1875, 33.125, 33.125, 33.214287, 33.294643, 33.303574, 33.25, 33.169643, 33.272324, 33.3125, 33.5, 33.75, 33.84375, 34.125, 34.25, 34.464287, 34.794643, 34.928574, 35.125, 35.258926, 35.512501, 35.633926, 35.80357, 35.75, 35.767857, 35.9375, 36.5, 36.758926, 37.044643, 37, 37, 37.0625, 37.375, 37.723213, 37.973213, 38.125, 37.9375, 37.991074, 38.401787, 38.571426, 38.830357, 39.044643, 39.11607, 39.5625, 39.6875, 39.875, 40, 39.9375, 39.9375, 40, 40.044643, 40.214287, 40.544643, 40.741074, 40.9375, 40.857143, 40.75, 40.8125, 40.75, 40.89286, 40.660713, 40.651787, 40.732143, 40.75, 40.973213, 40.75, 40.488098, 40.383926, 40.4375, 40.625, 40.8125, 41.0625, 41.125, 41.125, 41.1875, 41.375, 41.669643, 41.910713, 42.125, 42.125, 42.0625, 42, 41.875, 41.833332, 41.75, 41.75, 41.6875, 41.614582, -10, -10, -10, -10, -10, 41.5, 42.041668, 42.380951
-10, -10, -10, -10, -10, -10, -10, -10, -10, -10, -10, -10, -10, -10, -10, -10, -10, -10, -10, -10, -10, -10, -10, -10, -10, -10, -10, -10, -10, -10, -10, -10, -10, -10, -10, -10, -10, -10, -10, -10, -10, -10, -10, -10, -10, -10, 100.04167, 99.099998, 98.065483, 97.25, 96.678574, 95.880951, 94.809525, 94.16964, 93.508926, 92.619049, 91.571426, 90.928574, 90.3125, 89.642853, 88.619041, 88.071426, 87.282738, 86.404762, 85.83036, 85.178574, 84.339287, 83.571426, 82.785713, 81.767853, 81.133926, 80.5, 79.726189, 79.053574, 78.410713, 77.892853, 77.303574, 76.288689, 75.39286, 74.464279, 73.523804, 72.892853, 72.020828, 71.5, 70.645828, 70.0625, 69.321426, 68.60714, 67.809525, 67.125, 66.267853, 65.285713, 64.5, 63.892857, 63.133926, 62.42857, 61.714287, 60.559521, 59.919643, 59.330357, 58.8125, 58.050594, 56.946426, 56.267857, 55.6875, 54.726192, 54.0625, 53.258926, 52.297615, 51.386906, 50.8125, 50.080357, 49.035713, 48.32143, 47.705357, 47.125, 46.184525, 45.392853, 44.577381, 44.0625, 43.366074, 42.369049, 41.714287, 41.0625, 40.258926, 39.297619, 38.172619, 37.5, 36.9375, 36.25, 35.285713, 34.428574, 33.785713, 32.979168, 32.321426, 31.767857, 30.678572, 29.428572, 28.839287, 28.25, 27.565477, 27.116072, 26.833334, -10, -10, -10, -10, -10, -10, -10, -10, -10, -10, -10, -10, -10, 14.3125, 14.178572, 13.741072, 13.122025, 12.186012, 11.46875, 10.785713, 10.1875, 9.3363094, 8.5997028, 8.2276783, 8.03125, 8, 8, 8, 8, 8, 8, 8, 8, 8, 8.125, 8.375, 8.75, 9.0982141, 9.25, 9.3125, 9.375, 9.5625, 9.75, 9.9375, 10, 10.125, 10.25, 10.375, 10.4375, 10.3125, 10.3125, 10.517857, 11.211309, 11.517857, 11.919643, 11.895833, 11.595238, 11.238095, 11.208333, 11.285714, 11.418367, 12.166667, 12.897321, 12.994898, 13.321428, 13.678572, 13.671875, 13.875, -10, -10, -10, -10, -10, -10, -10, -10, -10, -10, -10, 31.833332, 31.875, 32.25, 32.333332, 32.78125, 32.78125, 32.772324, 32.59375, 32.625, 32.625, 32.875, 32.9375, 32.9375, 33.026787, 33.169643, 33.241074, 33.25, 33, 33.03125, 33.0625, 33.3125, 33.6875, 33.84375, 34.0625, 34.1875, 34.401787, 34.732143, 34.928574, 35.125, 35.1875, 35.3125, 35.5625, 35.723213, 35.6875, 35.580357, 35.625, 36.125, 36.383926, 36.794643, 36.875, 36.9375, 37.0625, 37.3125, 37.598213, 37.8125, 38, 37.8125, 37.866074, 38.214287, 38.321426, 38.651787, 39.127975, 39.151787, 39.526787, 39.645832, 39.491074, 39.708332, 39.833332, 39.928574, 39.9375, 39.901787, 40.133926, 40.473213, 40.866074, 41.1875, 41.169643, 41.0625, 41, 40.9375, 41.116074, 40.848213, 40.776787, 40.794643, 40.8125, 41.035713, 40.875, 40.488098, 40.321426, 40.375, 40.5625, 40.8125, 41, 41, 40.9375, 40.9375, 41.125, 41.419643, 41.723213, 42, 42.0625, 42.125, 42.0625, 41.96875, 41.9375, 41.75, 41.75, 41.65625, 41.520832, 41.5, 41.333336, -10, -10, -10, 41.625, 42, 42.339287, 42.6875, 42.9375, 42.866074, 42.333336, -10, -10, -10, -10, -10, -10, -10, -10, -10, -10, -10, -10, -10, -10, -10, -10, -10, -10, -10, -10, -10, -10, -10, -10, -10, -10, -10, -10, -10, -10, -10, -10, -10, -10, -10, -10, -10, -10, -10, -10, -10, -10, -10, -10, -10, -10, -10, -10, -10, -10, -10, -10, -10, -10, -10, -10, -10, -10, -10, -10, -10, -10, -10, -10, -10, -10, -10, -10, -10, -10, -10, -10, -10, -10, -10, -10, -10, -10, -10, -10, -10, -10, -10, -10, -10, -10, -10, -10, -10, -10, 99.791672, 98.900002, 97.982147, 97.285713, 96.732147, 95.797615, 94.892853, 94.223213, 93.580353, 92.702377, 91.642853, 90.991074, 90.321426, 89.642853, 88.619041, 88.071426, 87.220238, 86.226189, 85.660713, 85.107147, 84.258926, 83.392853, 82.60714, 81.809525, 81.125, 80.464279, 79.892853, 79.041664, 78.348213, 77.767853, 77.125, 76.267853, 75.35714, 74.535713, 73.630951, 72.726189, 72.104164, 71.535721, 70.601189, 70, 69.3125, 68.60714, 67.809525, 67.125, 66.330353, 65.464287, 64.440475, 63.82143, 63.071426, 62.419643, 61.642853, 60.452381, 59.857143, 59.3125, 58.875, 58.276787, 56.946426, 56.17857, 55.5, 54.702381, 54.0625, 53.258926, 52.285713, 51.57143, 51.0625, 50.330357, 49.214287, 48.392857, 47.723213, 47.125, 46.330353, 45.464287, 44.523808, 43.955357, 43.303574, 42.360119, 41.714287, 41.0625, 40.258926, 39.309525, 38.059525, 37.428574, 36.875, 36.25, 35.321426, 34.575893, 33.986607, 33.193455, 32.279762, 31.696428, 30.761906, 29.491072, 28.848215, 28.321428, 27.708334, 27.272322, 26.958334, -10, -10, -10, -10, -10, -10, -10, -10, -10, -10, -10, -10, -10, 14, 14, 13.803572, 13.220239, 12.226191, 11.419643, 10.754463, 10.21875, 9.4434528, 8.5476189, 8.2053566, 8, 8, 8, 8, 8, 8, 8, 8, 8, 8, 8.125, 8.375, 8.6875, 8.9732141, 9.0625, 9.0625, 9.125, 9.375, 9.625, 9.875, 9.9375, 10.089286, 10.428572, 10.5625, 10.6875, 10.625, 10.625, 10.795918, 11.711309, 12.017857, 12.419643, 12.395833, 12.157738, 11.863095, 11.895833, 12.666667, 12.863095, 12.940476, 13.179847, 13.408163, 13.65625, 14.004464, 14.171875, 14.333334, 15, -10, -10, -10, -10, -10, -10, -10, -10, -10, 31.25, 31.472221, 31.535715, 32.044643, 32.178574, 32.28125, 32.28125, 32.40625, 32.40625, 32.4375, 32.5, 32.625, 32.75, 32.75, 32.839287, 32.982143, 33.053574, 33.125, 32.9375, 32.96875, 32.9375, 33.125, 33.4375, 33.59375, 33.8125, 34, 34.32143, 34.607143, 34.866074, 35, 35, 35.125, 35.3125, 35.535713, 35.5, 35.473213, 35.553574, 35.767857, 36.133926, 36.482143, 36.75, 36.875, 37.0625, 37.25, 37.419643, 37.549999, 37.866074, 37.803574, 37.901787, 38.107143, 38.142857, 38.473213, 39.211308, 39.330357, 39.714287, 39.699402, 39.303574, 39.520832, 39.690475, 39.866074, 39.90625, 39.808037, 40, 40.306545, 40.574406, 41.133926, 41.133926, 41.1875, 41, 40.9375, 41.125, 40.973213, 40.839287, 40.75, 40.75, 40.973213, 40.875, 40.613098, 40.446426, 40.5, 40.6875, 40.8125, 40.9375, 41, 40.973213, 41, 41.125, 41.294643, 41.598213, 41.875, 42.0625, 42.25, 42.25, 42.1875, 42.09375, 41.84375, 41.78125, 41.6875, 41.5, 41.5, 41.388889, -10, -10, -10, 41.75, 42.145832, 42.464287
-10, -10, -10, -10, -10, -10, -10, -10, -10, -10, -10, -10, -10, -10, -10, -10, -10, -10, -10, -10, -10, -10, -10, -10, -10, -10, -10, -10, -10, -10, -10, -10, -10, -10, -10, -10, -10, -10, -10, -10, -10, -10, -10, -10, -10, -10, 99.583336, 98.721428, 97.815475, 97.285713, 96.776794, 95.976189, 95.178574, 94.29464, 93.625, 92.773804, 91.75, 91.116074, 90.446426, 89.476189, 88.630951, 88.071426, 87.220238, 86.226189, 85.589279, 85, 84.104164, 83.285713, 82.629463, 81.885414, 81.21875, 80.553566, 79.726189, 78.907738, 78.205353, 77.642853, 77.0625, 76.258926, 75.35714, 74.535713, 73.559525, 72.619049, 72.25, 71.714287, 70.559525, 69.928574, 69.1875, 68.41964, 67.785713, 67.125, 66.392853, 65.642853, 64.392853, 63.714287, 63.0625, 62.383926, 61.714283, 60.559525, 59.919643, 59.258926, 58.696426, 58.035713, 56.839287, 56.142857, 55.321426, 54.714287, 54.0625, 53.258926, 52.285713, 51.57143, 51, 50.25, 49.285713, 48.35714, 47.67857, 47.0625, 46.321426, 45.464287, 44.452377, 43.848213, 43.241074, 42.413689, 41.82143, 41.125, 40.267857, 39.309525, 38.059525, 37.357143, 36.767857, 36.1875, 35.34375, 34.723213, 34.125, 33.287205, 32.297619, 31.696428, 30.991072, 29.604166, 28.577381, 28, 27.625, 27.28125, 26.9375, 25.452381, 24.928572, -10, -10, -10, -10, -10, -10, -10, -10, -10, -10, -10, 14, 14, 13.8125, 13.375, 12.184524, 11.428572, 10.790178, 10.135417, 9.3809528, 8.5297623, 8.2053566, 8, 8, 8, 8, 8, 8, 8, 8, 8.0625, 8.0357141, 8.125, 8.4910717, 8.6785717, 8.9375, 9, 9, 9.0625, 9.28125, 9.53125, 9.78125, 9.96875, 10.214286, 10.678572, 10.9375, 11.125, 11.1875, 11.1875, 11.988095, 12.166667, 12.392857, 12.6875, 12.708333, 12.595238, 12.639457, 12.738095, 13.214286, 13.346939, 13.291667, 13.446428, 13.5625, 13.875, 14.098214, 14.3125, 14.416667, -10, -10, -10, -10, -10, -10, -10, -10, -10, 31, 31.083334, 31.229166, 31.294643, 31.627977, 31.857143, 32.0625, 32.125, 32.3125, 32.3125, 32.3125, 32.3125, 32.3125, 32.4375, 32.5, 32.526787, 32.5625, 32.5, 32.580357, 32.669643, 32.803574, 32.875, 33, 33.25, 33.375, 33.625, 33.8125, 34.13393, 34.419643, 34.616074, 34.6875, 34.6875, 34.75, 34.875, 35.125, 35.1875, 35.401787, 35.575001, 35.410713, 35.8125, 36.107143, 36.5625, 36.8125, 37.0625, 37.25, 37.357143, 37.456249, 37.772324, 37.772324, 37.90625, 38.0625, 38.098213, 38.410713, 39.211308, 39.330357, 39.714287, 39.610119, 39.080357, 39.333332, 39.547619, 39.803574, 39.90625, 39.808037, 40.0625, 40.279758, 40.491074, 41.267857, 41.238094, 41.166668, 40.883926, 40.8125, 40.9375, 40.8125, 40.8125, 40.6875, 40.6875, 40.875, 40.94643, 40.898811, 40.80357, 40.8125, 40.875, 40.8125, 40.875, 40.9375, 40.910713, 40.9375, 40.9375, 41.008926, 41.494045, 41.669643, 41.9375, 42.1875, 42.223213, 42.25, 42.1875, 41.9375, 41.9375, 41.90625, 41.75, 41.625, 41.541668, 41.75, 41.875, 42, 41.875, 42.177082, 42.450893, 42.71875, 42.96875, 42.803574, 42.444447, -10, -10, -10, -10, -10, -10, -10, -10, -10, -10, -10, -10, -10, -10, -10, -10, -10, -10, -10, -10, -10, -10, -10, -10, -10, -10, -10, -10, -10, -10, -10, -10, -10, -10, -10, -10, -10, -10, -10, -10, -10, -10, -10, -10, -10, -10, -10, -10, -10, -10, -10, -10, -10, -10, -10, -10, -10, -10, -10, -10, -10, -10, -10, -10, -10, -10, -10, -10, -10, -10, -10, -10, -10, -10, -10, -10, -10, -10, -10, -10, -10, -10, -10, -10, -10, -10, -10, -10, -10, 98.5, 99.625, 98.872108, 98.05442, 97.380951, 96.741074, 95.952377, 95.178574, 94.29464, 93.625, 92.836304, 92.011902, 91.199402, 90.428574, 89.297623, 88.607147, 88, 87.104164, 86.214279, 85.553574, 85, 83.958328, 83.142853, 82.504463, 81.96875, 81.28125, 80.571426, 79.726189, 78.761902, 78.0625, 77.517853, 77, 76.25, 75.35714, 74.535713, 73.714287, 72.577377, 72.125, 71.589287, 70.642853, 69.845238, 69.196426, 68.455353, 67.619049, 66.991074, 66.321426, 65.696426, 64.571426, 63.883926, 63.133926, 62.330353, 61.607143, 60.726189, 60.053574, 59.330353, 58.714287, 58.035713, 56.985119, 56.285713, 55.446426, 54.630951, 54, 53.25, 52.285713, 51.57143, 51, 50.25, 49.285713, 48.35714, 47.67857, 47.0625, 46.321426, 45.464287, 44.452377, 43.785713, 43.125, 42.401787, 41.714287, 41.017857, 40.205357, 39.300591, 38.059525, 37.285713, 36.589287, 36.017857, 35.27232, 34.705357, 34.125, 33.287205, 32.297619, 31.625, 30.848215, 29.747023, 28.720238, 28.125, 27.6875, 27.25, 26.717262, 25.492064, 24.904762, 23, 22.428572, 21.9375, -10, -10, -10, -10, -10, -10, -10, -10, 14.333333, 14.1, 13.875, 13.383928, 12.071428, 11.428572, 10.825893, 10.052084, 9.5, 8.614584, 8.2991066, 8.03125, 7.9375, 7.9375, 7.9375, 7.9375, 8, 8, 8, 8.0625, 7.9732141, 8.0625, 8.3660717, 8.5535717, 8.875, 8.9375, 9, 9, 9.15625, 9.40625, 9.71875, 10.075893, 10.339286, 10.866072, 11.1875, 11.544643, 11.964286, 12.142858, 12.448979, 12.541667, 12.633928, 12.580357, 12.6875, 12.803572, 12.836309, 13.020833, 13.4375, 13.517858, 13.375, 13.375, 13.375, 13.625, 13.848214, 14.125, 14.666667, -10, -10, -10, -10, -10, -10, -10, -10, 30.333332, 30.583334, 30.883928, 30.979166, 31.107143, 31.565477, 31.732143, 31.9375, 31.9375, 32.0625, 32.0625, 32.0625, 32.0625, 32, 32.125, 32.25, 32.3125, 32.375, 32.3125, 32.392857, 32.607143, 32.803574, 32.9375, 33, 33.125, 33.25, 33.5, 33.75, 34.044643, 34.1875, 34.3125, 34.375, 34.5, 34.625, 34.75, 35, 35.0625, 35.339287, 35.637501, 35.535713, 35.875, 36.0625, 36.5, 36.75, 37, 37.0625, 37.107143, 37.143749, 37.459824, 37.647324, 37.84375, 38.0625, 38.1875, 38.455357, 39.104164, 39.223213, 39.589287, 39.547619, 39.017857, 39.208332, 39.422619, 39.678574, 39.84375, 39.870537, 40.160713, 40.208332, 40.205357, 40.976189, 41.238094, 41.309525, 41.008926, 40.8125, 40.8125, 40.625, 40.6875, 40.625, 40.625, 40.75, 40.901787, 41.017857, 40.94643, 41, 40.9375, 40.875, 40.8125, 40.875, 40.848213, 40.8125, 40.75, 40.714287, 41.208332, 41.357143, 41.6875, 42, 42.098213, 42.1875, 42.25, 42.125, 42.125, 42.09375, 41.90625, 41.71875, 41.666668, 41.833332, 41.916668, 42.020832, 42.046875, 42.270832, 42.5
-10, -10, -10, -10, -10, -10, -10, -10, -10, -10, -10, -10, -10, -10, -10, -10, -10, -10, -10, -10, -10, -10, -10, -10, -10, -10, -10, -10, -10, -10, -10, -10, -10, -10, -10, -10, -10, -10, -10, -10, -10, -10, -10, -10, -10, -10, 99.666664, 99.545578, 99.043648, 97.404762, 96.571426, 95.702377, 95.178574, 94.321426, 93.583328, 92.663681, 92.116074, 91.395836, 90.75, 89.434525, 88.75, 88.0625, 87.258926, 86.285713, 85.571426, 85, 83.958328, 83.142853, 82.504463, 81.96875, 81.135414, 80.571426, 79.726189, 78.511902, 77.857147, 77.3125, 76.875, 76.1875, 75.348213, 74.60714, 73.892853, 72.809525, 72.3125, 71.577377, 70.726189, 69.907738, 69.241074, 68.53125, 67.654762, 66.866074, 66.25, 65.696426, 64.458328, 63.8125, 63.071426, 62.267853, 61.5, 60.892857, 60.041668, 59.267853, 58.589287, 57.85714, 57.026787, 56.348213, 55.526787, 54.738098, 54.0625, 53.258926, 52.35714, 51.67857, 50.916668, 50.1875, 49.276787, 48.428574, 47.785713, 46.979168, 46.196426, 45.339287, 44.535713, 43.821426, 42.854168, 42.11607, 41.401787, 40.830357, 40.133926, 39.342262, 38.351189, 37.380951, 36.651787, 35.872025, 35.200893, 34.6875, 34.125, 33.433037, 32.369045, 31.571428, 30.776787, 29.997023, 28.988094, 28.4375, 27.892857, 27.125, 26.419643, 25.431547, 24.82143, 23.333334, 22.507936, 21.958334, 21.5625, 21.25, -10, -10, -10, -10, -10, -10, 14.683333, 14.1, 13.732143, 13.133928, 11.904761, 11.321428, 10.754465, 9.84375, 9.25, 8.572917, 8.2901783, 8.03125, 8, 8.125, 8.1875, 8.0803566, 8.0714283, 8, 8, 8.0625, 7.9732141, 8, 8.2410717, 8.4285717, 8.75, 8.875, 9, 9, 9.15625, 9.46875, 9.8883934, 10.325893, 10.714286, 11.348214, 11.75, 12.098214, 12.1875, 12.375, 12.544643, 12.625, 12.5625, 12.392857, 12.4375, 12.6875, 13.044643, 13.25, 13.4375, 13.303572, 13.0625, 13.0625, 13.0625, 13.34375, 13.566964, 13.8125, -10, -10, -10, -10, -10, -10, -10, -10, 29.25, 29.888887, 30.25, 30.4375, 30.770834, 30.919643, 31.440477, 31.544643, 31.8125, 31.875, 32, 32.03125, 31.96875, 31.991072, 32, 32.0625, 32.125, 32, 32, 31.9375, 32.142857, 32.544643, 32.803574, 33, 33, 33, 33.0625, 33.3125, 33.5625, 33.794643, 33.875, 33.9375, 34, 34.25, 34.5, 34.6875, 34.9375, 35, 35.339287, 35.700001, 35.660713, 36, 36.125, 36.5, 36.75, 36.9375, 36.9375, 36.857143, 36.831249, 37.147324, 37.397324, 37.71875, 38.0625, 38.3125, 38.571426, 39.020832, 39.147324, 39.46875, 39.495537, 39.245537, 39.375, 39.401787, 39.5625, 39.78125, 39.84375, 40.053574, 40.029758, 39.892857, 40.601189, 40.894344, 40.997025, 40.883926, 40.75, 40.78125, 40.6875, 40.75, 40.75, 40.75, 40.75, 40.776787, 40.973213, 41.00893, 41.0625, 41.0625, 40.875, 40.75, 40.75, 40.723213, 40.625, 40.5625, 40.607143, 41.145832, 41.232143, 41.5625, 41.6875, 41.785713, 41.9375, 42.125, 42.232143, 42.25, 42.25, 42.0625, 41.8125, 41.8125, 41.8125, 41.875, 42.046875, 42.140625, 42.34375, 42.59375, 42.796875, 42.953125, 42.9375, -10, -10, -10, -10, -10, -10, -10, -10, -10, -10, -10, -10, -10, -10, -10, -10, -10, -10, -10, -10, -10, -10, -10, -10, -10, -10, -10, -10, -10, -10, -10, -10, -10, -10, -10, -10, -10, -10, -10, -10, -10, -10, -10, -10, -10, -10, -10, -10, -10, -10, -10, -10, -10, -10, -10, -10, -10, -10, -10, -10, -10, -10, -10, -10, -10, -10, -10, -10, -10, -10, -10, -10, -10, -10, -10, -10, -10, -10, -10, -10, -10, -10, -10, -10, -10, -10, -10, -10, -10, -10, -10, 99.916664, 99.831291, 99.056465, 97.333328, 96.392853, 95.660713, 95.178574, 94.258926, 93.404755, 92.568451, 92.008926, 91.333336, 90.595238, 89.434525, 88.794647, 88.1875, 87.446426, 86.535713, 85.72023, 85.142853, 83.854164, 83.10714, 82.486603, 81.96875, 80.989578, 80.5, 79.654762, 78.511902, 77.928574, 77.330353, 76.625, 75.982147, 75.214287, 74.526787, 73.785713, 72.976196, 72.375, 71.541664, 70.726189, 69.907738, 69.241074, 68.602676, 67.761902, 66.782738, 66.196426, 65.589279, 64.375, 63.669643, 62.946426, 62.205353, 61.55357, 61, 60.104168, 59.214287, 58.348213, 57.60714, 57.026787, 56.375, 55.60714, 54.845238, 54.125, 53.267857, 52.35714, 51.607143, 50.809525, 50.125, 49.267853, 48.428574, 47.714283, 46.800598, 46.026787, 45.267853, 44.589287, 43.99107, 43.041668, 42.36607, 41.592262, 40.788689, 40.071426, 39.321426, 38.464287, 37.380951, 36.535713, 35.702381, 35.09375, 34.59375, 34.03125, 33.28125, 32.42857, 31.642857, 30.693453, 29.934523, 28.979166, 28.4375, 27.892857, 26.916666, 26.169643, 25.441963, 24.79018, 23.535713, 22.568453, 21.96875, 21.541666, 21.145834, 20.625, -10, -10, -10, -10, 15.7, 14.683333, 13.957143, 13.544643, 13.008928, 11.895833, 11.285714, 10.678572, 9.75, 9.0982141, 8.5491066, 8.28125, 8.03125, 8, 8.125, 8.1875, 8.0803566, 8.0714283, 8, 8, 8.125, 8.0357141, 7.9375, 8.1160717, 8.3482141, 8.6785717, 8.875, 9, 9, 9.15625, 9.53125, 10.129464, 10.745536, 11.125, 11.544643, 11.875, 12.160714, 12.25, 12.5, 12.5625, 12.5625, 12.5, 12.330357, 12.375, 12.625, 12.919643, 13.0625, 13.1875, 13.125, 13.0625, 13.0625, 13.0625, 13.171875, 13.302083, 13.583333, -10, -10, -10, -10, -10, -10, -10, -10, 28.944445, 29.369047, 29.78125, 30.151787, 30.8125, 30.955357, 31.395834, 31.366072, 31.5625, 31.625, 31.6875, 31.65625, 31.59375, 31.678572, 31.857143, 31.875, 31.875, 31.625, 31.625, 31.625, 31.830357, 32.232143, 32.446426, 32.833332, 32.928574, 33.0625, 33.098213, 33.142857, 33.291668, 33.520832, 33.678574, 33.75, 33.8125, 34.0625, 34.3125, 34.625, 34.875, 34.901787, 35.196426, 35.450001, 35.642857, 35.9375, 36.1875, 36.5, 36.75, 36.8125, 36.6875, 36.5625, 36.53125, 36.790176, 37.302082, 37.647324, 38.0625, 38.3125, 38.5625, 38.8125, 38.84375, 39.15625, 39.316963, 39.28125, 39.375, 39.357143, 39.375, 39.625, 39.8125, 40.0625, 40.071426, 39.934525, 40.279762, 40.604168, 40.684525, 40.758926, 40.6875, 40.75, 40.6875, 40.75, 40.875, 40.875, 40.8125, 40.776787, 40.879463, 40.91518, 41.03125, 41.03125, 40.9375, 40.8125, 40.75, 40.616074, 40.229168, 40.142857, 40.285713, 41.125, 41.285713, 41.5, 41.4375, 41.473213, 41.5625, 41.875, 42.107143, 42.1875, 42.25, 42.125, 41.875, 41.875, 41.875, 41.875, 42.046875, 42.140625, 42.34375, 42.59375
-10, -10, -10, -10, -10, -10, -10, -10, -10, -10, -10, -10, -10, -10, -10, -10, -10, -10, -10, -10, -10, -10, -10, -10, -10, -10, -10, -10, -10, -10, -10, -10, -10, -10, -10, -10, -10, -10, -10, -10, -10, -10, -10, -10, -10, -10, 100.15, 99.73333, 99.028572, 97.395828, 96.428574, 95.660713, 95.0625, 94.258926, 93.369041, 92.568451, 92.008926, 91.279762, 90.303574, 89.422615, 88.803574, 88.25, 87.526779, 86.714287, 85.952377, 85.35714, 83.9375, 83.142853, 82.517853, 82.0625, 81.074402, 80.369049, 79.75, 78.583328, 78, 77.247025, 76.625, 76.026787, 75.226189, 74.5625, 73.785713, 72.904762, 72.205353, 71.425591, 70.830353, 70.041664, 69.3125, 68.61161, 67.690475, 66.675598, 66.071426, 65.410713, 64.166664, 63.419643, 62.758926, 62.133926, 61.535713, 61, 60.104168, 59.214287, 58.348213, 57.67857, 57.0625, 56.392857, 55.785713, 54.979168, 54.196426, 53.276787, 52.35714, 51.535713, 50.702381, 50.0625, 49.258926, 48.5, 47.821426, 46.863098, 46.035713, 45.267853, 44.660713, 44.098213, 43.166668, 42.49107, 41.654762, 40.809521, 39.958332, 39.25, 38.455357, 37.523808, 36.75, 35.845238, 35.25, 34.458332, 33.928574, 33.1875, 32.348213, 31.464285, 30.523809, 29.892857, 29.25, 28.723213, 28.142857, 26.895832, 26.107143, 25.361607, 24.71875, 23.785713, 22.627975, 21.96875, 21.46875, 20.966518, 20.375, -10, -10, -10, 16.214287, 15.758334, 15.089583, 14.242857, 13.544643, 13.008928, 12.116072, 11.297619, 10.678572, 9.802084, 9.1294641, 8.53125, 8.25, 8.03125, 8, 8.125, 8.1875, 8.0803566, 8.0714283, 8, 8, 8.0625, 8.0625, 8.0625, 8.125, 8.4196434, 8.7857151, 9.1904764, 9.4081631, 9.4285717, 9.666667, 10, 10.580357, 11.151786, 11.5, 11.732143, 11.9375, 12.098214, 12.0625, 12.3125, 12.25, 12.3125, 12.375, 12.375, 12.5, 12.6875, 12.75, 12.875, 12.9375, 12.9375, 13, 13, 13, 13.046875, 13.114583, -10, -10, -10, -10, -10, -10, -10, -10, 28, 28.708334, 28.885416, 29.21875, 29.892859, 30.794643, 31, 31.3125, 31.1875, 31.3125, 31.375, 31.4375, 31.40625, 31.34375, 31.428572, 31.607143, 31.625, 31.625, 31.5, 31.5, 31.625, 31.8125, 31.9375, 32.142857, 32.520832, 32.785713, 33, 33.035713, 32.955357, 32.979168, 33.154762, 33.511906, 33.678574, 33.8125, 34.0625, 34.375, 34.75, 35, 34.928574, 35.125, 35.1875, 35.5, 35.75, 36.125, 36.410713, 36.6875, 36.6875, 36.4375, 36.3125, 36.1875, 36.383926, 37.002975, 37.528572, 37.821426, 38.25, 38.375, 38.625, 38.65625, 38.84375, 39.102676, 39.266964, 39.205357, 39.25, 39.125, 39.4375, 39.6875, 39.9375, 40.035713, 39.892857, 39.958332, 40.3125, 40.517857, 40.75, 40.75, 40.8125, 40.875, 40.875, 41, 41, 40.84375, 40.71875, 40.678574, 40.714287, 40.84375, 40.96875, 41, 40.8125, 40.75, 40.678574, 40.229168, 40.267857, 40.464287, 41.148811, 41.285713, 41.3125, 41.25, 41.223213, 41.3125, 41.625, 41.919643, 42.0625, 42.1875, 42.125, 41.875, 41.8125, 41.75, 41.75, 41.921875, 42.078125, 42.3125, 42.5, 42.640625, 42.671875, 42.625, 42.166664, -10, -10, -10, -10, -10, -10, -10, -10, -10, -10, -10, -10, -10, -10, -10, -10, -10, -10, -10, -10, -10, -10, -10, -10, -10, -10, -10, -10, -10, -10, -10, -10, -10, -10, -10, -10, -10, -10, -10, -10, -10, -10, -10, -10, -10, -10, -10, -10, -10, -10, -10, -10, -10, -10, -10, -10, -10, -10, -10, -10, -10, -10, -10, -10, -10, -10, -10, -10, -10, -10, -10, -10, -10, -10, -10, -10, -10, -10, -10, -10, -10, -10, -10, -10, -10, -10, -10, -10, -10, 100, 99.941666, 99.462502, 98.635712, 97.300598, 96.428574, 95.767853, 95.125, 94.267853, 93.297615, 92.398804, 91.830353, 91.321426, 90.446426, 89.517853, 88.910713, 88.3125, 87.535706, 86.785713, 86.059525, 85.41964, 84.092262, 83.214287, 82.535713, 82.125, 81.190475, 80.309525, 79.75, 78.773811, 78.142853, 77.372025, 76.6875, 76.107147, 75.333336, 74.412506, 73.464287, 72.767853, 72.142853, 71.363091, 70.723213, 70.125, 69.303574, 68.504463, 67.75, 66.747025, 65.988091, 65.285713, 64.041664, 63.357143, 62.604168, 62.0625, 61.517857, 61, 60.104168, 59.214287, 58.276787, 57.5, 56.892857, 56.3125, 55.723213, 55.125, 54.279762, 53.089287, 52.214287, 51.392853, 50.577381, 50, 49.25, 48.5, 47.821426, 46.863098, 46.035713, 45.267853, 44.660713, 44.098213, 43.229168, 42.669643, 41.895832, 40.999996, 39.916664, 39.1875, 38.446426, 37.595238, 36.92857, 36.077381, 35.5, 34.654762, 33.886902, 33.125, 32.339287, 31.464285, 30.595238, 30, 29.3125, 28.74107, 28.142857, 26.895832, 26.107143, 25.290178, 24.575893, 23.92857, 22.770832, 22.0625, 21.383928, 20.734375, 20.28125, 19.4375, 18.785713, 17, 16.238096, 15.725, 15.1, 14.357142, 13.461309, 13.008928, 12.336309, 11.309524, 10.678572, 9.885417, 9.010417, 8.4464283, 8.15625, 8, 8.0625, 8.1875, 8.25, 8.1428566, 8.0714283, 8, 8.0625, 8.25, 8.5178566, 8.65625, 8.84375, 8.9260206, 9.2551031, 10.736111, 11.119048, 11.166667, 10.541667, 10.75, 11.142857, 11.544643, 11.8125, 11.857143, 11.9375, 11.928572, 11.8125, 12.125, 12.125, 12.25, 12.4375, 12.5, 12.625, 12.75, 12.6875, 12.75, 12.8125, 12.8125, 12.9375, 12.9375, 12.9375, 13.046875, 13.152778, -10, -10, -10, -10, -10, -10, -10, 28, 28, 28.395834, 28.59375, 29.03125, 29.758928, 30.651787, 30.875, 31.125, 31, 31.0625, 31.125, 31.1875, 31.15625, 31.09375, 31.178572, 31.357143, 31.375, 31.375, 31.25, 31.3125, 31.5, 31.75, 31.9375, 32.142857, 32.520832, 32.785713, 33, 32.901787, 32.580357, 32.604168, 32.779762, 33.470238, 33.732143, 33.875, 34, 34.25, 34.633926, 34.950001, 34.82143, 35.125, 35.0625, 35.276787, 35.5625, 35.991074, 36.321426, 36.5625, 36.5625, 36.3125, 36.25, 36.1875, 36.446426, 37.273808, 37.69524, 37.721428, 38.125, 38.116074, 38.4375, 38.46875, 38.59375, 38.870537, 39.091965, 38.973213, 39.1875, 39.107143, 39.4375, 39.6875, 39.875, 40, 40, 40, 40.0625, 40.125, 40.375, 40.5, 40.6875, 40.875, 40.875, 41, 40.9375, 40.71875, 40.46875, 40.330357, 40.5, 40.802082, 41.03125, 41.0625, 40.8125, 40.6875, 40.616074, 40.229168, 40.330357, 40.571426, 41.148811, 41.285713, 41.3125, 41.3125, 41.285713, 41.375, 41.5625, 41.732143, 41.875, 42, 42, 41.9375, 41.9375, 41.857143, 41.666668, 41.727676, 41.78125, 41.96875, 42.15625
