-10, -10, -10, -10, -10, -10, -10, -10, -10, -10, -10, -10, -10, -10, -10, -10, -10, -10, -10, -10, -10, 37.25, 37.166664, 37.1875, 37.035713, 36.964287, 36.875, 36.625, 36.5625, 36.375, 36.25, 36.1875, 36.0625, 36, 36, 36, 36, 36, 35.9375, 35.6875, 35.4375, 35.1875, 35, 35, 34.9375, 34.9375, 34.9375, 34.9375, 34.875, 34.625, 34.455357, 34.4375, 34.5, 34.6875, 34.6875, 34.5, 34.3125, 34.125, 34, 34, 33.9375, 33.9375, 33.9375, 33.9375, 33.9375, 33.875, 33.8125, 33.5625, 33.375, 33.1875, 33, 33, 33, 32.875, 32.75, 32.625, 32.5, 32.375, 32.25, 32.125, 32, 32, 32.0625, 32.0625, 32.0625, 32, 31.8125, 31.6875, 31.4375, 31.3125, 31.375, 31.4375, 31.4375, 31.375, 31.1875, 31, 31, 31, 30.75, 30.5625, 30.4375, 30.25, 30.25, 30.25, 30.125, 30.0625, 30.0625, 30, 30, 30, 30, 30, 29.9375, 29.75, 29.5, 29.25, 29.0625, 28.9375, 28.9375, 28.9375, 28.9375, 29, 29, 28.9375, 28.8125, 28.6875, 28.625, 28.5, 28.375, 28.25, 28.0625, 28, 28, 28, 28, 27.875, 27.625, 27.375, 27.125, 27, 27, 27, 27, 27, 27, 27, 27, 26.9375, 26.75, 26.5, 26.25, 26.0625, 26, 26, 26, 26, 26, 26, 25.8125, 25.625, 25.4375, 25.25, 25.1875, 25.125, 25.0625, 25, 25, 24.9375, 24.9375, 24.9375, 24.8125, 24.8125, 24.8125, 24.8125, 24.875, 24.6875, 24.4375, 24.1875, 24, 24, 24, 23.9375, 23.8125, 23.625, 23.5, 23.4375, 23.4375, 23.5, 23.4375, 23.3125, 23.1875, 23.0625, 23, 23, 23, 23, 23, 22.9375, 22.875, 22.8125, 22.625, 22.4375, 22.3125, 22.125, 22.0625, 22.0625, 22, 21.875, 21.75, 21.5, 21.3125, 21.1875, 21.0625, 21.0625, 21, 21, 21, 21, 21, 21, 21, 21, 20.9375, 20.6875, 20.4375, 20.1875, 20, 20, 20, 20, 20, 20, 19.875, 19.75, 19.625, 19.375, 19.25, 19.125, 19, 19, 19, 19, 19, 19, 18.75, 18.625, 18.5, 18.25, 18.25, 18.125, 18, 18, 18, 18, 18, 18, 18, 17.75, 17.5625, 17.5, 17.25, 17.25, 17.1875, 17, 17, 17, 17, 17, 16.875, 16.6875, 16.4375, 16.1875, 16.0625, 16, 16, 16, 15.8125, 15.625, 15.375, 15.125, 15.0625, 15.125, 15.25, 15.25, 15.25, 15.125, 15, 15, 15, 15, 15, 15, 15, 15, 15, 15, 15, 15, 15, 15.0625, 15.1875, 15.3125, 15.5, 15.625, 15.625, 15.5625, 15.5, 15.625, 15.785714, 15.8125, 15.8125, 15.4375, 15.401786, 15.732143, 16.008928, 16.3125, 16.5, 16.625, 16.8125, 16.9375, 17, 17, 17, 17, 17.0625, 17.1875, 17.375, 17.625, 17.8125, 17.90625, 17.84375, 17.65625, 17.53125, 17.5, 17.6875, 17.973213, 18.0625, 18.25, 18.3125, 18.5, 18.75, 18.875, 19.0625, 19.25, 19.25, 19.25, 19.25, 19.125, 19.3125, 19.5, 19.482143, 19.424999, 19.491072, 19.491072, 19.6875, 19.875, 20.1875, 20.4375, 20.6875, 20.875, 20.9375, 21, 21, 21, 21, 21.125, 21.125, 21.3125, 21.5625, 21.6875, 21.916666, -10, -10, -10, -10, -10, -10, -10, -10, -10, -10, -10, -10, -10, -10, -10, -10, -10, -10, -10, -10, -10, -10, -10, -10, -10, -10, 37.125, 37.083332, 37.0625, 37, 37, 36.9375, 36.8125, 36.625, 36.375, 36.25, 36.125, 36.0625, 36.0625, 36, 36, 36, 36, 36, 35.75, 35.5, 35.25, 35, 35, 34.9375, 34.9375, 34.9375, 34.9375, 34.9375, 34.8125, 34.75, 34.6875, 34.625, 34.580357, 34.5625, 34.4375, 34.3125, 34.1875, 34.0625, 34, 33.9375, 33.9375, 33.9375, 33.9375, 34, 33.9375, 33.9375, 33.75, 33.5625, 33.375, 33.125, 33.0625, 33, 32.8125, 32.6875, 32.5625, 32.5, 32.5, 32.375, 32.25, 32.0625, 32, 32.125, 32.125, 32.125, 32.0625, 31.875, 31.8125, 31.5625, 31.4375, 31.375, 31.3125, 31.3125, 31.25, 31.125, 31, 31, 31, 30.75, 30.5625, 30.4375, 30.25, 30.25, 30.25, 30.125, 30.0625, 30.0625, 30, 30, 30, 30, 30, 29.875, 29.6875, 29.4375, 29.1875, 29.0625, 29, 29, 29, 29, 28.9375, 28.875, 28.75, 28.5625, 28.5, 28.4375, 28.375, 28.3125, 28.1875, 28.0625, 28, 28, 28, 28, 27.875, 27.6875, 27.5, 27.25, 27.125, 27.0625, 27, 27, 27, 27, 27, 27, 27, 26.8125, 26.625, 26.375, 26.125, 26.0625, 26, 26, 26, 26, 26, 25.8125, 25.6875, 25.5, 25.3125, 25.25, 25.125, 25.0625, 25, 24.9375, 24.8125, 24.8125, 24.8125, 24.8125, 24.9375, 24.9375, 24.9375, 25, 24.75, 24.5, 24.25, 24, 24, 24, 23.9375, 23.75, 23.625, 23.5625, 23.5625, 23.625, 23.625, 23.5, 23.3125, 23.1875, 23.0625, 23, 23, 23, 23, 23, 22.9375, 22.9375, 22.8125, 22.625, 22.4375, 22.1875, 22.0625, 22, 22, 22, 21.875, 21.75, 21.5, 21.3125, 21.1875, 21.0625, 21.0625, 20.9375, 20.875, 20.875, 20.875, 20.9375, 21, 21, 21, 20.9375, 20.6875, 20.4375, 20.1875, 20, 20, 20, 20, 20, 20, 19.9375, 19.875, 19.6875, 19.4375, 19.25, 19.0625, 19.0625, 19.0625, 19.0625, 19.0625, 19, 19, 18.75, 18.625, 18.5, 18.25, 18.25, 18.125, 18, 18, 18, 18, 18, 17.9375, 17.875, 17.625, 17.5, 17.5625, 17.375, 17.375, 17.25, 17, 17, 17, 17, 17, 16.875, 16.6875, 16.5, 16.25, 16.125, 16.0625, 16, 16, 15.8125, 15.6875, 15.5, 15.25, 15.25, 15.25, 15.3125, 15.375, 15.3125, 15.125, 14.964286, 15, 15.107143, 15.125, 15.125, 15.0625, 15, 15, 15, 15, 15, 15.0625, 15.125, 15.25, 15.375, 15.5, 15.625, 15.75, 15.8125, 15.6875, 15.5625, 15.625, 15.723214, 15.75, 15.8125, 15.5, 15.464286, 15.857143, 16.196428, 16.5, 16.75, 16.8125, 16.9375, 17, 17, 17, 17, 17, 17.0625, 17.1875, 17.375, 17.625, 17.8125, 17.84375, 17.71875, 17.53125, 17.40625, 17.5, 17.75, 18.035713, 18.125, 18.25, 18.3125, 18.5, 18.75, 18.875, 19, 19.125, 19.125, 19.125, 19.125, 19, 19.25, 19.5, 19.607143, 19.674999, 19.741072, 19.741072, 19.875, 20.0625
-10, -10, -10, -10, -10, -10, -10, -10, -10, -10, -10, -10, -10, -10, -10, -10, -10, -10, -10, -10, -10, 37, 37, 36.9375, 36.9375, 36.9375, 36.875, 36.8125, 36.5625, 36.3125, 36.25, 36.125, 36.125, 36.125, 36, 36, 36, 35.9375, 35.9375, 35.6875, 35.5, 35.3125, 35.0625, 35.0625, 34.9375, 34.9375, 34.9375, 34.9375, 34.9375, 34.875, 34.875, 34.8125, 34.6875, 34.517857, 34.375, 34.25, 34.1875, 34.125, 34.0625, 34, 33.9375, 34, 34, 34, 34.0625, 33.875, 33.875, 33.6875, 33.5, 33.375, 33.125, 33.0625, 33, 32.8125, 32.6875, 32.5625, 32.5, 32.5, 32.375, 32.25, 32.0625, 32, 32.0625, 32.0625, 32.0625, 32.0625, 32, 31.9375, 31.6875, 31.5, 31.3125, 31.1875, 31.1875, 31.125, 31.0625, 31, 31, 31, 30.75, 30.625, 30.5, 30.3125, 30.375, 30.25, 30.125, 30.0625, 30, 30, 30, 30, 30, 29.9375, 29.8125, 29.625, 29.4375, 29.3125, 29.25, 29.1875, 29.125, 29.0625, 28.9375, 28.8125, 28.6875, 28.5625, 28.4375, 28.4375, 28.375, 28.3125, 28.25, 28.125, 28.0625, 28, 28, 28, 27.9375, 27.875, 27.75, 27.625, 27.4375, 27.25, 27.125, 27, 27, 27, 27, 26.9375, 26.875, 26.8125, 26.6875, 26.625, 26.4375, 26.25, 26.125, 26, 26, 26, 26, 26, 25.8125, 25.6875, 25.5, 25.25, 25.1875, 25.0625, 25, 25, 24.875, 24.6875, 24.6875, 24.6875, 24.75, 24.9375, 24.9375, 24.875, 24.9375, 24.6875, 24.5, 24.294643, 23.892857, 23.892857, 23.8125, 23.8125, 23.75, 23.6875, 23.75, 23.8125, 23.75, 23.6875, 23.4375, 23.1875, 23.125, 23, 23, 23, 23, 23, 23, 22.9375, 22.875, 22.6875, 22.4375, 22.25, 22.0625, 22, 22, 22, 22.0625, 21.9375, 21.8125, 21.5625, 21.375, 21.3125, 21.25, 21.25, 21.0625, 20.9375, 20.875, 20.875, 20.9375, 21, 21, 21, 20.9375, 20.6875, 20.4375, 20.1875, 20, 20, 20, 20, 20, 20, 19.9375, 19.875, 19.625, 19.375, 19.1875, 19.0625, 19.1875, 19.1875, 19.1875, 19.125, 19, 19, 18.8125, 18.625, 18.4375, 18.1875, 18.125, 18.0625, 18, 18, 18, 18, 18, 17.875, 17.8125, 17.625, 17.5625, 17.625, 17.4375, 17.4375, 17.25, 17.0625, 17.0625, 17, 17, 17, 16.8125, 16.5625, 16.4375, 16.1875, 16.125, 16.125, 16, 16, 15.875, 15.8125, 15.6875, 15.4375, 15.375, 15.3125, 15.25, 15.339286, 15.419643, 15.232143, 15.026786, 14.964286, 15.044643, 15.0625, 15.125, 15.0625, 15, 15, 14.9375, 14.875, 14.875, 14.9375, 15.0625, 15.25, 15.375, 15.5625, 15.75, 15.875, 16, 15.8125, 15.5625, 15.5625, 15.5625, 15.625, 15.75, 15.5625, 15.526786, 15.857143, 16.223213, 16.5625, 16.8125, 16.9375, 17, 17, 17, 17, 17, 17.0625, 17.1875, 17.25, 17.4375, 17.625, 17.75, 17.78125, 17.59375, 17.46875, 17.34375, 17.5625, 17.875, 18.098213, 18.1875, 18.25, 18.3125, 18.5, 18.75, 18.875, 19, 19.0625, 19.0625, 19.0625, 19.125, 19.125, 19.375, 19.625, 19.732143, 19.799999, 19.928572, 19.928572, 20, 20.125, 20.375, 20.625, 20.875, 21, 21, 21, 21, 20.9375, 20.9375, 21, 21, 21.25, 21.5, 21.6875, 21.916666, -10, -10, -10, -10, -10, -10, -10, -10, -10, -10, -10, -10, -10, -10, -10, -10, -10, -10, -10, -10, -10, -10, -10, -10, -10, -10, 37, 37.083332, 37, 37, 37, 36.9375, 36.9375, 36.6875, 36.4375, 36.3125, 36.125, 36.125, 36.125, 36, 36, 36, 35.875, 35.8125, 35.5625, 35.375, 35.25, 35.0625, 35.0625, 34.9375, 34.9375, 34.9375, 34.9375, 35, 35, 35, 35, 34.8125, 34.517857, 34.3125, 34.125, 34.0625, 34.0625, 34.0625, 34, 34, 34.0625, 34.125, 34.125, 34.1875, 34, 33.9375, 33.75, 33.5, 33.375, 33.125, 33.0625, 33, 32.8125, 32.625, 32.4375, 32.3125, 32.3125, 32.3125, 32.25, 32.125, 32.125, 32.098213, 32.026787, 32.0625, 32, 31.9375, 31.8125, 31.5625, 31.375, 31.25, 31.125, 31.125, 31.0625, 31, 31, 31, 31, 30.8125, 30.6875, 30.5625, 30.4375, 30.5, 30.4375, 30.375, 30.25, 30.125, 30.0625, 30, 30, 30, 29.9375, 29.75, 29.5, 29.3125, 29.1875, 29.1875, 29.1875, 29.125, 29.0625, 28.875, 28.6875, 28.5, 28.4375, 28.4375, 28.4375, 28.375, 28.1875, 28.0625, 28, 28, 28, 28, 28, 27.9375, 27.9375, 27.875, 27.75, 27.5625, 27.3125, 27.125, 27, 27, 27, 27, 26.9375, 26.875, 26.75, 26.5625, 26.5, 26.3125, 26.1875, 26.125, 26.0625, 26.0625, 26.0625, 26.0625, 26, 25.875, 25.75, 25.625, 25.4375, 25.3125, 25.1875, 25.0625, 25, 24.875, 24.6875, 24.6875, 24.6875, 24.8125, 25, 24.9375, 24.875, 24.875, 24.6875, 24.625, 24.419643, 24.017857, 23.955357, 23.75, 23.75, 23.6875, 23.6875, 23.8125, 23.875, 23.75, 23.625, 23.375, 23.125, 23.125, 23, 23, 23, 23, 23, 23, 22.9375, 22.875, 22.6875, 22.4375, 22.25, 22.0625, 22, 22, 22, 22.0625, 22, 21.9375, 21.75, 21.625, 21.5, 21.375, 21.3125, 21.0625, 20.9375, 20.875, 20.875, 20.9375, 21, 21, 21, 20.9375, 20.75, 20.5, 20.25, 20.0625, 20, 20, 20, 20, 20, 19.875, 19.75, 19.5, 19.25, 19.125, 19.0625, 19.1875, 19.125, 19.0625, 19, 18.875, 18.9375, 18.875, 18.6875, 18.5, 18.25, 18.125, 18.0625, 18, 18, 18, 18, 18, 17.875, 17.8125, 17.6875, 17.6875, 17.6875, 17.5, 17.4375, 17.1875, 17.0625, 17.0625, 17, 17, 17, 16.8125, 16.625, 16.5625, 16.3125, 16.25, 16.1875, 16, 16.0625, 16, 16, 15.9375, 15.625, 15.5, 15.375, 15.3125, 15.401786, 15.482143, 15.294643, 15.026786, 14.964286, 15.044643, 15.0625, 15.125, 15.0625, 15, 14.9375, 14.8125, 14.6875, 14.6875, 14.8125, 14.9375, 15.1875, 15.25, 15.375, 15.5625, 15.625, 15.8125, 15.6875, 15.5625, 15.625, 15.625, 15.75, 15.875, 15.75, 15.714286, 15.919643, 16.25, 16.5625, 16.8125, 17, 17, 17, 17, 17, 17, 17.0625, 17.1875, 17.25, 17.4375, 17.625, 17.75, 17.84375, 17.691963, 17.558037, 17.53125, 17.6875, 17.9375, 18.0625, 18.125, 18.125, 18.25, 18.4375, 18.6875, 18.875, 19, 19, 19, 19.0625, 19.1875, 19.3125, 19.5625, 19.75, 19.875, 20, 20, 20, 20, 20.125
-10, -10, -10, -10, -10, -10, -10, -10, -10, -10, -10, -10, -10, -10, -10, -10, -10, -10, -10, -10, -10, 37, 37.083332, 37, 37, 37, 36.9375, 36.9375, 36.6875, 36.5, 36.4375, 36.25, 36.25, 36.1875, 36, 36, 36, 35.875, 35.75, 35.5, 35.3125, 35.25, 35.1875, 35.1875, 35.125, 35.0625, 35, 34.9375, 34.9375, 35, 35.044643, 35, 34.75, 34.392857, 34.1875, 34.0625, 34.0625, 34.0625, 34.125, 34.0625, 34.0625, 34.125, 34.125, 34.125, 34.1875, 34, 33.875, 33.6875, 33.4375, 33.3125, 33.125, 33.0625, 33, 32.8125, 32.625, 32.375, 32.1875, 32.1875, 32.1875, 32.1875, 32.125, 32.125, 32.035713, 31.901787, 31.875, 31.75, 31.6875, 31.5625, 31.375, 31.1875, 31.0625, 31, 31, 31, 31, 31, 31, 31, 30.875, 30.875, 30.785713, 30.651787, 30.75, 30.5625, 30.5, 30.3125, 30.125, 30.0625, 30, 30, 30, 29.9375, 29.6875, 29.4375, 29.25, 29.125, 29.1875, 29.1875, 29.125, 29, 28.75, 28.5, 28.3125, 28.25, 28.375, 28.4375, 28.375, 28.25, 28.0625, 28, 28, 28, 28, 28, 27.9375, 27.9375, 27.9375, 27.8125, 27.625, 27.375, 27.125, 27, 27, 27, 27, 26.9375, 26.875, 26.6875, 26.5, 26.4375, 26.25, 26.1875, 26.125, 26.125, 26.125, 26.125, 26.125, 26, 25.9375, 25.875, 25.8125, 25.6875, 25.5, 25.375, 25.1875, 25.0625, 24.9375, 24.75, 24.75, 24.75, 24.875, 24.9375, 24.8125, 24.6875, 24.625, 24.4375, 24.4375, 24.294643, 23.955357, 23.955357, 23.75, 23.8125, 23.8125, 23.8125, 23.9375, 23.9375, 23.75, 23.625, 23.375, 23.125, 23.125, 23, 23, 23, 23, 23, 22.9375, 22.9375, 22.8125, 22.5625, 22.375, 22.125, 22, 22, 22, 22, 22.0625, 22.0625, 22, 21.875, 21.8125, 21.625, 21.5, 21.375, 21.0625, 20.9375, 20.875, 20.875, 20.9375, 21, 21, 21, 20.9375, 20.75, 20.5, 20.25, 20.0625, 20, 20, 20, 20, 20, 19.9375, 19.875, 19.625, 19.375, 19.1875, 19.0625, 19.1875, 19.125, 19.0625, 19, 18.875, 18.875, 18.875, 18.6875, 18.4375, 18.3125, 18.125, 18.0625, 18.0625, 18, 18, 18, 18, 17.875, 17.8125, 17.6875, 17.625, 17.5625, 17.303572, 17.0625, 16.875, 16.8125, 16.9375, 16.9375, 17, 17, 16.875, 16.75, 16.75, 16.5, 16.375, 16.25, 16, 16.0625, 16.0625, 16.0625, 16.0625, 15.8125, 15.625, 15.5, 15.375, 15.401786, 15.482143, 15.294643, 15.026786, 14.964286, 15.044643, 15.0625, 15.125, 15.0625, 15, 14.875, 14.6875, 14.5, 14.5, 14.6875, 14.875, 15.125, 15.125, 15.1875, 15.3125, 15.375, 15.5625, 15.5625, 15.5625, 15.6875, 15.75, 15.875, 16, 16, 16, 16.0625, 16.25, 16.4375, 16.6875, 16.875, 16.875, 16.9375, 16.9375, 16.9375, 17, 17.0625, 17.1875, 17.25, 17.375, 17.5, 17.625, 17.75, 17.723213, 17.714287, 17.75, 17.875, 18.0625, 18.125, 18.1875, 18.1875, 18.3125, 18.5, 18.6875, 18.875, 19, 19, 19, 19.125, 19.3125, 19.5, 19.75, 19.875, 19.9375, 20, 20, 20, 20, 20.0625, 20.25, 20.375, 20.5, 20.625, 20.6875, 20.8125, 21, 21, 21, 21, 21, 21.3125, 21.5625, 21.75, 21.916666, -10, -10, -10, -10, -10, -10, -10, -10, -10, -10, -10, -10, -10, -10, -10, -10, -10, -10, -10, -10, -10, -10, -10, -10, -10, -10, 37, 37.083332, 37, 37, 37, 36.9375, 36.9375, 36.75, 36.625, 36.5625, 36.4375, 36.375, 36.25, 36.0625, 36, 36, 35.875, 35.6875, 35.4375, 35.25, 35.25, 35.3125, 35.3125, 35.25, 35.125, 35, 35, 35, 35, 34.875, 34.75, 34.5, 34.25, 34.125, 34, 34, 34, 34.0625, 34.0625, 34.0625, 34.125, 34.125, 34.125, 34.1875, 34, 33.8125, 33.5625, 33.25, 33.125, 33, 33, 33, 32.875, 32.75, 32.5, 32.25, 32.125, 32.0625, 32, 32, 32.0625, 31.910713, 31.839287, 31.8125, 31.6875, 31.6875, 31.5625, 31.375, 31.1875, 31.125, 31.125, 31.1875, 31.1875, 31.0625, 30.892857, 30.875, 30.875, 30.875, 30.9375, 30.785713, 30.651787, 30.75, 30.5625, 30.5625, 30.375, 30.125, 30.0625, 30, 30, 30, 29.9375, 29.6875, 29.4375, 29.25, 29.125, 29.1875, 29.1875, 29.125, 28.9375, 28.6875, 28.4375, 28.3125, 28.3125, 28.5, 28.625, 28.5625, 28.5, 28.25, 28.125, 28.0625, 28, 28, 28, 27.9375, 27.9375, 27.9375, 27.75, 27.5625, 27.3125, 27.0625, 27, 27, 27, 27, 26.9375, 26.875, 26.6875, 26.5625, 26.4375, 26.25, 26.1875, 26.0625, 26.125, 26.125, 26.125, 26.125, 26, 25.9375, 25.8125, 25.8125, 25.6875, 25.5, 25.4375, 25.1875, 25.0625, 25, 24.875, 24.875, 24.875, 24.9375, 24.875, 24.75, 24.625, 24.5625, 24.4375, 24.4375, 24.294643, 23.955357, 23.955357, 23.75, 23.8125, 23.875, 23.875, 24, 23.9375, 23.6875, 23.5625, 23.3125, 23.125, 23.125, 23, 23, 23, 23, 23, 22.875, 22.8125, 22.625, 22.375, 22.25, 22.0625, 22, 22, 22, 22, 22.0625, 22.0625, 22, 21.875, 21.8125, 21.625, 21.5, 21.375, 21.125, 21.0625, 21, 21, 21, 21, 21, 21, 20.9375, 20.75, 20.5, 20.25, 20.0625, 20, 20, 20, 20, 20, 19.9375, 19.875, 19.625, 19.375, 19.1875, 19.0625, 19.125, 19.0625, 19, 18.9375, 18.875, 18.875, 18.9375, 18.8125, 18.625, 18.5625, 18.375, 18.25, 18.1875, 18.0625, 18, 18, 18, 17.9375, 17.875, 17.75, 17.625, 17.4375, 17.178572, 17, 16.875, 16.875, 17, 16.9375, 17, 17, 16.9375, 16.875, 16.875, 16.625, 16.4375, 16.25, 16, 16.0625, 16.0625, 16.0625, 16.0625, 15.875, 15.625, 15.5, 15.375, 15.276786, 15.419643, 15.294643, 15.0625, 14.964286, 14.9375, 14.9375, 14.9375, 14.9375, 14.875, 14.6875, 14.5, 14.3125, 14.375, 14.5625, 14.75, 14.9375, 14.9375, 15, 15.125, 15.1875, 15.375, 15.4375, 15.5625, 15.75, 15.8125, 15.9375, 16, 16, 16, 16, 16.1875, 16.3125, 16.5, 16.6875, 16.625, 16.6875, 16.71875, 16.78125, 16.90625, 17.03125, 17.125, 17.125, 17.1875, 17.3125, 17.5, 17.75, 17.848213, 17.839287, 17.875, 17.9375, 18.0625, 18.1875, 18.3125, 18.375, 18.5625, 18.6875, 18.8125, 18.9375, 19, 19, 19, 19.125, 19.375, 19.625, 19.875, 20, 20, 20, 20.0625, 20.0625, 20.0625, 20.0625
-10, -10, -10, -10, -10, -10, -10, -10, -10, -10, -10, -10, -10, -10, -10, -10, -10, -10, -10, -10, -10, 37.125, 37.166664, 37.125, 37.125, 37.0625, 37, 37, 36.875, 36.8125, 36.6875, 36.5, 36.375, 36.1875, 36.0625, 36, 36, 35.9375, 35.75, 35.5, 35.25, 35.1875, 35.25, 35.25, 35.25, 35.125, 35, 35, 35, 35, 34.875, 34.6875, 34.5, 34.25, 34.1875, 34.125, 34.0625, 34.0625, 34.0625, 34.0625, 34.0625, 34.0625, 34.0625, 34.0625, 34.125, 34, 33.75, 33.5, 33.1875, 33.0625, 33, 33, 33, 33, 32.910713, 32.580357, 32.392857, 32.25, 32.1875, 32.125, 32.0625, 32.0625, 31.973213, 31.901787, 31.875, 31.75, 31.6875, 31.625, 31.5, 31.3125, 31.25, 31.1875, 31.25, 31.223213, 30.955357, 30.714285, 30.625, 30.6875, 30.8125, 30.9375, 30.785713, 30.651787, 30.625, 30.4375, 30.5, 30.3125, 30.125, 30.0625, 30, 30, 30, 30, 29.8125, 29.625, 29.375, 29.125, 29.0625, 29, 29, 28.875, 28.6875, 28.4375, 28.3125, 28.25, 28.4375, 28.5625, 28.5, 28.5, 28.25, 28.125, 28.0625, 28, 28.0625, 28.0625, 28.0625, 28.0625, 28, 27.75, 27.5, 27.25, 27, 27, 27, 27, 27, 27, 27, 26.875, 26.75, 26.5625, 26.3125, 26.1875, 26.0625, 26.125, 26.125, 26.125, 26.125, 26, 25.9375, 25.8125, 25.8125, 25.75, 25.5625, 25.5625, 25.375, 25.25, 25.241072, 25, 25, 24.9375, 25, 24.875, 24.75, 24.625, 24.5, 24.375, 24.3125, 24.1875, 24.0625, 24.0625, 23.9375, 23.9375, 23.9375, 23.9375, 24, 23.875, 23.625, 23.4375, 23.1875, 23.0625, 23.0625, 23, 23, 23, 23, 23, 22.8125, 22.6875, 22.5, 22.25, 22.1875, 22.0625, 22, 22, 22, 22, 22, 22, 21.875, 21.75, 21.6875, 21.4375, 21.3125, 21.1875, 21, 21, 21, 21, 21, 21, 21, 21, 20.875, 20.6875, 20.4375, 20.1875, 20.0625, 20, 20, 20, 20, 20, 19.9375, 19.875, 19.6875, 19.428572, 19.041666, 18.892857, 18.875, 18.875, 18.875, 18.8125, 18.8125, 18.8125, 18.875, 18.875, 18.6875, 18.625, 18.375, 18.1875, 18.125, 18, 18, 18, 18, 18, 17.875, 17.6875, 17.5, 17.25, 17.053572, 16.875, 16.8125, 16.8125, 16.9375, 16.9375, 17, 16.9375, 16.9375, 16.9375, 16.875, 16.6875, 16.4375, 16.1875, 16, 16.0625, 16.0625, 16.0625, 16.0625, 15.9375, 15.6875, 15.625, 15.5625, 15.375, 15.375, 15.1875, 15, 15, 15, 14.9375, 14.875, 14.875, 14.8125, 14.625, 14.4375, 14.25, 14.3125, 14.5625, 14.75, 14.9375, 14.9375, 14.9375, 15, 15.0625, 15.25, 15.375, 15.625, 15.8125, 15.875, 16, 16, 16, 16, 16, 16.1875, 16.3125, 16.4375, 16.5625, 16.4375, 16.4375, 16.46875, 16.59375, 16.78125, 16.90625, 17, 17, 17.0625, 17.25, 17.5, 17.8125, 17.973213, 17.964287, 18, 17.9375, 18, 18.1875, 18.375, 18.5625, 18.8125, 18.875, 18.9375, 19, 19, 19, 19, 19.125, 19.375, 19.625, 19.875, 20, 20, 20, 20.0625, 20.0625, 20.0625, 20.0625, 20.0625, 20.0625, 20.0625, 20.1875, 20.375, 20.6875, 21, 21.026787, 21.0625, 21, 21.0625, 21.3125, 21.5625, 21.625, 21.749998, -10, -10, -10, -10, -10, -10, -10, -10, -10, -10, -10, -10, -10, -10, -10, -10, -10, -10, -10, -10, -10, -10, -10, -10, -10, -10, 37.25, 37.166664, 37.125, 37.0625, 37, 37, 37, 36.9375, 36.875, 36.75, 36.5625, 36.375, 36.1875, 36.0625, 36, 36, 36, 35.8125, 35.5625, 35.3125, 35.1875, 35.3125, 35.3125, 35.375, 35.3125, 35.1875, 35.25, 35.1875, 35.125, 34.9375, 34.6875, 34.5625, 34.3125, 34.25, 34.125, 34, 34, 34, 34.0625, 34.0625, 34.0625, 34, 34, 34, 33.875, 33.6875, 33.4375, 33.1875, 33.0625, 33, 33, 33, 33.0625, 32.973213, 32.705357, 32.580357, 32.4375, 32.3125, 32.1875, 32.0625, 31.9375, 31.9375, 31.9375, 31.875, 31.8125, 31.75, 31.75, 31.6875, 31.5, 31.375, 31.25, 31.25, 31.223213, 30.955357, 30.651785, 30.5625, 30.625, 30.75, 30.9375, 30.785713, 30.589287, 30.5, 30.25, 30.25, 30.125, 30, 30, 30, 30, 30, 30, 29.875, 29.75, 29.5625, 29.3125, 29.1875, 29.0625, 29, 28.875, 28.6875, 28.4375, 28.375, 28.3125, 28.5, 28.6875, 28.5625, 28.5625, 28.3125, 28.125, 28.0625, 28, 28.125, 28.125, 28.125, 28.125, 28, 27.75, 27.5, 27.25, 27, 27, 26.9375, 26.964287, 27.035713, 27, 27, 26.8125, 26.6875, 26.5, 26.3125, 26.1875, 26.0625, 26.0625, 26.0625, 26.0625, 26.0625, 26, 25.9375, 25.875, 25.875, 25.8125, 25.6875, 25.6875, 25.5625, 25.5, 25.419643, 25, 25, 24.875, 25, 24.875, 24.75, 24.5625, 24.375, 24.1875, 24.0625, 24, 23.9375, 24, 24, 24, 24, 24, 24, 23.875, 23.625, 23.375, 23.125, 23, 23, 23, 23, 23, 23, 23, 22.75, 22.5625, 22.375, 22.125, 22.125, 22.0625, 22, 22, 22, 22, 22, 22, 21.875, 21.6875, 21.5625, 21.3125, 21.1875, 21.125, 21, 21, 21, 20.9375, 20.9375, 20.9375, 20.9375, 21, 20.8125, 20.5625, 20.3125, 20.0625, 20, 20, 20, 20, 20, 20, 20, 20, 19.875, 19.616072, 19.166666, 18.955357, 18.875, 18.9375, 19, 18.875, 18.875, 18.8125, 18.8125, 18.875, 18.6875, 18.625, 18.375, 18.1875, 18.125, 18, 18, 18, 18, 18, 17.875, 17.6875, 17.5, 17.25, 17.053572, 16.875, 16.8125, 16.8125, 16.9375, 16.9375, 17, 16.9375, 16.9375, 16.875, 16.75, 16.5625, 16.3125, 16.125, 16, 16, 16, 16, 16, 16, 15.8125, 15.75, 15.625, 15.375, 15.3125, 15.125, 15, 15, 15, 14.9375, 14.875, 14.875, 14.8125, 14.6875, 14.5625, 14.4375, 14.5, 14.6875, 14.875, 15, 15, 15, 15, 15.0625, 15.1875, 15.25, 15.5, 15.625, 15.6875, 15.84375, 15.84375, 15.84375, 15.90625, 15.875, 16, 16.1875, 16.285713, 16.375, 16.25, 16.1875, 16.28125, 16.46875, 16.71875, 16.90625, 17, 17.0625, 17.1875, 17.3125, 17.5625, 17.75, 17.875, 18, 18, 18, 18, 18.1875, 18.4375, 18.6875, 18.9375, 19, 19, 19, 19, 19, 19, 19.125, 19.3125, 19.5625, 19.8125, 19.9375, 20, 20, 20.0625, 20.0625, 20.0625, 20.0625
-10, -10, -10, -10, -10, -10, -10, -10, -10, -10, -10, -10, -10, -10, -10, -10, -10, -10, -10, -10, -10, 37.375, 37.25, 37.1875, 37, 36.9375, 36.9375, 36.9375, 37, 36.875, 36.6875, 36.5, 36.25, 36.125, 36.0625, 36, 36, 36, 35.875, 35.6875, 35.4375, 35.25, 35.1875, 35.125, 35.25, 35.357143, 35.3125, 35.375, 35.25, 35.0625, 34.875, 34.6875, 34.5625, 34.375, 34.3125, 34.125, 34, 34, 33.9375, 34, 34, 34, 34, 34, 34, 33.875, 33.75, 33.5, 33.25, 33.125, 33, 33, 33, 33.0625, 32.910713, 32.642857, 32.580357, 32.4375, 32.375, 32.25, 32.0625, 31.9375, 31.9375, 32, 32, 32, 32, 32, 31.9375, 31.6875, 31.5, 31.3125, 31.25, 31.223213, 30.955357, 30.651785, 30.5625, 30.625, 30.75, 30.875, 30.75, 30.625, 30.4375, 30.25, 30.1875, 30.0625, 30, 30, 30, 30, 30, 30, 29.9375, 29.875, 29.678572, 29.229166, 29.080357, 28.9375, 28.9375, 28.9375, 28.8125, 28.625, 28.5625, 28.5, 28.625, 28.8125, 28.6875, 28.625, 28.375, 28.125, 28.0625, 28, 28.125, 28.125, 28.125, 28.125, 28, 27.75, 27.5, 27.25, 27, 27, 26.9375, 26.901787, 26.910713, 26.875, 26.8125, 26.6875, 26.625, 26.4375, 26.3125, 26.25, 26.125, 26.0625, 26.0625, 26, 26, 26, 25.9375, 25.8125, 25.8125, 25.75, 25.6875, 25.6875, 25.5625, 25.5625, 25.392857, 24.964287, 25, 24.8125, 25, 24.875, 24.75, 24.5625, 24.375, 24.25, 24.125, 24.0625, 24, 24, 24, 24, 24, 24, 24, 23.875, 23.625, 23.375, 23.125, 23, 23, 23, 23, 23, 23, 23, 22.75, 22.5, 22.3125, 22.0625, 22.0625, 22.0625, 22, 22, 22, 22, 22, 21.9375, 21.875, 21.6875, 21.5, 21.3125, 21.1875, 21.1875, 21.125, 21.125, 21.0625, 20.9375, 20.9375, 20.9375, 20.9375, 21, 20.8125, 20.5625, 20.3125, 20.0625, 20, 20, 20, 20, 20, 20, 20, 20, 19.9375, 19.678572, 19.229166, 19.017857, 18.875, 18.9375, 19, 18.875, 18.875, 18.875, 18.875, 18.875, 18.6875, 18.5, 18.25, 18.125, 18.0625, 18, 18, 18, 18, 18, 17.875, 17.75, 17.625, 17.375, 17.25, 17.1875, 17.0625, 17.0625, 17.0625, 17, 17, 16.9375, 16.9375, 16.875, 16.6875, 16.5, 16.25, 16.0625, 16, 16, 16, 16, 16, 16, 15.875, 15.8125, 15.625, 15.375, 15.25, 15.0625, 15, 15, 15, 14.9375, 14.9375, 14.9375, 14.875, 14.8125, 14.6875, 14.625, 14.6875, 14.8125, 14.9375, 15, 15, 15, 15, 15.0625, 15.1875, 15.1875, 15.375, 15.5, 15.5, 15.65625, 15.65625, 15.65625, 15.78125, 15.8125, 16, 16.1875, 16.223213, 16.25, 16.125, 16.0625, 16.21875, 16.46875, 16.71875, 16.90625, 17, 17.0625, 17.1875, 17.375, 17.625, 17.8125, 17.9375, 18, 18, 18, 18, 18.125, 18.375, 18.625, 18.875, 19, 19, 19, 19, 19, 19, 19.0625, 19.1875, 19.375, 19.5625, 19.75, 19.9375, 20.107143, 20.25, 20.3125, 20.3125, 20.3125, 20.3125, 20.375, 20.375, 20.5625, 20.8125, 21.169643, 21.4375, 21.526787, 21.5625, 21.59375, 21.59375, 21.71875, 21.84375, 21.758928, 22.041666, -10, -10, -10, -10, -10, -10, -10, -10, -10, -10, -10, -10, -10, -10, -10, -10, -10, -10, -10, -10, -10, -10, -10, -10, -10, -10, 37.375, 37.25, 37.1875, 37, 36.875, 36.875, 36.875, 36.9375, 36.8125, 36.5625, 36.3125, 36.0625, 36, 36, 36, 36, 36, 35.9375, 35.8125, 35.5625, 35.3125, 35.1875, 35.0625, 35.1875, 35.419643, 35.375, 35.4375, 35.3125, 35.0625, 34.9375, 34.8125, 34.75, 34.625, 34.5, 34.25, 34.0625, 34, 33.9375, 34, 34, 34, 34, 34, 34, 33.9375, 33.875, 33.6875, 33.5, 33.3125, 33.125, 33.0625, 33, 33.0625, 32.910713, 32.705357, 32.642857, 32.5, 32.4375, 32.3125, 32.125, 32, 32, 32, 32, 32, 32, 32, 32, 31.75, 31.5, 31.25, 31.0625, 31.035713, 30.892857, 30.758928, 30.6875, 30.75, 30.8125, 30.875, 30.8125, 30.75, 30.5, 30.3125, 30.1875, 30, 30, 30, 30, 30, 30, 29.9375, 29.9375, 29.875, 29.678572, 29.291666, 29.080357, 28.9375, 28.9375, 29, 28.875, 28.75, 28.6875, 28.625, 28.75, 28.875, 28.6875, 28.5, 28.25, 28, 28, 28, 28.125, 28.125, 28.125, 28.125, 28, 27.75, 27.5, 27.25, 27, 27, 26.9375, 26.839287, 26.785713, 26.6875, 26.625, 26.5625, 26.5625, 26.4375, 26.3125, 26.25, 26.125, 26.0625, 26.0625, 26, 26, 26, 26, 25.9375, 25.9375, 25.9375, 25.875, 25.8125, 25.75, 25.669643, 25.285713, 24.857143, 24.875, 24.75, 25, 24.875, 24.6875, 24.4375, 24.1875, 24.0625, 24, 24, 24, 24, 24, 24, 24, 24, 24, 23.9375, 23.6875, 23.4375, 23.1875, 23, 23, 23, 23, 23, 23, 22.9375, 22.6875, 22.4375, 22.25, 22.0625, 22.0625, 22.0625, 22, 22, 22, 22, 22, 21.9375, 21.8125, 21.6875, 21.5, 21.3125, 21.3125, 21.25, 21.25, 21.25, 21.125, 21, 20.9375, 20.9375, 20.9375, 20.9375, 20.75, 20.5, 20.25, 20.0625, 20, 20, 20, 20, 20, 20, 20, 20, 19.9375, 19.678572, 19.229166, 19.017857, 18.875, 18.9375, 19, 18.875, 18.875, 18.875, 18.875, 18.875, 18.6875, 18.5, 18.1875, 18.0625, 18, 17.9375, 18, 18, 18, 18, 17.9375, 17.8125, 17.6875, 17.4375, 17.25, 17.125, 17, 17, 17, 16.9375, 16.9375, 16.875, 16.875, 16.875, 16.625, 16.4375, 16.1875, 16, 16, 16, 16, 16, 16, 16, 15.9375, 15.875, 15.6875, 15.4375, 15.25, 15.0625, 15, 15, 15, 14.9375, 15, 15, 15, 15, 14.8125, 14.6875, 14.6875, 14.75, 14.875, 15, 15, 15, 15, 15.0625, 15.125, 15.125, 15.25, 15.375, 15.375, 15.46875, 15.46875, 15.40625, 15.59375, 15.6875, 15.8125, 16.0625, 16.035713, 16.0625, 16.0625, 16.0625, 16.3125, 16.5625, 16.8125, 16.9375, 17.0625, 17.125, 17.25, 17.375, 17.5625, 17.75, 17.875, 18, 18, 18.0625, 18.0625, 18.125, 18.375, 18.5625, 18.8125, 19, 19, 19, 19, 19, 19, 19.0625, 19.125, 19.3125, 19.5, 19.75, 20.0625, 20.294643, 20.4375, 20.5, 20.5, 20.53125
-10, -10, -10, -10, -10, -10, -10, -10, -10, -10, -10, -10, -10, -10, -10, -10, -10, -10, -10, -10, -10, 37.25, 37.166664, 37.125, 36.9375, 36.875, 36.875, 36.875, 36.9375, 36.75, 36.5, 36.25, 36, 36, 36, 36, 36, 36, 35.9375, 35.875, 35.625, 35.4375, 35.375, 35.1875, 35.3125, 35.482143, 35.375, 35.4375, 35.3125, 35.0625, 34.9375, 34.875, 34.75, 34.625, 34.4375, 34.125, 34, 33.9375, 33.9375, 34, 34.0625, 34.035713, 33.964287, 34, 33.875, 33.875, 33.8125, 33.625, 33.5625, 33.375, 33.1875, 33.125, 33, 33, 32.875, 32.8125, 32.75, 32.625, 32.5, 32.375, 32.1875, 32.0625, 32.0625, 32, 32, 32, 32, 32, 31.9375, 31.6875, 31.4375, 31.1875, 31, 31, 31, 30.9375, 30.9375, 30.9375, 30.9375, 30.9375, 30.8125, 30.6875, 30.4375, 30.25, 30.125, 30, 30, 30, 30, 30, 30, 30, 30, 29.875, 29.633928, 29.229166, 29.017857, 28.9375, 28.9375, 29, 28.9375, 28.875, 28.875, 28.875, 28.9375, 29, 28.75, 28.5, 28.25, 28, 28, 28, 28.0625, 28.0625, 28.0625, 28.0625, 28, 27.8125, 27.625, 27.4375, 27.1875, 27.125, 27, 26.839287, 26.785713, 26.6875, 26.625, 26.5625, 26.5625, 26.375, 26.25, 26.1875, 26.125, 26.125, 26.125, 26.0625, 26, 26, 26, 25.9375, 25.9375, 25.875, 25.8125, 25.6875, 25.5625, 25.482143, 25.107141, 24.857143, 24.875, 24.8125, 25, 24.8125, 24.5625, 24.3125, 24.0625, 24, 24, 24, 24, 24, 24, 24, 24, 24, 24, 24, 23.75, 23.5, 23.25, 23, 23, 23, 23, 23, 23, 22.9375, 22.6875, 22.4375, 22.3125, 22.1875, 22.1875, 22.1875, 22.0625, 22, 22, 22, 22, 21.9375, 21.8125, 21.75, 21.625, 21.4375, 21.4375, 21.3125, 21.25, 21.1875, 21.0625, 20.9375, 20.875, 20.9375, 20.9375, 20.9375, 20.75, 20.5, 20.25, 20.0625, 20, 20, 20, 20, 20, 20, 20, 20, 19.875, 19.625, 19.375, 19.125, 19, 19, 19, 18.9375, 18.9375, 18.9375, 18.9375, 18.875, 18.6875, 18.5, 18.3125, 18.1875, 18.125, 18.0625, 18, 18, 18, 18, 18, 17.875, 17.8125, 17.5625, 17.3125, 17.1875, 17, 17, 17, 16.875, 16.8125, 16.75, 16.75, 16.8125, 16.6875, 16.5, 16.25, 16.0625, 16, 16, 16, 16, 16, 15.9375, 15.875, 15.75, 15.625, 15.5, 15.3125, 15.1875, 15.0625, 15, 15, 15, 15.0625, 15.0625, 15.0625, 15.0625, 14.875, 14.75, 14.75, 14.75, 14.875, 15, 15.0625, 15.0625, 15.0625, 15.0625, 15, 15, 15.0625, 15.1875, 15.1875, 15.21875, 15.28125, 15.28125, 15.53125, 15.6875, 15.75, 15.9375, 15.910714, 16, 16.125, 16.25, 16.5625, 16.75, 16.9375, 17, 17.0625, 17.125, 17.25, 17.375, 17.5625, 17.75, 17.875, 18, 18, 18.0625, 18.0625, 18.125, 18.375, 18.5625, 18.8125, 19, 19, 19.0625, 19.125, 19.1875, 19.25, 19.3125, 19.3125, 19.4375, 19.5625, 19.8125, 20.1875, 20.544643, 20.8125, 20.875, 20.875, 20.875, 21, 21.1875, 21.25, 21.4375, 21.625, 21.857143, 22.125, 22.1875, 22.125, 22.1875, 22.0625, 22.1875, 22.1875, 22.205357, 22.625, -10, -10, -10, -10, -10, -10, -10, -10, -10, -10, -10, -10, -10, -10, -10, -10, -10, -10, -10, -10, -10, -10, -10, -10, -10, -10, 37.125, 37, 37, 36.875, 36.8125, 36.875, 36.875, 36.9375, 36.75, 36.5, 36.25, 36, 36, 36, 36, 36, 36, 36, 36, 35.8125, 35.6875, 35.5, 35.25, 35.25, 35.294643, 35.1875, 35.1875, 35.0625, 34.875, 34.8125, 34.8125, 34.6875, 34.5625, 34.375, 34.125, 34.0625, 34, 34, 34, 34.0625, 34.035713, 33.964287, 34, 33.8125, 33.75, 33.625, 33.4375, 33.4375, 33.3125, 33.1875, 33.125, 33, 33, 32.9375, 32.875, 32.75, 32.5625, 32.4375, 32.3125, 32.1875, 32.125, 32.0625, 32, 32, 32, 32, 32, 31.875, 31.625, 31.375, 31.125, 31, 31, 31, 31, 31, 31, 31, 31, 30.875, 30.75, 30.5, 30.25, 30.125, 30, 30, 30, 30, 30, 30, 30, 30, 29.875, 29.633928, 29.291666, 29.080357, 29, 29, 29, 29, 29, 29, 28.9375, 28.9375, 28.9375, 28.6875, 28.5, 28.25, 28, 28, 28, 28, 28, 28, 28, 28, 27.875, 27.75, 27.5625, 27.3125, 27.1875, 27.0625, 26.875, 26.75, 26.6875, 26.625, 26.6875, 26.75, 26.5625, 26.375, 26.3125, 26.25, 26.232143, 26.125, 26.0625, 25.9375, 26, 26, 25.9375, 25.9375, 25.8125, 25.6875, 25.5, 25.3125, 25.169643, 24.866072, 24.794643, 24.8125, 24.875, 24.9375, 24.6875, 24.4375, 24.1875, 24.0625, 24.125, 24.125, 24.125, 24.0625, 24, 24, 24, 24, 24, 23.9375, 23.875, 23.625, 23.375, 23.1875, 23, 23, 23, 23, 23, 23, 22.9375, 22.75, 22.5, 22.375, 22.3125, 22.25, 22.25, 22.125, 22, 22, 22, 22, 21.9375, 21.8125, 21.8125, 21.75, 21.5625, 21.5625, 21.375, 21.25, 21.1875, 21.0625, 21, 20.9375, 21, 21, 20.9375, 20.75, 20.5, 20.25, 20.0625, 20, 20, 20, 20, 20, 20, 20, 20, 19.8125, 19.5625, 19.3125, 19.0625, 19, 19, 19, 19, 19, 18.9375, 18.875, 18.8125, 18.625, 18.5, 18.375, 18.1875, 18.125, 18.0625, 18, 18, 17.9375, 17.875, 17.875, 17.6875, 17.625, 17.4375, 17.1875, 17.125, 17, 17, 17, 16.875, 16.75, 16.625, 16.625, 16.75, 16.75, 16.625, 16.375, 16.1875, 16.0625, 16.0625, 16.0625, 16, 16, 15.875, 15.75, 15.6875, 15.5625, 15.5, 15.375, 15.1875, 15.0625, 15, 15, 15, 15.0625, 15.0625, 15.0625, 15.0625, 14.875, 14.75, 14.75, 14.75, 14.875, 15.0625, 15.1875, 15.1875, 15.1875, 15.125, 15, 15, 15, 15.125, 15.125, 15.1875, 15.375, 15.473214, 15.6875, 15.9375, 16, 16.125, 16.125, 16.1875, 16.3125, 16.5, 16.75, 16.875, 17, 17, 17.0625, 17.0625, 17.125, 17.3125, 17.5, 17.75, 17.9375, 18, 18, 18.0625, 18.0625, 18.1875, 18.375, 18.5625, 18.8125, 18.9375, 19, 19.0625, 19.1875, 19.3125, 19.4375, 19.5, 19.5, 19.5625, 19.6875, 20, 20.375, 20.857143, 21.1875, 21.25, 21.25, 21.21875
-10, -10, -10, -10, -10, -10, -10, -10, -10, -10, -10, -10, -10, -10, -10, -10, -10, -10, -10, -10, -10, 37, 36.916668, 36.9375, 36.875, 36.8125, 36.875, 36.875, 36.9375, 36.75, 36.5, 36.25, 36, 36, 36, 36, 36, 36, 36, 36, 35.875, 35.8125, 35.75, 35.5, 35.375, 35.25, 35.0625, 35.0625, 35, 34.9375, 34.9375, 34.9375, 34.875, 34.75, 34.5625, 34.375, 34.25, 34.125, 34.0625, 34, 34.0625, 34.035713, 33.964287, 34, 33.8125, 33.6875, 33.5, 33.3125, 33.3125, 33.25, 33.1875, 33.125, 33, 33, 33, 32.9375, 32.75, 32.625, 32.4375, 32.3125, 32.25, 32.125, 32.0625, 32, 32, 31.9375, 31.9375, 31.9375, 31.8125, 31.625, 31.375, 31.125, 31, 31, 31, 31, 31, 31, 31, 31, 30.8125, 30.625, 30.375, 30.125, 30.0625, 30, 30, 30, 30, 30, 30, 30, 30, 29.875, 29.705357, 29.625, 29.375, 29.25, 29.125, 29, 29, 29, 29, 28.9375, 28.875, 28.8125, 28.5625, 28.375, 28.1875, 28, 28, 28, 28, 28, 28, 27.9375, 27.9375, 27.875, 27.75, 27.625, 27.375, 27.1875, 27.0625, 26.9375, 26.875, 26.8125, 26.8125, 26.875, 26.875, 26.6875, 26.4375, 26.3125, 26.3125, 26.357143, 26.25, 26.1875, 26, 26, 25.928572, 25.75, 25.75, 25.625, 25.625, 25.4375, 25.3125, 25.107143, 24.830357, 24.830357, 24.8125, 24.9375, 24.9375, 24.75, 24.5, 24.25, 24.125, 24.1875, 24.1875, 24.1875, 24.125, 24, 24, 24, 24, 23.9375, 23.8125, 23.6875, 23.4375, 23.25, 23.125, 23, 23, 23, 23, 23, 23, 22.9375, 22.8125, 22.625, 22.5625, 22.5625, 22.4375, 22.375, 22.1875, 22, 22, 21.9375, 21.9375, 21.9375, 21.8125, 21.875, 21.875, 21.625, 21.5625, 21.3125, 21.125, 21.0625, 21, 21, 20.9375, 21, 21, 20.9375, 20.75, 20.5, 20.25, 20.0625, 20, 20, 20, 20, 20, 19.9375, 19.9375, 19.875, 19.625, 19.4375, 19.1875, 19, 19, 19, 19, 19, 19, 18.9375, 18.875, 18.875, 18.6875, 18.5625, 18.4375, 18.1875, 18.125, 18.0625, 18, 18, 17.9375, 17.8125, 17.8125, 17.5625, 17.4375, 17.3125, 17.0625, 17.0625, 17, 17, 17, 16.875, 16.75, 16.5625, 16.5, 16.625, 16.6875, 16.625, 16.4375, 16.3125, 16.125, 16.125, 16.125, 16, 16, 15.875, 15.75, 15.6875, 15.5625, 15.5, 15.375, 15.1875, 15.0625, 15, 15, 15, 15, 14.9375, 14.9375, 14.9375, 14.8125, 14.75, 14.6875, 14.6875, 14.8125, 15.0625, 15.25, 15.25, 15.25, 15.1875, 15.125, 15.125, 15.125, 15.1875, 15.125, 15.25, 15.5625, 15.696428, 15.875, 16.0625, 16.0625, 16.25, 16.3125, 16.4375, 16.5625, 16.6875, 16.875, 16.9375, 17, 17, 17.0625, 17.0625, 17.1875, 17.375, 17.5625, 17.8125, 17.9375, 18, 18, 18.0625, 18.0625, 18.25, 18.4375, 18.625, 18.875, 18.9375, 19, 19.0625, 19.1875, 19.3125, 19.5, 19.625, 19.75, 19.9375, 20.125, 20.4375, 20.6875, 21.0625, 21.607143, 22.171429, 22.204082, 22.321428, 22.653061, 25.958334, 25.492064, 23.736113, 22.642857, 22.1875, 22.25, 21.991072, 21.6875, 21.6875, 21.669643, 21.9375, 22.0625, 22.196428, -10, -10, -10, -10, -10, -10, -10, -10, -10, -10, -10, -10, -10, -10, -10, -10, -10, -10, -10, -10, -10, -10, -10, -10, -10, -10, -10, 37, 36.916668, 36.9375, 36.875, 36.875, 36.9375, 36.9375, 37, 36.75, 36.5, 36.25, 36, 36, 36, 36, 36, 36, 36, 36, 35.9375, 35.9375, 35.875, 35.625, 35.4375, 35.25, 35.0625, 35.0625, 35, 34.9375, 34.9375, 34.9375, 34.875, 34.6875, 34.5625, 34.375, 34.25, 34.1875, 34.0625, 34, 34.0625, 34.035713, 33.964287, 34, 33.8125, 33.6875, 33.4375, 33.1875, 33.1875, 33.125, 33.125, 33.125, 33, 33, 33, 32.875, 32.75, 32.6875, 32.5, 32.4375, 32.3125, 32.125, 32.0625, 32, 32, 31.9375, 31.9375, 31.9375, 31.8125, 31.625, 31.375, 31.125, 31, 31, 31, 31, 31, 31, 31, 31, 30.8125, 30.5625, 30.3125, 30.0625, 29.9375, 29.9375, 29.9375, 29.9375, 30, 30, 30, 30.0625, 30.0625, 30, 29.892857, 29.75, 29.5, 29.3125, 29.125, 29, 29, 29, 29, 28.9375, 28.875, 28.75, 28.5, 28.3125, 28.125, 28, 28, 28, 28, 27.9375, 27.9375, 27.8125, 27.75, 27.75, 27.625, 27.5625, 27.375, 27.1875, 27.0625, 27, 27, 27, 27, 27, 26.875, 26.625, 26.375, 26.25, 26.375, 26.482143, 26.375, 26.3125, 26.0625, 26, 25.866072, 25.625, 25.5625, 25.4375, 25.5, 25.375, 25.25, 25.0625, 24.9375, 24.9375, 24.9375, 25, 24.9375, 24.8125, 24.5625, 24.3125, 24.1875, 24.25, 24.25, 24.25, 24.1875, 24, 23.9375, 23.9375, 23.9375, 23.8125, 23.6875, 23.5625, 23.3125, 23.1875, 23.125, 23, 23, 23, 23, 23, 23, 23, 22.875, 22.75, 22.75, 22.75, 22.625, 22.5, 22.25, 22, 22, 21.9375, 21.9375, 21.9375, 21.875, 21.9375, 21.9375, 21.6875, 21.5, 21.25, 21, 20.9375, 20.9375, 20.9375, 20.9375, 21, 21, 21, 20.875, 20.625, 20.375, 20.1875, 20.0625, 20.0625, 20.0625, 20, 20, 19.9375, 19.9375, 19.875, 19.625, 19.4375, 19.1875, 19, 19, 18.9375, 18.9375, 18.9375, 18.9375, 18.9375, 18.875, 18.8125, 18.5625, 18.375, 18.25, 18.0625, 18.0625, 18.0625, 18, 18, 17.9375, 17.8125, 17.8125, 17.5625, 17.5, 17.375, 17.125, 17.125, 17, 17, 17, 16.9375, 16.8125, 16.625, 16.5625, 16.625, 16.75, 16.6875, 16.5, 16.375, 16.125, 16.125, 16.125, 16, 16, 15.875, 15.75, 15.6875, 15.5, 15.5, 15.4375, 15.25, 15.1875, 15.0625, 15, 14.9375, 14.964286, 14.9375, 14.758928, 14.830357, 14.75, 14.8125, 14.75, 14.75, 14.8125, 15, 15.25, 15.25, 15.25, 15.1875, 15.125, 15.125, 15.125, 15.1875, 15.1875, 15.3125, 15.6875, 15.883928, 16, 16.1875, 16.1875, 16.375, 16.5625, 16.75, 16.875, 16.9375, 17, 17, 17, 17, 17, 17, 17.1875, 17.4375, 17.6875, 17.9375, 18, 18, 18, 18, 18.0625, 18.3125, 18.5, 18.75, 18.9375, 19, 19.125, 19.1875, 19.375, 19.5625, 19.785713, 19.9375, 20.125, 20.25, 20.4375, 20.9375, 21.5, 22.171429, 22.673471, 25.566666, 25.309525, 24.883333
-10, -10, -10, -10, -10, -10, -10, -10, -10, -10, -10, -10, -10, -10, -10, -10, -10, -10, -10, -10, -10, 37, 36.916668, 36.9375, 36.8125, 36.8125, 36.875, 36.875, 36.9375, 36.75, 36.5, 36.25, 36.0625, 36, 36, 36, 36, 36, 36, 36, 36, 36, 35.9375, 35.6875, 35.4375, 35.25, 35.0625, 35.0625, 35, 34.875, 34.875, 34.8125, 34.8125, 34.75, 34.6875, 34.5625, 34.375, 34.25, 34.0625, 34, 34, 34, 34, 34, 33.9375, 33.8125, 33.5625, 33.3125, 33.25, 33.125, 33.125, 33.125, 33, 33, 33, 32.875, 32.75, 32.6875, 32.5, 32.375, 32.25, 32.0625, 32, 32, 32, 31.9375, 31.875, 31.875, 31.75, 31.5625, 31.375, 31.125, 31, 31, 31, 31, 31, 31, 31, 31, 30.875, 30.6875, 30.4375, 30.1875, 30, 29.9375, 29.9375, 29.9375, 30, 30, 30, 30, 30, 30, 30, 29.875, 29.625, 29.375, 29.125, 29, 29, 29, 29, 28.9375, 28.875, 28.6875, 28.4375, 28.25, 28.0625, 28, 28, 28, 28, 27.9375, 27.875, 27.6875, 27.625, 27.625, 27.5, 27.4375, 27.25, 27.0625, 27, 27, 27, 27, 27, 26.9375, 26.75, 26.5, 26.25, 26.1875, 26.3125, 26.419643, 26.3125, 26.25, 26.0625, 26, 25.803572, 25.5, 25.375, 25.25, 25.375, 25.3125, 25.25, 25.0625, 24.9375, 24.9375, 24.9375, 25, 24.9375, 24.8125, 24.5625, 24.3125, 24.25, 24.375, 24.4375, 24.4375, 24.25, 23.964287, 23.875, 23.875, 23.9375, 23.75, 23.625, 23.5, 23.3125, 23.25, 23.1875, 23.0625, 23, 23, 23, 23, 23, 23, 22.9375, 22.8125, 22.75, 22.6875, 22.5, 22.375, 22.1875, 22, 22, 21.9375, 21.9375, 21.9375, 21.9375, 22, 21.9375, 21.6875, 21.4375, 21.1875, 21, 21, 21, 21, 21, 21, 21, 21, 20.875, 20.625, 20.375, 20.1875, 20.0625, 20.0625, 20.0625, 20, 20, 19.875, 19.875, 19.8125, 19.544643, 19.3125, 19.125, 18.9375, 19, 18.875, 18.8125, 18.8125, 18.8125, 18.875, 18.8125, 18.6875, 18.4375, 18.25, 18.125, 18, 18, 18, 18, 18, 17.9375, 17.8125, 17.8125, 17.625, 17.5, 17.375, 17.125, 17.0625, 17, 17, 17, 17, 16.9375, 16.8125, 16.75, 16.75, 16.75, 16.625, 16.4375, 16.3125, 16.125, 16.125, 16.125, 16, 16, 15.9375, 15.875, 15.875, 15.625, 15.5, 15.375, 15.125, 15.125, 15.0625, 15, 14.875, 14.901786, 14.875, 14.633928, 14.767857, 14.75, 14.875, 14.875, 14.875, 14.875, 15, 15.1875, 15.125, 15.0625, 15, 15, 15.0625, 15.1875, 15.3125, 15.375, 15.5625, 15.875, 16.008928, 16.0625, 16.1875, 16.1875, 16.4375, 16.6875, 16.8125, 16.9375, 16.9375, 16.9375, 17, 17, 17, 17, 17, 17.1875, 17.4375, 17.625, 17.901787, 18.035713, 18, 18.0625, 18.0625, 18.1875, 18.4375, 18.625, 18.875, 19.125, 19.357143, 19.5, 19.4375, 19.464287, 19.625, 19.821428, 20.020834, 21.02857, 21.224489, 21.607143, 22.107143, 24.875, 25.65, 25.607141, 26.205553, 25.892859, 24.784721, 24.193878, 25.041666, 24.704367, 23.738096, 23.142857, 22.4375, 22.25, 21.928572, 21.491072, 21.177084, 21.138393, 21.28125, 21.709822, 21.883335, -10, -10, -10, -10, -10, -10, -10, -10, -10, -10, -10, -10, -10, -10, -10, -10, -10, -10, -10, -10, -10, -10, -10, -10, -10, -10, -10, 37, 37.083332, 37.0625, 36.9375, 36.9375, 36.875, 36.875, 36.875, 36.75, 36.5, 36.25, 36.125, 36, 35.9375, 35.875, 35.875, 35.875, 35.9375, 36, 36, 36, 36, 35.75, 35.5, 35.3125, 35.125, 35.125, 35.125, 34.9375, 34.875, 34.75, 34.75, 34.8125, 34.8125, 34.8125, 34.5625, 34.375, 34.125, 34.0625, 34.0625, 34.0625, 34.0625, 34, 33.9375, 33.875, 33.625, 33.375, 33.3125, 33.125, 33.125, 33.125, 33, 33, 33, 32.875, 32.8125, 32.8125, 32.5625, 32.4375, 32.25, 32, 32, 32, 32, 31.9375, 31.875, 31.875, 31.75, 31.5625, 31.375, 31.0625, 30.9375, 30.9375, 30.9375, 31, 31.0625, 31.0625, 31.0625, 31.0625, 30.9375, 30.8125, 30.5625, 30.3125, 30.125, 30, 30, 30, 30, 30, 30, 30, 30, 30, 29.9375, 29.75, 29.5, 29.25, 29.0625, 29, 29, 29, 29, 29, 28.875, 28.625, 28.4375, 28.25, 28.125, 28.125, 28.0625, 28, 28, 27.9375, 27.8125, 27.5625, 27.5, 27.5, 27.375, 27.375, 27.1875, 27, 27, 27, 27, 27, 27, 26.9375, 26.75, 26.5625, 26.3125, 26.1875, 26.25, 26.3125, 26.3125, 26.25, 26.125, 26, 25.741072, 25.375, 25.25, 25.1875, 25.375, 25.375, 25.3125, 25.125, 25, 25, 25, 25, 25, 24.875, 24.625, 24.375, 24.125, 24.214287, 24.419643, 24.419643, 24.3125, 24.026787, 23.875, 23.875, 23.9375, 23.75, 23.6875, 23.625, 23.5, 23.4375, 23.3125, 23.125, 23, 23, 23, 23, 23, 23, 22.9375, 22.875, 22.75, 22.625, 22.4375, 22.25, 22.125, 22, 22, 21.9375, 21.9375, 21.9375, 21.9375, 22, 21.9375, 21.75, 21.5625, 21.3125, 21.125, 21.0625, 21, 21, 21, 21, 21, 21, 20.9375, 20.6875, 20.4375, 20.25, 20.0625, 20.0625, 20.0625, 20, 20, 19.875, 19.8125, 19.6875, 19.419643, 19.1875, 19.0625, 18.9375, 19, 18.875, 18.8125, 18.8125, 18.8125, 18.9375, 18.9375, 18.75, 18.5, 18.25, 18.0625, 18, 18, 18, 18, 18, 18, 17.9375, 17.9375, 17.75, 17.5625, 17.375, 17.125, 17.0625, 17, 17, 17, 17, 16.9375, 16.8125, 16.6875, 16.625, 16.625, 16.5, 16.375, 16.25, 16.0625, 16.0625, 16.0625, 16, 16, 16, 16, 16, 15.8125, 15.6875, 15.5625, 15.3125, 15.25, 15.125, 14.9375, 14.8125, 14.839286, 14.8125, 14.633928, 14.767857, 14.6875, 14.8125, 14.8125, 14.8125, 14.875, 14.9375, 15.0625, 15.0625, 15.0625, 15.0625, 15.1875, 15.25, 15.375, 15.5625, 15.625, 15.75, 15.9375, 15.973214, 16, 16.0625, 16.0625, 16.3125, 16.5625, 16.6875, 16.8125, 16.8125, 16.8125, 17, 17.0625, 17.125, 17.1875, 17.1875, 17.4375, 17.625, 17.75, 17.964287, 18.035713, 18.0625, 18.1875, 18.1875, 18.3125, 18.458334, 18.75, 19, 19.5625, 19.836309, 19.875, 19.75, 19.616072, 19.928572, 20.724489, 21.119047, 24.733332, 25.023809, 25.5, 25.75, 26.275511, 26.569048, 26.306122, 26.295238, 25.821428, 25.261904
-10, -10, -10, -10, -10, -10, -10, -10, -10, -10, -10, -10, -10, -10, -10, -10, -10, -10, -10, -10, -10, 37, 37.083332, 37.0625, 37, 37, 36.9375, 36.9375, 36.8125, 36.6875, 36.4375, 36.1875, 36.125, 36, 35.9375, 35.875, 35.875, 35.875, 35.9375, 36, 36, 36, 36, 35.75, 35.5, 35.3125, 35.125, 35.125, 35.125, 34.9375, 34.875, 34.75, 34.6875, 34.6875, 34.625, 34.625, 34.4375, 34.3125, 34.125, 34.0625, 34.0625, 34.0625, 34.125, 34.125, 34.044643, 33.854168, 33.571426, 33.3125, 33.3125, 33.125, 33.125, 33.125, 33, 33, 32.9375, 32.875, 32.875, 32.875, 32.75, 32.5625, 32.3125, 32.125, 32.0625, 32.0625, 32.0625, 32, 31.9375, 31.9375, 31.8125, 31.5625, 31.375, 31.0625, 31, 31.0625, 31.125, 31.1875, 31.1875, 31.125, 31.0625, 31.0625, 31, 30.875, 30.625, 30.375, 30.125, 30, 30, 30, 30, 30, 30, 30, 30, 30, 29.875, 29.625, 29.375, 29.125, 29, 29, 29, 29, 29, 29, 28.9375, 28.6875, 28.5, 28.375, 28.25, 28.25, 28.1875, 28.0625, 28, 27.9375, 27.75, 27.5625, 27.4375, 27.375, 27.3125, 27.25, 27.125, 27, 27, 27, 27, 27, 27, 26.9375, 26.8125, 26.6875, 26.4375, 26.25, 26.1875, 26.125, 26.125, 26.125, 26.0625, 25.9375, 25.6875, 25.4375, 25.3125, 25.3125, 25.375, 25.375, 25.25, 25.0625, 25, 25, 25, 25, 25, 24.875, 24.6875, 24.4375, 24.1875, 24.214287, 24.357143, 24.357143, 24.25, 24.026787, 23.875, 23.875, 23.9375, 23.8125, 23.8125, 23.8125, 23.75, 23.625, 23.4375, 23.1875, 23, 23, 23, 23, 23, 23, 22.875, 22.8125, 22.625, 22.4375, 22.3125, 22.125, 22.0625, 22, 22, 22, 22, 22, 22, 22, 21.9375, 21.75, 21.5625, 21.3125, 21.125, 21.0625, 21, 21, 21, 21, 21, 21, 20.875, 20.625, 20.375, 20.1875, 20.0625, 20.0625, 20.0625, 20, 20, 19.9375, 19.8125, 19.6875, 19.419643, 19.125, 19.0625, 18.9375, 19, 18.875, 18.8125, 18.8125, 18.8125, 18.9375, 19, 18.785713, 18.455357, 18.196428, 18, 18, 18, 18, 18, 18, 18, 18, 18, 17.8125, 17.625, 17.375, 17.125, 17.0625, 17, 17, 17, 17, 16.9375, 16.875, 16.8125, 16.75, 16.6875, 16.5, 16.3125, 16.125, 16, 16, 16, 16, 16, 16, 16, 16, 15.8125, 15.6875, 15.5625, 15.3125, 15.25, 15.125, 14.875, 14.6875, 14.714286, 14.75, 14.633928, 14.830357, 14.75, 14.8125, 14.875, 14.875, 14.9375, 14.9375, 15, 15, 15, 15, 15.0625, 15.1875, 15.375, 15.625, 15.8125, 15.875, 15.9375, 15.9375, 15.9375, 16.0625, 16.0625, 16.25, 16.4375, 16.5, 16.6875, 16.75, 16.8125, 17, 17.0625, 17.1875, 17.3125, 17.375, 17.625, 17.75, 17.8125, 17.964287, 18.035713, 18.125, 18.25, 18.25, 18.375, 18.395834, -10, -10, 19.9375, 20.252975, 20.517857, 20.761906, 20.765306, 21.239796, 24.464285, 25.069443, 26.199999, 26.37755, 26.75, 26.785715, 26.866072, 27.091667, 26.589287, 25.809525, 25.625, 24.729166, 24.285715, 23.875, 23.5625, 23.3125, 23.125, 22.6875, 22.4375, 22.1875, 21.866072, 21.552084, 21.75, 21.892857, 22.084822, 22.299999, -10, -10, -10, -10, -10, -10, -10, -10, -10, -10, -10, -10, -10, -10, -10, -10, -10, -10, -10, -10, -10, -10, -10, -10, -10, -10, -10, 37, 37.083332, 37.0625, 37, 37, 36.875, 36.8125, 36.625, 36.5, 36.3125, 36.125, 36.125, 36, 35.9375, 35.875, 35.875, 35.875, 35.9375, 36, 35.9375, 35.875, 35.875, 35.625, 35.4375, 35.25, 35.0625, 35.0625, 35.0625, 34.9375, 34.875, 34.6875, 34.5625, 34.5625, 34.4375, 34.5, 34.375, 34.25, 34.1875, 34.125, 34.125, 34.125, 34.125, 34.0625, 33.919643, 33.729168, 33.446426, 33.25, 33.25, 33.0625, 33.0625, 33.0625, 33, 32.9375, 32.875, 32.875, 32.875, 32.875, 32.75, 32.5, 32.25, 32.125, 32.0625, 32.0625, 32.0625, 32, 31.9375, 31.9375, 31.8125, 31.5625, 31.375, 31.125, 31.125, 31.1875, 31.25, 31.25, 31.1875, 31.125, 31.0625, 31.0625, 30.9375, 30.8125, 30.5625, 30.3125, 30.1875, 30.0625, 30.0625, 30.0625, 30, 30, 30, 30, 30, 30, 29.875, 29.6875, 29.4375, 29.1875, 29.0625, 29, 29, 29, 29, 29, 28.9375, 28.6875, 28.5, 28.375, 28.25, 28.25, 28.1875, 28.0625, 28, 28, 27.8125, 27.6875, 27.5625, 27.4375, 27.375, 27.25, 27.125, 27, 27, 27, 27, 27, 27, 26.9375, 26.875, 26.75, 26.5, 26.3125, 26.125, 26, 26.0625, 26.125, 26.107143, 25.854166, 25.642857, 25.4375, 25.4375, 25.5, 25.4375, 25.375, 25.1875, 25, 25, 25, 25, 25, 24.9375, 24.8125, 24.6875, 24.5, 24.375, 24.339287, 24.419643, 24.357143, 24.1875, 24.026787, 23.9375, 23.9375, 24, 23.9375, 23.9375, 23.9375, 23.9375, 23.75, 23.5, 23.25, 23, 23, 23, 23, 23, 23, 22.875, 22.75, 22.5, 22.25, 22.125, 22, 22, 22, 22, 22, 22, 22, 22, 22, 21.9375, 21.75, 21.5625, 21.3125, 21.125, 21.0625, 21, 21, 21, 21, 21, 21, 20.875, 20.6875, 20.4375, 20.1875, 20.0625, 20, 20, 20, 20, 19.875, 19.6875, 19.5, 19.232143, 19, 19, 18.9375, 19, 18.9375, 18.875, 18.875, 18.875, 18.9375, 19.0625, 18.883928, 18.473213, 18.205357, 18, 18, 18, 18, 18, 18, 18, 18, 18, 17.8125, 17.5625, 17.3125, 17.0625, 17, 17, 17, 17, 17, 16.9375, 16.875, 16.8125, 16.6875, 16.5625, 16.375, 16.1875, 16.0625, 16, 16, 16, 16, 16, 16, 16, 15.9375, 15.75, 15.5625, 15.375, 15.1875, 15.125, 15.125, 14.9375, 14.8125, 14.8125, 14.75, 14.8125, 14.9375, 14.875, 14.875, 14.9375, 14.9375, 15, 15, 15, 15, 15, 15, 15.0625, 15.1875, 15.375, 15.625, 15.8125, 15.9375, 16, 16, 16, 16.0625, 16.0625, 16.1875, 16.375, 16.4375, 16.625, 16.75, 16.8125, 17, 17.0625, 17.25, 17.4375, 17.5625, 17.8125, 17.875, 17.875, 17.964287, 18.035713, 18.1875, 18.3125, 18.3125, 18.375, 18.270834, -10, -10, 21.142857, 21.455782, 21.698978, 24.111113, 24.345238, 24.785715, 25.734694, 26.309523, 27.174999, 27.330357, 27.625, 27.4375, 26.866072, 26.541666, 26.0625, 25.520834, 25.25, 24.875
-10, -10, -10, -10, -10, -10, -10, -10, -10, -10, -10, -10, -10, -10, -10, -10, -10, -10, -10, -10, -10, 37.125, 37.133331, 36.955357, 36.955357, 36.9375, 36.8125, 36.75, 36.5, 36.3125, 36.1875, 36.0625, 36.0625, 36, 35.9375, 35.875, 35.875, 35.875, 35.9375, 36, 35.9375, 35.875, 35.8125, 35.5625, 35.375, 35.125, 35, 35, 35, 35, 34.875, 34.6875, 34.5, 34.375, 34.25, 34.3125, 34.25, 34.1875, 34.25, 34.1875, 34.1875, 34.1875, 34.125, 34.0625, 33.857143, 33.604168, 33.321426, 33.125, 33.125, 33, 33, 33, 33, 32.9375, 32.875, 32.875, 32.8125, 32.75, 32.625, 32.375, 32.1875, 32.125, 32.0625, 32.0625, 32.0625, 32, 32, 32, 31.9375, 31.75, 31.5625, 31.375, 31.375, 31.375, 31.375, 31.3125, 31.1875, 31.125, 31.0625, 31, 30.8125, 30.625, 30.375, 30.1875, 30.125, 30.0625, 30.0625, 30.0625, 30, 30, 30, 30, 30, 30, 29.875, 29.75, 29.5625, 29.3125, 29.1875, 29.0625, 29, 29, 28.9375, 28.875, 28.8125, 28.625, 28.5625, 28.5, 28.375, 28.3125, 28.1875, 28.0625, 28, 28, 27.875, 27.8125, 27.625, 27.4375, 27.3125, 27.125, 27.0625, 27, 27, 27, 27, 27, 27, 27, 27, 26.9375, 26.6875, 26.4375, 26.1875, 26, 26.0625, 26.125, 26.044643, 25.791666, 25.642857, 25.5, 25.625, 25.75, 25.6875, 25.5625, 25.3125, 25.0625, 25, 25, 25, 25, 24.9375, 24.875, 24.8125, 24.6875, 24.5625, 24.401787, 24.357143, 24.232143, 24.125, 24.0625, 23.9375, 23.875, 23.875, 23.8125, 23.8125, 23.8125, 23.8125, 23.625, 23.4375, 23.25, 23, 23, 23, 23, 23, 23, 22.875, 22.75, 22.5, 22.25, 22.125, 22, 22, 22, 22, 22, 22, 21.9375, 21.875, 21.875, 21.8125, 21.6875, 21.5625, 21.3125, 21.125, 21.0625, 21, 21, 21, 21, 21, 21, 20.9375, 20.8125, 20.625, 20.375, 20.1875, 20.0625, 20, 20, 19.9375, 19.8125, 19.625, 19.4375, 19.25, 19.125, 19.0625, 19, 19, 19, 19, 19, 19, 19, 19.0625, 18.883928, 18.473213, 18.205357, 18, 18.0625, 18.0625, 18.0625, 18.0625, 18, 17.9375, 17.9375, 17.9375, 17.6875, 17.5, 17.25, 17, 17, 17, 17, 17, 17, 16.9375, 16.875, 16.8125, 16.6875, 16.5625, 16.375, 16.1875, 16.0625, 16, 16, 16, 16, 16, 16, 16, 15.9375, 15.8125, 15.6875, 15.5, 15.3125, 15.25, 15.25, 15.0625, 15, 14.9375, 14.8125, 14.9375, 15, 14.9375, 14.9375, 14.9375, 14.9375, 15, 15, 15, 15.0625, 15.125, 15.125, 15.1875, 15.25, 15.375, 15.625, 15.8125, 15.9375, 16, 16, 16, 16.0625, 16.0625, 16.125, 16.3125, 16.4375, 16.625, 16.875, 17, 17.1875, 17.25, 17.4375, 17.625, 17.75, 18, 18, 18, 18.0625, 18.0625, 18.3125, 18.375, 18.3125, 18.333334, 18.111113, -10, -10, 24.333334, 24.444443, 24.678572, 25.273809, 25.602041, 26.030613, 26.6875, 27.229166, 27.375, 27.4375, 27.4375, 27.25, 26.616072, 26.291666, 25.875, 25.625, 25.375, 25, 24.625, 24.375, 23.9375, 23.5625, 23.3125, 22.9375, 22.625, 22.375, 22.125, 22.09375, 22.21875, 22.46875, 22.71875, 22.833334, -10, -10, -10, -10, -10, -10, -10, -10, -10, -10, -10, -10, -10, -10, -10, -10, -10, -10, -10, -10, -10, -10, -10, -10, -10, -10, -10, 37.125, 36.966667, 36.767857, 36.767857, 36.75, 36.6875, 36.625, 36.4375, 36.1875, 36.125, 36.0625, 36.0625, 36.0625, 36.0625, 36.0625, 36, 36, 36, 36, 35.9375, 35.875, 35.75, 35.5, 35.3125, 35, 34.875, 34.875, 34.875, 35, 34.9375, 34.75, 34.5, 34.25, 34.0625, 34.0625, 34.0625, 34.0625, 34.25, 34.1875, 34.1875, 34.1875, 34.0625, 34.0625, 33.857143, 33.541668, 33.258926, 33.0625, 33.0625, 33, 33, 33, 33, 32.9375, 32.875, 32.875, 32.8125, 32.75, 32.625, 32.375, 32.1875, 32.125, 32.0625, 32.0625, 32.0625, 31.9375, 31.875, 31.875, 31.875, 31.8125, 31.75, 31.6875, 31.625, 31.5625, 31.5, 31.3125, 31.125, 31.0625, 30.9375, 30.8125, 30.625, 30.375, 30.1875, 30.0625, 29.9375, 29.875, 29.875, 29.875, 29.9375, 30, 30, 30, 30, 30, 29.9375, 29.875, 29.6875, 29.4375, 29.25, 29.0625, 29, 29, 28.875, 28.8125, 28.8125, 28.6875, 28.6875, 28.625, 28.5, 28.375, 28.25, 28.125, 28, 28, 27.9375, 27.9375, 27.75, 27.5, 27.3125, 27.0625, 27, 27, 27, 27, 27, 27, 27, 27, 27, 26.9375, 26.6875, 26.375, 26.017857, 25.875, 25.9375, 26.0625, 26.044643, 25.791666, 25.705357, 25.625, 25.75, 25.875, 25.8125, 25.625, 25.375, 25.125, 25, 25, 25, 25, 24.9375, 24.9375, 24.9375, 24.875, 24.875, 24.6875, 24.4375, 24.3125, 24.125, 24.0625, 24, 23.875, 23.875, 23.75, 23.75, 23.75, 23.75, 23.625, 23.4375, 23.3125, 23.0625, 23.0625, 23.0625, 23, 23, 23, 22.875, 22.75, 22.5, 22.25, 22.125, 22, 22, 22, 22, 22, 22, 21.9375, 21.8125, 21.8125, 21.6875, 21.5, 21.375, 21.125, 21, 21, 21, 21, 21, 21, 21, 21, 20.9375, 20.875, 20.75, 20.5, 20.375, 20.169643, 19.964287, 20, 19.875, 19.8125, 19.6875, 19.5625, 19.375, 19.25, 19.125, 19, 19, 19, 19, 19, 19, 19, 19.0625, 18.883928, 18.473213, 18.205357, 18, 18.0625, 18.0625, 18.0625, 18.0625, 18, 17.875, 17.875, 17.875, 17.6875, 17.5625, 17.3125, 17.0625, 17, 17, 17, 17, 17, 17, 17, 17, 16.9375, 16.6875, 16.4375, 16.1875, 16, 15.9375, 15.875, 15.875, 15.875, 15.9375, 16, 16, 15.9375, 15.8125, 15.6875, 15.5, 15.375, 15.375, 15.375, 15.25, 15.125, 15, 14.875, 14.9375, 15, 14.9375, 14.875, 14.875, 14.875, 14.9375, 15, 15, 15, 15, 15, 15, 15.0625, 15.1875, 15.4375, 15.6875, 15.875, 16, 16, 16, 16.0625, 16.0625, 16.0625, 16.25, 16.4375, 16.6875, 17.0625, 17.25, 17.375, 17.375, 17.4375, 17.5, 17.5625, 17.8125, 17.9375, 18.035713, 18.1875, 18.1875, 18.375, 18.678572, 19.157145, 19.238096, 25.875, 25.75, 25.75, 25.214285, 25.285715, 25.581633, 26.020834, 26.419643, 26.875, 27.044643, 27.1875, 27.3125, 27.1875, 27.0625, 26.8125, 26.1875, 26.125, 25.875, 25.678572, 25.229166, 24.883928
-10, -10, -10, -10, -10, -10, -10, -10, -10, -10, -10, -10, -10, -10, -10, -10, -10, -10, -10, -10, -10, 37.125, 36.966667, 36.767857, 36.767857, 36.75, 36.6875, 36.625, 36.5, 36.3125, 36.3125, 36.3125, 36.3125, 36.3125, 36.25, 36.1875, 36.0625, 36, 36, 36, 35.875, 35.8125, 35.625, 35.375, 35.25, 34.9375, 34.875, 34.875, 34.875, 35, 34.9375, 34.75, 34.5625, 34.375, 34.1875, 34.125, 34.0625, 34, 34.1875, 34.1875, 34.1875, 34.1875, 34, 33.875, 33.625, 33.4375, 33.1875, 33.0625, 33.0625, 33, 33, 33, 33, 32.9375, 32.9375, 32.9375, 32.8125, 32.6875, 32.4375, 32.1875, 32.0625, 32, 32, 32, 32, 31.9375, 31.875, 31.875, 31.875, 31.875, 31.8125, 31.75, 31.625, 31.4375, 31.3125, 31.125, 31, 31, 30.9375, 30.75, 30.5, 30.3125, 30.125, 30.0625, 30.0625, 29.9375, 29.9375, 29.9375, 29.9375, 30, 30, 30, 30, 30, 30, 30, 29.875, 29.625, 29.375, 29.125, 29, 29, 28.875, 28.8125, 28.8125, 28.75, 28.8125, 28.75, 28.5625, 28.375, 28.1875, 28.0625, 28, 28, 28, 27.9375, 27.75, 27.5, 27.25, 27.0625, 27, 27, 27, 27, 27, 27, 27, 27, 26.9375, 26.8125, 26.5625, 26.25, 25.955357, 25.875, 25.9375, 26.0625, 26.044643, 25.854166, 25.830357, 25.8125, 25.9375, 26, 25.9375, 25.75, 25.5, 25.25, 25.0625, 25, 25, 25, 24.9375, 24.9375, 24.9375, 24.875, 24.875, 24.75, 24.5625, 24.4375, 24.25, 24.125, 24, 23.875, 23.875, 23.75, 23.75, 23.75, 23.75, 23.6875, 23.5, 23.375, 23.125, 23.0625, 23.0625, 23, 23, 23, 22.875, 22.6875, 22.4375, 22.25, 22.125, 22.0625, 22.0625, 22, 22, 22, 22, 21.9375, 21.75, 21.6875, 21.5, 21.3125, 21.25, 21.0625, 21, 21, 21, 21, 21, 21, 21, 21, 21, 20.9375, 20.8125, 20.5625, 20.375, 20.169643, 19.964287, 20, 19.875, 19.8125, 19.75, 19.625, 19.4375, 19.3125, 19.125, 19, 19, 19, 19, 19, 19, 19, 19, 18.785713, 18.517857, 18.258928, 18.0625, 18.125, 18.0625, 18.0625, 18.0625, 18, 17.875, 17.875, 17.875, 17.75, 17.625, 17.4375, 17.1875, 17.0625, 17, 16.9375, 16.9375, 16.9375, 17, 17, 17, 16.9375, 16.6875, 16.4375, 16.1875, 16, 15.9375, 15.8125, 15.8125, 15.8125, 15.8125, 15.875, 15.875, 15.8125, 15.8125, 15.8125, 15.6875, 15.5625, 15.5, 15.4375, 15.3125, 15.25, 15.125, 15, 15, 15, 14.875, 14.75, 14.75, 14.75, 14.875, 15, 15, 15, 15, 15, 15, 15, 15.0625, 15.25, 15.5, 15.75, 15.9375, 16, 16, 16, 16, 16, 16.1875, 16.4375, 16.6875, 17.125, 17.375, 17.5625, 17.5625, 17.5, 17.5, 17.5, 17.75, 18, 18.098213, 18.473213, 18.857143, 19.173471, 19.668367, 22.616667, 22.763887, 24.5, 25.5, 25.5, 25.6875, 25.666666, 25.830357, 26.020834, 26.241072, 26.669643, 27.032143, 27.053572, 27.1875, 26.9375, 26.8125, 26.705357, 26.387501, 26.196428, 26.071428, 25.732143, 25.083332, 24.839287, 24.4375, 24.28125, 23.96875, 23.53125, 23.34375, 23.1875, 23, 22.8125, 22.5625, 22.375, 22.3125, 22.5, 22.6875, 22.75, -10, -10, -10, -10, -10, -10, -10, -10, -10, -10, -10, -10, -10, -10, -10, -10, -10, -10, -10, -10, -10, -10, -10, -10, -10, -10, -10, 37.125, 36.966667, 36.767857, 36.767857, 36.75, 36.75, 36.6875, 36.5625, 36.4375, 36.4375, 36.5, 36.5625, 36.5, 36.375, 36.25, 36.0625, 36, 36, 36, 35.875, 35.8125, 35.5625, 35.3125, 35.25, 34.9375, 34.875, 34.839287, 34.8125, 34.9375, 34.9375, 34.8125, 34.6875, 34.5625, 34.375, 34.25, 34.125, 34, 34.125, 34.125, 34.125, 34.125, 34, 33.875, 33.625, 33.375, 33.125, 33, 33, 33, 33, 33, 33, 33, 33, 33, 32.875, 32.6875, 32.4375, 32.1875, 32.0625, 32, 32, 32, 32, 31.9375, 31.875, 31.875, 31.875, 31.9375, 31.9375, 31.8125, 31.625, 31.375, 31.1875, 31.0625, 31, 31.0625, 30.973213, 30.642857, 30.383928, 30.25, 30.125, 30.125, 30.1875, 30, 30, 30, 29.9375, 30, 30, 30, 30, 30, 30, 29.9375, 29.875, 29.625, 29.375, 29.1875, 29, 29, 28.875, 28.8125, 28.8125, 28.8125, 28.9375, 28.9375, 28.75, 28.5, 28.25, 28.0625, 28.0625, 28.035713, 27.892857, 27.758928, 27.5625, 27.375, 27.1875, 27.0625, 27, 27, 27, 27, 27, 27, 27, 27, 26.875, 26.8125, 26.625, 26.375, 26.205357, 26.125, 26.0625, 26.0625, 26, 25.9375, 25.9375, 25.875, 25.875, 25.875, 25.875, 25.75, 25.5625, 25.3125, 25.0625, 25, 25, 25, 25, 25, 25, 24.9375, 24.8125, 24.6875, 24.5, 24.375, 24.25, 24.125, 24, 23.9375, 23.9375, 23.8125, 23.8125, 23.75, 23.75, 23.75, 23.5625, 23.4375, 23.1875, 23.0625, 23.0625, 23, 23, 22.9375, 22.8125, 22.625, 22.375, 22.25, 22.125, 22.0625, 22.0625, 22, 22, 22, 22, 21.9375, 21.75, 21.6875, 21.5, 21.375, 21.3125, 21.125, 21.0625, 21, 21, 21, 21, 21, 21, 21, 21, 20.875, 20.75, 20.5, 20.3125, 20.169643, 19.964287, 20, 19.875, 19.875, 19.875, 19.8125, 19.6875, 19.5, 19.25, 19.0625, 19, 19, 19, 19, 19, 19, 18.9375, 18.6875, 18.5, 18.25, 18.0625, 18.125, 18.0625, 18.0625, 18.0625, 18, 17.875, 17.875, 17.875, 17.8125, 17.6875, 17.5, 17.25, 17.0625, 17, 16.9375, 16.9375, 16.9375, 17, 17, 17, 16.9375, 16.6875, 16.4375, 16.1875, 16, 15.9375, 15.8125, 15.8125, 15.8125, 15.8125, 15.875, 15.875, 15.8125, 15.8125, 15.8125, 15.75, 15.625, 15.5625, 15.4375, 15.25, 15.1875, 15.0625, 15, 15, 15, 14.875, 14.75, 14.75, 14.75, 14.875, 15, 15, 15, 15, 15, 15, 15, 15.0625, 15.21875, 15.46875, 15.71875, 15.90625, 16, 16.0625, 16.125, 16.125, 16.125, 16.25, 16.4375, 16.6875, 17.1875, 17.5, 17.75, 17.75, 17.5625, 17.5, 17.4375, 17.6875, 18.0625, 18.383928, 19.136053, 21.482141, 22.238096, 22.869049, 23.921429, 24.047619, 25.4375, 25.375, 25.4375, 25.4375, 25.4375, 25.642857, 25.833334, 26.053572, 26.482143, 26.844643, 26.875, 27.125, 26.9375, 26.875, 26.830357, 26.825001, 26.517857, 26.133928, 25.651785, 24.958332, 24.776787
-10, -10, -10, -10, -10, -10, -10, -10, -10, -10, -10, -10, -10, -10, -10, -10, -10, -10, -10, -10, -10, 37, 36.916668, 36.875, 36.875, 36.875, 36.875, 36.75, 36.625, 36.5625, 36.5625, 36.625, 36.6875, 36.5625, 36.375, 36.25, 36.0625, 36, 36, 36, 35.875, 35.8125, 35.5625, 35.3125, 35.28125, 35.09375, 35.03125, 34.995537, 34.9375, 34.9375, 35, 34.9375, 34.8125, 34.625, 34.267857, 34.125, 34, 33.9375, 34.0625, 34.0625, 34.0625, 34.0625, 34, 33.8125, 33.5625, 33.3125, 33.0625, 33, 33, 33, 33, 33, 33, 33, 33, 33, 32.9375, 32.8125, 32.5625, 32.3125, 32.125, 32, 32, 32, 32, 31.9375, 31.875, 31.875, 31.875, 31.875, 31.8125, 31.625, 31.375, 31.1875, 31.0625, 31, 31, 31.0625, 30.910713, 30.580357, 30.321428, 30.1875, 30.125, 30.125, 30.1875, 30, 30, 30, 29.9375, 30, 30, 30, 30, 30, 29.9375, 29.8125, 29.6875, 29.4375, 29.25, 29.125, 29, 29, 28.9375, 28.9375, 28.9375, 28.9375, 29, 29, 28.875, 28.6875, 28.4375, 28.1875, 28.125, 28.035713, 27.830357, 27.723213, 27.625, 27.321428, 27.267857, 27.1875, 27.125, 27.125, 27.0625, 27, 27, 27, 27, 26.9375, 26.8125, 26.75, 26.5625, 26.375, 26.267857, 26.25, 26.1875, 26.1875, 26.125, 26, 26, 25.9375, 25.8125, 25.8125, 25.75, 25.625, 25.5, 25.25, 25.0625, 25, 25, 25, 25, 25, 25, 24.875, 24.6875, 24.5625, 24.375, 24.3125, 24.25, 24.125, 24.0625, 24, 23.9375, 23.875, 23.875, 23.875, 23.9375, 23.9375, 23.75, 23.5625, 23.3125, 23.125, 23.0625, 23, 23, 22.9375, 22.8125, 22.625, 22.375, 22.3125, 22.1875, 22.125, 22.125, 22, 22, 22, 22, 22, 21.875, 21.8125, 21.6875, 21.5625, 21.4375, 21.25, 21.125, 21, 21, 21, 21, 20.9375, 20.9375, 20.9375, 20.9375, 20.8125, 20.6875, 20.4375, 20.25, 20.169643, 19.964287, 20, 19.9375, 20, 20, 19.9375, 19.8125, 19.5625, 19.3125, 19.125, 19, 19, 19, 19, 19, 19, 18.9375, 18.75, 18.5625, 18.3125, 18.125, 18.0625, 18, 18, 18, 18, 17.9375, 17.9375, 17.9375, 17.9375, 17.75, 17.5625, 17.3125, 17.0625, 17, 16.9375, 16.9375, 16.9375, 17, 16.928572, 16.666666, 16.580357, 16.375, 16.25, 16.125, 16, 15.9375, 15.8125, 15.8125, 15.8125, 15.8125, 15.875, 15.875, 15.75, 15.6875, 15.625, 15.5625, 15.5, 15.4375, 15.3125, 15.125, 15.0625, 15, 15, 15, 15, 14.8125, 14.625, 14.625, 14.625, 14.8125, 15, 15, 15, 15, 15, 15, 15.0625, 15.125, 15.28125, 15.53125, 15.78125, 16.03125, 16.125, 16.25, 16.3125, 16.25, 16.25, 16.3125, 16.4375, 16.6875, 17.125, 17.4375, 17.625, 17.6875, 17.5, 17.4375, 17.4375, 17.830357, 18.642857, 19.173468, 21.662699, 22.663265, 23.346939, 23.887756, 24.775, 25, 25.223213, 25.1875, 25.3125, 25.3125, 25.375, 25.580357, 25.770834, 25.991072, 26.419643, 26.844643, 26.9375, 27.1875, 27.0625, 27, 26.955357, 27.075001, 26.75, 26.154762, 25.607141, 24.802082, 24.495537, 24.1875, 23.9375, 23.714287, 23.607143, 23.522322, 23.4375, 23.3125, 23, 22.6875, 22.5625, 22.4375, 22.482143, 22.5, 22.666666, -10, -10, -10, -10, -10, -10, -10, -10, -10, -10, -10, -10, -10, -10, -10, -10, -10, -10, -10, -10, -10, -10, -10, -10, -10, -10, -10, 37, 37, 37, 37, 37, 37, 36.8125, 36.625, 36.5625, 36.5625, 36.625, 36.6875, 36.5625, 36.3125, 36.1875, 36.0625, 36, 36, 36, 35.875, 35.8125, 35.5625, 35.3125, 35.28125, 35.15625, 35.09375, 35.120537, 35.0625, 35, 35.0625, 35, 34.9375, 34.75, 34.392857, 34.1875, 34, 33.9375, 34, 34, 34, 34, 34, 33.8125, 33.625, 33.375, 33.125, 33.0625, 33, 33, 33, 33, 33, 33, 33, 33, 32.9375, 32.8125, 32.5625, 32.3125, 32.125, 32, 32, 32, 32, 32, 32, 32, 32, 31.875, 31.6875, 31.4375, 31.1875, 31.0625, 31, 31, 31, 31.0625, 30.910713, 30.580357, 30.321428, 30.1875, 30.125, 30.125, 30.25, 30.125, 30.125, 30.125, 30, 30, 30, 30, 30, 30, 29.875, 29.6875, 29.625, 29.375, 29.25, 29.1875, 28.9375, 28.875, 28.875, 28.875, 28.9375, 29, 29, 29, 28.875, 28.75, 28.5, 28.25, 28.1875, 28.035713, 27.830357, 27.723213, 27.625, 27.383928, 27.392857, 27.375, 27.3125, 27.25, 27.125, 27, 27, 27, 27, 26.9375, 26.8125, 26.75, 26.5625, 26.4375, 26.4375, 26.375, 26.3125, 26.25, 26.125, 26, 26, 25.9375, 25.8125, 25.8125, 25.75, 25.625, 25.5, 25.25, 25.0625, 25, 25, 25, 25, 25, 24.9375, 24.75, 24.5, 24.3125, 24.1875, 24.125, 24.1875, 24.1875, 24.125, 24.125, 24, 23.9375, 23.9375, 23.9375, 24, 24, 23.8125, 23.625, 23.375, 23.125, 23.0625, 23, 23, 22.9375, 22.8125, 22.5625, 22.3125, 22.25, 22.125, 22.125, 22.125, 22, 22, 22, 22, 22, 21.9375, 21.8125, 21.6875, 21.5625, 21.375, 21.3125, 21.1875, 21.0625, 21.0625, 21, 21, 20.9375, 20.9375, 20.9375, 20.9375, 20.8125, 20.625, 20.375, 20.125, 20.0625, 20, 20, 20, 20, 20, 19.9375, 19.8125, 19.5625, 19.3125, 19.125, 19, 19, 19, 19, 19, 19, 18.9375, 18.8125, 18.6875, 18.4375, 18.25, 18.125, 18, 18, 18, 18, 18, 18, 18, 18, 17.75, 17.5625, 17.3125, 17.0625, 17, 16.9375, 16.9375, 16.9375, 17, 16.928572, 16.604166, 16.455357, 16.25, 16.125, 16.0625, 16, 16, 15.9375, 15.9375, 15.9375, 15.8125, 15.8125, 15.8125, 15.6875, 15.625, 15.5, 15.375, 15.25, 15.1875, 15.125, 15, 15, 15, 15, 15, 15, 14.8125, 14.625, 14.5625, 14.5625, 14.75, 14.9375, 15, 15, 15, 15, 15.0625, 15.1875, 15.3125, 15.46875, 15.65625, 15.90625, 16.15625, 16.25, 16.4375, 16.5, 16.375, 16.375, 16.392857, 16.5625, 16.8125, 17.1875, 17.4375, 17.604166, 17.666666, 17.541666, 17.541666, 17.830357, 18.568027, 21.130953, 21.946426, 22.782312, 23.517857, 24.116072, 24.4375, 24.6875, 24.875, 24.973213, 25.0625, 25.1875, 25.1875, 25.25, 25.455357, 25.770834, 26.098213, 26.419643, 26.737499, 26.8125, 27.0625, 27.125, 27.1875, 27.205357, 27.325001, 26.8125, 26.047621, 25.491072, 24.885416, 24.705357
-10, -10, -10, -10, -10, -10, -10, -10, -10, -10, -10, -10, -10, -10, -10, -10, -10, -10, -10, -10, -10, 36.875, 36.916668, 36.9375, 36.9375, 36.9375, 36.875, 36.625, 36.375, 36.3125, 36.3125, 36.3125, 36.375, 36.25, 36.0625, 36.0625, 36, 36, 36, 36, 35.9375, 35.875, 35.6875, 35.4375, 35.34375, 35.21875, 35.09375, 35.120537, 35.0625, 35, 35.0625, 35, 34.9375, 34.6875, 34.330357, 34.125, 33.9375, 33.9375, 34, 34, 34, 34, 33.9375, 33.75, 33.5625, 33.3125, 33.125, 33.0625, 33, 33, 33, 33, 33, 33, 33, 33, 32.9375, 32.875, 32.6875, 32.4375, 32.3125, 32.125, 32.0625, 32.0625, 32, 32, 32, 32, 32, 31.875, 31.6875, 31.5, 31.25, 31.125, 31.0625, 31, 31, 31.0625, 30.910713, 30.580357, 30.321428, 30.1875, 30.125, 30.125, 30.1875, 30.0625, 30.0625, 30, 29.875, 29.875, 29.8125, 29.875, 29.9375, 29.9375, 29.8125, 29.5625, 29.4375, 29.1875, 29.125, 29.125, 28.9375, 28.875, 28.875, 28.875, 28.9375, 29, 28.9375, 28.9375, 28.875, 28.75, 28.5625, 28.3125, 28.1875, 28.035713, 27.830357, 27.785713, 27.75, 27.571428, 27.642857, 27.625, 27.5, 27.375, 27.1875, 27, 27, 27, 27, 26.9375, 26.875, 26.875, 26.75, 26.625, 26.5625, 26.4375, 26.3125, 26.25, 26.125, 26, 26, 25.9375, 25.8125, 25.8125, 25.75, 25.625, 25.5625, 25.3125, 25.125, 25.0625, 25, 25, 25, 24.9375, 24.8125, 24.625, 24.375, 24.1875, 24.0625, 24.0625, 24.125, 24.1875, 24.1875, 24.125, 24, 23.9375, 23.9375, 23.9375, 24, 24, 23.875, 23.6875, 23.4375, 23.1875, 23.0625, 23, 23, 22.9375, 22.875, 22.625, 22.375, 22.25, 22.0625, 22.0625, 22.0625, 22, 21.9375, 21.9375, 21.9375, 21.9375, 22, 21.875, 21.75, 21.625, 21.4375, 21.4375, 21.375, 21.25, 21.1875, 21.0625, 21, 20.9375, 20.9375, 20.9375, 20.9375, 20.8125, 20.625, 20.375, 20.125, 20.0625, 20, 20, 20, 20, 20, 20, 19.875, 19.625, 19.375, 19.125, 19, 19, 19, 19, 19, 19, 18.9375, 18.8125, 18.625, 18.375, 18.1875, 18.0625, 18, 18, 18, 18, 18, 18, 18, 18, 17.75, 17.5, 17.25, 17, 17, 17, 17, 17, 17, 16.928572, 16.541666, 16.330357, 16.1875, 16.0625, 16.0625, 16.0625, 16, 16, 16, 15.9375, 15.8125, 15.8125, 15.8125, 15.75, 15.6875, 15.4375, 15.25, 15.125, 15.0625, 15.0625, 15, 15, 15, 15, 15, 15, 14.8125, 14.625, 14.5625, 14.5625, 14.75, 14.9375, 14.9375, 14.9375, 14.9375, 14.9375, 15.125, 15.3125, 15.5, 15.71875, 15.84375, 16.03125, 16.21875, 16.25, 16.5, 16.6875, 16.732143, 16.75, 16.767857, 16.8125, 17, 17.3125, 17.479166, 17.555555, -10, 17.90476, 18.304762, 18.683672, 20.84762, 22.5051, 23.204081, 23.666666, 23.955357, 24.1875, 24.321428, 24.6875, 24.875, 25.035713, 25.0625, 25.1875, 25.25, 25.4375, 25.6875, 25.875, 26.232143, 26.4375, 26.625, 26.883928, 27.0625, 27.3125, 27.348213, 27.276787, 27.375, 26.848215, 25.892859, 25.383928, 24.96875, 24.875, 24.78125, 24.719387, 23.953869, 23.638393, 23.473215, 23.3125, 23.25, 22.8125, 22.5, 22.4375, 22.523809, 22.509523, -10, -10, -10, -10, -10, -10, -10, -10, -10, -10, -10, -10, -10, -10, -10, -10, -10, -10, -10, -10, -10, -10, -10, -10, -10, -10, -10, -10, -10, 36.875, 36.916668, 36.875, 36.8125, 36.75, 36.625, 36.5, 36.3125, 36.25, 36.3125, 36.1875, 36.1875, 36.125, 35.9375, 36, 36, 36, 36, 36, 36, 36, 35.8125, 35.5625, 35.34375, 35.15625, 35.09375, 35.15625, 35.125, 35.0625, 35.0625, 35, 34.875, 34.5625, 34.205357, 34, 33.875, 33.9375, 34, 34, 34, 34, 33.875, 33.6875, 33.5, 33.25, 33.125, 33.0625, 33, 33, 33, 33, 33, 33, 33, 33, 32.875, 32.8125, 32.625, 32.375, 32.375, 32.25, 32.25, 32.25, 32.125, 32.0625, 32, 32, 32, 31.875, 31.625, 31.4375, 31.1875, 31.0625, 31.0625, 31, 31, 31, 30.875, 30.625, 30.375, 30.1875, 30.0625, 30.0625, 30.0625, 30, 30, 29.9375, 29.875, 29.875, 29.8125, 29.875, 29.9375, 29.875, 29.6875, 29.4375, 29.25, 29.0625, 29.0625, 29.0625, 28.9375, 28.875, 28.875, 28.875, 28.9375, 28.9375, 28.8125, 28.8125, 28.8125, 28.75, 28.625, 28.375, 28.125, 28, 27.9375, 27.964287, 28, 27.821428, 27.892857, 27.8125, 27.625, 27.4375, 27.1875, 27, 27, 27, 27, 26.9375, 26.9375, 26.875, 26.6875, 26.5, 26.3125, 26.1875, 26.125, 26.125, 26.125, 26.035713, 25.964287, 26, 25.875, 25.9375, 25.875, 25.75, 25.6875, 25.4375, 25.25, 25.125, 25, 25, 25, 24.875, 24.75, 24.5625, 24.375, 24.25, 24.125, 24.125, 24.125, 24.1875, 24.1875, 24.0625, 23.9375, 23.875, 23.875, 23.9375, 24, 24, 23.875, 23.6875, 23.4375, 23.1875, 23.0625, 23, 23, 23, 23, 22.8125, 22.5625, 22.375, 22.125, 22.0625, 22.0625, 22, 21.9375, 21.875, 21.875, 21.8125, 21.8125, 21.6875, 21.5, 21.375, 21.3125, 21.375, 21.375, 21.3125, 21.1875, 21.0625, 21, 20.9375, 20.9375, 20.9375, 20.9375, 20.8125, 20.625, 20.375, 20.125, 20.0625, 20, 20, 20, 20, 20, 19.9375, 19.75, 19.5, 19.1875, 19, 18.9375, 18.9375, 19, 19, 19, 19, 18.9375, 18.875, 18.75, 18.5, 18.3125, 18.125, 18, 18, 18, 18, 18, 18, 18, 18, 17.8125, 17.5625, 17.375, 17.125, 17.0625, 17.0625, 17, 17, 17, 16.928572, 16.541666, 16.330357, 16.1875, 16.0625, 16.0625, 16.0625, 16, 16, 16, 15.9375, 15.8125, 15.8125, 15.8125, 15.8125, 15.8125, 15.5625, 15.3125, 15.1875, 15.125, 15.125, 15.1875, 15.125, 15.0625, 15.0625, 15, 15, 14.8125, 14.5625, 14.5, 14.5, 14.6875, 14.9375, 14.9375, 14.9375, 14.9375, 14.9375, 15.125, 15.3125, 15.5, 15.75, 15.875, 16.0625, 16.1875, 16.125, 16.25, 16.3125, 16.551022, 16.612246, 16.726191, 16.9375, 17.25, 17.549999, 17.472221, -10, -10, 19.833332, 21.461111, 21.767859, 22.817461, 23.612244, 23.910713, 24.125, 24.0625, 24.125, 24.258928, 24.625, 24.9375, 25.071426, 25.026787, 25.125, 25.125, 25.375, 25.625, 25.875, 26.294643, 26.5625, 26.8125, 27.0625, 27.125, 27.375, 27.330357, 27.068453, 27.080357, 26.714287, 26.101191, 25.485119, 25.075893, 24.8125
-10, -10, -10, -10, -10, -10, -10, -10, -10, -10, -10, -10, -10, -10, -10, -10, -10, -10, -10, -10, -10, 36.875, 36.916668, 36.875, 36.8125, 36.71875, 36.53125, 36.46875, 36.28125, 36.1875, 36.3125, 36.1875, 36.1875, 36.1875, 36, 36, 36, 36.0625, 36.125, 36.107143, 35.916668, 35.821426, 35.625, 35.4375, 35.25, 35.0625, 35, 35.0625, 35.0625, 35.0625, 35.0625, 35, 34.9375, 34.75, 34.5, 34.25, 34.0625, 34, 33.9375, 33.9375, 33.9375, 34, 33.9375, 33.8125, 33.625, 33.3125, 33.1875, 33.0625, 33, 33, 33, 33, 33, 33, 33, 32.9375, 32.75, 32.625, 32.4375, 32.1875, 32.276787, 32.357143, 32.357143, 32.375, 32.1875, 32.0625, 32, 32, 32, 31.875, 31.625, 31.4375, 31.1875, 31.0625, 31.0625, 31, 31, 31, 30.9375, 30.6875, 30.4375, 30.25, 30.0625, 30.0625, 30.0625, 30, 30, 29.9375, 29.875, 29.875, 29.8125, 29.875, 29.9375, 29.8125, 29.6875, 29.4375, 29.25, 29.125, 29.0625, 29.0625, 28.9375, 28.875, 28.875, 28.875, 28.9375, 28.875, 28.625, 28.5625, 28.669643, 28.607143, 28.5625, 28.3125, 28.0625, 28, 28, 28, 28, 28, 28, 27.9375, 27.6875, 27.4375, 27.1875, 27, 27, 27, 27, 27, 26.9375, 26.8125, 26.625, 26.375, 26.25, 26.125, 26.0625, 26.0625, 26.0625, 26.035713, 25.964287, 26, 25.9375, 25.9375, 25.875, 25.75, 25.625, 25.4375, 25.25, 25.125, 25, 25, 25, 24.875, 24.75, 24.625, 24.5, 24.375, 24.25, 24.1875, 24.125, 24.125, 24.125, 24.0625, 24, 24, 24, 24, 24, 24, 23.8125, 23.625, 23.375, 23.125, 23.0625, 22.9375, 22.9375, 22.9375, 22.9375, 22.875, 22.6875, 22.4375, 22.1875, 22.0625, 22, 22, 21.875, 21.75, 21.75, 21.6875, 21.75, 21.625, 21.375, 21.21875, 21.1875, 21.375, 21.4375, 21.40625, 21.25, 21.0625, 21, 21, 21, 21, 21, 20.8125, 20.5625, 20.3125, 20.0625, 20, 20, 20, 20, 19.9375, 19.9375, 19.875, 19.625, 19.4375, 19.125, 18.9375, 18.9375, 18.9375, 19, 19, 19, 19, 18.9375, 18.875, 18.8125, 18.5625, 18.375, 18.1875, 18, 18, 18, 18, 18, 18, 18, 18, 17.875, 17.625, 17.5, 17.25, 17.125, 17.125, 17, 17, 17, 17, 16.8125, 16.5625, 16.375, 16.125, 16.0625, 16.0625, 16, 16, 16, 15.9375, 15.75, 15.6875, 15.6875, 15.6875, 15.8125, 15.6875, 15.5, 15.375, 15.25, 15.1875, 15.1875, 15.125, 15.0625, 15.0625, 15, 15, 14.875, 14.625, 14.5625, 14.5625, 14.6875, 14.9375, 14.9375, 14.9375, 14.9375, 14.9375, 15.125, 15.25, 15.375, 15.625, 15.75, 15.9375, 16.125, 16.0625, 16.125, 16.1875, 16.061224, 16.224489, 16.788691, 17.169643, 17.5625, 17.883333, -10, -10, -10, 22.055555, 22.609524, 22.908163, 23.761906, 23.910713, 24.125, 24.125, 24, 23.9375, 24.071428, 24.375, 24.625, 24.857141, 24.964287, 25.0625, 25.1875, 25.375, 25.625, 25.875, 26.294643, 26.5625, 26.875, 27.125, 27.169643, 27.299999, 27.288691, 26.764881, 26.785713, 26.544643, 26.226191, 25.550596, 25.214287, 24.96875, 25.03125, 24.910713, 24.333334, 24, 23.705357, 23.401787, 23.5, 23.107143, 22.8125, 22.84375, 22.815477, -10, -10, -10, -10, -10, -10, -10, -10, -10, -10, -10, -10, -10, -10, -10, -10, -10, -10, -10, -10, -10, -10, -10, -10, -10, -10, -10, -10, -10, -10, 36.875, 36.916668, 36.875, 36.8125, 36.71875, 36.53125, 36.53125, 36.40625, 36.3125, 36.375, 36.1875, 36.125, 36.125, 36, 36, 36, 36.0625, 36.125, 36.044643, 35.791668, 35.633926, 35.4375, 35.3125, 35.1875, 35.0625, 35, 35, 35, 35, 35, 35, 34.9375, 34.8125, 34.5625, 34.3125, 34.125, 34, 33.9375, 33.9375, 33.9375, 34, 33.9375, 33.75, 33.5, 33.1875, 33.0625, 33, 33, 33, 33, 33, 33, 33, 33, 32.9375, 32.75, 32.5625, 32.375, 32.125, 32.276787, 32.419643, 32.419643, 32.4375, 32.1875, 32.0625, 32, 31.9375, 31.875, 31.8125, 31.5625, 31.4375, 31.25, 31.0625, 31, 30.875, 30.875, 30.875, 30.9375, 30.8125, 30.625, 30.5, 30.25, 30.1875, 30.125, 30, 30, 29.9375, 29.875, 29.875, 29.8125, 29.8125, 29.8125, 29.625, 29.5, 29.3125, 29.125, 29.0625, 29, 29.0625, 29.035713, 28.892857, 28.892857, 28.875, 28.9375, 28.875, 28.5625, 28.4375, 28.482143, 28.357143, 28.375, 28.1875, 28, 28, 28, 28, 28, 28, 28, 27.9375, 27.75, 27.5, 27.25, 27.0625, 27, 27, 27, 26.9375, 26.875, 26.75, 26.5625, 26.4375, 26.375, 26.25, 26.1875, 26.125, 26.0625, 26.035713, 25.964287, 26, 25.9375, 25.875, 25.75, 25.625, 25.5, 25.375, 25.25, 25.125, 25, 25, 24.9375, 24.8125, 24.75, 24.6875, 24.6875, 24.625, 24.4375, 24.3125, 24.125, 24, 24, 23.9375, 23.9375, 24, 23.9375, 23.875, 23.8125, 23.75, 23.625, 23.4375, 23.25, 23.0625, 23, 22.9375, 22.9375, 22.9375, 22.9375, 22.9375, 22.8125, 22.5625, 22.375, 22.1875, 22.0625, 22.0625, 21.875, 21.75, 21.6875, 21.5625, 21.5625, 21.4375, 21.25, 21.15625, 21.25, 21.4375, 21.53125, 21.5, 21.28125, 21.09375, 21, 21, 21, 21, 21, 20.75, 20.5, 20.25, 20, 20, 20, 20, 20, 19.875, 19.875, 19.8125, 19.5625, 19.4375, 19.1875, 19.0625, 19.125, 19.125, 19.125, 19.0625, 19, 19, 18.9375, 18.875, 18.8125, 18.5625, 18.375, 18.1875, 18, 18, 18, 18, 18, 18, 18, 18, 17.875, 17.625, 17.5, 17.3125, 17.25, 17.3125, 17.1875, 17.125, 17.0625, 17, 16.875, 16.625, 16.5, 16.25, 16.125, 16.1875, 16.0625, 16.0625, 16.0625, 15.9375, 15.8125, 15.6875, 15.6875, 15.625, 15.6875, 15.625, 15.4375, 15.375, 15.25, 15.125, 15.0625, 15, 14.9375, 15, 15, 15, 14.9375, 14.6875, 14.6875, 14.625, 14.6875, 14.9375, 14.875, 14.9375, 14.875, 14.8125, 14.875, 14.90625, 15.03125, 15.34375, 15.59375, 15.8125, 16, 16, 16.0625, 16.125, 16.294643, 16.446428, 16.895834, 17.294643, 17.75, 18.091667, -10, -10, 23, 22.880953, 23.262501, 23.348213, 23.741072, 24.083334, 24.125, 24.1875, 24.03125, 24, 24.196428, 24.5, 24.71875, 24.919641, 24.964287, 25.125, 25.3125, 25.5625, 25.8125, 25.9375, 26.258928, 26.625, 26.875, 27.1875, 27.169643, 27.299999, 27.288691, 26.764881, 26.848213, 26.669643, 26.395834, 25.630953, 25.276787, 24.9375
-10, -10, -10, -10, -10, -10, -10, -10, -10, -10, -10, -10, -10, -10, -10, -10, -10, -10, -10, -10, -10, 37, 37, 36.9375, 36.875, 36.78125, 36.65625, 36.71875, 36.59375, 36.4375, 36.4375, 36.25, 36.25, 36.3125, 36.25, 36.1875, 36.125, 36.125, 36.0625, 35.919643, 35.604168, 35.383926, 35.25, 35.1875, 35.125, 35.0625, 35, 35, 35, 35, 34.9375, 34.9375, 34.875, 34.75, 34.5625, 34.3125, 34.125, 34, 33.9375, 33.9375, 33.9375, 34, 34, 33.8125, 33.5625, 33.25, 33.0625, 33, 33, 33, 33, 33, 33, 33, 33, 32.9375, 32.8125, 32.5625, 32.3125, 32.0625, 32.151787, 32.357143, 32.419643, 32.4375, 32.1875, 32.0625, 31.9375, 31.8125, 31.6875, 31.5625, 31.375, 31.25, 31.125, 31, 30.9375, 30.875, 30.875, 30.875, 30.9375, 30.875, 30.75, 30.625, 30.375, 30.25, 30.125, 30, 30, 30, 30, 30, 30, 29.9375, 29.8125, 29.5625, 29.375, 29.25, 29.125, 29.125, 29.0625, 29.0625, 29.035713, 28.830357, 28.767857, 28.6875, 28.6875, 28.6875, 28.5, 28.4375, 28.482143, 28.357143, 28.3125, 28.125, 28, 28, 28, 28, 28, 28, 28, 27.875, 27.6875, 27.375, 27.125, 27.0625, 27.035713, 27.0625, 27.0625, 26.9375, 26.875, 26.75, 26.5, 26.375, 26.3125, 26.1875, 26.1875, 26.125, 26.0625, 26.035713, 25.964287, 26, 25.9375, 25.875, 25.75, 25.625, 25.4375, 25.3125, 25.1875, 25.0625, 25, 25, 24.9375, 24.875, 24.875, 24.875, 24.9375, 24.875, 24.6875, 24.5, 24.25, 24.0625, 24, 23.9375, 23.875, 23.875, 23.75, 23.625, 23.5625, 23.5, 23.375, 23.25, 23.125, 23, 23, 22.9375, 22.9375, 22.875, 22.875, 22.875, 22.75, 22.5625, 22.375, 22.1875, 22.0625, 22.0625, 21.9375, 21.8125, 21.75, 21.625, 21.5, 21.375, 21.1875, 21.09375, 21.1875, 21.375, 21.40625, 21.375, 21.21875, 21.03125, 21, 21, 21, 21, 21, 20.8125, 20.5625, 20.3125, 20.0625, 20, 20, 20, 20, 19.875, 19.8125, 19.75, 19.5, 19.375, 19.25, 19.1875, 19.25, 19.25, 19.1875, 19.0625, 19, 19, 18.9375, 18.9375, 18.9375, 18.6875, 18.5, 18.25, 18, 18, 18, 18, 18, 18, 18, 18, 17.9375, 17.6875, 17.5625, 17.375, 17.25, 17.3125, 17.1875, 17.125, 17.0625, 17, 16.9375, 16.75, 16.625, 16.4375, 16.3125, 16.375, 16.25, 16.1875, 16.125, 16, 15.9375, 15.8125, 15.8125, 15.625, 15.625, 15.625, 15.5, 15.5, 15.375, 15.125, 15, 14.9375, 14.875, 15, 15, 15, 15, 14.8125, 14.8125, 14.75, 14.75, 14.875, 14.875, 14.9375, 14.875, 14.875, 14.8125, 14.78125, 14.84375, 15.15625, 15.46875, 15.75, 16, 16, 16, 15.9375, 16, 16.258928, 16.877977, 17.419643, 18.080357, 18.676191, -10, 22.475, 22.916666, 23.208334, 23.25, 23.3125, 23.761906, 24.065475, 24.125, 24.1875, 24.09375, 24.1875, 24.375, 24.5, 24.71875, 24.857141, 24.964287, 25.1875, 25.4375, 25.6875, 25.9375, 26, 26.196428, 26.5625, 26.8125, 27.125, 27.169643, 27.299999, 27.377977, 26.925594, 26.973213, 26.8125, 26.604168, 25.809525, 25.401787, 24.9375, 24.875, 24.8125, 24.5625, 24.4375, 23.99107, 23.380951, 23.392857, 23.142857, 22.964287, 23.15625, 23.104168, 23.333334, -10, -10, -10, -10, -10, -10, -10, -10, -10, -10, -10, -10, -10, -10, -10, -10, -10, -10, -10, -10, -10, -10, -10, -10, -10, -10, -10, -10, -10, 37, 37, 37, 37, 36.96875, 36.90625, 36.90625, 36.78125, 36.5625, 36.4375, 36.25, 36.25, 36.375, 36.4375, 36.4375, 36.3125, 36.25, 36.125, 35.857143, 35.479168, 35.196426, 35.125, 35.1875, 35.1875, 35.1875, 35.0625, 35, 35, 35, 34.9375, 34.9375, 34.9375, 34.8125, 34.625, 34.375, 34.125, 34, 33.9375, 33.9375, 33.9375, 34, 34, 33.8125, 33.5625, 33.3125, 33.125, 33.0625, 33.125, 33.0625, 33.0625, 33.0625, 33, 33, 33, 32.9375, 32.8125, 32.5625, 32.3125, 32.0625, 32.089287, 32.294643, 32.294643, 32.3125, 32.125, 32, 31.875, 31.6875, 31.5625, 31.375, 31.25, 31.1875, 31.0625, 31, 30.9375, 30.875, 30.875, 30.875, 30.9375, 30.9375, 30.875, 30.8125, 30.5625, 30.375, 30.1875, 30, 30, 30, 30, 30, 30, 29.9375, 29.8125, 29.625, 29.4375, 29.3125, 29.1875, 29.125, 29.0625, 29.0625, 29.035713, 28.767857, 28.642857, 28.5625, 28.5, 28.5625, 28.5, 28.4375, 28.482143, 28.357143, 28.25, 28.0625, 28, 28, 28, 28, 28, 27.9375, 27.875, 27.75, 27.5625, 27.3125, 27.125, 27.0625, 27.035713, 27.0625, 27.0625, 26.9375, 26.875, 26.8125, 26.5625, 26.4375, 26.375, 26.1875, 26.1875, 26.125, 25.9375, 25.875, 25.8125, 25.75, 25.75, 25.6875, 25.625, 25.5625, 25.375, 25.25, 25.125, 25, 25, 25, 24.9375, 24.9375, 24.9375, 24.9375, 25, 24.9375, 24.75, 24.5625, 24.3125, 24.0625, 24, 23.9375, 23.875, 23.8125, 23.625, 23.4375, 23.3125, 23.25, 23.1875, 23.125, 23.0625, 23, 23, 22.9375, 22.9375, 22.8125, 22.8125, 22.8125, 22.75, 22.625, 22.4375, 22.25, 22.0625, 22.0625, 21.9375, 21.875, 21.8125, 21.75, 21.6875, 21.5625, 21.375, 21.21875, 21.1875, 21.3125, 21.34375, 21.3125, 21.21875, 21.03125, 21, 21, 21, 21, 21, 20.875, 20.625, 20.375, 20.125, 20, 20, 20, 20, 19.875, 19.8125, 19.75, 19.5625, 19.5, 19.4375, 19.375, 19.375, 19.3125, 19.1875, 19.0625, 19, 19, 18.9375, 18.9375, 18.9375, 18.75, 18.5625, 18.3125, 18.0625, 18, 18, 18, 18, 18, 18, 18, 17.875, 17.625, 17.4375, 17.25, 17.1875, 17.25, 17.1875, 17.125, 17.0625, 17, 16.9375, 16.8125, 16.75, 16.625, 16.5625, 16.625, 16.5, 16.375, 16.25, 16.0625, 15.9375, 15.8125, 15.8125, 15.5625, 15.5625, 15.5625, 15.4375, 15.4375, 15.25, 15, 14.8125, 14.8125, 14.8125, 14.9375, 15, 15, 15, 14.875, 14.875, 14.8125, 14.8125, 14.875, 14.875, 14.9375, 14.875, 14.875, 14.875, 14.84375, 14.96875, 15.28125, 15.53125, 15.8125, 16.0625, 16.125, 16.1875, 16.1875, 16.3125, 16.65625, 17.144644, 17.559525, 18.190475, 19.666668, 22.25, 22.316666, 22.651787, 22.708334, 22.857143, 22.9375, 23.476191, 23.922619, 24.053572, 24.25, 24.21875, 24.28125, 24.4375, 24.4375, 24.53125, 24.727678, 25, 25.3125, 25.625, 25.875, 26.125, 26.125, 26.258928, 26.5, 26.696428, 27.208334, 27.214287, 27.362499, 27.458334, 27.196428, 27.267857, 27, 26.708334, 26.038691, 25.669643, 25.375
-10, -10, -10, -10, -10, -10, -10, -10, -10, -10, -10, -10, -10, -10, -10, -10, -10, -10, -10, -10, -10, 37, 37, 37, 37, 37, 37, 36.9375, 36.875, 36.6875, 36.5, 36.3125, 36.25, 36.3125, 36.375, 36.4375, 36.3125, 36.1875, 36, 35.75, 35.5, 35.25, 35.25, 35.3125, 35.3125, 35.3125, 35.125, 35, 35, 35, 34.9375, 34.9375, 34.9375, 34.8125, 34.6875, 34.4375, 34.1875, 34.0625, 34.0625, 34.0625, 34.0625, 34, 33.8125, 33.5625, 33.3125, 33.125, 33.026787, 33.169643, 33.232143, 33.1875, 33.125, 33.0625, 33, 33, 33, 33, 32.875, 32.625, 32.375, 32.125, 32.125, 32.1875, 32.1875, 32.1875, 32.0625, 31.9375, 31.75, 31.5625, 31.4375, 31.375, 31.375, 31.3125, 31.1875, 31.0625, 30.9375, 30.875, 30.875, 30.875, 30.9375, 31, 31, 30.9375, 30.6875, 30.4375, 30.1875, 30, 30, 30, 30, 30, 30, 29.9375, 29.8125, 29.6875, 29.4375, 29.3125, 29.25, 29.125, 29.125, 29.125, 29.035713, 28.705357, 28.517857, 28.34375, 28.15625, 28.21875, 28.28125, 28.3125, 28.3125, 28.25, 28.125, 28, 28, 28, 28, 28, 28, 27.9375, 27.8125, 27.625, 27.4375, 27.1875, 27.0625, 27.0625, 27.035713, 27, 27, 26.875, 26.875, 26.875, 26.625, 26.5, 26.3125, 26.125, 26.125, 26.0625, 25.875, 25.75, 25.625, 25.5, 25.5625, 25.625, 25.625, 25.6875, 25.5, 25.3125, 25.1875, 25, 25, 25, 24.9375, 24.9375, 24.9375, 24.9375, 25, 25, 24.875, 24.6875, 24.4375, 24.1875, 24.0625, 23.9375, 23.875, 23.6875, 23.4375, 23.25, 23.125, 23.125, 23.125, 23.125, 23.0625, 23, 23.0625, 23.0625, 23.0625, 22.9375, 22.875, 22.8125, 22.75, 22.625, 22.4375, 22.25, 22.0625, 22.0625, 22, 22, 21.9375, 21.875, 21.75, 21.625, 21.5, 21.375, 21.3125, 21.3125, 21.28125, 21.21875, 21.15625, 21.03125, 21, 21, 21, 21, 21, 20.875, 20.625, 20.375, 20.125, 20, 20, 20, 20, 19.9375, 19.875, 19.8125, 19.625, 19.5, 19.4375, 19.375, 19.375, 19.3125, 19.1875, 19.0625, 19, 19, 19, 19, 19, 18.875, 18.625, 18.375, 18.125, 18, 18, 18, 18, 18, 18, 18, 17.875, 17.625, 17.375, 17.1875, 17.125, 17.1875, 17.1875, 17.125, 17, 16.875, 16.875, 16.8125, 16.875, 16.875, 16.8125, 16.8125, 16.6875, 16.5, 16.3125, 16.125, 16, 15.9375, 15.875, 15.625, 15.5, 15.375, 15.25, 15.25, 15.125, 14.9375, 14.8125, 14.8125, 14.8125, 14.9375, 15, 15, 15, 14.9375, 14.9375, 14.875, 14.875, 14.875, 14.875, 14.9375, 14.875, 14.875, 14.9375, 14.96875, 15.15625, 15.46875, 15.65625, 15.875, 16, 16.0625, 16.125, 16.125, 16.375, 16.8125, 17.307144, -10, -10, -10, 22.5, 22.387499, 22.401787, 22.4375, 22.589287, 22.75, 23.351191, 23.860119, 24.053572, 24.25, 24.34375, 24.5, 24.65625, 24.71875, 24.75, 24.84375, 25, 25.3125, 25.5625, 25.9375, 26.25, 26.3125, 26.415178, 26.59375, 26.696428, 27.083334, 27.138393, 27.40625, 27.5, 27.5625, 27.5625, 27.1875, 26.8125, 26.267857, 25.9375, 25.75, 25.473213, 25.267857, 25.008928, 24.625, 24.267857, 23.729166, 23.455357, 23.11607, 22.928572, 22.9375, 23.03125, 23.208334, -10, -10, -10, -10, -10, -10, -10, -10, -10, -10, -10, -10, -10, -10, -10, -10, -10, -10, -10, -10, -10, -10, -10, -10, -10, -10, -10, -10, -10, 37, 37, 37, 37, 37, 36.9375, 36.8125, 36.6875, 36.5625, 36.4375, 36.3125, 36.3125, 36.3125, 36.375, 36.4375, 36.3125, 36.1875, 36, 35.8125, 35.625, 35.375, 35.4375, 35.5, 35.4375, 35.4375, 35.1875, 35, 35, 35, 34.9375, 34.9375, 34.9375, 34.8125, 34.75, 34.5625, 34.3125, 34.1875, 34.125, 34.0625, 34.0625, 34, 33.8125, 33.625, 33.375, 33.1875, 33.151787, 33.232143, 33.294643, 33.25, 33.125, 33.0625, 33, 33, 33, 33, 32.8125, 32.5625, 32.3125, 32.0625, 32.0625, 32.125, 32.125, 32.125, 32.0625, 31.875, 31.6875, 31.5625, 31.5, 31.5, 31.5625, 31.4375, 31.25, 31.125, 31, 31, 31, 31, 31, 31, 31, 30.875, 30.6875, 30.4375, 30.1875, 30.0625, 30, 30, 30, 30, 30, 30, 29.9375, 29.875, 29.625, 29.4375, 29.375, 29.1875, 29.1875, 29.125, 29, 28.75, 28.5, 28.28125, 27.96875, 27.96875, 28.09375, 28.1875, 28.25, 28.1875, 28.0625, 27.9375, 27.9375, 28, 28, 28, 28, 27.9375, 27.75, 27.5, 27.25, 27, 26.9375, 27, 27.098213, 27.125, 27.125, 27.0625, 26.9375, 26.8125, 26.5625, 26.3125, 26.125, 26, 26, 26, 25.875, 25.678572, 25.375, 25.3125, 25.419643, 25.625, 25.6875, 25.75, 25.625, 25.4375, 25.3125, 25.125, 25.0625, 25, 25, 25, 25, 25, 25, 24.9375, 24.8125, 24.5625, 24.3125, 24.125, 24, 23.875, 23.75, 23.5625, 23.375, 23.3125, 23.3125, 23.375, 23.3125, 23.25, 23.125, 23, 23.0625, 23.0625, 23.0625, 22.9375, 22.8125, 22.75, 22.625, 22.5, 22.3125, 22.125, 22, 22, 22, 22, 22, 22, 21.9375, 21.875, 21.75, 21.625, 21.5, 21.375, 21.25, 21.125, 21.0625, 21, 21, 21, 21, 21, 21, 20.875, 20.625, 20.375, 20.125, 20, 20, 20, 20, 20, 19.9375, 19.8125, 19.625, 19.4375, 19.3125, 19.25, 19.1875, 19.125, 19.0625, 19, 19, 19, 19, 19, 19, 18.9375, 18.6875, 18.4375, 18.1875, 18, 18, 18, 18, 18, 17.9375, 17.9375, 17.875, 17.625, 17.5, 17.25, 17.0625, 17.0625, 17, 17, 16.9375, 16.8125, 16.75, 16.6875, 16.75, 16.875, 16.875, 16.8125, 16.6875, 16.4375, 16.25, 16.125, 16, 16, 15.875, 15.625, 15.5625, 15.375, 15.3125, 15.3125, 15.125, 15, 14.9375, 14.9375, 14.9375, 15, 15, 15, 15, 15, 15, 15, 15, 14.9375, 14.9375, 14.9375, 14.9375, 15, 15.1875, 15.3125, 15.5, 15.75, 15.75, 15.875, 15.9375, 15.9375, 16, 16, 16.25, 16.803572, 17.494644, -10, -10, -10, 22.5, 22.3375, 22.116072, 22.25, 22.50893, 22.75, 23.386906, 23.758928, 23.982143, 24.1875, 24.375, 24.5625, 24.78125, 24.84375, 24.84375, 24.90625, 25, 25.3125, 25.5625, 25.9375, 26.25, 26.3125, 26.40625, 26.53125, 26.732143, 27.020834, 27.03125, 27.236607, 27.520834, 27.678572, 27.6875, 27.375, 27, 26.5, 26.125, 25.875
-10, -10, -10, -10, -10, -10, -10, -10, -10, -10, -10, -10, -10, -10, -10, -10, -10, -10, -10, -10, -10, 37, 37, 37, 36.9375, 36.9375, 36.8125, 36.625, 36.5625, 36.4375, 36.3125, 36.276787, 36.285713, 36.1875, 36.25, 36.25, 36.1875, 36.125, 36, 35.875, 35.6875, 35.5, 35.5625, 35.625, 35.5625, 35.5, 35.25, 35, 35, 35, 35, 35, 35, 34.875, 34.75, 34.5625, 34.3125, 34.125, 34.0625, 34, 34, 34.0625, 33.875, 33.75, 33.5, 33.25, 33.214287, 33.232143, 33.294643, 33.25, 33.125, 33.0625, 33, 33, 33, 33, 32.8125, 32.5625, 32.3125, 32.0625, 32, 32.0625, 32.0625, 32.0625, 32.0625, 31.875, 31.75, 31.6875, 31.6875, 31.6875, 31.75, 31.5625, 31.3125, 31.1875, 31, 31, 31, 31, 31, 31, 31, 30.875, 30.75, 30.5, 30.25, 30.125, 30, 30, 30, 30, 30, 30, 30, 30, 29.75, 29.5, 29.4375, 29.1875, 29.1875, 29.1875, 29, 28.75, 28.5, 28.28125, 27.96875, 27.90625, 27.96875, 28, 28.0625, 28.0625, 28, 27.9375, 27.9375, 28, 28, 28, 28, 27.9375, 27.75, 27.5, 27.25, 27.0625, 27, 27, 27, 26.9375, 26.9375, 26.9375, 26.8125, 26.6875, 26.4375, 26.1875, 26.0625, 26, 26, 26, 25.875, 25.678572, 25.375, 25.3125, 25.419643, 25.5625, 25.5625, 25.5625, 25.4375, 25.375, 25.3125, 25.1875, 25.125, 25, 25, 25, 25, 25, 25, 24.875, 24.625, 24.3125, 24.160713, 24, 24, 23.875, 23.75, 23.625, 23.5, 23.5, 23.5625, 23.625, 23.5625, 23.4375, 23.25, 23.0625, 23.0625, 23.0625, 23.0625, 23, 22.875, 22.875, 22.75, 22.5625, 22.375, 22.125, 22, 22, 21.9375, 21.9375, 21.9375, 21.9375, 22, 22, 21.9375, 21.875, 21.75, 21.5, 21.3125, 21.125, 21, 21, 21, 21, 21, 21, 21, 20.875, 20.625, 20.375, 20.125, 20, 20, 20, 20, 20, 20, 19.875, 19.75, 19.625, 19.4375, 19.3125, 19.1875, 19.0625, 19, 19, 19, 19, 19, 19, 19, 19, 18.75, 18.5, 18.3125, 18.0625, 18.0625, 18.0625, 18, 18, 17.9375, 17.9375, 17.875, 17.6875, 17.625, 17.375, 17.1875, 17.125, 17, 17, 16.9375, 16.8125, 16.75, 16.6875, 16.6875, 16.75, 16.6875, 16.5625, 16.5, 16.3125, 16.1875, 16.125, 16, 16, 15.8125, 15.5625, 15.4375, 15.1875, 15.125, 15.125, 15, 15, 15, 15, 15, 15, 15, 15, 15, 14.9375, 14.875, 14.875, 14.875, 14.9375, 15, 15, 15, 15, 15.25, 15.4375, 15.625, 15.875, 15.75, 15.75, 15.8125, 15.875, 16.035713, 16.0625, 16.3125, 16.803572, 17.494644, -10, -10, -10, 22.357143, 22.0875, 21.866072, 22, 22.32143, 22.625, 22.991072, 23.464287, 23.732143, 24, 24.25, 24.4375, 24.65625, 24.84375, 24.96875, 25.09375, 25.1875, 25.4375, 25.625, 25.9375, 26.25, 26.3125, 26.46875, 26.65625, 26.964285, 27.208334, 27.15625, 27.299107, 27.583334, 27.910713, 27.9375, 27.696428, 27.083334, 26.571428, 26.1875, 26, 25.660713, 25.330357, 25.196428, 24.875, 24.6875, 24.4375, 23.9375, 23.442856, 23.241072, 22.9375, 23.209822, 23.318453, 23.5, -10, -10, -10, -10, -10, -10, -10, -10, -10, -10, -10, -10, -10, -10, -10, -10, -10, -10, -10, -10, -10, -10, -10, -10, -10, -10, -10, -10, 37, 37, 37, 36.875, 36.875, 36.75, 36.5625, 36.625, 36.625, 36.544643, 36.380955, 36.36607, 36.1875, 36.1875, 36.125, 36.0625, 36, 35.9375, 35.875, 35.6875, 35.5625, 35.625, 35.625, 35.5625, 35.4375, 35.1875, 35, 35, 35, 35, 35, 35, 34.875, 34.75, 34.5625, 34.3125, 34.125, 34.0625, 34, 34, 34.0625, 33.9375, 33.875, 33.625, 33.3125, 33.214287, 33.169643, 33.169643, 33.1875, 33.0625, 33, 33, 33, 33, 33, 32.875, 32.625, 32.375, 32.125, 32, 32, 32, 32, 32, 31.875, 31.8125, 31.8125, 31.8125, 31.8125, 31.875, 31.6875, 31.4375, 31.3125, 31.0625, 31, 31, 31, 30.9375, 30.875, 30.8125, 30.625, 30.625, 30.4375, 30.25, 30.1875, 30, 30, 30, 30, 29.9375, 29.875, 29.875, 29.8125, 29.625, 29.4375, 29.375, 29.1875, 29.1875, 29.1875, 29, 28.75, 28.5, 28.21875, 27.90625, 27.84375, 27.84375, 27.875, 27.9375, 27.9375, 27.9375, 27.9375, 27.9375, 28, 28, 28, 28, 28, 27.875, 27.6875, 27.4375, 27.1875, 27.0625, 27, 27, 26.875, 26.875, 26.875, 26.6875, 26.5625, 26.3125, 26.0625, 26, 25.9375, 25.9375, 25.9375, 25.875, 25.803572, 25.5625, 25.5625, 25.669643, 25.75, 25.625, 25.5, 25.3125, 25.25, 25.3125, 25.3125, 25.25, 25.125, 25.0625, 25, 25, 25, 25, 24.875, 24.6875, 24.4375, 24.348213, 24.1875, 24.125, 23.9375, 23.75, 23.625, 23.5, 23.5, 23.625, 23.75, 23.6875, 23.5625, 23.3125, 23.0625, 23.0625, 23.0625, 23.0625, 23.0625, 22.9375, 22.9375, 22.75, 22.5, 22.3125, 22.0625, 22, 22, 21.9375, 21.9375, 21.875, 21.8125, 21.8125, 21.8125, 21.875, 21.875, 21.8125, 21.5625, 21.3125, 21.125, 21, 21, 20.9375, 20.875, 20.8125, 20.8125, 20.875, 20.8125, 20.625, 20.375, 20.125, 20, 20, 20, 20, 19.9375, 19.9375, 19.875, 19.75, 19.6875, 19.5625, 19.375, 19.25, 19.125, 19, 19, 19, 19, 19, 19, 19, 19, 18.75, 18.5, 18.3125, 18.0625, 18.0625, 18.0625, 18, 18, 17.9375, 17.9375, 17.9375, 17.8125, 17.75, 17.5, 17.25, 17.125, 16.9375, 16.875, 16.8125, 16.6875, 16.6875, 16.6875, 16.6875, 16.6875, 16.5625, 16.375, 16.25, 16.125, 16.0625, 16.0625, 16, 16, 15.75, 15.5625, 15.4375, 15.1875, 15.1875, 15.125, 15.0625, 15.0625, 15.0625, 15.0625, 15, 15, 14.9375, 14.875, 14.875, 14.75, 14.6875, 14.75, 14.75, 14.875, 15, 15, 15.0625, 15.125, 15.375, 15.625, 15.75, 15.9375, 15.8125, 15.6875, 15.6875, 15.767857, 16.035713, 16.0625, 16.3125, 16.65625, 17.477978, 17.732143, 18.571428, 20.666666, 22.089287, 22.15, 22.026787, 22.1875, 22.464287, 22.75, 23.026787, 23.428572, 23.753571, 23.758928, 23.946428, 24.102678, 24.552084, 24.897322, 25.15625, 25.3125, 25.375, 25.5625, 25.6875, 25.875, 26.125, 26.1875, 26.40625, 26.71875, 27.080357, 27.125, 27.049107, 27.174107, 27.583334, 28.080357, 28.1875, 28.071428, 27.413691, 26.717262, 26.229166, 25.839287
