27.875, 27.75, 27.625, 27.5, 27.375, 27.25, 27, 26.625, 26.375, 25.9375, 25.5625, 25.3125, 25.0625, 24.875, 24.875, 24.794643, 24.526787, 24.3125, 23.892857, 23.75, 23.625, 23.491072, 23.339287, 23.205357, 22.866072, 23, 22.875, 22.75, 22.5, 22.25, 22, 22, 21.8125, 21.625, 21.4375, 21.1875, 21.125, 20.875, 20.625, 20.4375, 20.1875, 20.125, 20, 19.6875, 19.4375, 19.1875, 18.9375, 18.875, 18.6875, 18.4375, 18.1875, 17.875, 17.75, 17.5, 17.3125, 17.1875, 17, 17, 16.75, 16.5, 16.25, 16, 16, 15.75, 15.5, 15.1875, 14.9375, 14.875, 14.669643, 14.375, 14.1875, 14, 14, 14, 14, 14, 13.866072, 13.5, 13.375, 13.169643, 13.017857, 13.023809, 13.083333, 13.241072, 13.294643, 13.553572, 14.136905, 14.401786, 15.107143, 16.875, 17.517857, 17.794643, 17.3125, 17.25, 17.080357, 17.0625, 17.0625, 17, 17, 17, 16.875, 16.8125, 16.75, 16.75, 17.0625, 17.482143, 17.785713, 17.928572, 17.616072, 17.041666, 16.946428, 17.053572, 17.325001, 17.258928, 17.142857, 16.74107, 16.401785, 16.194197, 16.046875, 16.046875, 16.015625, 15.8125, 15.6875, 15.5625, 15.638393, 15.8125, 15.8125, 15.8125, 15.5625, 15.0625, 14.598214, 14.25, 13.651786, 13.0625, 12.726191, 12.645833, 12.375, 12.25, 12.0625, 12, 12, 11.9375, 11.9375, 11.9375, 11.9375, 12, 12.0625, 12.125, 12.15625, 12.15625, 11.96875, 11.71875, 11.4375, 11.1875, 11.0625, 11.0625, 11.125, 11.1875, 11.3125, 11.4375, 11.5, 11.4375, 11.3125, 11.125, 11.125, 11.1875, 11.3125, 11.4375, 11.375, 11.375, 11.25, 11.1875, 11.1875, 11.125, 11.125, 11.083333, -10, -10, -10, -10, -10, -10, -10, -10, -10, -10, -10, 32.125, 32.64167, 33.247025, 34.053574, 35, 35.767857, 36.205357, 36.4375, 36.40625, 36.5, 36.666668, 36.739582, 36.895832, -10, -10, -10, -10, -10, -10, -10, 39.357143, 39.333332, 39.285713, 39.25, 39.346943, 39.439285, 39.151787, 39.154762, 39, 10.541667, 10.4375, 10.366072, 9.916667, 9.8928566, 9.875, 10, 10.125, 10.1875, 10.3125, 10.375, 10.375, 10.3125, 10.1875, 10.0625, 10, 10, 10, 10, 9.9375, 9.9375, 9.9375, 9.875, 9.9375, 9.9375, 9.875, 9.875, 9.875, 9.875, 9.875, 9.75, 9.7142859, 9.7857141, 9.75, 9.9375, 9.9375, 9.9375, 9.9375, 9.6875, 9.5625, 9.4375, 9.375, 9.5625, 9.6160717, 9.5, 9.5625, 9.5, 9.375, 9.25, 9.3125, 9.1607141, 9.0892859, 9.25, 9.2767859, 9.375, 9.375, 9.25, 9.125, 9.0625, 9.1875, 9.25, 9.375, 9.5625, 9.6875, 9.875, 10, 10, 10, 10, 10, 10.0625, 10.0625, 10.125, 10.3125, 10.4375, 10.6875, 10.875, 10.9375, 11, 11, 11, 11, 11.0625, 11.125, 11.125, 11.125, 11.125, 11.125, 11.3125, 11.375, 11.375, 11.4375, 11.5, 11.583333, -10, -10, -10, -10, -10, -10, -10, 25.520834, 25.241669, 25.21875, 24.96875, 25, 25.125, 25.375, 25.625, 25.875, 26, 26, 26.0625, 26.125, 26.1875, 26.1875, 26.125, 26, 26, 26.25, 26.553572, 26.848213, 26.96875, 26.84375, 26.71875, 26.772322, 27.229166, 27.607143, 28, 28.1875, 28.1875, 28.25, 28.1875, 28.166666, -10, -10, -10, -10, -10, -10, -10, -10, -10, -10, -10, -10, -10, -10, -10, -10, -10, -10, -10, -10, -10, -10, -10, 28.25, 28.166666, 28.0625, 27.767857, 27.5625, 27.4375, 27.375, 27.3125, 27.25, 26.9375, 26.5625, 26.3125, 25.9375, 25.625, 25.4375, 25.1875, 24.9375, 24.875, 24.669643, 24.339287, 24.1875, 23.830357, 23.75, 23.6875, 23.5625, 23.526787, 23.330357, 22.991072, 23, 22.875, 22.75, 22.5, 22.25, 22, 22, 21.8125, 21.6875, 21.5625, 21.3125, 21.25, 20.875, 20.625, 20.5, 20.25, 20.25, 20.0625, 19.6875, 19.4375, 19.1875, 18.9375, 18.8125, 18.5625, 18.3125, 18.0625, 17.8125, 17.75, 17.5, 17.3125, 17.1875, 17, 17, 16.8125, 16.5625, 16.3125, 16.0625, 16, 15.8125, 15.5625, 15.3125, 15.0625, 14.9375, 14.75, 14.5, 14.25, 14.0625, 14, 14, 14, 14, 13.928572, 13.625, 13.5625, 13.357143, 13.205357, 13.211309, 13.270833, 13.491072, 13.607143, 13.883928, 14.333333, 14.553572, 15.214287, 16.916666, 17.535713, 17.732143, 17.25, 17.1875, 16.955357, 16.96875, 16.96875, 16.90625, 16.96875, 17, 16.875, 16.8125, 16.8125, 16.75, 17, 17.375, 17.806549, 17.928572, 17.678572, 17.041666, 16.883928, 16.991072, 17.262501, 17.133928, 17.017857, 16.508926, 16.151785, 15.944197, 15.828125, 15.828125, 15.796875, 15.65625, 15.625, 15.732143, 15.888393, 16.0625, 16.0625, 16, 15.6875, 15.133928, 14.452381, 14.125, 13.6875, 13.6875, 13.375, 12.979167, 12.589286, 12.3125, 12.0625, 11.892857, 11.875, 11.8125, 11.875, 11.9375, 11.9375, 12, 12, 12.0625, 12.09375, 12.09375, 12.03125, 11.78125, 11.4375, 11.151786, 11, 11, 11.125, 11.1875, 11.3125, 11.375, 11.375, 11.25, 11.1875, 11.0625, 11.0625, 11.25, 11.375, 11.5625, 11.5625, 11.5, 11.3125, 11.125, 10.991072, 10.8, 10.928572, 10.900001, -10, -10, -10, -10, -10, -10, -10, -10, -10, -10, 32, 32.208332, 32.666668, 33.080357, 33.848213, 34.809525, 35.872025, 36.383926, 36.640625, 36.59375, 36.666668, 36.6875, 36.739582, 36.833332, -10, -10, -10, -10, -10, -10, -10, 38.9375, 38.958332, 38.90625, 38.9375, 39.053574, 39.117859, 39.008926, 39.071426, 39, 10.25, 10.166666, 10.125, 10, 10, 10, 10.0625, 10.1875, 10.3125, 10.5, 10.625, 10.5625, 10.4375, 10.25, 10.0625, 10, 10, 10, 10, 9.9375, 9.9375, 9.9375, 9.8125, 9.875, 9.875, 9.8125, 9.8125, 9.75, 9.75, 9.6875, 9.625, 9.6517859, 9.7232141, 9.75, 9.9375, 9.9375, 9.9375, 9.875, 9.625, 9.4375, 9.25, 9.1875, 9.3125, 9.4375, 9.5625, 9.6875, 9.75, 9.625, 9.5, 9.4375, 9.25, 9.1875, 9.1875, 9.1696434, 9.1875, 9.1875, 9.125, 9.0625, 9.0625, 9.125, 9.1875, 9.375, 9.5625, 9.75, 9.9375, 10, 10, 10, 10.0625, 10.0625, 10.125, 10.125, 10.125, 10.25, 10.3125, 10.5, 10.6875, 10.8125, 10.9375, 11, 11, 11, 11.0625, 11.1875, 11.25, 11.25, 11.1875, 11.0625, 11.1875, 11.3125, 11.3125, 11.375, 11.4375, 11.458333, -10, -10, -10, -10, -10, -10, -10, 25.458334, 25.200001, 25.125, 24.84375, 24.892857, 25.145834, 25.357143, 25.625, 25.8125, 25.9375, 26, 26, 26, 26.125, 26.125, 26.0625, 26.026787, 26, 26.25, 26.5, 26.75, 26.90625
27.589285, 27.25, 27.125, 27.0625, 27.0625, 27.125, 26.875, 26.5625, 26.3125, 25.9375, 25.625, 25.4375, 25.25, 25.0625, 24.9375, 24.705357, 24.4375, 24.25, 23.955357, 23.875, 23.8125, 23.6875, 23.651787, 23.392857, 22.991072, 22.9375, 22.8125, 22.6875, 22.5, 22.25, 22, 22, 21.875, 21.8125, 21.75, 21.5, 21.375, 20.9375, 20.6875, 20.625, 20.375, 20.375, 20.125, 19.6875, 19.4375, 19.1875, 19, 18.8125, 18.5625, 18.3125, 18.0625, 17.9375, 17.9375, 17.75, 17.5, 17.3125, 17.0625, 17, 16.8125, 16.5625, 16.3125, 16.0625, 16, 15.875, 15.6875, 15.4375, 15.1875, 15, 14.75, 14.5625, 14.3125, 14.125, 14.0625, 14, 14, 14, 14, 13.875, 13.8125, 13.669643, 13.455357, 13.461309, 13.520833, 13.741072, 13.919643, 14.125, 14.3125, 14.4375, 15, 16.833332, 17.5, 17.741072, 17.375, 17.1875, 16.919643, 16.84375, 16.870537, 16.941963, 16.96875, 17.0625, 16.9375, 16.875, 16.8125, 16.767857, 17, 17.25, 17.708334, 17.741072, 17.553572, 17.1875, 17.0625, 17.200893, 17.40625, 17.40625, 17.15625, 16.61607, 16.25, 15.928572, 15.875, 15.75, 15.745536, 15.794643, 15.897322, 16.075893, 16.169643, 16.21875, 16.09375, 15.96875, 15.65625, 15.125, 14.244048, 13.883928, 13.571428, 13.825, 13.482143, 13.095239, 12.714286, 12.4375, 12.1875, 12.017857, 11.9375, 11.875, 11.9375, 12, 12, 12, 12, 12, 12, 12, 12, 11.8125, 11.5625, 11.258928, 10.964286, 10.9375, 10.9375, 11.0625, 11.1875, 11.3125, 11.3125, 11.1875, 11.1875, 11.0625, 11.125, 11.3125, 11.4375, 11.75, 11.848214, 11.75, 11.455357, 11.1875, 10.928572, 10.8, 10.991072, 11.066668, -10, -10, -10, -10, -10, -10, -10, -10, -10, -10, 32, 32.388885, 32.666668, 33.020832, 33.598213, 34.827381, 36.005951, 36.571426, 36.84375, 36.71875, 36.714287, 36.785713, 36.8125, 37, -10, -10, -10, 38, -10, -10, -10, 38.625, 38.75, 38.84375, 39.0625, 39.125, 39.017857, 39.008926, 39, 39, 10.4375, 10.416666, 10.4375, 10.375, 10.285714, 9.958333, 9.9553566, 10, 10.1875, 10.4375, 10.5625, 10.5625, 10.4375, 10.25, 10.0625, 10.0625, 10.125, 10.125, 10.125, 10, 9.9375, 9.9375, 9.8125, 9.875, 9.875, 9.875, 9.9375, 9.875, 9.875, 9.75, 9.6875, 9.7767859, 9.8482141, 9.875, 10, 9.9375, 9.9375, 9.875, 9.625, 9.375, 9.125, 9, 9.0625, 9.1875, 9.4375, 9.625, 9.8125, 9.8125, 9.75, 9.75, 9.5625, 9.4375, 9.25, 9.0625, 9.0625, 9.0625, 9.0625, 9.0625, 9.0625, 9.0625, 9.0625, 9.25, 9.4375, 9.6875, 9.9375, 10, 10, 10, 9.9910717, 9.8625002, 10.125, 10.125, 10.125, 10.25, 10.1875, 10.3125, 10.5625, 10.6875, 10.875, 11, 11, 11, 11.0625, 11.1875, 11.25, 11.25, 11.25, 11.1875, 11.3125, 11.4375, 11.4375, 11.5, 11.5625, 11.625, 11.666667, -10, -10, -10, -10, -10, -10, 25.375, 25.25, 25.0625, 24.71875, 24.607143, 24.895834, 25.151787, 25.4375, 25.6875, 25.8125, 25.9375, 26, 26.0625, 26.1875, 26.1875, 26.0625, 25.928574, 25.9375, 26.1875, 26.625, 26.8125, 27, 26.875, 26.75, 26.892857, 27.398809, 27.723215, 28.0625, 28.0625, 28.0625, 28.0625, 28, 28, -10, -10, -10, -10, -10, -10, -10, -10, -10, -10, -10, -10, -10, -10, -10, -10, -10, -10, -10, -10, -10, -10, 28, 28.416668, 28.264881, 28.017857, 27.651785, 27.125, 27, 26.875, 26.9375, 26.9375, 26.75, 26.5, 26.25, 26, 25.6875, 25.5, 25.375, 25.160713, 24.964287, 24.705357, 24.375, 24.25, 24, 23.9375, 23.875, 23.6875, 23.651787, 23.419643, 23.089287, 23, 22.8125, 22.625, 22.4375, 22.1875, 22, 22, 21.9375, 21.9375, 21.9375, 21.6875, 21.5, 21, 20.6875, 20.625, 20.375, 20.375, 20.0625, 19.625, 19.375, 19.125, 18.9375, 18.75, 18.5, 18.25, 18.0625, 18, 18, 17.8125, 17.5625, 17.3125, 17.0625, 17, 16.8125, 16.5625, 16.3125, 16.0625, 16, 15.9375, 15.8125, 15.5625, 15.3125, 15.125, 14.875, 14.75, 14.5, 14.25, 14.125, 14, 14, 14, 14, 13.9375, 13.9375, 13.794643, 13.580357, 13.604167, 13.770833, 13.928572, 14.0625, 14.1875, 14.375, 14.678572, 15.25, 16.833332, 17.419643, 17.625, 17.4375, 17.125, 16.75, 16.65625, 16.683037, 16.816963, 16.96875, 17.0625, 17, 16.9375, 16.875, 16.892857, 17.107143, 17.3125, 17.770834, 17.8125, 17.741072, 17.3125, 17.1875, 17.232143, 17.5, 17.5, 17.1875, 16.571428, 16.25, 16, 16.0625, 16, 15.995536, 16.066965, 15.855654, 16.076532, 16.102041, 16.107143, 15.763393, 15.65625, 15.46875, 15, 14.226191, 13.883928, 13.696428, 13.8875, 13.544643, 13.095239, 12.714286, 12.4375, 12.1875, 12.017857, 11.9375, 11.8125, 11.8125, 11.875, 11.875, 11.9375, 12, 12, 12, 12, 12, 11.8125, 11.5625, 11.258928, 10.964286, 10.9375, 10.9375, 11.0625, 11.125, 11.1875, 11.1875, 11.0625, 11.1875, 11.125, 11.25, 11.4375, 11.4375, 11.75, 11.910714, 11.910714, 11.642857, 11.330357, 10.991072, 10.8625, 11.116072, 11.316668, 12.666666, -10, -10, -10, -10, -10, -10, -10, -10, -10, -10, -10, 32.6875, 33.125, 33.584824, 34.514881, 35.720238, 36.508926, 36.892857, 36.90625, 36.933037, 37.004463, 37.03125, 37.166668, -10, -10, -10, 38, 37.916664, 37.8125, 37.8125, 38.28125, 38.5, 38.78125, 39.125, 39.25, 39.142857, 39.071426, 39, 39, 10.5625, 10.583333, 10.625, 10.625, 10.473214, 10.083333, 10.017857, 10, 10.1875, 10.375, 10.4375, 10.375, 10.25, 10.125, 10, 10.0625, 10.125, 10.125, 10.125, 10, 9.9375, 9.9375, 9.8125, 9.875, 9.875, 9.9375, 10.0625, 10, 10, 9.8125, 9.8125, 9.8482141, 9.7053566, 9.7678566, 9.8125, 9.875, 9.9375, 9.875, 9.625, 9.375, 9.125, 9, 9.0625, 9.1875, 9.4375, 9.625, 9.8125, 9.875, 9.875, 9.875, 9.625, 9.4375, 9.1875, 9, 9.0625, 9.0625, 9.0625, 9.0625, 9, 9, 9, 9.125, 9.375, 9.625, 9.875, 10, 10, 10, 9.9285717, 9.7375002, 10.017857, 10.208333, 10.303572, 10.4375, 10.3125, 10.375, 10.5625, 10.6875, 10.875, 11, 11, 11, 11.0625, 11.1875, 11.25, 11.25, 11.3125, 11.3125, 11.357143, 11.425, 11.553572, 11.553572, 11.6875, 11.708333, -10, -10, -10, -10, -10, -10, -10, 25.1875, 25.125, 24.96875, 24.625, 24.544643, 24.833334, 25.026787, 25.3125, 25.5625, 25.75, 25.973213, 26.125, 26.25, 26.375, 26.4375, 26.3125, 26.178574, 26.125, 26.25, 26.625, 26.6875, 26.875
27.714285, 27.1875, 27.0625, 26.9375, 26.9375, 26.866072, 26.416666, 26.205357, 26, 25.9375, 25.75, 25.5625, 25.375, 25.035713, 24.839287, 24.517857, 24.25, 24.25, 24, 23.875, 23.705357, 23.5, 23.5, 23.4375, 23.25, 23.0625, 22.767857, 22.5, 22.3125, 22.125, 22, 22, 22, 21.9375, 21.875, 21.625, 21.375, 20.9375, 20.625, 20.5, 20.25, 20.25, 20.0625, 19.6875, 19.4375, 19.1875, 18.9375, 18.6875, 18.4375, 18.1875, 18, 18, 18, 17.875, 17.625, 17.375, 17.125, 17, 16.8125, 16.5625, 16.3125, 16.0625, 16, 16, 15.9375, 15.6875, 15.4375, 15.1875, 14.9375, 14.8125, 14.5625, 14.3125, 14.125, 14, 14, 14, 14, 14, 13.9375, 13.875, 13.875, 13.875, 13.9375, 14, 14, 14.0625, 14.1875, 14.632653, 15.224489, 16.75, 17.3125, 17.5625, 17.375, 17.0625, 16.75, 16.65625, 16.683037, 16.816963, 16.96875, 17.0625, 17, 16.875, 16.8125, 16.830357, 17.107143, 17.375, 17.833334, 17.875, 17.8125, 17.5, 17.25, 17.1875, 17.3125, 17.3125, 17.125, 16.67857, 16.4375, 16.25, 16.3125, 16.1875, 16.151785, 16.160715, 15.886904, 15.589286, 15.261905, 15.104167, 15.325893, 15.21875, 15.21875, 14.875, 14.208334, 13.821428, 13.571428, 13.7, 13.357143, 12.970239, 12.696428, 12.4375, 12.1875, 12.017857, 11.9375, 11.8125, 11.8125, 11.875, 11.875, 11.9375, 12, 12, 12, 12, 12, 11.875, 11.6875, 11.383928, 11.089286, 11.0625, 11, 11.0625, 11.125, 11.1875, 11.1875, 11.1875, 11.3125, 11.1875, 11.25, 11.3125, 11.25, 11.5625, 11.785714, 11.848214, 11.674107, 11.361607, 11.147322, 11.08125, 11.366072, 11.7125, 12.555554, -10, -10, -10, -10, -10, -10, -10, -10, -10, -10, -10, 32.5625, 32.958332, 33.334824, 34.166668, 35.113098, 36.366074, 36.892857, 37.15625, 37.370537, 37.566963, 37.65625, 37.700001, -10, -10, -10, 38, 37.916668, 37.8125, 37.8125, 38.046875, 38.260418, 38.5625, 38.8125, 38.9375, 39, 39, 39, 11, 10.6875, 10.6875, 10.75, 10.8125, 10.598214, 10.208333, 10.017857, 9.875, 10, 10.0625, 10.125, 10.125, 10.0625, 10.125, 10.125, 10.25, 10.375, 10.3125, 10.25, 10.125, 10, 10, 9.9375, 9.9375, 9.875, 9.9375, 10.0625, 10, 10.0625, 9.9375, 10, 10.035714, 9.8928566, 9.9553566, 9.875, 9.875, 9.9375, 9.875, 9.6875, 9.5625, 9.375, 9.1875, 9.125, 9.125, 9.3125, 9.5, 9.75, 9.9375, 9.9375, 9.9375, 9.75, 9.5, 9.25, 9.0625, 9.0625, 9.0625, 9.0625, 9.0625, 9, 9, 9, 9.125, 9.375, 9.625, 9.875, 10, 10, 10, 9.9285717, 9.7375002, 9.9553566, 10.208333, 10.366072, 10.5625, 10.5625, 10.5625, 10.6875, 10.75, 10.875, 11, 11, 11, 11, 11.125, 11.25, 11.25, 11.375, 11.375, 11.325893, 11.39375, 11.522322, 11.459822, 11.5625, 11.583333, -10, -10, -10, -10, -10, -10, -10, 25.083334, 24.916666, 24.822916, 24.5625, 24.482143, 24.770834, 24.901787, 25.125, 25.375, 25.6875, 26.008928, 26.1875, 26.375, 26.5, 26.625, 26.5625, 26.428574, 26.3125, 26.375, 26.6875, 26.6875, 26.875, 26.8125, 26.928572, 27.360119, 27.669643, 27.991072, 28.0625, 28.1875, 28.3125, 28.3125, 28.3125, 28.25, -10, -10, -10, -10, -10, -10, -10, -10, -10, -10, -10, -10, -10, -10, -10, -10, -10, -10, -10, -10, -10, -10, 28, 28.166668, 28.035713, 27.830357, 27.633928, 27.125, 27.0625, 26.9375, 26.9375, 26.803572, 26.354166, 26.142857, 25.9375, 25.9375, 25.8125, 25.5625, 25.375, 25.035713, 24.839287, 24.580357, 24.375, 24.375, 24.125, 23.991072, 23.559523, 23.321428, 23.3125, 23.3125, 23.1875, 23, 22.642857, 22.375, 22.1875, 22.0625, 22, 22, 22, 21.875, 21.75, 21.5, 21.25, 20.875, 20.5625, 20.375, 20.125, 20.0625, 19.875, 19.5, 19.25, 19.0625, 18.875, 18.75, 18.5, 18.25, 18.0625, 18, 18, 17.9375, 17.6875, 17.4375, 17.1875, 17, 16.8125, 16.5625, 16.28125, 15.96875, 15.90625, 15.90625, 15.9375, 15.75, 15.5, 15.25, 15, 14.875, 14.625, 14.375, 14.125, 14, 14, 14, 14, 14, 13.875, 13.875, 13.875, 13.875, 14, 14, 13.9375, 14, 14.354167, 14.345238, 14.916667, 16.6875, 17.169643, 17.375, 17.25, 17, 16.875, 16.8125, 16.839287, 16.973213, 17, 17.0625, 17, 16.875, 16.8125, 16.892857, 17.169643, 17.4375, 17.8125, 17.875, 17.776787, 17.625, 17.375, 17.3125, 17.3125, 17.25, 17, 16.723213, 16.5625, 16.4375, 16.5625, 16.4375, 16.401785, 16.348215, 15.886904, 15.669643, 15.303572, 14.995536, 15.013393, 14.90625, 15.03125, 14.741072, 14.229167, 13.714285, 13.321428, 13.2, 12.8125, 12.553572, 12.375, 12.25, 12.125, 12.125, 12.0625, 11.9375, 11.875, 11.875, 11.875, 11.9375, 12, 12, 12, 11.9375, 11.9375, 11.875, 11.8125, 11.669643, 11.401786, 11.375, 11.25, 11.3125, 11.375, 11.4375, 11.375, 11.375, 11.375, 11.1875, 11.25, 11.1875, 11.1875, 11.5, 11.785714, 11.973214, 11.799107, 11.549107, 11.40625, 11.46875, 11.625, 12.026786, 12.466666, -10, -10, -10, -10, -10, -10, -10, -10, -10, -10, -10, 32.5625, 32.875, 33.084824, 33.540813, 34.669384, 36.395832, 37.071426, 37.40625, 37.620537, 37.879463, 38.03125, 38.137501, -10, -10, -10, 38, 37.9375, 37.859375, 37.859375, 37.984375, 38.21875, 38.5625, 38.8125, 38.9375, 39, 39, 10.5, 10.666667, 10.875, 10.833333, 10.9375, 11, 10.723214, 10.333333, 10.080357, 9.8125, 9.875, 9.8125, 9.8125, 9.875, 9.875, 10.125, 10.25, 10.375, 10.5, 10.375, 10.25, 10.1875, 10.0625, 10.0625, 10.0625, 9.9375, 9.8125, 9.8125, 9.9375, 10, 10.125, 10.125, 10.0625, 10.035714, 9.8928566, 9.8928566, 9.875, 9.875, 9.9375, 9.9375, 9.8125, 9.75, 9.625, 9.4375, 9.3125, 9.25, 9.375, 9.5, 9.75, 9.9375, 9.9375, 10, 9.875, 9.625, 9.375, 9.1875, 9.1875, 9.1875, 9.1875, 9.125, 9, 9, 9, 9.0625, 9.3125, 9.5625, 9.8125, 10, 10, 10, 9.8660717, 9.6750002, 9.8928566, 10.145833, 10.428572, 10.6875, 10.75, 10.8125, 10.875, 10.875, 10.9375, 11, 11, 11, 11, 11.125, 11.25, 11.25, 11.375, 11.375, 11.263393, 11.26875, 11.397322, 11.334822, 11.4375, 11.458333, -10, -10, -10, -10, -10, -10, -10, -10, 24.833334, 24.479166, 24.270834, 24.151787, 24.28125, 24.388393, 24.53125, 24.84375, 25.392857, 25.724489, 25.8125, 26.125, 26.375, 26.669643, 26.75, 26.714287, 26.625, 26.625, 26.8125, 26.75, 26.875
27.625, 27.25, 27.1875, 26.9375, 26.875, 26.616072, 26.166666, 26.017857, 25.875, 25.9375, 25.875, 25.625, 25.375, 25.035713, 24.839287, 24.6875, 24.5625, 24.625, 24.4375, 24.241072, 23.747023, 23.383928, 23.25, 23.25, 23.1875, 23.0625, 22.705357, 22.4375, 22.1875, 22.0625, 22, 22, 21.9375, 21.75, 21.5625, 21.25, 21, 20.6875, 20.4375, 20.3125, 20.125, 20.0625, 19.875, 19.5625, 19.375, 19.1875, 19, 18.84375, 18.53125, 18.28125, 18.09375, 18, 18, 17.9375, 17.6875, 17.4375, 17.1875, 17, 16.8125, 16.5625, 16.28125, 15.96875, 15.84375, 15.78125, 15.75, 15.625, 15.5, 15.3125, 15.125, 14.875, 14.5625, 14.3125, 14.03125, 13.90625, 13.90625, 13.90625, 13.9375, 14, 13.875, 13.875, 13.875, 13.875, 14, 14, 13.8125, 13.9375, 14.583334, 15.408164, 16.081633, 16.708334, 17.0625, 17.1875, 17.125, 16.9375, 16.9375, 16.910713, 16.767857, 16.758928, 16.75, 16.8125, 16.9375, 16.973213, 17, 17.0625, 17.169643, 17.4375, 17.8125, 18.107143, 18.008928, 17.729166, 17.446428, 17.28125, 17.21875, 17.09375, 16.84375, 16.705357, 16.5625, 16.4375, 16.526785, 16.4375, 16.3125, 16.116072, 15.520833, 15.169643, 14.803572, 14.589286, 14.732143, 14.75, 15, 14.705357, 14.145833, 13.642857, 13.125, 12.875, 12.625, 12.4375, 12.375, 12.25, 12.125, 12.0625, 12, 11.9375, 11.875, 11.875, 11.875, 11.9375, 12, 12, 12, 11.875, 11.875, 11.875, 11.8125, 11.8125, 11.6875, 11.5625, 11.5, 11.5, 11.5625, 11.625, 11.5, 11.5, 11.4375, 11.25, 11.3125, 11.25, 11.1875, 11.375, 11.5625, 11.723214, 11.65625, 11.549107, 11.53125, 11.59375, 11.75, 12.026786, 12.383333, -10, -10, -10, -10, -10, -10, -10, -10, -10, -10, -10, 32.5625, 32.791668, 32.90625, 33.267857, 34.599998, 36.416664, 37.25, 37.71875, 37.90625, 38.09375, 38.25, 38.262501, 38.375, 38.25, 38, 37.875, 37.78125, 37.703125, 37.828125, 38.015625, 38.28125, 38.625, 38.75, 38.875, 38.9375, 38.875, 10.5, 10.5, 10.5625, 10.5, 10.625, 10.71875, 10.53125, 10.46875, 10.21875, 10.0625, 10.0625, 9.9375, 9.9375, 9.875, 9.875, 10.125, 10.25, 10.3125, 10.375, 10.25, 10.125, 10.1875, 10.125, 10.125, 10.125, 9.875, 9.6875, 9.5625, 9.625, 9.75, 10, 10.098214, 9.9553566, 9.9285717, 9.7678566, 9.7678566, 9.8125, 9.8125, 9.9375, 10, 9.9375, 9.875, 9.6875, 9.5625, 9.4375, 9.4375, 9.5625, 9.625, 9.8125, 9.9375, 9.875, 9.875, 9.8125, 9.5625, 9.375, 9.3125, 9.25, 9.25, 9.25, 9.125, 9.0625, 9.125, 9.1875, 9.1875, 9.3125, 9.5, 9.6875, 9.9375, 10, 10, 9.9375, 9.875, 9.8928566, 10.145833, 10.428572, 10.6875, 10.875, 11, 10.9375, 10.9375, 10.9375, 10.9375, 11, 11, 11, 11.125, 11.25, 11.25, 11.375, 11.3125, 11.200893, 11.20625, 11.334822, 11.272322, 11.375, 11.395833, 11.333334, -10, -10, -10, -10, -10, -10, -10, -10, 24.388887, 24.020834, 23.979166, 24.125, 24.15625, 24.25, 24.4375, 24.404762, 24.809525, 25.346939, 25.875, 26.125, 26.544643, 26.8125, 26.9375, 26.9375, 26.875, 26.8125, 26.75, 26.875, 27.008928, 27.428572, 27.833334, 28, 28.1875, 28.125, 28.25, 28.375, 28.375, 28.3125, 28.25, -10, -10, -10, -10, -10, -10, -10, -10, -10, -10, -10, -10, -10, -10, -10, -10, -10, -10, -10, -10, -10, -10, 27.875, 27.833334, 27.75, 27.75, 27.660713, 27.392857, 27.258928, 26.9375, 26.75, 26.491072, 26.104166, 26.080357, 26, 26, 25.830357, 25.5625, 25.25, 25, 24.875, 24.6875, 24.625, 24.625, 24.5, 24.366072, 23.872023, 23.508928, 23.25, 23.1875, 23.125, 23, 22.767857, 22.5, 22.25, 22.125, 22, 22, 21.875, 21.625, 21.375, 21.0625, 20.875, 20.625, 20.5, 20.375, 20.1875, 20.125, 19.9375, 19.6875, 19.5625, 19.4375, 19.25, 19.09375, 18.71875, 18.40625, 18.15625, 18, 18, 18, 17.75, 17.5, 17.25, 17, 16.8125, 16.5625, 16.28125, 15.96875, 15.84375, 15.71875, 15.625, 15.5625, 15.5, 15.375, 15.25, 14.875, 14.5, 14.25, 13.96875, 13.90625, 13.90625, 13.90625, 13.9375, 14, 13.875, 13.875, 13.875, 13.875, 14, 14, 13.8125, 13.9375, 14.583334, 15.408164, 16.081633, 16.645834, 17, 17.125, 17.0625, 16.9375, 17.0625, 17.008928, 16.723213, 16.738094, 16.833334, 16.991072, 17.125, 17.160713, 17.125, 17.0625, 17.0625, 17.3125, 17.75, 18.214287, 18.178572, 17.770832, 17.455357, 17.25, 17.125, 17, 16.8125, 16.75, 16.625, 16.5625, 16.589285, 16.4375, 16.1875, 15.830357, 15.4375, 15.25, 15.089286, 14.875, 14.9375, 14.875, 14.928572, 14.434525, 13.842261, 13.330357, 12.875, 12.625, 12.4375, 12.375, 12.375, 12.3125, 12.1875, 12.0625, 12, 12, 12, 12, 12, 12, 12, 12, 12, 11.875, 11.875, 11.875, 11.875, 11.9375, 11.875, 11.75, 11.625, 11.5625, 11.625, 11.75, 11.625, 11.625, 11.5, 11.223214, 11.080357, 11.041667, 11.208333, 11.428572, 11.625, 11.6875, 11.65625, 11.59375, 11.65625, 11.71875, 11.8125, 12.026786, 12.133333, -10, -10, -10, -10, -10, -10, -10, -10, -10, -10, -10, 32.625, 32.75, 32.875, 33.267857, 34.599998, 36.202377, 37.357143, 37.830357, 38.0625, 38.25, 38.3125, 38.325001, 38.166668, 38.166668, 38.166668, 38.125, 37.994049, 37.982143, 38.296875, 38.421875, 38.5625, 38.75, 38.75, 38.75, 38.75, 38.625, 38.333336, 10.25, 10.229167, 10.125, 10.25, 10.34375, 10.28125, 10.34375, 10.15625, 10.0625, 10.0625, 9.9375, 9.9375, 9.875, 9.875, 10.125, 10.25, 10.3125, 10.375, 10.25, 10.125, 10.1875, 10.125, 10.125, 10.125, 9.875, 9.75, 9.5625, 9.5625, 9.6875, 9.9375, 10.098214, 9.8928566, 9.8571434, 9.8125, 9.8125, 9.9375, 9.875, 9.9375, 10, 10, 9.9375, 9.8125, 9.75, 9.625, 9.625, 9.6875, 9.6875, 9.8125, 9.9375, 9.875, 9.875, 9.875, 9.625, 9.4375, 9.4375, 9.375, 9.375, 9.375, 9.1875, 9.125, 9.25, 9.375, 9.375, 9.375, 9.5, 9.625, 9.875, 10, 10, 10, 10, 10, 10.0625, 10.3125, 10.5, 10.6875, 10.8125, 10.6875, 10.75, 10.8125, 10.875, 11, 11, 11.0625, 11.25, 11.4375, 11.5, 11.53125, 11.34375, 11.1875, 11.1875, 11.203125, 11.203125, 11.296875, 11.442708, 11.666667, -10, -10, -10, -10, -10, -10, -10, -10, -10, 23.458334, 23.375, 23.5625, 23.59375, 23.6875, 23.875, 23.882654, 24.482141, 24.803572, 25.1875, 25.508928, 26.127977, 26.5625, 26.8125, 26.9375, 27, 27, 27, 27.125
27.535713, 27.267857, 27.133928, 26.875, 26.75, 26.5, 26.375, 26.375, 26.25, 26.125, 25.785713, 25.5, 25.25, 25.125, 25, 24.8125, 24.6875, 24.5625, 24.4375, 24.366072, 23.916666, 23.571428, 23.25, 23.0625, 23, 22.9375, 22.875, 22.625, 22.375, 22.1875, 22, 22, 21.8125, 21.5625, 21.3125, 21, 20.8125, 20.5625, 20.4375, 20.375, 20.25, 20.1875, 20, 19.75, 19.625, 19.5625, 19.5, 19.364584, 18.802084, 18.450893, 18.15625, 18, 18, 18, 17.75, 17.5, 17.25, 17, 16.875, 16.6875, 16.40625, 16.09375, 15.90625, 15.65625, 15.5, 15.5, 15.410714, 15.276786, 15.25, 14.8125, 14.5, 14.25, 13.96875, 13.90625, 13.90625, 13.90625, 13.9375, 14, 14, 14, 14, 14, 14, 14, 13.875, 14, 14.752976, 15.642858, 16.357143, 16.71875, 17, 17, 17, 17, 17.25, 17.196428, 16.910713, 16.925594, 16.895834, 17.053572, 17.1875, 17.160713, 17.125, 17.0625, 17, 17.25, 17.75, 18.214287, 18.071428, 17.654762, 17.330357, 17.1875, 17.1875, 17.0625, 16.875, 16.75, 16.5, 16.4375, 16.464285, 16.4375, 16.241072, 15.747024, 15.321428, 15.0625, 14.982143, 14.875, 14.9375, 14.9375, 14.821428, 14.080357, 13.467261, 12.955357, 12.625, 12.375, 12.1875, 12.25, 12.375, 12.375, 12.3125, 12.125, 12, 12, 12, 12, 12, 12, 12, 12, 12, 11.875, 11.875, 11.875, 11.875, 12, 12, 11.9375, 11.8125, 11.541667, 11.571428, 11.732143, 11.625, 11.625, 11.5625, 11.348214, 11.267857, 11.291667, 11.458333, 11.616072, 11.75, 11.75, 11.6875, 11.6875, 11.75, 11.8125, 11.875, 11.964286, 12.05, -10, -10, -10, -10, -10, -10, -10, -10, -10, -10, -10, 32.875, 32.916668, 33.0625, 33.517857, 34.87381, 36.327377, 37.5, 38, 38.1875, 38.25, 38.1875, 38.267857, 38.375, 38.375, 38.4375, 38.375, 38.589287, 38.625, 38.59375, 38.71875, 38.84375, 38.9375, 38.8125, 38.6875, 38.5625, 38.375, 38.222225, 10, 9.979167, 9.875, 10.026786, 10.263393, 10.239583, 10.135417, 9.9866066, 9.9375, 10, 10, 10, 9.9375, 9.9375, 10.0625, 10.125, 10.125, 10.125, 10.0625, 10, 10.0625, 10, 10, 10.0625, 9.9821434, 9.9375, 9.8125, 9.75, 9.8125, 10, 10.098214, 9.8303566, 9.7946434, 9.75, 9.75, 9.9375, 9.9375, 10, 10, 10, 9.875, 9.75, 9.8125, 9.75, 9.8125, 9.875, 9.8125, 9.875, 9.9375, 9.875, 9.875, 9.875, 9.625, 9.5, 9.5625, 9.4821434, 9.375, 9.375, 9.125, 9.1875, 9.375, 9.5625, 9.5625, 9.4375, 9.5, 9.5625, 9.8125, 10, 10, 10, 10, 10, 10, 10.1875, 10.3125, 10.4375, 10.5625, 10.4375, 10.5625, 10.6875, 10.8125, 11, 11, 11.125, 11.3125, 11.5, 11.5625, 11.53125, 11.34375, 11.15625, 11.09375, 11.140625, 11.265625, 11.453125, 11.765625, 11.833333, -10, -10, -10, -10, -10, -10, -10, -10, -10, 22.547619, 22.4375, 22.633928, 22.78125, 22.9375, 23.133928, 23.511906, 23.875, 24.303572, 24.6875, 25.133928, 25.815477, 26.28125, 26.65625, 26.875, 27.0625, 27.09375, 27.15625, 27.3125, 27.508928, 27.9375, 28.0625, 28.125, 28.125, 28.0625, 28.125, 28.25, 28.34375, 28.28125, 28.291666, -10, -10, -10, -10, -10, -10, -10, -10, -10, -10, -10, -10, -10, -10, -10, -10, -10, -10, -10, -10, -10, -10, -10, 27.833334, 27.8125, 27.8125, 27.723213, 27.455357, 27.258928, 26.9375, 26.75, 26.5, 26.375, 26.375, 26.25, 26.125, 25.723213, 25.4375, 25.1875, 25.0625, 25, 24.875, 24.6875, 24.5, 24.3125, 24.1875, 24, 23.75, 23.4375, 23.1875, 23.0625, 23, 23, 22.75, 22.5, 22.25, 22, 22, 21.75, 21.5, 21.25, 20.9375, 20.75, 20.5, 20.375, 20.3125, 20.25, 20.25, 20.125, 20, 19.875, 19.75, 19.625, 19.364584, 18.802084, 18.450893, 18.15625, 18, 18, 18, 17.75, 17.5, 17.25, 17, 16.875, 16.6875, 16.4375, 16.1875, 16, 15.75, 15.5, 15.4375, 15.348214, 15.214286, 15.25, 14.875, 14.5625, 14.3125, 14.03125, 13.96875, 13.96875, 13.90625, 13.9375, 14.035714, 14, 14.026786, 13.9375, 13.9375, 13.9375, 14, 14.0625, 14.25, 14.77381, 15.571429, 16.339287, 16.709822, 17, 17, 17, 17, 17.1875, 17.071428, 16.723213, 16.738094, 16.770834, 16.991072, 17.1875, 17.160713, 17.125, 17.0625, 17, 17.25, 17.625, 18.026787, 17.919643, 17.404762, 17.142857, 17, 17.0625, 17, 16.9375, 16.75, 16.4375, 16.28125, 16.120535, 16.178572, 16.116072, 15.622024, 15.348214, 15.125, 15.160714, 15.160714, 15.080357, 15.0625, 14.714285, 13.726191, 13.154761, 12.75, 12.5625, 12.375, 12.25, 12.375, 12.5625, 12.5625, 12.4375, 12.1875, 12, 12, 12, 12, 12, 12, 12, 12, 12, 11.9375, 11.9375, 11.9375, 11.9375, 12, 12, 11.9375, 11.8125, 11.541667, 11.571428, 11.732143, 11.625, 11.625, 11.625, 11.473214, 11.455357, 11.541667, 11.645833, 11.678572, 11.6875, 11.625, 11.625, 11.6875, 11.8125, 11.875, 11.9375, 12, 12, -10, -10, -10, -10, -10, -10, -10, -10, -10, -10, -10, 32.875, 32.916668, 33.125, 33.660713, 34.740475, 36.219048, 37.571426, 38.178574, 38.4375, 38.4375, 38.3125, 38.330357, 38.4375, 38.5, 38.625, 38.625, 38.6875, 38.78125, 38.90625, 38.96875, 38.96875, 38.8125, 38.526787, 38.375, 38.25, 38.125, 38.166668, 10.125, 10.083334, 10, 10.151786, 10.325893, 10.293155, 10.010417, 9.9241066, 9.875, 10, 10.0625, 10.0625, 10, 10, 10, 10, 10.0625, 10.035714, 9.8928566, 9.8214283, 9.75, 9.75, 9.8125, 9.9375, 10.044643, 10.0625, 10, 9.9375, 9.9375, 10.0625, 10.098214, 9.8303566, 9.7946434, 9.75, 9.75, 9.9375, 9.9375, 10, 10, 10, 9.9375, 9.8125, 9.875, 9.8125, 9.875, 9.875, 9.75, 9.75, 9.75, 9.75, 9.8125, 9.875, 9.6875, 9.625, 9.6875, 9.6071434, 9.5, 9.4375, 9.1875, 9.3125, 9.5, 9.75, 9.75, 9.5, 9.5, 9.5, 9.6875, 9.9375, 9.9375, 9.9375, 10, 10, 10, 10.125, 10.1875, 10.3125, 10.375, 10.25, 10.4375, 10.5625, 10.75, 11, 11, 11.1875, 11.375, 11.5625, 11.625, 11.53125, 11.34375, 11.15625, 11.09375, 11.203125, 11.390625, 11.640625, 12.015625, 12.111111, -10, -10, -10, -10, -10, -10, -10, -10, -10, 20.680555, 21.404764, 21.897108, 22.270834, 22.393749, 22.65625, 23.074406, 23.553572, 24.261906, 24.6875, 25.071428, 25.645834, 26.0625, 26.40625, 26.6875, 27, 27.200893, 27.34375, 27.5625
27.910713, 27.580357, 27.321428, 27.0625, 26.875, 26.6875, 26.5625, 26.5, 26.3125, 26.125, 25.723213, 25.5, 25.25, 25.125, 25.0625, 24.875, 24.6875, 24.4375, 24.1875, 24.0625, 23.875, 23.75, 23.5, 23.25, 23.0625, 22.75, 22.75, 22.5, 22.375, 22.1875, 22, 22, 21.75, 21.5, 21.25, 21, 20.8125, 20.625, 20.4375, 20.25, 20.1875, 20.125, 20.0625, 19.9375, 19.75, 19.625, 19.5, 19.333334, 18.833334, 18.482143, 18.1875, 18, 18, 17.9375, 17.6875, 17.4375, 17.1875, 17, 16.9375, 16.75, 16.5, 16.25, 16, 15.75, 15.5, 15.375, 15.223214, 15.089286, 15.125, 14.8125, 14.5625, 14.3125, 14.0625, 14.125, 14.125, 14, 13.964286, 13.910714, 13.8125, 13.919643, 13.8875, 13.830357, 13.9375, 14, 14.1875, 14.375, 14.669643, 15.357143, 16.297621, 16.700893, 17, 17, 17, 17.0625, 17.25, 17.142857, 16.830357, 16.916666, 16.958334, 17.178572, 17.25, 17.0625, 16.9375, 16.892857, 17.166666, 17.4375, 17.6875, 17.8125, 17.625, 17.238094, 17.071428, 17, 17.0625, 17, 16.9375, 16.6875, 16.375, 16.28125, 16.15625, 16.241072, 16.241072, 15.747024, 15.598214, 15.5625, 15.723214, 15.714285, 15.372024, 15.196428, 14.651785, 13.645833, 13.214285, 12.8125, 12.6875, 12.4375, 12.3125, 12.3125, 12.401786, 12.473214, 12.3125, 12.1875, 12, 12, 12, 12, 12, 12, 12, 12, 12, 12, 12, 12.0625, 12.0625, 12.0625, 12.0625, 12, 11.8125, 11.479167, 11.446428, 11.544643, 11.5, 11.5, 11.5, 11.348214, 11.267857, 11.380953, 11.690475, 11.723215, 11.75, 11.75, 11.75, 11.8125, 11.9375, 11.875, 11.875, 12, 12.05, -10, -10, -10, -10, -10, -10, -10, -10, -10, -10, -10, 32.625, 32.729168, 33.0625, 33.732143, 34.490475, 36.014286, 37.523808, 38.238094, 38.6875, 38.6875, 38.5625, 38.580357, 38.6875, 38.75, 38.9375, 39, 39.09375, 39.1875, 39.1875, 39.125, 39.09375, 38.848213, 38.553574, 38.4375, 38.1875, 38.125, 38.083332, 10.125, 10.083334, 10.0625, 10.214286, 10.357143, 10.324405, 9.979167, 9.8928566, 9.8125, 9.9375, 10, 10, 10, 10, 10, 10, 10.0625, 10.035714, 9.8928566, 9.8214283, 9.6875, 9.6875, 9.75, 9.875, 10.169643, 10.25, 10.25, 10.1875, 10.0625, 10.0625, 10.0625, 9.9375, 9.9017859, 9.875, 9.875, 10, 10, 10, 9.9375, 9.9375, 9.9375, 9.9375, 9.9375, 9.8125, 9.8125, 9.75, 9.75, 9.8125, 9.8125, 9.875, 9.9375, 10, 9.8125, 9.6875, 9.6875, 9.6071434, 9.5625, 9.5625, 9.4375, 9.5625, 9.6875, 9.8125, 9.6875, 9.4375, 9.4375, 9.5, 9.6875, 9.875, 9.875, 9.875, 9.9375, 10, 10, 10.125, 10.125, 10.25, 10.3125, 10.25, 10.5, 10.625, 10.8125, 11, 11, 11.1875, 11.4375, 11.6875, 11.75, 11.59375, 11.34375, 11.09375, 11.09375, 11.265625, 11.515625, 11.765625, 12.078125, -10, -10, -10, -10, -10, -10, -10, -10, -10, -10, 19.90476, 20.380953, 21.081844, 21.395834, 21.666071, 22.178572, 22.695835, 23.309525, 24.111113, 24.5, 24.928572, 25.645834, 25.979166, 26.28125, 26.5625, 27, 27.294643, 27.53125, 27.75, 27.8125, 28, 28.0625, 28.0625, 28.0625, 28, 28.125, 28.3125, 28.40625, 28.40625, 28.375, -10, -10, -10, -10, -10, -10, -10, -10, -10, -10, -10, -10, -10, -10, -10, -10, -10, -10, -10, -10, -10, -10, -10, 28.291666, 28.270834, 28.1875, 27.9375, 27.580357, 27.3125, 27.125, 27, 26.875, 26.6875, 26.5, 26.25, 26.0625, 25.767857, 25.5625, 25.3125, 25.125, 25, 24.875, 24.6875, 24.4375, 24.25, 24.0625, 23.9375, 23.8125, 23.5625, 23.375, 23.1875, 22.875, 22.875, 22.5625, 22.375, 22.125, 21.9375, 21.9375, 21.6875, 21.5, 21.25, 21, 20.8125, 20.625, 20.375, 20.1875, 20.125, 20, 19.9375, 19.75, 19.5, 19.375, 19.3125, 19.145834, 18.770834, 18.482143, 18.1875, 18.0625, 18, 17.875, 17.625, 17.375, 17.125, 17, 16.9375, 16.75, 16.5, 16.25, 15.9375, 15.6875, 15.4375, 15.25, 15.098214, 14.964286, 15, 14.8125, 14.6875, 14.4375, 14.1875, 14.1875, 14.125, 14, 13.964286, 13.910714, 13.84375, 14.013393, 13.958928, 13.758928, 13.830357, 13.9375, 14.223214, 14.375, 14.607143, 15.107143, 16.232143, 16.691965, 17, 17, 17, 17.125, 17.3125, 17.214287, 16.9375, 17, 16.8125, 17, 17.125, 17.0625, 16.982143, 16.809523, 16.988094, 17.196428, 17.5, 17.455357, 17.330357, 17.071428, 17, 17, 17.0625, 16.9375, 16.8125, 16.5625, 16.25, 16.15625, 16.03125, 16.116072, 16.178572, 15.791667, 15.691964, 15.59375, 15.772959, 15.721939, 15.247024, 15.133928, 14.660714, 13.791666, 13.285713, 12.9375, 12.75, 12.5, 12.3125, 12.125, 12.214286, 12.285714, 12.1875, 12.1875, 12, 12, 12, 12, 12, 12, 12, 12, 12, 12, 12, 12.0625, 12.0625, 12.0625, 12.0625, 12.0625, 12, 11.791667, 11.741072, 11.586309, 11.517857, 11.4375, 11.4375, 11.375, 11.375, 11.464286, 11.669643, 11.669643, 11.6875, 11.75, 11.75, 11.875, 12, 11.875, 11.75, 11.791667, 11.9875, -10, -10, -10, -10, -10, -10, -10, -10, -10, -10, 32, 32.375, 32.541668, 32.875, 33.544643, 34.216667, -10, -10, -10, 39.0625, 39.104168, 39.0625, 39.080357, 39.125, 39.0625, 39.0625, 39, 39, 39.0625, 39.0625, 39.0625, 39, 38.723213, 38.50893, 38.5625, 38.375, 38.375, 38.25, 10.125, 10.166667, 10.1875, 10.339286, 10.482143, 10.449405, 10.104167, 10.080357, 10, 10.0625, 10.0625, 10, 10, 10, 10, 10, 10.0625, 10.035714, 9.8928566, 9.8214283, 9.6875, 9.6875, 9.75, 9.875, 10.169643, 10.1875, 10.125, 10.0625, 10, 10.107143, 10.125, 10.0625, 10, 9.875, 9.875, 9.9375, 9.9375, 10, 9.9375, 9.9375, 10, 10, 9.9375, 9.8125, 9.75, 9.6875, 9.75, 9.8125, 9.8125, 9.875, 9.9375, 10, 9.8125, 9.6875, 9.6875, 9.6071434, 9.625, 9.6875, 9.6875, 9.8125, 9.875, 9.875, 9.625, 9.375, 9.3839283, 9.625, 9.75, 9.875, 9.8125, 9.8125, 9.875, 10, 10.0625, 10.1875, 10.25, 10.4375, 10.5, 10.5, 10.6875, 10.75, 10.875, 11, 11, 11.125, 11.3125, 11.5, 11.5, 11.375, 11.1875, 11.0625, 11.1875, 11.40625, 11.65625, 11.84375, 12.03125, -10, -10, -10, -10, -10, -10, -10, -10, -10, -10, 19.229166, 19.791666, 20.313988, 20.770834, 21.166071, 21.728573, 22.511114, -10, -10, -10, -10, 25.8125, 26.020832, 26.25, 26.53125, 27.03125, 27.357143, 27.65625, 27.875
28.125, 27.660713, 27.4375, 27.1875, 27.0625, 27, 26.6875, 26.4375, 26.1875, 26, 25.8125, 25.625, 25.375, 25.125, 24.9375, 24.8125, 24.625, 24.375, 24.25, 24.0625, 24, 23.875, 23.625, 23.4375, 23.1875, 22.875, 22.875, 22.625, 22.5, 22.241072, 21.9375, 21.9375, 21.625, 21.5, 21.25, 21, 20.875, 20.6875, 20.4375, 20.1875, 20.0625, 19.875, 19.75, 19.5625, 19.3125, 19.125, 18.9375, 18.75, 18.5625, 18.375, 18.1875, 18.0625, 18, 17.875, 17.625, 17.375, 17.125, 16.9375, 16.8125, 16.5625, 16.3125, 16.125, 15.875, 15.6875, 15.4375, 15.1875, 15.0625, 15, 14.9375, 14.875, 14.75, 14.5, 14.3125, 14.25, 14.125, 14, 13.901786, 13.785714, 13.59375, 13.763393, 13.708928, 13.508928, 13.642857, 13.6875, 14.035714, 14.3125, 14.625, 15.008928, 16.160715, 16.642857, 16.9375, 17, 17, 17.1875, 17.3125, 17.214287, 16.9375, 16.875, 16.6875, 16.8125, 16.9375, 17, 17.089287, 16.916666, 16.988094, 17.133928, 17.25, 17.205357, 17.1875, 17, 17, 17.0625, 17.0625, 16.9375, 16.8125, 16.5, 16.25, 16.09375, 15.90625, 15.928572, 16.0625, 15.910714, 15.763392, 15.59375, 15.397959, 15.352041, 15.184524, 15.133928, 14.705357, 14.020833, 13.428572, 13.09375, 12.78125, 12.53125, 12.34375, 12.0625, 12.089286, 12.160714, 12.0625, 12.125, 12, 12, 12, 12, 12, 12, 12, 12, 12, 12, 12, 12.0625, 12.0625, 12.0625, 12.0625, 12, 12, 12, 11.919643, 11.729167, 11.705357, 11.598214, 11.455357, 11.321428, 11.1875, 11.214286, 11.482143, 11.544643, 11.625, 11.75, 11.75, 11.8125, 11.875, 11.6875, 11.46875, 11.572917, 11.779167, -10, -10, -10, -10, -10, -10, -10, -10, -10, -10, 32.166668, 32.208332, 32.416668, 32.75, 33.357143, 33.883331, -10, -10, -10, 39.166668, 39.416668, 39.4375, 39.4375, 39.3125, 39.1875, 39.0625, 39, 39, 39.0625, 39.125, 39.125, 39, 38.61607, 38.38393, 38.5, 38.4375, 38.5625, 38.5, 10.125, 10.166667, 10.25, 10.4375, 10.5, 10.553572, 10.4375, 10.4375, 10.375, 10.3125, 10.1875, 10.0625, 10, 10, 10.0625, 10.0625, 10.125, 10.098214, 9.8928566, 9.8214283, 9.75, 9.8125, 9.875, 9.9375, 10.0625, 10.0625, 10, 10, 10.0625, 10.169643, 10.1875, 10.125, 10, 9.875, 9.875, 9.9375, 9.9375, 10, 10, 10, 10.0625, 10.0625, 9.875, 9.75, 9.6875, 9.625, 9.75, 9.8125, 9.8125, 9.875, 9.9375, 9.9375, 9.75, 9.5625, 9.5625, 9.625, 9.8125, 9.9375, 10, 10, 9.9375, 9.8125, 9.5, 9.25, 9.3214283, 9.625, 9.75, 9.875, 9.8125, 9.8125, 9.9375, 10.0625, 10.125, 10.25, 10.3125, 10.5625, 10.6875, 10.6875, 10.8125, 10.8125, 10.875, 11, 11, 11.0625, 11.1875, 11.3125, 11.3125, 11.25, 11.125, 11.125, 11.25, 11.4375, 11.6875, 11.8125, 11.9375, -10, -10, -10, -10, -10, -10, -10, -10, -10, -10, 19.083334, 19.388887, 20.055059, 20.458334, 20.791071, 21.542856, -10, -10, -10, -10, -10, 25.875, 26.072916, 26.234375, 26.484375, 26.953125, 27.263393, 27.5, 27.75, 27.8125, 27.9375, 28.0625, 28.1875, 28.25, 28.3125, 28.3125, 28.25, 28.3125, 28.375, 28.416666, -10, -10, -10, -10, -10, -10, -10, -10, -10, -10, -10, -10, -10, -10, -10, -10, -10, -10, -10, -10, -10, -10, 28.333334, 28.458332, 28.458334, 28.4375, 28.125, 27.660713, 27.4375, 27.1875, 27.0625, 27.0625, 26.8125, 26.5625, 26.3125, 26.0625, 25.875, 25.6875, 25.4375, 25.1875, 24.9375, 24.8125, 24.6875, 24.4375, 24.3125, 24.125, 24, 23.875, 23.625, 23.4375, 23.1875, 22.875, 22.875, 22.6875, 22.625, 22.366072, 22.0625, 22, 21.625, 21.5, 21.25, 21, 20.9375, 20.8125, 20.5625, 20.3125, 20.125, 19.8125, 19.625, 19.4375, 19.1875, 19.0625, 18.875, 18.625, 18.4375, 18.25, 18.125, 18, 17.875, 17.6875, 17.4375, 17.25, 17.0625, 16.875, 16.6875, 16.4375, 16.1875, 16.0625, 15.875, 15.6875, 15.4375, 15.1875, 15.125, 15.0625, 14.9375, 14.767857, 14.625, 14.375, 14.25, 14.1875, 14.0625, 14, 13.901786, 13.6875, 13.59375, 13.736607, 13.771428, 13.696428, 13.741072, 13.580357, 13.803572, 13.9375, 14.3125, 14.949405, 16.017857, 16.558035, 16.84375, 16.96875, 17, 17.1875, 17.3125, 17.276787, 17.0625, 17.0625, 16.848213, 16.767857, 16.830357, 16.875, 17.026787, 16.854166, 16.863094, 16.883928, 17, 17.017857, 17.0625, 17.0625, 17.125, 17.1875, 17.1875, 17, 16.8125, 16.5, 16.3125, 16.1875, 16.0625, 16, 15.9375, 15.785714, 15.549107, 15.34375, 15.071428, 15.272322, 15.041667, 15.071428, 14.75, 14.258928, 13.470238, 13.21875, 12.879464, 12.65625, 12.361607, 12, 11.901786, 11.973214, 11.9375, 12.0625, 12, 12, 12, 12, 12, 12, 12, 12, 12, 12, 12, 12.0625, 12, 12.026786, 12.0625, 11.892857, 12, 11.9375, 11.919643, 11.729167, 11.705357, 11.535714, 11.330357, 11.071428, 10.9375, 11.114285, 11.303572, 11.607143, 11.6875, 11.8125, 11.75, 11.6875, 11.6875, 11.473214, 11.183036, 11.322917, 11.445834, -10, -10, -10, -10, -10, -10, -10, -10, -10, -10, 32.166668, 32.333332, 32.541668, 32.84375, 33.334824, 33.674999, -10, -10, -10, -10, 39.666668, 39.6875, 39.6875, 39.5625, 39.375, 39.1875, 39.0625, 39, 39, 39.0625, 39.0625, 39, 38.74107, 38.607143, 38.75, 38.6875, 38.8125, 38.75, 9.875, 9.916667, 9.9375, 10.151786, 10.357143, 10.553572, 10.6875, 10.6875, 10.6875, 10.5625, 10.375, 10.1875, 10.0625, 10, 10.0625, 10.125, 10.125, 10.125, 10.0625, 10, 10.0625, 10.125, 10.125, 10.125, 10.125, 10.0625, 10, 10, 10.125, 10.294643, 10.375, 10.375, 10.1875, 10, 9.9375, 9.9375, 9.9375, 10, 10, 10, 10, 10, 9.8125, 9.75, 9.75, 9.75, 9.9375, 10, 10, 10, 10, 9.875, 9.625, 9.4375, 9.4375, 9.5625, 9.8125, 10, 10.125, 10.125, 10.0625, 9.875, 9.5, 9.3125, 9.3839283, 9.6875, 9.875, 9.9375, 9.875, 9.875, 10, 10.125, 10.1875, 10.3125, 10.3125, 10.5625, 10.6875, 10.75, 10.875, 10.875, 10.9375, 11, 11, 11, 11.0625, 11.125, 11.125, 11.125, 11.0625, 11.125, 11.3125, 11.4375, 11.6875, 11.8125, 11.875, 12.125, -10, -10, -10, -10, -10, -10, -10, -10, -10, -10, -10, 19.888393, 20.291666, 20.657738, -10, -10, -10, -10, -10, -10, 25.875, 26.125, 26.3125, 26.5625, 27, 27.15625, 27.3125, 27.5
28.0625, 27.598213, 27.4375, 27.1875, 27.0625, 27.0625, 26.8125, 26.5625, 26.3125, 26.0625, 25.875, 25.625, 25.375, 25.125, 24.875, 24.8125, 24.6875, 24.4375, 24.3125, 24.125, 24, 23.8125, 23.5625, 23.375, 23.1875, 23.125, 23.125, 23, 22.8125, 22.491072, 22.125, 22, 21.625, 21.5, 21.25, 21, 21, 20.8125, 20.5625, 20.3125, 20.0625, 19.8125, 19.625, 19.5, 19.25, 19.125, 18.9375, 18.5625, 18.4375, 18.25, 18.125, 18.0625, 17.8125, 17.625, 17.375, 17.1875, 17, 16.75, 16.5, 16.3125, 16.125, 16.0625, 16, 15.75, 15.5, 15.25, 15.125, 15, 14.8125, 14.642857, 14.5, 14.3125, 14.25, 14.125, 14, 14, 13.9375, 13.8125, 13.84375, 13.879464, 13.714285, 13.696428, 13.616072, 13.517857, 13.678572, 13.6875, 14, 14.627976, 15.767857, 16.415178, 16.8125, 17, 17.0625, 17.1875, 17.1875, 17.169643, 17.125, 17.1875, 17.098213, 16.946428, 16.663691, 16.729166, 17.008928, 16.889881, 16.696428, 16.633928, 16.75, 16.875, 17, 17.0625, 17.125, 17.1875, 17.1875, 17.0625, 16.866072, 16.4375, 16.3125, 16.125, 16.125, 16.0625, 15.9375, 15.678572, 15.299107, 14.96875, 14.90625, 14.90625, 14.9375, 15.0625, 14.75, 14.321428, 13.577381, 13.28125, 12.879464, 12.59375, 12.299107, 12, 11.9375, 11.9375, 11.9375, 12, 12, 12, 12, 12, 12, 12, 12, 11.9375, 11.9375, 11.9375, 11.9375, 12, 11.9375, 12.026786, 12.035714, 11.785713, 11.955357, 11.9375, 12.044643, 11.916667, 11.892857, 11.723214, 11.455357, 11.196428, 11.142857, 11.349999, 11.339285, 11.75, 11.75, 11.9375, 11.8125, 11.6875, 11.544643, 11.178572, 10.888393, 11.010417, 11.195834, -10, -10, -10, -10, -10, -10, -10, -10, -10, -10, -10, 32.458332, 32.645836, 32.90625, 33.263393, 33.541668, -10, -10, -10, -10, 39.916668, 39.9375, 39.9375, 39.8125, 39.5625, 39.3125, 39.1875, 39.125, 39.125, 39.15625, 39.0625, 38.8125, 38.517857, 38.486607, 38.625, 38.75, 38.9375, 38.916668, 10.125, 10.166667, 10.053572, 9.9434528, 10.148809, 10.378572, 10.517857, 10.75, 10.794643, 10.75, 10.5625, 10.3125, 10.125, 10, 10.0625, 10.125, 10.125, 10.125, 10.0625, 10, 10.0625, 10.125, 10.1875, 10.25, 10.25, 10.25, 10.125, 10.0625, 10.1875, 10.294643, 10.375, 10.4375, 10.25, 10.0625, 9.9375, 9.8125, 9.8125, 9.875, 9.9375, 10, 10, 10, 9.875, 9.875, 9.875, 9.875, 10, 10, 10, 10, 10, 9.8125, 9.625, 9.5, 9.5, 9.6875, 9.875, 10, 10.0625, 10.0625, 10, 9.875, 9.5625, 9.375, 9.4464283, 9.6875, 9.875, 10, 9.9375, 9.9375, 10.125, 10.25, 10.375, 10.4375, 10.375, 10.5, 10.5625, 10.6875, 10.8125, 10.875, 10.9375, 11, 11, 11, 11.0625, 11.0625, 11.0625, 11.0625, 11, 11.0625, 11.214286, 11.419643, 11.678572, 11.8125, 11.875, 12.083333, 12.166666, -10, -10, -10, -10, -10, -10, -10, -10, -10, -10, 20.044643, 20.375, 20.5625, -10, -10, -10, -10, -10, -10, 25.75, 26.033333, 26.357143, 26.616072, 27, 27.0625, 27.125, 27.25, 27.4375, 27.6875, 28, 28.375, 28.5625, 28.75, 28.625, 28.375, 28.3125, 28.25, 28.333332, -10, -10, -10, -10, -10, -10, -10, -10, -10, -10, -10, -10, -10, -10, -10, -10, -10, -10, -10, -10, -10, -10, 28.125, 28.166666, 28.125, 28.125, 28, 27.642857, 27.5, 27.25, 27.0625, 27.0625, 26.8125, 26.5625, 26.375, 26.125, 26, 25.8125, 25.5, 25.25, 24.9375, 24.8125, 24.75, 24.5, 24.375, 24.1875, 24, 23.875, 23.6875, 23.4375, 23.1875, 23.0625, 23, 22.9375, 22.8125, 22.553572, 22.1875, 22.0625, 21.75, 21.5625, 21.3125, 21.0625, 21, 20.8125, 20.5625, 20.3125, 20.0625, 19.875, 19.75, 19.6875, 19.4375, 19.25, 18.9375, 18.5625, 18.4375, 18.25, 18.1875, 18.0625, 17.8125, 17.625, 17.375, 17.125, 16.875, 16.5625, 16.375, 16.3125, 16.1875, 16.1875, 16.125, 15.8125, 15.5625, 15.3125, 15.125, 14.9375, 14.6875, 14.455357, 14.25, 14.125, 14.125, 14, 13.875, 13.875, 13.8125, 13.6875, 13.6875, 13.598214, 13.455357, 13.642857, 13.660714, 13.580357, 13.642857, 13.625, 13.875, 14.520833, 15.642857, 16.379463, 16.919643, 17.1875, 17.241072, 17.041666, 16.883928, 16.875, 17, 17.125, 17.098213, 16.821428, 16.351191, 16.318453, 16.758928, 16.973215, 16.9375, 16.875, 16.8125, 16.875, 16.9375, 17.0625, 17.125, 17.1875, 17.1875, 17.125, 16.991072, 16.5625, 16.4375, 16.089287, 15.708333, 15.785714, 15.642858, 15.574404, 15.383928, 15.25, 15.25, 15.1875, 15.125, 15.125, 14.741072, 14.175595, 13.505953, 13.21875, 12.879464, 12.59375, 12.299107, 12.0625, 12, 12, 12, 12, 12, 12, 12, 12, 12, 12, 12.0625, 12.0625, 12.125, 12.125, 12.0625, 12.0625, 11.9375, 12.026786, 12.035714, 11.785713, 11.892857, 11.8125, 11.9375, 12, 12, 11.910714, 11.580357, 11.258928, 11.267857, 11.412499, 11.339285, 11.75, 11.6875, 11.875, 11.8125, 11.616072, 11.294643, 10.991072, 10.825893, 11.09375, 11.258334, -10, -10, -10, -10, -10, -10, -10, -10, -10, -10, -10, 32.611111, 32.833336, 33.114582, 33.388393, 33.625, -10, -10, -10, -10, 40, 40, 39.9375, 39.875, 39.625, 39.4375, 39.375, 39.25, 39.25, 39.15625, 38.9375, 38.625, 38.330357, 38.34375, 38.482143, 38.6875, 38.9375, 39, 10.375, 10.416667, 10.334822, 10.287203, 10.434524, 10.295238, 10.321428, 10.4375, 10.544643, 10.625, 10.5625, 10.4375, 10.25, 10.0625, 9.9553566, 9.9375, 9.9375, 10, 10.0625, 10.125, 10.1875, 10.25, 10.25, 10.25, 10.25, 10.25, 10.1875, 10.125, 10.1875, 10.1875, 10.25, 10.3125, 10.1875, 10.125, 9.9375, 9.75, 9.75, 9.75, 9.875, 10, 10, 10, 9.9375, 9.9375, 9.9375, 9.9375, 10, 10, 10, 10, 10, 9.8125, 9.6875, 9.625, 9.625, 9.75, 9.875, 9.9375, 9.9375, 10, 9.875, 9.75, 9.5625, 9.4375, 9.5625, 9.6875, 9.875, 10, 10, 10.0625, 10.3125, 10.4375, 10.5625, 10.53125, 10.34375, 10.34375, 10.40625, 10.5625, 10.75, 10.875, 10.9375, 11, 11, 11, 11.0625, 11.125, 11.1875, 11.1875, 11.1875, 11.1875, 11.276786, 11.482143, 11.678572, 11.8125, 11.875, 12.0625, 12.111111, 12, -10, -10, -10, -10, -10, -10, -10, -10, -10, 20.3125, 20.541666, 20.5625, -10, -10, -10, -10, -10, -10, 25.666666, 25.991669, 26.388393, 26.647322, 26.96875, 27, 27, 27.0625
27.8125, 27.5625, 27.375, 27.1875, 26.9375, 26.9375, 26.75, 26.5, 26.375, 26.125, 26.0625, 25.9375, 25.625, 25.375, 25, 24.8125, 24.75, 24.5, 24.375, 24.1875, 24, 23.9375, 23.75, 23.5, 23.25, 23.0625, 22.9375, 22.8125, 22.625, 22.375, 22.1875, 22.0625, 21.875, 21.625, 21.375, 21.125, 21, 20.8125, 20.5625, 20.3125, 20.0625, 19.9375, 19.875, 19.875, 19.625, 19.4375, 19.125, 18.75, 18.6875, 18.4375, 18.3125, 18.125, 17.8125, 17.625, 17.375, 17.0625, 16.776787, 16.5, 16.3125, 16.3125, 16.1875, 16.1875, 16.125, 15.8125, 15.5625, 15.3125, 15.125, 14.9375, 14.75, 14.455357, 14.1875, 14.0625, 13.9375, 13.8125, 13.6875, 13.625, 13.625, 13.5625, 13.625, 13.535714, 13.392857, 13.580357, 13.598214, 13.580357, 13.642857, 13.625, 13.8125, 14.404762, 15.630952, 16.415178, 17.089287, 17.375, 17.491072, 17.157738, 16.821428, 16.8125, 16.875, 17.125, 17.223213, 17.008928, 16.538691, 16.443453, 16.723215, 17.116072, 17.125, 17.017857, 16.9375, 16.875, 16.9375, 17.0625, 17.125, 17.125, 17.125, 17, 16.803572, 16.4375, 16.3125, 15.995536, 15.614583, 15.083333, 15, 15.395834, 15.419643, 15.5, 15.5, 15.375, 15.25, 15.125, 14.732143, 14.113095, 13.613095, 13.375, 13.151786, 12.666667, 12.339285, 12.0625, 12.0625, 12.0625, 12.0625, 12.0625, 12, 12, 12, 12, 12, 12, 12.125, 12.1875, 12.3125, 12.3125, 12.1875, 12.125, 11.9375, 12.026786, 12.035714, 11.785713, 11.892857, 11.8125, 11.9375, 12.0625, 12, 11.9375, 11.75, 11.4375, 11.517857, 11.662499, 11.464285, 11.8125, 11.6875, 11.8125, 11.8125, 11.607143, 11.169643, 10.928572, 10.857143, 11.25, 11.57381, 12.5, -10, -10, -10, -10, -10, -10, -10, -10, -10, -10, -10, 32.958336, 33.177082, 33.450893, 33.625, -10, -10, -10, 39.111111, 39.799999, 39.857143, 39.875, 39.875, 39.6875, 39.5625, 39.5625, 39.3125, 39.214287, 38.96875, 38.75, 38.5625, 38.375, 38.53125, 38.669643, 38.8125, 39, 10.75, 10.458333, 10.479167, 10.397322, 10.287203, 10.372024, 10.170238, 10.133928, 10.25, 10.419643, 10.5625, 10.5625, 10.4375, 10.25, 10.0625, 9.8928566, 9.875, 9.875, 9.9375, 10.125, 10.1875, 10.25, 10.3125, 10.25, 10.25, 10.25, 10.25, 10.1875, 10.125, 10.125, 10.125, 10.1875, 10.25, 10.1875, 10.0625, 9.875, 9.6875, 9.6875, 9.75, 9.875, 10, 10, 10, 9.9375, 9.9375, 9.9375, 9.9375, 10, 10, 10, 10, 10, 9.875, 9.8125, 9.8125, 9.8125, 9.875, 9.9375, 9.9375, 9.9375, 10, 9.875, 9.78125, 9.625, 9.5625, 9.6875, 9.78125, 9.9375, 10, 10, 10.0625, 10.25, 10.375, 10.5625, 10.59375, 10.40625, 10.34375, 10.34375, 10.5, 10.75, 10.9375, 11, 11, 11, 11, 11.0625, 11.125, 11.1875, 11.1875, 11.25, 11.25, 11.339286, 11.544643, 11.678572, 11.8125, 11.875, 12.0625, 12.083333, 12, -10, -10, -10, -10, -10, -10, -10, -10, -10, 20.5, 20.666666, 20.75, 21.25, -10, -10, -10, -10, 25.416668, 25.541666, 25.845833, 26.310268, 26.61384, 26.921875, 27, 27, 27, 27.25, 27.5, 27.8125, 28.1875, 28.3125, 28.4375, 28.375, 28.25, 28.125, 28, 28, -10, -10, -10, -10, -10, -10, -10, -10, -10, -10, -10, -10, -10, -10, -10, -10, -10, -10, -10, -10, -10, -10, 28, 28, 27.9375, 27.875, 27.75, 27.5, 27.3125, 27.0625, 26.8125, 26.75, 26.5, 26.3125, 26.25, 26.0625, 26, 25.875, 25.5625, 25.3125, 24.9375, 24.6875, 24.5625, 24.3125, 24.25, 24.125, 24, 23.9375, 23.75, 23.5, 23.1875, 23, 22.8125, 22.625, 22.4375, 22.1875, 22.0625, 22, 21.875, 21.625, 21.375, 21.125, 21, 20.8125, 20.5625, 20.3125, 20.0625, 20, 19.9375, 19.875, 19.625, 19.375, 19.125, 18.875, 18.875, 18.625, 18.4375, 18.25, 17.9375, 17.75, 17.5, 17.125, 16.776787, 16.5625, 16.375, 16.375, 16.25, 16.1875, 16.125, 15.75, 15.5, 15.25, 15, 14.875, 14.75, 14.5, 14.25, 14.125, 13.875, 13.6875, 13.5, 13.375, 13.375, 13.375, 13.4375, 13.348214, 13.205357, 13.267857, 13.3125, 13.4375, 13.53125, 13.59375, 13.78125, 14.227678, 15.583333, 16.613094, 17.361607, 17.65625, 17.741072, 17.407738, 17.008928, 16.9375, 16.9375, 17.0625, 17.1875, 17.116072, 16.645834, 16.599703, 16.848215, 17.303572, 17.375, 17.299107, 17.1875, 17, 17, 17, 17, 17, 16.9375, 16.75, 16.517857, 16.1875, 16.0625, 15.870536, 15.552083, 15.34375, 15.25, 15.583334, 15.669643, 15.75, 15.71875, 15.53125, 15.34375, 15.15625, 14.723214, 14.041667, 13.821428, 13.5, 13.303572, 12.729167, 12.339285, 12.0625, 12.125, 12.1875, 12.1875, 12.125, 11.964286, 11.9375, 11.9375, 12.0625, 12.125, 12.125, 12.25, 12.25, 12.375, 12.375, 12.1875, 12.017857, 11.875, 11.9375, 11.973214, 11.892857, 11.892857, 11.875, 11.9375, 12.0625, 12.0625, 12.0625, 11.9375, 11.75, 11.767857, 11.7625, 11.642857, 11.8125, 11.75, 11.875, 11.9375, 11.794643, 11.357143, 11.142857, 11.142857, 11.5, 11.969644, 12.444444, -10, -10, -10, -10, -10, -10, -10, -10, -10, -10, -10, 32.916668, 33.083332, 33.294643, 33.416668, -10, -10, -10, 37.561905, 39.466667, 39.714287, 39.8125, 39.8125, 39.6875, 39.625, 39.6875, 39.375, 39.107143, 38.71875, 38.464287, 38.348213, 38.125, 38.34375, 38.589287, 38.803574, 39, 10.833333, 10.916666, 10.848214, 10.665178, 10.394345, 10.264881, 9.9604168, 9.8370533, 9.984375, 10.154018, 10.328125, 10.40625, 10.3125, 10.1875, 10.0625, 9.8928566, 9.8125, 9.8125, 9.875, 10.125, 10.25, 10.25, 10.25, 10.125, 10.125, 10.1875, 10.25, 10.1875, 10.125, 10.0625, 10, 10, 10.0625, 10.0625, 9.9375, 9.8125, 9.625, 9.625, 9.75, 9.875, 10, 10, 10, 10, 10.0625, 10.0625, 10.0625, 10.0625, 9.9375, 9.9375, 9.9375, 9.9375, 9.9375, 9.9375, 9.875, 9.875, 9.875, 9.875, 9.9375, 9.9375, 10, 9.8125, 9.65625, 9.5625, 9.5, 9.6875, 9.84375, 9.9375, 10, 10, 10.125, 10.25, 10.375, 10.5625, 10.59375, 10.46875, 10.40625, 10.46875, 10.5625, 10.8125, 11, 11, 11, 11, 11, 11.0625, 11.125, 11.1875, 11.1875, 11.3125, 11.285714, 11.241072, 11.482143, 11.553572, 11.75, 11.875, 12, 12, 12, 12.125, -10, -10, -10, -10, -10, -10, -10, -10, 20.625, 20.785713, 20.976191, 21.690475, -10, -10, -10, 25.214287, 25.527779, 25.604166, 25.825001, 26.294643, 26.598215, 26.875, 26.928572, 26.75, 26.857143
27.8125, 27.625, 27.375, 27.0625, 26.705357, 26.5625, 26.3125, 26.25, 26.3125, 26.1875, 26.125, 25.9375, 25.5625, 25.3125, 24.875, 24.5625, 24.375, 24.125, 24.125, 24.0625, 24, 24, 23.875, 23.616072, 23.104166, 22.892857, 22.6875, 22.5625, 22.4375, 22.1875, 22.0625, 21.9375, 21.8125, 21.5625, 21.3125, 21.125, 21, 20.875, 20.625, 20.375, 20.125, 20, 19.9375, 19.875, 19.625, 19.3125, 18.955357, 18.8125, 18.8125, 18.6875, 18.5625, 18.3125, 18.0625, 17.8125, 17.5625, 17.1875, 16.839287, 16.625, 16.4375, 16.375, 16.1875, 16.0625, 15.9375, 15.625, 15.375, 15.1875, 15, 14.875, 14.75, 14.5, 14.25, 14.125, 13.875, 13.6875, 13.4375, 13.25, 13.1875, 13.125, 13.125, 13.0625, 13.0625, 13.125, 13.1875, 13.25, 13.40625, 13.59375, 13.90625, 14.486607, 15.666667, 16.869047, 17.571428, 17.875, 17.928572, 17.595238, 17.196428, 17.0625, 16.9375, 16.9375, 17, 16.9375, 16.8125, 16.808037, 17.053572, 17.5, 17.5, 17.424107, 17.25, 17, 17, 17, 17, 17, 16.875, 16.625, 16.464287, 16.3125, 16.1875, 16.058037, 15.552083, 15.464286, 15.357142, 15.627976, 15.794643, 16, 16.03125, 15.84375, 15.65625, 15.34375, 14.857142, 13.875, 13.642857, 13.4375, 13.366072, 12.854167, 12.419641, 12.1875, 12.1875, 12.3125, 12.375, 12.25, 12.089286, 12, 12, 12.1875, 12.3125, 12.3125, 12.375, 12.375, 12.5, 12.5625, 12.4375, 12.205357, 12, 11.875, 11.875, 11.9375, 11.9375, 12, 12.0625, 12.1875, 12.1875, 12.1875, 12.0625, 11.875, 11.875, 11.8125, 11.6875, 11.6875, 11.625, 11.6875, 11.875, 11.794643, 11.46875, 11.4375, 11.375, 11.625, 11.96131, 12.444444, -10, -10, -10, -10, -10, -10, -10, -10, -10, -10, -10, 33, 33.166664, 33.375, 33.642857, 34.276787, 35.3125, 35.723213, 37.278912, 39.133335, 39.57143, 39.75, 39.75, 39.6875, 39.6875, 39.8125, 39.5, 39.169643, 38.6875, 38.357143, 38.285713, 38.0625, 38.3125, 38.589287, 38.803574, 39, 10.875, 10.916666, 10.776786, 10.486607, 10.477678, 10.285714, 9.947917, 9.8504467, 9.828125, 9.953125, 10.109375, 10.21875, 10.1875, 10.0625, 9.9375, 9.7678566, 9.6875, 9.75, 9.875, 10.125, 10.25, 10.25, 10.25, 10.0625, 10, 10, 10, 10, 10, 10, 9.9375, 9.9375, 9.9375, 9.9375, 9.875, 9.75, 9.6875, 9.6875, 9.8125, 9.9375, 9.9375, 9.9375, 9.9375, 9.9375, 10.0625, 10.0625, 10.0625, 10.0625, 9.9375, 9.9375, 9.9375, 9.9375, 10, 10, 9.9375, 9.9375, 9.8125, 9.75, 9.75, 9.6875, 9.75, 9.5625, 9.40625, 9.40625, 9.46875, 9.71875, 9.9375, 10, 10, 10.0625, 10.25, 10.3125, 10.375, 10.5, 10.46875, 10.46875, 10.53125, 10.59375, 10.6875, 10.875, 11, 11, 11, 11, 11.0625, 11.125, 11.1875, 11.25, 11.1875, 11.375, 11.473214, 11.401786, 11.5, 11.5, 11.625, 11.8125, 12, 12, 12, 12.083333, 12.333333, -10, -10, -10, -10, -10, -10, 20.25, 20.8125, 21.095238, 21.424107, 21.986607, 23.258928, 24, 24.75, 25.380953, 25.583334, 25.697916, 25.90625, 26.294643, 26.607143, 26.875, 26.897322, 26.65625, 26.785715, 27.321428, 27.678572, 27.9375, 28, 28, 27.875, 27.8125, 27.75, 27.625, 27.75, 27.75, -10, -10, -10, -10, -10, -10, -10, -10, -10, -10, -10, -10, -10, -10, -10, -10, -10, -10, -10, -10, -10, -10, 28, 28, 28, 27.9375, 27.8125, 27.6875, 27.4375, 27.0625, 26.669643, 26.4375, 26.25, 26.3125, 26.375, 26.3125, 26.1875, 25.875, 25.5, 25.1875, 24.75, 24.5, 24.3125, 24.125, 24.125, 24.0625, 24, 24, 23.875, 23.616072, 23.041666, 22.794643, 22.625, 22.5625, 22.5, 22.25, 22.125, 21.9375, 21.8125, 21.5625, 21.3125, 21.125, 21, 20.9375, 20.6875, 20.4375, 20.25, 20.0625, 19.9375, 19.839287, 19.5625, 19.25, 19.017857, 18.875, 18.875, 18.8125, 18.625, 18.375, 18.125, 17.8125, 17.5625, 17.25, 16.964287, 16.75, 16.5, 16.3125, 16.0625, 15.875, 15.75, 15.5, 15.25, 15.0625, 14.875, 14.75, 14.625, 14.4375, 14.25, 14.125, 13.8125, 13.625, 13.4375, 13.3125, 13.3125, 13.142857, 13.071428, 13, 13, 13, 13.03125, 13.03125, 13.21875, 13.53125, 14.049107, 14.825893, 15.928572, 17.083332, 17.651787, 17.9375, 18, 17.928572, 17.625, 17.4375, 17.1875, 17.0625, 17.0625, 17.0625, 17.0625, 17.09375, 17.196428, 17.5, 17.4375, 17.361607, 17.25, 17.0625, 17.0625, 17.0625, 17, 17, 16.875, 16.625, 16.464287, 16.375, 16.25, 16.15625, 15.933036, 15.65625, 15.5, 15.669643, 15.741072, 15.9375, 16.03125, 15.90625, 15.78125, 15.46875, 15, 13.833333, 13.5, 13.330357, 13.511905, 13.086309, 12.732141, 12.5, 12.366072, 12.3125, 12.375, 12.1875, 12.089286, 12.0625, 12.125, 12.375, 12.5625, 12.5, 12.4375, 12.3125, 12.3125, 12.375, 12.3125, 12.142857, 12, 11.8125, 11.75, 11.8125, 11.8125, 11.9375, 12.125, 12.3125, 12.375, 12.375, 12.25, 12.0625, 12, 12, 11.875, 11.75, 11.625, 11.59375, 11.71875, 11.772322, 11.703125, 11.65625, 11.53125, 11.625, 11.77381, -10, -10, -10, -10, -10, -10, -10, -10, -10, -10, -10, -10, 33, 33.083332, 33.321426, 33.809525, 34.517857, 35.375, 35.732143, 36.761906, 38.800003, 39.357143, 39.6875, 39.6875, 39.6875, 39.6875, 39.839287, 39.625, 39.044643, 38.616074, 38.294643, 38.285713, 38.125, 38.375, 38.607143, 38.782738, 39, 10.708333, 10.791666, 10.745536, 10.549107, 10.540178, 10.40625, 10.34375, 10.234375, 10.140625, 10.140625, 10.171875, 10.15625, 10, 9.8125, 9.6875, 9.6875, 9.75, 9.875, 10, 10.125, 10.125, 10.125, 10.125, 10, 10, 10, 10, 10, 10, 10, 9.9375, 9.9375, 9.9375, 9.9375, 9.875, 9.8125, 9.8125, 9.8125, 9.9375, 10, 9.875, 9.875, 9.875, 9.875, 10.0625, 10.0625, 10.0625, 10.0625, 9.9375, 10, 10, 10, 10.0625, 10, 9.9375, 9.9375, 9.8125, 9.6875, 9.625, 9.5, 9.5, 9.375, 9.28125, 9.3125, 9.4375, 9.6875, 9.90625, 10, 10, 10.0625, 10.125, 10.0625, 10.0625, 10.1875, 10.285714, 10.375, 10.5, 10.5, 10.625, 10.8125, 10.9375, 11, 11, 11, 11, 11, 11, 11, 11, 11.25, 11.410714, 11.401786, 11.5, 11.5, 11.625, 11.8125, 12, 12, 12, 12.0625, -10, -10, -10, -10, -10, 19.5, 19.666666, 20.166666, 20.875, 21.285715, 21.674107, 22.236607, 22.982141, 24.111113, 24.880951, 25.535715, 25.770834, 25.84375, 26.03125, 26.294643, 26.607143, 26.875, 26.897322, 26.65625, 26.785715
28.044643, 27.791666, 27.508928, 27, 26.669643, 26.4375, 26.25, 26.375, 26.375, 26.3125, 26.125, 25.75, 25.3125, 24.8125, 24.5, 24.375, 24.375, 24.25, 24.25, 24.125, 24, 24, 23.875, 23.616072, 23.041666, 22.794643, 22.625, 22.5625, 22.5, 22.25, 22.125, 21.875, 21.75, 21.5, 21.25, 21.125, 21, 21, 20.75, 20.5, 20.3125, 20.0625, 19.9375, 19.839287, 19.5625, 19.25, 19.017857, 18.875, 18.803572, 18.625, 18.5, 18.25, 18.125, 17.75, 17.5, 17.25, 16.9375, 16.75, 16.5, 16.25, 16.0625, 15.875, 15.6875, 15.4375, 15.1875, 14.9375, 14.8125, 14.625, 14.4375, 14.3125, 14.125, 14.0625, 13.8125, 13.625, 13.4375, 13.3125, 13.3125, 13.142857, 13.071428, 13.0625, 13.035714, 13, 13.09375, 13.03125, 13.21875, 13.5, 13.986607, 14.754464, 15.928572, 17.083332, 17.651787, 17.9375, 17.928572, 17.666666, 17.541666, 17.520834, 17.357143, 17.1875, 17.0625, 17, 17, 17.03125, 17.125, 17.25, 17.25, 17.21875, 17.1875, 17.0625, 17.0625, 17, 16.9375, 16.9375, 16.8125, 16.6875, 16.589287, 16.5625, 16.5, 16.375, 16.151787, 15.875, 15.625, 15.625, 15.5625, 15.6875, 15.90625, 15.90625, 15.90625, 15.65625, 15.133928, 14.047619, 13.535714, 12.934524, 12.976191, 12.969388, 12.827381, 12.75, 12.678572, 12.5625, 12.5625, 12.267857, 12.151786, 12.0625, 12.125, 12.375, 12.5625, 12.5, 12.375, 12.125, 12.0625, 12.125, 12.125, 12.080357, 12, 11.8125, 11.6875, 11.6875, 11.6875, 11.8125, 12.125, 12.375, 12.4375, 12.4375, 12.25, 12.0625, 12, 12.0625, 12.0625, 12.0625, 11.9375, 11.614583, 11.647322, 11.78125, 12.060268, 12.013393, 11.697917, 11.580357, 11.5, -10, -10, -10, -10, -10, -10, -10, -10, -10, -10, -10, -10, 33, 33.166664, 33.446426, 34.083332, 34.555061, 35.375, 35.732143, 36.57143, 39.000004, 39.416668, 39.625, 39.625, 39.625, 39.6875, 39.830357, 39.479168, 38.901787, 38.491074, 38.169643, 38.098213, 37.9375, 38.1875, 38.482143, 38.699406, 9.5, 10.433333, 10.791666, 10.790179, 10.700893, 10.834822, 10.677083, 10.53125, 10.421875, 10.203125, 10.140625, 10.171875, 10.09375, 10, 9.875, 9.625, 9.5625, 9.625, 9.75, 9.9375, 10.0625, 10.0625, 10.0625, 10.0625, 10, 10, 10, 10, 10, 10, 10, 9.9375, 9.9375, 9.9375, 9.9375, 10, 9.9375, 9.9375, 9.9375, 9.9375, 10, 9.875, 9.875, 9.875, 9.9375, 10.125, 10.125, 10.125, 10.0625, 9.9375, 10, 10, 10, 10.0625, 10, 9.9375, 9.9375, 9.75, 9.5625, 9.4375, 9.25, 9.3125, 9.28125, 9.25, 9.359375, 9.484375, 9.703125, 9.921875, 10, 10, 10.0625, 10.125, 10, 10.0625, 10.275, 10.160714, 10.321428, 10.375, 10.375, 10.5625, 10.75, 10.875, 11, 11, 11, 10.9375, 10.9375, 10.9375, 10.9375, 11.03125, 11.28125, 11.441964, 11.495536, 11.625, 11.625, 11.75, 11.875, 12, 12, 12, 12.0625, -10, -10, -10, -10, -10, 19.5, 19.666666, 20.166666, 21.041666, 21.685715, 22.111607, 22.736607, 23.236607, 24.270834, 25.017857, 25.723215, 25.9375, 26.03125, 26.15625, 26.357143, 26.65625, 26.96875, 27.053572, 26.8125, 26.973215, 27.446428, 27.741072, 28, 28, 28, 27.875, 27.8125, 27.75, 27.625, 27.75, 27.75, -10, -10, -10, -10, -10, -10, -10, -10, -10, -10, -10, -10, -10, -10, -10, -10, -10, -10, -10, -10, -10, -10, 28, 28, 28.0625, 28.1875, 28.107143, 27.625, 27.404762, 27.012501, 26.6875, 26.625, 26.4375, 26.625, 26.5625, 26.4375, 26.1875, 25.75, 25.3125, 24.8125, 24.5625, 24.5, 24.5625, 24.5, 24.4375, 24.25, 24.0625, 24, 23.875, 23.616072, 23.104166, 22.857143, 22.6875, 22.625, 22.5, 22.25, 22.125, 21.875, 21.8125, 21.5625, 21.3125, 21.1875, 21, 20.9375, 20.6875, 20.4375, 20.25, 20.0625, 19.9375, 19.839287, 19.5625, 19.25, 19.017857, 18.875, 18.741072, 18.5625, 18.4375, 18.1875, 18.125, 17.75, 17.5, 17.25, 16.875, 16.6875, 16.5, 16.25, 16.125, 15.9375, 15.625, 15.375, 15.125, 14.875, 14.8125, 14.5625, 14.3125, 14.1875, 14, 14, 13.875, 13.6875, 13.5, 13.375, 13.3125, 13.142857, 13.071428, 13.125, 13.160714, 13.1875, 13.34375, 13.21875, 13.375, 13.59375, 13.955357, 14.669642, 15.928572, 16.934523, 17.580359, 17.875, 17.928572, 17.595238, 17.404167, 17.574406, 17.473215, 17.375, 17.1875, 17.0625, 17, 17.0625, 17.125, 17.1875, 17.1875, 17.053572, 16.875, 16.875, 16.919643, 16.875, 16.875, 16.875, 16.8125, 16.8125, 16.8125, 16.8125, 16.75, 16.625, 16.339287, 16, 15.625, 15.5, 15.375, 15.4375, 15.75, 15.875, 16, 15.875, 15.276785, 13.863945, 13.142858, 12.318452, 12.705358, 12.612245, 12.997025, 13, 12.866072, 12.625, 12.625, 12.330357, 12.25, 12.1875, 12.1875, 12.3125, 12.4375, 12.375, 12.25, 12.0625, 12, 12.0625, 12.0625, 12.0625, 11.9375, 11.75, 11.625, 11.625, 11.6875, 11.8125, 12.1875, 12.4375, 12.5, 12.5, 12.25, 12.125, 12.0625, 12.125, 12.125, 12.0625, 11.875, 11.489583, 11.459822, 11.53125, 11.810268, 11.763393, 11.510417, 11.455357, 11.375, -10, -10, -10, -10, -10, -10, -10, -10, -10, -10, -10, -10, 32.875, 33.083332, 33.446426, 34.25, 34.885418, -10, -10, -10, 39.208336, 39.392857, 39.5, 39.4375, 39.508926, 39.75, 39.821426, 39.375, 38.830357, 38.491074, 38.205357, 38.0625, 38, 38.25, 38.4375, 38.604168, 9.666667, 10.283333, 10.658333, 10.575893, 10.724703, 10.963393, 10.748511, 10.633928, 10.53125, 10.28125, 10.21875, 10.28125, 10.125, 10.0625, 9.9375, 9.625, 9.5625, 9.6875, 9.8125, 10, 10.0625, 10, 10, 9.9375, 9.875, 9.875, 9.875, 9.9375, 10, 10, 10, 9.9375, 9.9375, 9.9375, 9.9375, 10.0625, 9.9375, 9.9375, 9.9375, 9.875, 10, 9.875, 9.875, 9.875, 9.875, 10, 10, 10, 10, 10, 10.0625, 10.0625, 10.0625, 10.0625, 10, 10, 9.9375, 9.6875, 9.5, 9.3125, 9.1875, 9.3125, 9.34375, 9.375, 9.484375, 9.609375, 9.765625, 9.921875, 10, 10, 10.0625, 10.0625, 9.9375, 10.0625, 10.275, 10.223214, 10.508928, 10.5, 10.330357, 10.517857, 10.625, 10.8125, 11, 11, 11, 10.9375, 10.9375, 10.9375, 10.9375, 11.09375, 11.34375, 11.59375, 11.78125, 11.875, 11.875, 11.875, 11.9375, 12, 12, 12, 12, -10, -10, -10, -10, -10, -10, -10, -10, 21.354166, 22.108334, 22.558037, 23.09375, 23.575893, 24.552084, 25.236607, 25.803572, 26, 26.03125, 26.15625, 26.357143, 26.71875, 27.138393, 27.3125, 27.3125, 27.366072
28.107143, 27.5625, 27.279762, 27.012501, 26.794643, 26.8125, 26.625, 26.6875, 26.5, 26.3125, 26, 25.625, 25.25, 24.75, 24.625, 24.5625, 24.6875, 24.625, 24.5, 24.3125, 24.0625, 24, 23.8125, 23.5625, 23.25, 22.964287, 22.8125, 22.625, 22.4375, 22.1875, 22.0625, 21.9375, 21.866072, 21.5, 21.3125, 21.125, 21, 20.9375, 20.6875, 20.4375, 20.25, 20.0625, 19.875, 19.714287, 19.4375, 19.1875, 19.09375, 18.9375, 18.741072, 18.375, 18.21875, 17.9375, 17.875, 17.6875, 17.5, 17.3125, 17, 16.8125, 16.625, 16.5, 16.410713, 16.142857, 15.821428, 15.5, 15.25, 14.9375, 14.8125, 14.625, 14.375, 14.25, 14.0625, 14, 13.875, 13.6875, 13.5, 13.375, 13.3125, 13.142857, 13.071428, 13.125, 13.223214, 13.3125, 13.5, 13.375, 13.40625, 13.5, 13.776785, 14.565475, 15.690476, 16.5, 17.401787, 17.767857, 17.928572, 17.532738, 17.404167, 17.636906, 17.598215, 17.625, 17.375, 17.1875, 17.125, 17.1875, 17.169643, 16.979166, 16.979166, 17.011906, 16.895834, 16.875, 16.919643, 16.75, 16.75, 16.75, 16.75, 16.8125, 16.8125, 16.6875, 16.589285, 16.535713, 16.276787, 16.0625, 15.625, 15.4375, 15.25, 15.1875, 15.446428, 15.75, 15.875, 15.875, 15.330357, 13.719246, 12.958333, 12.363945, 12.955358, 12.995536, 13.354167, 13.303572, 12.970239, 12.571428, 12.4375, 12.205357, 12.125, 12.125, 12.125, 12.1875, 12.25, 12.1875, 12.125, 12, 11.9375, 11.9375, 11.875, 11.875, 11.75, 11.6875, 11.625, 11.625, 11.75, 11.8125, 12.125, 12.3125, 12.375, 12.375, 12.1875, 12.125, 12.0625, 12.125, 12.1875, 12.1875, 12.0625, 11.677083, 11.513393, 11.34375, 11.591518, 11.513393, 11.385417, 11.392857, 11.395833, 11.666666, -10, -10, -10, -10, -10, -10, -10, -10, -10, -10, -10, 32.875, 33, 33.258926, 33.964287, 34.729168, -10, -10, -10, 39.416668, 39.369045, 39.375, 39.25, 39.258926, 39.375, 39.285713, 38.8125, 38.330357, 38.178574, 38.0625, 38, 38, 38.1875, 38.3125, 38.416668, 9.666667, 10.408333, 10.741666, 10.709822, 10.974703, 11.088393, 10.873511, 10.696428, 10.625, 10.375, 10.3125, 10.3125, 10.125, 10.0625, 10, 9.75, 9.6875, 9.8125, 9.875, 10, 10.0625, 10, 10, 9.9375, 9.875, 9.875, 9.875, 9.9375, 10, 10, 10, 10, 10, 10, 9.9375, 9.9375, 9.8125, 9.8125, 9.875, 9.875, 10, 9.9375, 9.9375, 9.9375, 9.9375, 10, 10, 9.9375, 9.9375, 9.9375, 10, 10.0625, 10.0625, 10.0625, 10, 10, 9.875, 9.625, 9.5, 9.375, 9.375, 9.5625, 9.59375, 9.625, 9.703125, 9.765625, 9.859375, 9.953125, 10, 10, 10, 9.9375, 9.875, 10.0625, 10.3375, 10.410714, 10.633928, 10.5, 10.330357, 10.455357, 10.5625, 10.8125, 11, 11, 11, 10.875, 10.8125, 10.8125, 10.8125, 11.03125, 11.28125, 11.53125, 11.78125, 12, 12.0625, 12.0625, 12.0625, 12, 12, 12, -10, -10, -10, -10, -10, -10, -10, -10, -10, 21.791666, 22.423811, 22.808037, 23.535715, 24.025511, 24.770834, 25.392857, 25.8125, 26, 25.9375, 25.9375, 26, 26.388393, 27.138393, 27.486607, 27.59375, 27.5625, 27.625, 27.6875, 27.875, 28, 28, 28, 28.125, 28.1875, 28.1875, 28.1875, 28.083334, -10, -10, -10, -10, -10, -10, -10, -10, -10, -10, -10, -10, -10, -10, -10, -10, -10, -10, -10, -10, -10, -10, 28.125, 28.25, 28.375, 28.473215, 28.023809, 27.383928, 27.092262, 26.887501, 26.705357, 26.75, 26.5, 26.5, 26.3125, 26.125, 25.8125, 25.5, 25.1875, 24.75, 24.75, 24.6875, 24.8125, 24.6875, 24.5, 24.3125, 24.0625, 23.9375, 23.6875, 23.4375, 23.1875, 23, 22.8125, 22.625, 22.375, 22.125, 22.0625, 21.9375, 21.803572, 21.4375, 21.25, 21.0625, 20.9375, 20.875, 20.6875, 20.4375, 20.25, 20.0625, 19.875, 19.6875, 19.4375, 19.1875, 19.09375, 19, 18.741072, 18.267857, 18.15625, 17.848213, 17.705357, 17.642857, 17.4375, 17.3125, 17.0625, 16.875, 16.75, 16.616072, 16.410713, 16.205357, 15.883928, 15.6875, 15.4375, 15.125, 15, 14.8125, 14.5625, 14.375, 14.125, 14, 13.875, 13.6875, 13.4375, 13.1875, 13.0625, 13, 12.9375, 13.0625, 13.160714, 13.25, 13.46875, 13.34375, 13.34375, 13.375, 13.508928, 14.092261, 15.011906, 15.785715, 17.130953, 17.625, 17.928572, 17.470238, 17.341667, 17.636906, 17.660715, 17.78125, 17.59375, 17.34375, 17.21875, 17.3125, 17.205357, 16.943453, 16.979166, 16.949406, 16.833334, 16.8125, 16.857143, 16.6875, 16.75, 16.75, 16.75, 16.75, 16.6875, 16.5625, 16.526785, 16.660713, 16.5, 16.25, 15.705357, 15.375, 15.125, 15.0625, 15.258928, 15.5625, 15.6875, 15.6875, 15.258928, 14.539115, 13.814286, 13.40873, 13.180273, 13.239797, 13.291667, 13.178572, 12.979167, 12.696428, 12.5, 12.330357, 12.125, 12.0625, 12, 12, 12, 12, 11.9375, 11.875, 11.875, 11.875, 11.875, 11.875, 11.75, 11.75, 11.75, 11.75, 11.875, 11.875, 12.0625, 12.1875, 12.125, 12.125, 12, 11.9375, 12, 12.0625, 12.125, 12.25, 12.1875, 11.833333, 11.669643, 11.4375, 11.607143, 11.544643, 11.447917, 11.424107, 11.520833, 11.666667, -10, -10, -10, -10, -10, -10, -10, -10, -10, -10, -10, 32.875, 33, 33.25, 33.809525, 34.770836, -10, -10, -10, 39.25, 39.226189, 39.25, 39.125, 39.0625, 39, 38.82143, 38.3125, 38.142857, 38.0625, 38.0625, 37.9375, 37.9375, 38.0625, 38.125, 38.25, 38, 10.457143, 10.616666, 10.553572, 10.755953, 10.869643, 10.654761, 10.446428, 10.375, 10.1875, 10.1875, 10.3125, 10.25, 10.3125, 10.3125, 10.0625, 9.9375, 9.9375, 9.9375, 10, 10.0625, 10, 10, 9.9375, 9.875, 9.875, 9.875, 9.9375, 10, 9.9375, 9.9642859, 10.035714, 10, 10.0625, 9.9375, 9.9375, 9.8125, 9.8125, 9.875, 9.875, 10, 10, 10, 10, 9.9375, 9.875, 9.875, 9.8125, 9.875, 9.875, 9.875, 9.9375, 9.9375, 10, 10, 10, 9.8125, 9.5625, 9.5, 9.4375, 9.5625, 9.8125, 9.84375, 9.875, 9.921875, 9.921875, 9.953125, 9.984375, 9.9375, 9.9375, 9.9375, 9.9375, 10.0625, 10.3125, 10.5875, 10.625, 10.821428, 10.625, 10.455357, 10.455357, 10.4375, 10.6875, 10.875, 10.9375, 11.0625, 11.0625, 11.125, 11.1875, 11.1875, 11.28125, 11.34375, 11.53125, 11.629464, 11.75, 11.919643, 11.875, 12, 11.9375, 12, 12, -10, -10, -10, -10, -10, -10, -10, -10, -10, 22.229166, 22.816668, 23.263393, 23.84375, 24.34375, 24.875, 25.388393, 25.6875, 25.8125, 25.8125, 25.75, 25.875, 26.263393, 27.013393, 27.486607, 27.700893, 27.75
27.845238, 27.217262, 27.020834, 26.825001, 26.642857, 26.625, 26.375, 26.375, 26.25, 26.125, 25.875, 25.625, 25.375, 25.125, 25.0625, 24.9375, 24.9375, 24.8125, 24.5625, 24.375, 24.125, 23.875, 23.625, 23.375, 23.125, 23, 22.875, 22.6875, 22.4375, 22.1875, 22.0625, 22, 21.803572, 21.4375, 21.25, 21, 20.9375, 20.875, 20.75, 20.5625, 20.375, 20.1875, 19.875, 19.625, 19.375, 19.125, 19.09375, 19, 18.75, 18.392857, 18.21875, 17.848213, 17.580357, 17.517857, 17.3125, 17.25, 17.125, 16.9375, 16.75, 16.580357, 16.348213, 16.142857, 15.946428, 15.75, 15.5, 15.25, 15.0625, 14.9375, 14.6875, 14.4375, 14.1875, 14, 13.875, 13.6875, 13.4375, 13.1875, 13.0625, 13, 12.9375, 13, 13.125, 13.25, 13.40625, 13.34375, 13.28125, 13.34375, 13.508928, 14.029761, 14.595239, 15.10204, 16.940475, 17.544643, 18, 17.741072, 17.581249, 17.709822, 17.709822, 17.8125, 17.71875, 17.46875, 17.28125, 17.4375, 17.267857, 17.005953, 17.041666, 16.949406, 16.833334, 16.8125, 16.857143, 16.75, 16.875, 16.875, 16.875, 16.875, 16.75, 16.625, 16.589285, 16.723213, 16.5625, 16.375, 15.892857, 15.5, 15.3125, 15.25, 15.321428, 15.5625, 15.5625, 15.5, 15.125, 13.924108, 13.307738, 13.591837, 13.443453, 13.46875, 13.267857, 12.991072, 12.666667, 12.446428, 12.3125, 12.25, 12.0625, 12.0625, 12, 12, 12, 12, 11.9375, 11.9375, 11.9375, 11.9375, 11.9375, 11.875, 11.75, 11.75, 11.8125, 11.875, 12, 12, 12.0625, 12.0625, 11.9375, 11.875, 11.8125, 11.8125, 11.9375, 12, 12, 12, 11.9375, 11.875, 11.772322, 11.59375, 11.59375, 11.53125, 11.59375, 11.46875, 11.651786, 11.8, -10, -10, -10, -10, -10, -10, -10, -10, -10, -10, -10, 32.875, 32.916668, 33.09375, 33.546131, 34.568451, 35.482143, 35.857143, 36.42857, 38.75, 38.952381, 39.1875, 39.0625, 38.9375, 38.404762, 38.392857, 38.145832, 38.133926, 38.125, 38.125, 37.9375, 37.9375, 38, 38, 38.083332, 38, 10.475, 10.533333, 10.446428, 10.541667, 10.575, 10.383928, 10.258928, 10.1875, 10.0625, 10.0625, 10.1875, 10.1875, 10.25, 10.25, 10.1875, 10.1875, 10.1875, 10.1875, 10.125, 10.0625, 10, 10, 9.9375, 9.875, 9.875, 9.875, 9.9375, 10, 9.875, 9.9285717, 10.071428, 9.9375, 9.9553566, 9.8303566, 9.875, 9.75, 9.8125, 9.8125, 9.875, 10, 10, 10, 9.9375, 9.8125, 9.6875, 9.625, 9.625, 9.75, 9.875, 9.9107141, 9.9017859, 9.9375, 9.9375, 10, 9.9375, 9.6875, 9.5, 9.5, 9.5625, 9.8125, 10, 10, 10, 10, 10, 10, 10, 9.875, 9.8125, 9.75, 9.75, 10, 10.3125, 10.53125, 10.71875, 10.84375, 10.65625, 10.455357, 10.455357, 10.375, 10.5625, 10.75, 10.8125, 11, 11.1875, 11.3125, 11.4375, 11.5, 11.5, 11.5, 11.625, 11.598214, 11.625, 11.794643, 11.75, 11.9375, 11.9375, 12, 12, -10, -10, -10, -10, -10, -10, -10, -10, -10, 22.4375, 22.916668, 23.441963, 24.147322, 24.700893, 25.09375, 25.4375, 25.678572, 25.8125, 25.8125, 25.75, 25.6875, 26.035715, 26.982143, 27.4375, 27.700893, 27.65625, 27.71875, 27.75, 27.875, 28, 28, 28, 28.0625, 28.0625, 28.0625, 28.0625, 28, -10, -10, -10, -10, -10, -10, -10, -10, -10, -10, -10, -10, -10, -10, -10, -10, -10, -10, -10, -10, -10, -10, 28.125, 28.25, 28.3125, 28.285715, 27.845238, 27.508928, 27.25, 27, 26.75, 26.5, 26.25, 26.125, 26.0625, 26, 25.875, 25.6875, 25.4375, 25.25, 25.098213, 24.830357, 24.830357, 24.625, 24.4375, 24.3125, 24.0625, 23.875, 23.625, 23.375, 23.125, 23, 22.9375, 22.75, 22.5, 22.25, 22.0625, 22, 21.741072, 21.375, 21.1875, 20.9375, 20.9375, 20.9375, 20.8125, 20.625, 20.4375, 20.125, 19.8125, 19.625, 19.4375, 19.25, 19.21875, 19.0625, 18.75, 18.392857, 18.21875, 17.785713, 17.455357, 17.392857, 17.1875, 17.25, 17.25, 17, 16.705357, 16.517857, 16.223213, 16.080357, 16.008928, 15.8125, 15.5625, 15.3125, 15.0625, 15, 14.75, 14.5, 14.25, 14, 13.8125, 13.625, 13.375, 13.125, 13.0625, 13, 12.9375, 12.9375, 13, 13.125, 13.21875, 13.21875, 13.15625, 13.15625, 13.321428, 13.708333, 13.928572, 14.535715, 16.5, 17.214285, 17.75, 17.5625, 17.59375, 17.65625, 17.71875, 17.875, 17.84375, 17.59375, 17.40625, 17.4375, 17.205357, 16.943453, 16.979166, 16.958334, 16.958334, 16.875, 16.875, 16.8125, 17, 17, 17, 17.0625, 16.9375, 16.8125, 16.776785, 16.785713, 16.5625, 16.375, 15.955357, 15.553572, 15.166667, 15.071428, 15.071428, 15.3125, 15.3125, 15.25, 14.982143, 14.174108, 13.700595, 13.732143, 13.464286, 13.40625, 13.080357, 12.741072, 12.541667, 12.383928, 12.3125, 12.3125, 12.125, 12.0625, 12, 12, 12, 12, 11.9375, 11.9375, 11.9375, 11.9375, 12, 12, 11.9375, 11.9375, 11.9375, 11.9375, 12, 12, 12, 11.9375, 11.75, 11.625, 11.625, 11.625, 11.8125, 11.9375, 11.9375, 12, 12, 12, 12.022322, 11.96875, 12.03125, 11.96875, 11.90625, 11.71875, 11.776786, 11.883333, -10, -10, -10, -10, -10, -10, -10, -10, -10, -10, -10, 33, 33, 33.15625, 33.566963, 34.559525, 35.464283, 35.82143, 36.42857, 38.375, 38.761906, 39.125, 39, 38.741074, 38.166668, 38.026787, 38.0625, 38.25, 38.3125, 38.3125, 38.0625, 38, 38, 37.9375, 38, 38, 10.25, 10.283333, 10.553572, 10.583333, 10.517857, 10.383928, 10.1875, 10.125, 10, 10, 10.0625, 10.125, 10.1875, 10.1875, 10.1875, 10.1875, 10.125, 10.125, 10.0625, 10, 10, 10, 10, 10.0625, 10.0625, 10.0625, 10.0625, 10.0625, 10, 10.116072, 10.321428, 10.125, 10.080357, 9.9553566, 10, 10, 10.0625, 9.9375, 9.9017859, 9.9375, 9.9375, 10, 9.9375, 9.8125, 9.6875, 9.625, 9.6875, 9.8125, 9.875, 9.8035717, 9.7142859, 9.75, 9.8125, 9.9375, 9.9375, 9.75, 9.625, 9.625, 9.6875, 9.875, 10, 10, 9.9375, 9.875, 9.875, 9.875, 9.9375, 9.875, 9.8125, 9.75, 9.75, 10, 10.3125, 10.5625, 10.71875, 10.71875, 10.46875, 10.34375, 10.375, 10.4375, 10.660714, 10.8125, 10.875, 11, 11.1875, 11.3125, 11.5, 11.625, 11.625, 11.625, 11.6875, 11.598214, 11.625, 11.794643, 11.6875, 11.8125, 11.8125, 11.875, 11.96875, 12.083334, -10, -10, -10, -10, -10, -10, -10, -10, 22.375, 22.808334, 23.519344, 24.290178, 24.933037, 25.25, 25.46875, 25.584822, 25.65625, 25.6875, 25.6875, 25.6875, 26.035715, 26.982143, 27.357143, 27.367559, 27.299107
27.845238, 27.508928, 27.3125, 27, 26.6875, 26.375, 26.125, 26, 26, 26, 25.9375, 25.75, 25.5, 25.3125, 25.035713, 24.767857, 24.705357, 24.5, 24.375, 24.25, 24.0625, 23.875, 23.625, 23.375, 23.125, 23, 22.875, 22.6875, 22.4375, 22.1875, 22.0625, 22, 21.75, 21.5, 21.25, 21, 20.9375, 20.9375, 20.8125, 20.625, 20.4375, 20.0625, 19.75, 19.625, 19.5, 19.375, 19.375, 19.1875, 18.875, 18.580357, 18.375, 17.973213, 17.580357, 17.392857, 17.125, 17.125, 17.125, 16.9375, 16.642857, 16.330357, 16, 15.9375, 15.9375, 15.8125, 15.5625, 15.3125, 15.0625, 15, 14.75, 14.5, 14.25, 14, 13.8125, 13.5625, 13.3125, 13.0625, 13, 13, 12.9375, 12.9375, 12.9375, 13, 13.0625, 13.0625, 13.0625, 13.125, 13.25, 13.375, 13.5, 14.071428, 16.166666, 16.928572, 17.5, 17.4375, 17.53125, 17.65625, 17.78125, 17.875, 17.90625, 17.647322, 17.331249, 17.395834, 16.919643, 16.848215, 16.875, 16.75, 16.8125, 16.875, 16.875, 16.9375, 17.1875, 17.1875, 17.25, 17.375, 17.25, 17.25, 17.1875, 17, 16.6875, 16.375, 16.017857, 15.607143, 15.0625, 15.008928, 14.875, 15, 15.03125, 14.9375, 14.669643, 13.785715, 13.325595, 13.357143, 13.089286, 13.0625, 12.705357, 12.4375, 12.5625, 12.5, 12.5625, 12.5625, 12.375, 12.25, 12.125, 12.0625, 12, 12, 11.9375, 11.9375, 11.9375, 11.9375, 12, 12, 12, 12, 12, 12, 12, 12, 12, 11.9375, 11.75, 11.625, 11.625, 11.625, 11.8125, 11.9375, 11.9375, 12, 12, 12, 12.09375, 12.28125, 12.34375, 12.34375, 12.21875, 12.03125, 12.089286, 12.216667, -10, -10, -10, -10, -10, -10, -10, -10, -10, -10, -10, 33, 33, 33.227676, 33.876488, 34.755951, 35.535713, 35.866074, 36.42857, 38, 38.57143, 39.0625, 38.9375, 38.678574, 38.166668, 38, 38.089287, 38.419643, 38.491074, 38.5, 38.125, 37.964287, 37.9375, 37.875, 38, 38, 10.125, 10.2, 10.491072, 10.645833, 10.678572, 10.535714, 10.4375, 10.3125, 10.21875, 10.1875, 10.1875, 10.1875, 10.21875, 10.1875, 10.1875, 10.1875, 10.125, 10.125, 10.0625, 10, 10, 10.0625, 10.125, 10.25, 10.25, 10.1875, 10.1875, 10.1875, 10.1875, 10.428572, 10.633928, 10.375, 10.223214, 10.080357, 10.1875, 10.3125, 10.375, 10.125, 9.8571434, 9.8125, 9.875, 10.107143, 10.125, 10, 9.8125, 9.75, 9.9375, 10.232143, 10.258928, 9.8660717, 9.6071434, 9.59375, 9.78125, 10.03125, 10.125, 10, 9.875, 9.8125, 9.75, 9.8125, 9.8125, 9.75, 9.6875, 9.625, 9.625, 9.6875, 9.8125, 9.8125, 9.8125, 9.75, 9.75, 9.9375, 10.1875, 10.4375, 10.59375, 10.65625, 10.53125, 10.40625, 10.4375, 10.5, 10.660714, 10.8125, 10.875, 11, 11.1875, 11.3125, 11.5625, 11.75, 11.75, 11.75, 11.6875, 11.473214, 11.4375, 11.607143, 11.5, 11.625, 11.6875, 11.75, 11.9375, 12.111112, -10, -10, -10, -10, -10, -10, -10, -10, 22.5625, 22.975, 23.706844, 24.446428, 25.026787, 25.25, 25.415178, 25.597321, 25.611607, 25.8125, 25.8125, 25.9375, 26.241072, 26.794643, 27.026787, 26.992559, 26.986607, 27.15625, 27.482143, 27.75, 27.9375, 28, 28, 27.875, 27.75, 27.75, 27.75, 27.833332, -10, -10, -10, -10, -10, -10, -10, -10, -10, -10, -10, -10, -10, -10, -10, -10, -10, -10, -10, -10, -10, -10, 28, 28, 28, 28, 27.866072, 27.5625, 27.375, 27.0625, 26.75, 26.4375, 26.1875, 26, 26, 26, 26, 25.8125, 25.5625, 25.375, 25.035713, 24.767857, 24.642857, 24.4375, 24.3125, 24.1875, 24.0625, 23.9375, 23.6875, 23.4375, 23.1875, 23, 22.875, 22.625, 22.375, 22.125, 22, 22, 21.75, 21.5, 21.25, 21, 21, 21, 20.8125, 20.625, 20.375, 20, 19.6875, 19.625, 19.5625, 19.4375, 19.4375, 19.1875, 18.8125, 18.5625, 18.3125, 17.9375, 17.625, 17.375, 17.125, 17.0625, 17.0625, 16.9375, 16.580357, 16.276787, 16.0625, 15.9375, 15.9375, 15.6875, 15.4375, 15.1875, 15, 15, 14.75, 14.5, 14.25, 14, 13.875, 13.6875, 13.4375, 13.1875, 13, 12.9375, 12.9375, 12.9375, 13, 13.0625, 13.0625, 13.0625, 13.0625, 13.0625, 13.125, 13.1875, 13.25, 13.821428, 15.916667, 16.678572, 17.1875, 17.214287, 17.450893, 17.647322, 17.84375, 17.90625, 17.9375, 17.741072, 17.487499, 17.520834, 17.0625, 16.883928, 16.875, 16.75, 16.75, 16.75, 16.75, 16.875, 17.294643, 17.375, 17.5, 17.6875, 17.625, 17.5625, 17.4375, 17.0625, 16.625, 16.375, 16.125, 15.794643, 15.241072, 14.904761, 14.78125, 14.84375, 14.9375, 14.866072, 14.336309, 13.464285, 13.175595, 13.107143, 12.982143, 12.9375, 12.580357, 12.4375, 12.5625, 12.5625, 12.75, 12.8125, 12.6875, 12.5, 12.267857, 12.125, 12, 12, 12, 12, 12, 12, 12, 12, 12, 12, 12, 12, 12, 12, 12, 11.9375, 11.8125, 11.6875, 11.6875, 11.75, 11.875, 12, 12, 12, 12, 12, 12.09375, 12.34375, 12.379464, 12.236607, 12.071428, 11.875, 11.973214, 12.3, -10, -10, -10, -10, -10, -10, -10, -10, -10, -10, -10, 33, 33, 33.227676, 33.876488, 34.839287, 35.75, 36.223213, 36.82143, 38.125, 38.61607, 39.0625, 38.9375, 38.75, 38.354168, 38.0625, 38.053574, 38.232143, 38.303574, 38.375, 38.125, 38.098213, 38.25, 38.125, 38.142857, 38.083332, 10.625, 10.7, 10.866072, 10.895833, 10.803571, 10.598214, 10.5625, 10.4375, 10.34375, 10.25, 10.125, 10.0625, 10.03125, 10, 10.125, 10.25, 10.3125, 10.4375, 10.375, 10.3125, 10.375, 10.5, 10.660714, 10.75, 10.642857, 10.5, 10.4375, 10.46875, 10.59375, 10.870536, 11.066964, 10.803572, 10.410714, 10.392857, 10.544643, 10.669643, 10.541667, 10.267857, 9.9821434, 10.0625, 10.1875, 10.419643, 10.4375, 10.375, 10.3125, 10.3125, 10.5625, 10.732143, 10.758928, 10.204082, 9.9285717, 9.8928576, 10.174107, 10.34375, 10.446428, 10.5125, 10.25, 10.229167, 10.232143, 10.232143, 10, 9.8928576, 9.8214283, 9.75, 9.7857141, 9.8928576, 10.169643, 10.041667, 9.9464283, 9.75, 9.71875, 9.78125, 10, 10.3125, 10.5, 10.625, 10.59375, 10.53125, 10.625, 10.75, 10.848214, 10.9375, 10.9375, 10.9375, 11.0625, 11.125, 11.375, 11.625, 11.75, 11.875, 11.8125, 11.6875, 11.6875, 11.75, 11.6875, 11.6875, 11.75, 11.75, 12, 12.208334, -10, -10, -10, -10, -10, -10, -10, -10, 22.8125, 23.225, 23.921131, 24.633928, 25.151787, 25.375, 25.508928, 25.659821, 25.736607, 25.875, 25.875, 25.9375, 26.241072, 26.794643, 26.964287, 26.885416, 26.799107
27.875, 27.75, 27.482143, 27.080357, 26.696428, 26.4375, 26.3125, 26.125, 26.125, 26.0625, 26, 25.75, 25.5, 25.3125, 24.973213, 24.767857, 24.580357, 24.3125, 24.1875, 24.0625, 24, 24, 23.75, 23.5, 23.25, 23, 22.875, 22.625, 22.375, 22.125, 22, 22, 21.75, 21.5, 21.25, 20.9375, 20.875, 20.8125, 20.5625, 20.375, 20.1875, 19.875, 19.625, 19.5625, 19.5, 19.375, 19.375, 19.1875, 18.8125, 18.5625, 18.3125, 18, 17.75, 17.5, 17.25, 17.125, 17.0625, 17, 16.705357, 16.4375, 16.1875, 16, 15.875, 15.625, 15.375, 15.125, 15, 15, 14.75, 14.5, 14.25, 14, 13.9375, 13.8125, 13.625, 13.4375, 13.1875, 13.0625, 13, 12.9375, 13, 13.0625, 13.0625, 13.0625, 13.0625, 13, 13, 13, 13, 13.571428, 15.666667, 16.428572, 16.9375, 17.089287, 17.419643, 17.678572, 17.9375, 18, 18, 17.866072, 17.674999, 17.645834, 17.25, 17.008928, 16.9375, 16.8125, 16.6875, 16.6875, 16.6875, 16.78125, 17.138393, 17.15625, 17.28125, 17.4375, 17.5, 17.5, 17.375, 17.0625, 16.6875, 16.4375, 16.1875, 15.919643, 15.241072, 14.904761, 14.78125, 14.78125, 14.9375, 14.803572, 14.220239, 13.523809, 13.196428, 13, 12.875, 12.9375, 12.75, 12.6875, 12.8125, 12.6875, 12.8125, 12.892857, 13.104167, 12.958333, 12.732142, 12.553572, 12.142857, 12.071428, 12, 12, 12, 12, 12, 12, 12, 12.0625, 12.0625, 12.0625, 12.0625, 11.9375, 11.9375, 11.875, 11.8125, 11.8125, 11.8125, 11.875, 12, 12.125, 12.125, 12.125, 12.0625, 12, 12.0625, 12.3125, 12.348214, 12.142857, 11.901786, 11.75, 11.830357, 12.25, -10, -10, -10, -10, -10, -10, -10, -10, -10, -10, -10, 33, 33, 33.196426, 33.872025, 34.9375, 35.916668, 36.392857, 36.952381, 38.375, 38.723213, 39, 38.875, 38.8125, 38.5625, 38.020832, 37.910713, 37.919643, 38.053574, 38.1875, 38.0625, 38.160713, 38.375, 38.25, 38.267857, 38.166664, 11.357142, 11.400001, 11.366072, 11.395833, 11.178571, 10.910714, 10.875, 10.8125, 10.84375, 10.75, 10.530612, 10.5, 10.5, 10.464286, 10.535714, 10.571428, 10.642858, 11.0625, 11.0625, 11.0625, 11.0625, 11.1875, 11.540816, 11.4375, 11.392857, 11.25, 11.125, 11.15625, 11.34375, 11.59375, 11.71875, 11.580357, 11.081633, 11.061225, 11.12245, 11.482143, 11.011905, 10.770408, 10.443878, 10.5, 10.875, 11.107143, 11.125, 11.125, 11.125, 11.125, 11.3125, 11.482143, 11.383928, 11.428571, 11.434524, 11.354167, 11.198979, 10.892858, 11.081633, 11.575, 10.918367, 10.997024, 10.866072, 10.732143, 10.821428, 10.714286, 10.571428, 10.428572, 10.75, 10.791667, 10.544643, 10.541667, 10.508928, 10.232142, 10.232142, 10.267858, 10.410714, 10.678572, 10.857142, 11.15625, 11.125, 11.09375, 11.1875, 11.375, 11.473214, 11.375, 11.205357, 11, 10.9375, 11, 11.294643, 11.5625, 11.75, 11.875, 11.8125, 11.75, 11.8125, 11.875, 11.8125, 11.75, 11.75, 11.75, 12.0625, 12.291667, 12.666667, -10, -10, -10, -10, -10, -10, -10, 23.3125, 23.641666, 24.180059, 24.705357, 25.044643, 25.21875, 25.424107, 25.731251, 25.799107, 26, 25.9375, 26.125, 26.3125, 26.607143, 26.732143, 26.666666, 26.705357, 26.9375, 27.357143, 27.6875, 27.9375, 28, 28, 27.8125, 27.75, 27.75, 27.75, 27.916666, -10, -10, -10, -10, -10, -10, -10, -10, -10, -10, -10, -10, -10, -10, -10, -10, -10, -10, -10, -10, -10, -10, 28, 28, 28, 28, 27.875, 27.75, 27.544643, 27.142857, 26.758928, 26.526787, 26.375, 26.1875, 26.1875, 26.0625, 26, 25.75, 25.5, 25.25, 24.9375, 24.875, 24.625, 24.375, 24.1875, 24, 24, 24, 23.75, 23.5, 23.25, 23, 22.875, 22.625, 22.375, 22.125, 22, 22, 21.75, 21.5, 21.25, 20.9375, 20.8125, 20.75, 20.5625, 20.375, 20.1875, 19.830357, 19.5625, 19.4375, 19.375, 19.25, 19.25, 19.125, 18.8125, 18.5625, 18.3125, 18.0625, 17.875, 17.625, 17.375, 17.125, 17, 16.9375, 16.6875, 16.375, 16.125, 15.9375, 15.75, 15.5625, 15.3125, 15.0625, 15, 15, 14.75, 14.5, 14.25, 14, 14, 13.9375, 13.8125, 13.625, 13.3125, 13.125, 13, 12.9375, 13.0625, 13.125, 13.125, 13.125, 13.125, 13.125, 13.1875, 13.25, 13.25, 13.821428, 15.833334, 16.535715, 17, 17.089287, 17.357143, 17.738096, 18, 18, 18, 17.928572, 17.737499, 17.770834, 17.4375, 17.196428, 17.125, 17, 16.875, 16.8125, 16.8125, 16.84375, 17.044643, 17, 17.125, 17.21875, 17.3125, 17.375, 17.25, 16.9375, 16.625, 16.375, 16.125, 15.991072, 15.574405, 15.270833, 15.09375, 14.96875, 15, 14.803572, 14.220239, 13.523809, 13.267857, 13.125, 13.125, 13.25, 13.1875, 13.1875, 13.1875, 12.955357, 12.9375, 13.017857, 13.354167, 13.333333, 13.232142, 13.053572, 12.642857, 12.508928, 12.375, 12.3125, 12.25, 12.25, 12.3125, 12.375, 12.4375, 12.5, 12.4375, 12.4375, 12.5, 12.214286, 12.214286, 12.316327, 12.316327, 12.367347, 12.25, 12.107143, 12.125, 12.25, 12.3125, 12.3125, 12.1875, 12.142857, 12.333333, 12.544643, 12.598214, 12.392857, 12.030612, 11.857142, 12.059524, 12.416667, -10, -10, -10, -10, -10, -10, -10, -10, -10, -10, -10, 33, 33, 33.133926, 33.773811, 34.821426, -10, -10, -10, 38.625, 38.830357, 39, 38.9375, 39, 38.8125, 38.270832, 38.035713, 37.857143, 37.928574, 38, 37.9375, 38.169643, 38.5625, 38.5, 38.517857, 38.333332, 12, 12.166667, 12.125, 12.125, 11.719388, 11.494898, 11.5, 11.625, 11.59375, 11.5625, 12.071429, 12.125, 12.270833, 12.166667, 12.208333, 12.25, 12.208333, 12.142858, 12.214286, 12.142858, 12.214286, 12.464286, 12.612245, 12.484694, 12.352041, 12.224489, 12.285714, 12.321428, 12.5, 12.34375, 12.40625, 12.330357, 12.654762, 12.642858, 12.613095, 12.408164, 12.444446, 12.386905, 12.261905, 12.166667, 11.964286, 12.061225, 11.875, 11.875, 12.142858, 12, 12.1875, 12.419643, 12.321428, 12.285714, 12.265306, 12.196428, 12.288264, 12.6875, 12.755952, 12.692857, 12.476192, 11.889456, 11.811225, 11.693878, 11.535714, 11.530612, 11.369048, 11.305554, 11.428571, 11.422619, 11.62245, 11.440476, 11.258928, 11.944444, 12.0625, 12.145833, 12.083333, 12.166667, 12.1875, 11.816964, 11.705357, 11.705357, 11.8125, 12.044643, 12.125, 12, 11.714286, 11.35, 11.366072, 11.357143, 11.669643, 11.875, 12, 12.0625, 12, 11.875, 11.875, 12, 11.9375, 11.9375, 11.9375, 11.9375, 12.21875, 12.416667, -10, -10, -10, -10, -10, -10, -10, -10, 23.979166, 24.229166, 24.450893, 24.75, 24.9375, 25.125, 25.455357, 25.994644, 26.142857, 26.3125, 26.125, 26.125, 26.196428, 26.5, 26.625, 26.8125, 26.8125
27.9375, 27.75, 27.544643, 27.142857, 26.758928, 26.526787, 26.4375, 26.25, 26.25, 26.125, 25.9375, 25.6875, 25.4375, 25.1875, 24.9375, 24.875, 24.625, 24.4375, 24.375, 24.25, 24.142857, 24.071428, 23.75, 23.5, 23.25, 23, 22.9375, 22.75, 22.5, 22.25, 22.0625, 21.9375, 21.6875, 21.4375, 21.1875, 20.9375, 20.8125, 20.75, 20.5625, 20.375, 20.25, 19.92857, 19.580357, 19.383928, 19.25, 19.0625, 19.0625, 18.9375, 18.625, 18.4375, 18.1875, 18, 17.9375, 17.6875, 17.4375, 17.1875, 17, 16.875, 16.625, 16.3125, 16.0625, 15.9375, 15.75, 15.625, 15.375, 15.125, 15.0625, 15, 14.75, 14.5625, 14.3125, 14.0625, 14.0625, 14, 13.9375, 13.8125, 13.5, 13.25, 13.125, 13.0625, 13.25, 13.375, 13.375, 13.375, 13.375, 13.375, 13.4375, 13.5625, 13.625, 14.214286, 16.083334, 16.678572, 17.0625, 17.026787, 17.232143, -10, -10, -10, 18, 18, 17.875, 17.875, 17.803572, 17.5625, 17.5, 17.25, 17, 16.8125, 16.8125, 16.915178, 17.315477, 17.229166, 17.083334, 17.03125, 17.0625, 17.1875, 17.125, 16.866072, 16.549999, 16.419643, 16.125, 16.125, 15.866072, 15.520833, 15.34375, 15.09375, 15.03125, 14.866072, 14.407739, 13.880953, 13.642857, 13.5625, 13.625, 13.75, 13.8125, 13.875, 13.8125, 13.580357, 13.4375, 13.317857, 13.782739, 13.824405, 13.794642, 13.616072, 13.37755, 13.080357, 13.125, 13, 12.964286, 12.875, 12.9375, 13.0625, 13.125, 13.25, 13.25, 13.223214, 13.142857, 13.291667, 13.244048, 13.67262, 13.767858, 13.773808, 12.875, 12.669643, 12.469388, 12.657143, 12.741072, 12.669643, 12.508928, 12.642857, 12.833333, 13.044643, 13.035714, 13.081633, 13.309525, 13.291667, 12.684524, 12.714286, -10, -10, -10, -10, -10, -10, -10, -10, -10, -10, -10, 33, 33, 33.0625, 33.428574, 34.5, -10, -10, -10, 38.875, 38.9375, 39, 38.9375, 39, 38.8125, 38.333332, 38.071426, 37.75, 37.75, 37.8125, 37.9375, 38.330357, 38.8125, 38.8125, 38.767857, 38.583332, 12.8, 12.516666, 12.845238, 12.918367, 13.083333, 13.083333, 13.083333, 12.821428, 12.785714, 12.75, 12.846939, 12.928572, 13.071428, 13.071428, 13.107142, 13.214286, 13.178572, 13.178572, 13.25, 13.178572, 13.285714, 13.535714, 13.473214, 13.392857, 13.066327, 13.303571, 13.663264, 13.681122, 13.665816, 13.477041, 13.34375, 13.561225, 13.693878, 13.729592, 13.632653, 13.418367, 13.238096, 13.153061, 13.214286, 13.214286, 12.9375, 12.714286, 12.875, 12.875, 13, 13.125, 13.107142, 13.773809, 13.511905, 13.25, 13.223214, 13.25, 13.267857, 13.607142, 13.540816, 13.325, 13.193878, 12.684524, 12.741072, 12.669643, 12.285714, 12.526786, 13.113095, 13.111111, 13.107142, 12.831633, 12.482143, 12.595239, 12.755102, 13.217687, 13.318878, 13.17262, 13.010203, 13.035714, 13.017858, 12.95153, 12.517857, 12.455357, 12.5625, 13.051021, 13.142858, 13, 12.67347, 12.1, 12.116072, 12.107143, 12.325893, 12.40625, 12.53125, 12.59375, 12.625, 12.625, 12.5625, 12.625, 12.392858, 12.392858, 12.392858, 12.392858, 12.75, 12.875, -10, -10, -10, -10, -10, -10, -10, 25, 24.416666, 24.604166, 24.732143, 24.875, 25, 25.1875, 25.508928, 26.044643, 26.375, 26.5, 26.375, 26.25, 26.258928, 26.5625, 26.6875, 26.9375, 26.9375, 27.1875, 27.5, 27.75, 28, 28, 28, 27.946428, 28.1875, 28.125, 28.080357, 28.166668, -10, -10, -10, -10, -10, -10, -10, -10, -10, -10, -10, -10, -10, -10, -10, -10, -10, -10, -10, -10, -10, -10, -10, 28.25, 28.166666, 28.125, 27.9375, 27.75, 27.544643, 27.142857, 26.758928, 26.526787, 26.4375, 26.25, 26.25, 26.0625, 25.8125, 25.5625, 25.3125, 25.125, 24.9375, 24.8125, 24.5625, 24.4375, 24.4375, 24.375, 24.267857, 24.133928, 23.75, 23.5, 23.25, 23, 23, 22.8125, 22.5625, 22.3125, 22.0625, 21.875, 21.625, 21.375, 21.125, 20.9375, 20.8125, 20.75, 20.5625, 20.375, 20.25, 19.92857, 19.642857, 19.383928, 19.1875, 19, 18.9375, 18.875, 18.625, 18.4375, 18.1875, 18, 18, 17.75, 17.5, 17.3125, 17.035713, 16.767857, 16.508928, 16.1875, 16, 15.9375, 15.8125, 15.6875, 15.4375, 15.1875, 15.0625, 15, 14.8125, 14.625, 14.375, 14.125, 14.0625, 14, 14, 14, 13.9375, 13.919643, 13.607142, 13.530612, 13.666667, 13.791667, 13.958333, 13.982143, 14, 14, 14.0625, 14.25, 14.4375, 15.008928, 16.452381, 16.88393, 17.1875, 17.0625, 17.125, -10, -10, -10, 18, 17.916666, 17.75, 17.6875, 17.5625, 17.5, 17.4375, 17.25, 17.0625, 16.9375, 16.9375, 16.915178, 17.172619, 17.148809, 16.916668, 16.78125, 16.8125, 16.9375, 17, 16.866072, 16.674999, 16.544643, 16.339287, 16.375, 15.973214, 15.776786, 15.46875, 15.21875, 15.0625, 14.9375, 14.741072, 14.380953, 14.476191, 14.395834, 14.375, 14.5, 14.5625, 14.892858, 14.821428, 14.556122, 14.285714, 13.817857, 14.282739, 14.386905, 14.464286, 14.366072, 14.017857, 14.193877, 14.357142, 14.285714, 14.17347, 14, 14, 14.142858, 14.285714, 14.464286, 14.535714, 14.57653, 14.454082, 14.12755, 14.005102, 14.362246, 14.515306, 14.520408, 14.071428, 13.836736, 14.095238, 14.283333, 13.616072, 13.482143, 13.258928, 13.591836, 13.809524, 13.87245, 13.6875, 13.928572, 14.010203, 14.178572, 14.052721, 14.333333, -10, -10, -10, -10, -10, -10, -10, -10, -10, -10, -10, 33, 33, 33.0625, 33.4375, 34.174999, -10, -10, -10, 39.0625, 39.041668, 39.03125, 38.875, 38.875, 38.6875, 38.270832, 38.107143, 37.8125, 37.8125, 37.8125, 37.9375, 38.258926, 38.5625, 38.625, 38.625, 38.5, 12.285714, 12.6, 12.958333, 13.294643, 13.729592, 13.857142, 13.928572, 13.892858, 13.857142, 13.928572, 13.866072, 14, 14.125, 14.0625, 14, 14, 14, 14, 14.0625, 14, 14, 14.321428, 14.392858, 14.341836, 14.72619, 15.047619, 14.841836, 14.913264, 14.790816, 14.566327, 14.535714, 14.551021, 14.544643, 14.575893, 14.5625, 14.142858, 14.107142, 14.053572, 14.142858, 14.035714, 14.464286, 14.625, 13.904762, 13.87755, 14, 14.301021, 14.916667, 14.95238, 14.690476, 14.5, 14.107142, 14.178572, 14.214286, 14.25, 14.125, 14.089286, 13.955358, 13.642857, 13.897959, 13.785714, 13.875, 13.780612, 14.061225, 14.130952, 14.081633, 13.760203, 13.714286, 13.801021, 14.107142, 14.664115, 14.74745, 14.565476, 14.165178, 14.125, 14, 13.848214, 13.770408, 13.517857, 13.6875, 13.919643, 14, 13.8125, 13.806122, 13.542857, 13.596939, 13.62245, 13.739797, 13.142858, 13.214286, 13.214286, 13.25, 13.785714, 13.416667, 13.5, 14.041667, 13.958333, 13.875, 13.791667, 13.4375, 13.5625, -10, -10, -10, -10, -10, -10, 25, 25, 24.729166, 24.791666, 24.875, 24.973213, 25.0625, 25.25, 25.571428, 26.214287, 26.5, 26.625, 26.4375, 26.25, 26.196428, 26.5, 26.625, 26.875, 26.9375
