45.9375, 45.9375, 45.9375, 46, 46, 45.9375, 45.803574, 45.416668, 45.205357, 45.0625, 45.125, 45.098213, 45.026787, 45.0625, 44.875, 44.772324, 44.40625, 44.15625, 43.90625, 43.875, 43.875, 44, 44.3125, 44.375, 44.5625, 44.75, 44.6875, 44.75, 44.491074, 43.872025, 43.669643, 43.5625, 43.758926, 44.217262, 44.441074, 44.383926, 44.321426, 44.1875, 44.125, 44.1875, 44.15625, 44.15625, 44.09375, 43.96875, 43.9375, 43.875, 43.8125, 43.580357, 43.5, 43.4375, 43.375, 43.25, 43, 42.8125, 42.75, 42.5625, 42.4375, 42.375, 42.25, 42.25, 42.3125, 42.1875, 42.1875, 42.1875, 42.125, 42.125, 42.0625, 42.0625, 42, 42.026787, 42.0625, 41.883926, 41.4375, 41.235119, 41.208332, 41.145832, 41.112499, 41.241074, 41.303574, 41.4375, 41.5, 41.5625, 41.5625, 41.5, 41.5, 41.46875, 41.59375, 41.71875, 41.65625, 41.5, 41.3125, 41.25, 41.160713, 41.017857, 40.955357, 40.875, 40.9375, 41, 41, 40.875, 40.5625, 40.401787, 40.25, 40.1875, 40.3125, 40.3125, 40.375, 40.375, 40.3125, 40.1875, 40.0625, 40, 39.875, 39.901787, 39.910713, 39.8125, 39.875, 39.8125, 39.8125, 39.8125, 39.6875, 39.5, 39.3125, 39.25, 39.1875, 39.125, 39.1875, 39.125, 39.1875, 39.25, 39.25, 39.3125, 39.25, 39.0625, 38.660713, 38.375, 38.25, 38.1875, 38.1875, 38.3125, 38.375, 38.410713, 38.366074, 38.294643, 38.1875, 38.25, 38.241074, 38.0625, 38.0625, 37.9375, 38.125, 38.125, 38.125, 38.125, 37.875, 37.6875, 37.5, 37.3125, 37.3125, 37.375, 37.4375, 37.375, 37.375, 37.375, 37.25, 37.25, 37.125, 37.0625, 37.125, 37.044643, 36.791668, 36.758926, 36.875, 37.0625, 37.1875, 37.1875, 37, 36.8125, 36.8125, 36.875, 36.848213, 36.875, 36.75, 36.4375, 36.3125, 36.3125, 36.375, 36.270832, 35.860123, 35.696426, 35.607143, 35.875, 36, 36.0625, 36.0625, 35.955357, 35.848213, 35.776787, 36, 36.1875, 36.330357, 36.059525, 35.767857, 35.625, 35.517857, 35.5, 35.4375, 35.25, 35.125, 35, 35, 35, 35, 35.125, 35.125, 35.125, 35.125, 34.9375, 34.8125, 34.75, 34.5, 34.3125, 34.1875, 34, 33.9375, 34.026787, 34.223213, 34.25, 34.3125, 34.1875, 34.0625, 34.0625, 34.125, 34.125, 34.125, 34, 33.839287, 33.910713, 33.8125, 33.75, 33.5625, 33.3125, 33.125, 33, 33, 33.0625, 33.0625, 33.125, 33.25, 33.25, 33.25, 33.1875, 33.0625, 33, 33, 33, 32.9375, 32.8125, 32.6875, 32.625, 32.625, 32.6875, 32.75, 32.6875, 32.625, 32.4375, 32.25, 32.125, 32.0625, 32.1875, 32.25, 32.3125, 32.25, 32.125, 32.0625, 32, 32, 32, 32, 32, 32, 32, 32, 31.9375, 31.9375, 31.9375, 32, 32.3125, 32.5625, 32.8125, 33, 33, 33.125, 33.339287, 33.669643, 33.928574, 34, 34.125, 34.375, 34.625, 34.9375, 35.125, 35.25, 35.375, 35.5, 35.6875, 35.8125, 36.125, 36.4375, 36.6875, 36.9375, 37.0625, 37.25, 37.5, 37.75, 37.9375, 38.09375, 38.1875, 38.4375, 38.6875, 38.84375, 39.0625, 39.3125, 39.5625, 39.8125, 40, -10, -10, -10, -10, -10, -10, -10, -10, -10, -10, -10, -10, -10, -10, -10, -10, -10, -10, -10, -10, -10, -10, -10, -10, -10, -10, -10, -10, -10, -10, -10, -10, 46.625, 46.499996, 46.4375, 46.276787, 46.419643, 46.419643, 46.375, 46.25, 46.125, 46.3125, 46.375, 46.4375, 46.625, 46.732143, 46.669643, 46.625, 46.366074, 46, 46, 45.9375, 46, 46, 46, 46, 45.866074, 45.541668, 45.330357, 45.125, 45.125, 45.0625, 45.0625, 45.0625, 44.9375, 44.709824, 44.34375, 44.09375, 43.84375, 43.875, 43.875, 43.9375, 44.1875, 44.25, 44.4375, 44.6875, 44.625, 44.625, 44.375, 43.955357, 43.776787, 43.6875, 43.821426, 44.217262, 44.441074, 44.383926, 44.321426, 44.1875, 44.125, 44.1875, 44.15625, 44.15625, 44.09375, 43.96875, 43.9375, 43.9375, 44, 43.9375, 43.875, 43.8125, 43.625, 43.375, 43.089287, 42.9375, 42.910713, 42.75, 42.5625, 42.375, 42.25, 42.1875, 42.25, 42.1875, 42.125, 42.125, 42.0625, 42.125, 42.125, 42.125, 42.0625, 41.964287, 41.875, 41.633926, 41.125, 40.922619, 40.958332, 40.895832, 40.862499, 41.053574, 41.089287, 41.151787, 41.3125, 41.419643, 41.5, 41.5, 41.5, 41.46875, 41.53125, 41.53125, 41.46875, 41.3125, 41.1875, 41.1875, 41.125, 41.125, 41.0625, 41, 41, 40.9375, 40.875, 40.75, 40.5, 40.5, 40.4375, 40.4375, 40.5625, 40.5625, 40.5625, 40.5, 40.375, 40.1875, 40.0625, 40, 39.875, 39.839287, 39.785713, 39.75, 39.875, 39.875, 40, 40, 39.75, 39.5, 39.25, 39.0625, 39.0625, 39.0625, 39.125, 39.0625, 39.125, 39.1875, 39.169643, 39.104168, 39.104168, 39.0625, 38.660713, 38.392857, 38.1875, 38.125, 38.125, 38.3125, 38.4375, 38.535713, 38.491074, 38.294643, 38.151787, 38.1875, 38.178574, 38.0625, 38.0625, 37.9375, 38.125, 38.125, 38.125, 38.125, 37.875, 37.625, 37.375, 37.125, 37.125, 37.25, 37.375, 37.375, 37.4375, 37.5, 37.375, 37.375, 37.1875, 37, 36.9375, 36.8125, 36.6875, 36.75, 36.9375, 37.125, 37.25, 37.1875, 37.0625, 36.9375, 36.9375, 36.9375, 36.75, 36.6875, 36.5, 36.25, 36.1875, 36.125, 36.1875, 36.020832, 35.547623, 35.571426, 35.607143, 35.9375, 36.125, 36.125, 36.0625, 35.955357, 35.9375, 36, 36.25, 36.4375, 36.392857, 35.997025, 35.642857, 35.5625, 35.625, 35.625, 35.5625, 35.3125, 35.125, 35, 35, 35, 35, 35.0625, 35.0625, 35.0625, 35.0625, 34.9375, 34.8125, 34.8125, 34.625, 34.4375, 34.3125, 34.0625, 34.0625, 34.125, 34.25, 34.3125, 34.25, 34.1875, 34.0625, 34.0625, 34.125, 34.125, 34.125, 34.0625, 33.875, 33.8125, 33.6875, 33.5, 33.375, 33.1875, 33.0625, 33, 33, 33.0625, 33.0625, 33.1875, 33.3125, 33.3125, 33.3125, 33.1875, 33.0625, 33, 33, 33, 33, 32.8125, 32.625, 32.5, 32.4375, 32.5625, 32.625, 32.5625, 32.4375, 32.25, 32.125, 32.0625, 32.125, 32.3125, 32.4375, 32.5625, 32.4375, 32.25, 32.125, 32, 32, 32, 32, 32, 32, 32, 32, 32, 32, 32, 32.0625, 32.25, 32.4375, 32.6875, 32.875, 32.9375, 33.125, 33.339287, 33.669643, 33.928574, 34, 34.1875, 34.4375, 34.6875, 35, 35.125, 35.1875, 35.25, 35.3125, 35.5, 35.75, 36.169643, 36.5, 36.75, 36.9375, 37.0625, 37.25, 37.5, 37.75, 37.9375, 38.03125, 38.125, 38.375, 38.625, 38.90625, 39.1875, 39.4375, 39.6875, 39.875, 40, -10, -10, -10
45.9375, 45.973213, 46.0625, 46.0625, 46, 45.9375, 45.875, 45.8125, 45.625, 45.5, 45.3125, 45.125, 45.0625, 45, 44.875, 44.65625, 44.40625, 44.15625, 44.03125, 44, 44, 44, 44.125, 44.125, 44.1875, 44.375, 44.3125, 44.3125, 44.25, 44.017857, 44, 44, 44, 44.154762, 44.378574, 44.196426, 44.196426, 44.0625, 44, 44.0625, 44.09375, 44.03125, 43.90625, 43.78125, 43.75, 43.8125, 43.9375, 43.9375, 43.9375, 43.875, 43.6875, 43.375, 42.982143, 42.875, 42.785713, 42.6875, 42.4375, 42.25, 42.1875, 42.196426, 42.3125, 42.25, 42.125, 42.09375, 42, 42.0625, 42.125, 42.125, 42.0625, 41.839287, 41.625, 41.455357, 41.325001, 41.035713, 40.946426, 40.8125, 40.8125, 40.875, 40.848213, 40.839287, 41, 41.169643, 41.375, 41.375, 41.375, 41.21875, 41.15625, 41.09375, 41.03125, 41, 40.9375, 41.0625, 41.125, 41.125, 41.125, 41.0625, 40.9375, 40.875, 40.732143, 40.526787, 40.4375, 40.616074, 40.723213, 40.75, 40.875, 40.8125, 40.8125, 40.75, 40.5625, 40.3125, 40.125, 40, 39.8125, 39.714287, 39.660713, 39.625, 39.8125, 39.875, 40.0625, 40.125, 39.883926, 39.458332, 39.1875, 38.9375, 39, 39.0625, 39.1875, 39.25, 39.375, 39.375, 39.294643, 39.166668, 39.104168, 39.0625, 38.660713, 38.392857, 38.125, 38, 38, 38.1875, 38.3125, 38.5, 38.491074, 38.125, 38.089287, 38.0625, 38.116074, 38.0625, 38.0625, 37.9375, 38.125, 38.1875, 38.1875, 38.1875, 38, 37.75, 37.5625, 37.375, 37.3125, 37.375, 37.5, 37.5, 37.5625, 37.625, 37.4375, 37.375, 37.1875, 37, 36.875, 36.8125, 36.6875, 36.6875, 36.90625, 37.03125, 37.15625, 37.15625, 37.0625, 36.875, 36.875, 36.875, 36.625, 36.5625, 36.375, 36.125, 36.125, 36.125, 36.1875, 36.083332, 35.645836, 35.633926, 35.669643, 35.875, 36, 36, 36, 36.017857, 36.125, 36.25, 36.4375, 36.5625, 36.535713, 36.330357, 36.071426, 35.928574, 35.8125, 35.8125, 35.625, 35.4375, 35.1875, 35.0625, 35.035713, 34.964287, 35, 34.9375, 35, 35, 35, 35, 34.9375, 34.9375, 34.8125, 34.5625, 34.375, 34.125, 34.0625, 34.125, 34.25, 34.3125, 34.25, 34.1875, 34.0625, 34.0625, 34.125, 34.125, 34.125, 34.0625, 33.9375, 33.8125, 33.625, 33.375, 33.1875, 33.0625, 33, 33, 33, 33.0625, 33.125, 33.25, 33.375, 33.375, 33.375, 33.25, 33.125, 33.0625, 33, 33, 33, 32.75, 32.5625, 32.4375, 32.375, 32.5625, 32.5625, 32.5, 32.375, 32.25, 32.1875, 32.125, 32.25, 32.4375, 32.5625, 32.6875, 32.5, 32.25, 32.125, 32, 32, 32, 32, 32, 32, 32, 32, 32, 32, 32, 32, 32.125, 32.25, 32.5, 32.75, 32.875, 33.125, 33.339287, 33.669643, 33.928574, 34.0625, 34.3125, 34.5625, 34.8125, 35, 35, 35.0625, 35.125, 35.25, 35.5, 35.75, 36.232143, 36.5625, 36.8125, 37, 37.0625, 37.3125, 37.5625, 37.8125, 38, 38, 38.125, 38.375, 38.625, 39, 39.3125, 39.5625, 39.8125, 39.9375, 40, -10, -10, -10, -10, -10, -10, -10, -10, -10, -10, -10, -10, -10, -10, -10, -10, -10, -10, -10, -10, -10, -10, -10, -10, -10, -10, -10, -10, -10, -10, -10, -10, 46.5, 46.333332, 46.25, 46.151787, 46.294643, 46.294643, 46.25, 46.125, 46, 46.1875, 46.1875, 46.125, 46.25, 46.419643, 46.607143, 46.660713, 46.157738, 45.892857, 45.9375, 46.008926, 46.026787, 46.0625, 45.9375, 45.9375, 45.875, 45.8125, 45.6875, 45.5625, 45.375, 45.1875, 45.0625, 45, 44.875, 44.71875, 44.46875, 44.21875, 44.09375, 44, 44, 44, 44.0625, 44.0625, 44.125, 44.25, 44.1875, 44.1875, 44.25, 44.25, 44.3125, 44.3125, 44.142857, 44.008926, 44.137501, 44.008926, 44.071426, 44, 44, 44, 43.9375, 43.8125, 43.625, 43.5, 43.5625, 43.6875, 43.875, 43.9375, 43.9375, 43.875, 43.6875, 43.366074, 42.857143, 42.75, 42.660713, 42.6875, 42.5, 42.375, 42.375, 42.383926, 42.5, 42.4375, 42.1875, 42.15625, 42.0625, 42.125, 42.125, 42.026787, 41.9375, 41.6875, 41.53125, 41.424107, 41.418751, 41.227676, 41.196426, 41.0625, 41.0625, 41.125, 41.098213, 41.026787, 41.0625, 41.232143, 41.375, 41.375, 41.375, 41.1875, 41.0625, 40.875, 40.8125, 40.8125, 40.75, 41, 41.0625, 41.0625, 41.125, 41.0625, 40.875, 40.8125, 40.669643, 40.401787, 40.4375, 40.616074, 40.848213, 41, 41.125, 41.0625, 40.9375, 40.8125, 40.6875, 40.473213, 40.205357, 40.071426, 39.875, 39.714287, 39.723213, 39.625, 39.6875, 39.8125, 39.9375, 40.125, 40.071426, 39.708332, 39.5, 39.1875, 39.125, 39.125, 39.125, 39.25, 39.375, 39.375, 39.357143, 39.104168, 39.041668, 39.0625, 38.767857, 38.517857, 38.25, 38.0625, 38, 38.125, 38.1875, 38.3125, 38.303574, 37.9375, 37.901787, 37.875, 37.9375, 38.0625, 38.0625, 38, 38.0625, 38.1875, 38.25, 38.3125, 38.3125, 38.0625, 37.875, 37.625, 37.166668, 37.205357, 37.3125, 37.4375, 37.625, 37.6875, 37.5, 37.375, 37.1875, 37, 36.875, 36.8125, 36.75, 36.75, 36.96875, 37.03125, 37.09375, 37.09375, 37, 36.9375, 36.9375, 36.9375, 36.6875, 36.5625, 36.375, 36.1875, 36.178574, 36, 36.0625, 35.910713, 35.666668, 35.696426, 35.732143, 35.875, 35.9375, 35.875, 35.875, 36, 36.1875, 36.375, 36.625, 36.6875, 36.6875, 36.6875, 36.4375, 36.178574, 35.901787, 35.8125, 35.5625, 35.4375, 35.25, 35.1875, 35.160713, 35.089287, 35.125, 35, 35.0625, 35.125, 35.125, 35.125, 35.0625, 34.964287, 34.875, 34.625, 34.4375, 34.1875, 34.0625, 34.1875, 34.3125, 34.4375, 34.4375, 34.3125, 34.1875, 34.125, 34.125, 34.125, 34.125, 34.0625, 34, 33.875, 33.625, 33.375, 33.125, 33, 33, 33, 33, 33.0625, 33.1875, 33.375, 33.4375, 33.4375, 33.375, 33.1875, 33.125, 33.0625, 33, 33, 33, 32.75, 32.625, 32.5, 32.4375, 32.625, 32.5625, 32.5625, 32.5, 32.4375, 32.375, 32.25, 32.25, 32.3125, 32.5, 32.625, 32.5, 32.3125, 32.125, 32, 32, 32, 32, 32, 32, 32, 32, 32, 32, 32, 32, 32.0625, 32.125, 32.375, 32.625, 32.8125, 33.25, 33.5, 33.75, 34, 34.0625, 34.3125, 34.5625, 34.8125, 35, 35, 35.0625, 35.1875, 35.3125, 35.5625, 35.8125, 36.232143, 36.5625, 36.8125, 37, 37.0625, 37.25, 37.5, 37.75, 37.9375, 38, 38.1875, 38.4375, 38.6875, 39.0625, 39.375, 39.625, 39.875, 40, 40, -10, -10, -10
45.875, 45.883926, 45.776787, 45.6875, 45.580357, 45.770832, 45.803574, 45.8125, 45.75, 45.6875, 45.5, 45.3125, 45.1875, 45.0625, 45, 44.875, 44.6875, 44.5, 44.3125, 44.142857, 44.0625, 44, 44, 44, 44.0625, 44.125, 44.125, 44.125, 44.25, 44.375, 44.5, 44.5, 44.267857, 44, 43.9375, 43.9375, 44, 44, 44, 44, 43.875, 43.6875, 43.4375, 43.25, 43.375, 43.5625, 43.8125, 44, 44, 43.9375, 43.75, 43.366074, 42.857143, 42.75, 42.660713, 42.75, 42.625, 42.5625, 42.625, 42.607143, 42.589287, 42.5625, 42.25, 42.21875, 42.1875, 42.160713, 42.089287, 42.026787, 41.875, 41.6875, 41.522324, 41.299107, 41.418751, 41.263393, 41.258926, 41.1875, 41.1875, 41.3125, 41.348213, 41.214287, 41.1875, 41.294643, 41.375, 41.4375, 41.4375, 41.25, 41.125, 40.875, 40.8125, 40.8125, 40.75, 41, 41.0625, 41.0625, 41.125, 41.0625, 40.875, 40.8125, 40.607143, 40.276787, 40.375, 40.553574, 40.848213, 41.0625, 41.125, 41.0625, 40.9375, 40.875, 40.75, 40.598213, 40.330357, 40.133926, 40, 39.678574, 39.4375, 39.375, 39.375, 39.6875, 39.875, 40.125, 40.133926, 39.833332, 39.6875, 39.4375, 39.3125, 39.25, 39.1875, 39.25, 39.375, 39.375, 39.294643, 38.916668, 38.854168, 38.9375, 38.8125, 38.642857, 38.375, 38.125, 38.0625, 38.1875, 38.1875, 38.25, 38.1875, 37.9375, 37.901787, 37.875, 37.875, 38, 38, 38, 38.0625, 38.25, 38.3125, 38.375, 38.375, 38.125, 38.0625, 37.875, 37.354168, 37.223213, 37.125, 37.1875, 37.5, 37.732143, 37.625, 37.5, 37.25, 36.9375, 36.8125, 36.8125, 36.857143, 36.9375, 37.09375, 37.09375, 37.09375, 37.03125, 37, 36.9375, 36.9375, 36.875, 36.6875, 36.625, 36.5, 36.375, 36.303574, 36.0625, 36, 35.910713, 35.8125, 35.8125, 35.8125, 35.875, 36, 35.875, 35.8125, 35.875, 36, 36.25, 36.5, 36.6875, 36.75, 36.75, 36.625, 36.303574, 35.964287, 35.8125, 35.5, 35.375, 35.25, 35.3125, 35.348213, 35.339287, 35.3125, 35.125, 35.125, 35.1875, 35.1875, 35.1875, 35.125, 34.964287, 34.9375, 34.75, 34.625, 34.4375, 34.3125, 34.4375, 34.5, 34.5625, 34.5, 34.3125, 34.1875, 34.0625, 34, 34, 34, 34, 34, 33.875, 33.625, 33.375, 33.1875, 33.0625, 33.0625, 33.0625, 33, 33.0625, 33.1875, 33.3125, 33.3125, 33.3125, 33.25, 33.125, 33.125, 33.0625, 33, 33, 33, 32.8125, 32.75, 32.6875, 32.6875, 32.8125, 32.6875, 32.6875, 32.625, 32.5625, 32.5625, 32.4375, 32.4375, 32.5, 32.5625, 32.5625, 32.375, 32.25, 32.1875, 32.125, 32.125, 32.0625, 32, 32, 32, 32, 32, 32, 32, 32.0625, 32.125, 32.1875, 32.25, 32.4375, 32.625, 32.8125, 33.25, 33.5, 33.75, 34.0625, 34.1875, 34.4375, 34.6875, 34.875, 35, 35, 35.0625, 35.25, 35.4375, 35.6875, 35.9375, 36.294643, 36.5625, 36.8125, 37, 37, 37.125, 37.375, 37.625, 37.875, 38, 38.1875, 38.4375, 38.6875, 39.0625, 39.375, 39.625, 39.875, 40, 40, -10, -10, -10, -10, -10, -10, -10, -10, -10, -10, -10, -10, -10, -10, -10, -10, -10, -10, -10, -10, -10, -10, -10, -10, -10, -10, -10, -10, -10, -10, -10, 46, 46.25, 46.166668, 46.125, 46.125, 46.0625, 46.0625, 46.0625, 46, 45.9375, 46, 46, 45.9375, 46, 46.0625, 46.25, 46.285713, 45.979168, 45.955357, 45.875, 45.883926, 45.651787, 45.580357, 45.663689, 45.877975, 45.991074, 46, 45.875, 45.875, 45.625, 45.4375, 45.375, 45.1875, 45.125, 45.0625, 44.875, 44.75, 44.5625, 44.267857, 44.0625, 43.875, 43.875, 43.875, 43.9375, 44, 43.9375, 43.9375, 44.125, 44.232143, 44.25, 44.3125, 44.125, 44, 44, 44, 44.0625, 44, 44, 44, 43.875, 43.625, 43.375, 43.1875, 43.3125, 43.5625, 43.75, 43.9375, 43.875, 43.75, 43.625, 43.303574, 42.892857, 42.75, 42.625, 42.6875, 42.6875, 42.75, 42.875, 42.85714, 42.776787, 42.75, 42.4375, 42.40625, 42.3125, 42.160713, 42.026787, 41.964287, 41.8125, 41.6875, 41.522324, 41.361607, 41.512501, 41.357143, 41.352676, 41.28125, 41.3125, 41.4375, 41.5, 41.375, 41.1875, 41.1875, 41.1875, 41.25, 41.3125, 41.1875, 41.125, 40.9375, 40.875, 40.8125, 40.75, 40.9375, 41.0625, 41.098213, 41.089287, 41.0625, 40.8125, 40.875, 40.669643, 40.339287, 40.4375, 40.553574, 40.848213, 41.125, 41.1875, 41.125, 41, 40.875, 40.75, 40.598213, 40.330357, 40.133926, 40, 39.741074, 39.5625, 39.5, 39.5, 39.75, 39.875, 40.0625, 40.160713, 39.994049, 39.875, 39.6875, 39.4375, 39.3125, 39.25, 39.375, 39.4375, 39.375, 39.25, 39, 38.875, 38.875, 38.8125, 38.625, 38.4375, 38.1875, 38.0625, 38.125, 38.125, 38.125, 38.0625, 37.9375, 37.9375, 37.9375, 37.9375, 38, 38, 38, 38.125, 38.375, 38.4375, 38.5, 38.4375, 38.125, 38.125, 38.0625, 37.639881, 37.473213, 37.25, 37.0625, 37.25, 37.419643, 37.4375, 37.3125, 37.125, 36.8125, 36.75, 36.8125, 36.982143, 37.125, 37.15625, 37.09375, 37.03125, 36.96875, 37, 36.9375, 36.9375, 36.875, 36.75, 36.75, 36.6875, 36.625, 36.553574, 36.3125, 36.25, 36.160713, 36.0625, 36, 35.9375, 35.9375, 36.0625, 36, 35.919643, 35.729168, 35.696426, 35.875, 36.125, 36.375, 36.5625, 36.625, 36.5625, 36.303574, 35.901787, 35.8125, 35.5, 35.375, 35.375, 35.4375, 35.473213, 35.464287, 35.375, 35.125, 35.125, 35.1875, 35.1875, 35.1875, 35.125, 34.964287, 34.9375, 34.8125, 34.6875, 34.5, 34.3125, 34.4375, 34.5625, 34.625, 34.625, 34.375, 34.1875, 34.0625, 34.0625, 34.125, 34.1875, 34.178574, 34, 34, 33.857143, 33.75, 33.616074, 33.229168, 33.133926, 33.0625, 33, 33.0625, 33.1875, 33.25, 33.25, 33.25, 33.25, 33.1875, 33.1875, 33.125, 33, 33, 33, 32.875, 32.875, 32.875, 32.875, 32.9375, 32.8125, 32.8125, 32.8125, 32.75, 32.75, 32.5625, 32.4375, 32.4375, 32.375, 32.3125, 32.25, 32.25, 32.25, 32.25, 32.1875, 32.0625, 32, 32, 32, 32, 32, 32, 32, 32.125, 32.25, 32.3125, 32.4375, 32.5625, 32.6875, 32.875, 33.25, 33.5, 33.75, 34.0625, 34.25, 34.5, 34.75, 34.9375, 35, 35.0625, 35.1875, 35.4375, 35.6875, 35.875, 36, 36.25, 36.5, 36.75, 37.0625, 37.125, 37.25, 37.5, 37.6875, 37.875, 38, 38.125, 38.3125, 38.5625, 38.875, 39.1875, 39.4375, 39.6875, 39.875, 39.916668, -10, -10, -10
45.9375, 45.848213, 45.589287, 45.517857, 45.601189, 45.815475, 45.866074, 45.8125, 45.6875, 45.625, 45.4375, 45.375, 45.4375, 45.3125, 45.3125, 45.25, 45.0625, 45, 44.8125, 44.517857, 44.25, 44.0625, 43.982143, 43.839287, 43.9375, 43.875, 43.8125, 43.75, 43.8125, 43.857143, 43.875, 43.9375, 43.88393, 44, 44, 44.0625, 44.0625, 44, 44, 44, 43.875, 43.6875, 43.5625, 43.4375, 43.5625, 43.6875, 43.6875, 43.8125, 43.6875, 43.625, 43.5625, 43.303574, 43.0625, 42.9375, 42.875, 43, 43.125, 43.25, 43.3125, 43.160713, 42.964287, 42.875, 42.625, 42.5625, 42.4375, 42.223213, 42.026787, 41.964287, 41.8125, 41.6875, 41.522324, 41.28125, 41.25, 41.223213, 41.28125, 41.388393, 41.4375, 41.5625, 41.625, 41.4375, 41.25, 41.1875, 41.0625, 41.125, 41.125, 41.0625, 41.0625, 41, 41, 41, 41, 41, 41.0625, 41.035713, 40.964287, 41, 40.875, 40.9375, 40.75, 40.5, 40.4375, 40.446426, 40.8125, 41.125, 41.3125, 41.28125, 41.1875, 41, 40.8125, 40.629463, 40.330357, 40.133926, 40.0625, 39.866074, 39.6875, 39.625, 39.5625, 39.75, 39.875, 40.0625, 40.276787, 40.348213, 40.25, 40.0625, 39.625, 39.375, 39.1875, 39.1875, 39.25, 39.3125, 39.25, 39.0625, 38.9375, 38.8125, 38.8125, 38.625, 38.5, 38.375, 38.169643, 38.125, 38.125, 38.0625, 38.0625, 38, 38, 38, 38, 38, 38, 38, 38.125, 38.3125, 38.375, 38.4375, 38.3125, 38, 38, 37.9375, 37.639881, 37.598213, 37.3125, 37.0625, 37.0625, 37.107143, 37.1875, 37.125, 37, 36.6875, 36.6875, 36.6875, 36.982143, 37.1875, 37.125, 37.125, 37, 36.875, 36.9375, 36.9375, 36.9375, 36.9375, 36.875, 36.875, 36.875, 36.875, 36.803574, 36.5, 36.375, 36.223213, 36.0625, 36, 35.9375, 35.9375, 36.0625, 36, 35.794643, 35.479168, 35.383926, 35.5, 35.8125, 36.0625, 36.25, 36.3125, 36.1875, 36.089287, 35.901787, 35.633926, 35.517857, 35.375, 35.5, 35.553574, 35.354168, 35.321426, 35.1875, 35.0625, 35.0625, 35.1875, 35.1875, 35.1875, 35.125, 34.964287, 34.9375, 34.875, 34.8125, 34.625, 34.4375, 34.375, 34.464287, 34.598213, 34.5625, 34.4375, 34.1875, 34.0625, 34.0625, 34.125, 34.1875, 34.178574, 34, 34.0625, 33.982143, 33.875, 33.741074, 33.291668, 33.196426, 33.125, 33.125, 33.1875, 33.1875, 33.25, 33.1875, 33.1875, 33.1875, 33.125, 33.125, 33.0625, 33, 33, 33, 32.9375, 32.9375, 32.9375, 32.9375, 32.9375, 32.875, 32.875, 32.875, 32.75, 32.6875, 32.5, 32.3125, 32.3125, 32.25, 32.1875, 32.1875, 32.3125, 32.3125, 32.3125, 32.25, 32.0625, 32, 32, 32, 32, 32, 32, 32, 32.125, 32.25, 32.375, 32.5625, 32.6875, 32.8125, 32.9375, 33.25, 33.4375, 33.625, 33.9375, 34.0625, 34.375, 34.6875, 34.875, 35, 35.125, 35.25, 35.4375, 35.6875, 35.8125, 35.9375, 36.25, 36.5, 36.75, 37.0625, 37.1875, 37.3125, 37.5625, 37.75, 37.875, 38, 38.0625, 38.25, 38.5, 38.75, 39.0625, 39.25, 39.5, 39.75, 39.833336, -10, -10, -10, -10, -10, -10, -10, -10, -10, -10, -10, -10, -10, -10, -10, -10, -10, -10, -10, -10, -10, -10, -10, -10, -10, -10, -10, -10, -10, -10, -10, -10, 46, 46, 46, 46.0625, 46.0625, 46.0625, 46.0625, 45.9375, 45.8125, 45.8125, 45.8125, 45.75, 45.580357, 45.508926, 45.5625, 45.75, 45.875, 45.9375, 45.875, 45.75, 45.625, 45.517857, 45.663689, 45.752975, 45.741074, 45.625, 45.4375, 45.4375, 45.3125, 45.3125, 45.4375, 45.3125, 45.375, 45.3125, 45.1875, 45.1875, 45, 44.767857, 44.4375, 44.1875, 44.044643, 43.839287, 43.9375, 43.875, 43.8125, 43.75, 43.75, 43.669643, 43.6875, 43.8125, 43.857143, 44.0625, 44.0625, 44.0625, 44.0625, 43.9375, 43.9375, 43.9375, 43.875, 43.8125, 43.75, 43.6875, 43.6875, 43.75, 43.6875, 43.75, 43.625, 43.5, 43.375, 43.125, 43.0625, 43, 43, 43.125, 43.3125, 43.375, 43.4375, 43.223213, 42.964287, 42.9375, 42.75, 42.625, 42.4375, 42.160713, 41.964287, 42, 41.9375, 41.8125, 41.553574, 41.25, 41.09375, 41.066963, 41.15625, 41.325893, 41.375, 41.5, 41.5, 41.3125, 41.1875, 41.0625, 41, 41.0625, 41.0625, 41.0625, 41.0625, 41.0625, 41.0625, 41.0625, 41.125, 41.0625, 41.125, 41.098213, 40.964287, 41, 40.9375, 41, 40.8125, 40.625, 40.5625, 40.633926, 41, 41.25, 41.40625, 41.34375, 41.3125, 41.125, 40.84375, 40.65625, 40.4375, 40.3125, 40.25, 40.053574, 39.8125, 39.75, 39.6875, 39.75, 39.892857, 40.0625, 40.214287, 40.348213, 40.1875, 40.125, 39.75, 39.5625, 39.375, 39.25, 39.25, 39.3125, 39.223213, 39.026787, 39, 38.919643, 38.919643, 38.604168, 38.517857, 38.4375, 38.294643, 38.25, 38.1875, 38.0625, 38.0625, 38, 38, 38, 38, 38, 38, 38, 38.125, 38.25, 38.25, 38.25, 38.0625, 37.8125, 37.875, 37.9375, 37.973213, 37.955357, 37.625, 37.1875, 37, 36.919643, 37, 37, 37, 36.723213, 36.580357, 36.508926, 36.669643, 36.8125, 36.6875, 36.75, 36.6875, 36.625, 36.8125, 36.8125, 36.875, 36.9375, 36.9375, 36.9375, 36.9375, 36.9375, 36.875, 36.6875, 36.4375, 36.25, 36, 36, 36, 35.9375, 36.026787, 36, 35.857143, 35.604168, 35.508926, 35.5625, 35.75, 36, 36.098213, 36.026787, 36, 36.026787, 36, 35.758926, 35.705357, 35.5, 35.625, 35.607143, 35.145836, 35.017857, 34.875, 34.875, 34.9375, 35.125, 35.1875, 35.1875, 35.1875, 35.0625, 35, 35, 34.9375, 34.8125, 34.625, 34.4375, 34.464287, 34.473213, 34.4375, 34.375, 34.0625, 33.964287, 34, 34.0625, 34.1875, 34.178574, 34, 34.0625, 34.044643, 33.9375, 33.803574, 33.354168, 33.196426, 33.1875, 33.1875, 33.1875, 33.125, 33.0625, 33, 33.0625, 33.125, 33.125, 33.125, 33.0625, 33, 33, 33, 33, 33, 33, 33, 33, 33, 33, 33, 32.8125, 32.75, 32.5625, 32.375, 32.375, 32.1875, 32.125, 32.125, 32.25, 32.3125, 32.3125, 32.25, 32.0625, 32, 32, 32, 32, 32, 32, 32, 32.125, 32.3125, 32.4375, 32.6875, 32.8125, 32.875, 33, 33.25, 33.4375, 33.625, 33.9375, 34.0625, 34.375, 34.6875, 34.875, 35, 35.1875, 35.375, 35.5625, 35.875, 36, 36.125, 36.4375, 36.625, 36.8125, 37.0625, 37.1875, 37.375, 37.625, 37.8125, 37.9375, 38, 38, 38.1875, 38.4375, 38.6875, 39.0625, 39.25, 39.5, 39.75, 39.833336, -10, -10, -10
46.0625, 46, 45.9375, 45.892857, 45.949402, 45.586311, 45.455357, 45.25, 45.125, 45.25, 45.1875, 45.25, 45.375, 45.25, 45.25, 45.1875, 45.0625, 45.0625, 45, 44.8125, 44.5, 44.25, 44.044643, 43.839287, 43.9375, 43.9375, 43.9375, 43.9375, 43.875, 43.607143, 43.392857, 43.4375, 43.482143, 43.8125, 43.9375, 44, 44.0625, 43.875, 43.8125, 43.75, 43.75, 43.8125, 43.8125, 43.875, 43.8125, 43.8125, 43.75, 43.75, 43.5625, 43.4375, 43.3125, 43.0625, 43, 42.9375, 42.9375, 43.0625, 43.3125, 43.375, 43.375, 43.1875, 43, 42.9375, 42.875, 42.678574, 42.3125, 42.125, 41.9375, 42, 42, 41.8125, 41.6875, 41.535713, 41.174107, 41.102676, 41.09375, 41.200893, 41.25, 41.3125, 41.25, 41.125, 41.0625, 41, 41, 41, 41.0625, 41.0625, 41.0625, 41.125, 41.0625, 41.0625, 41.1875, 41.098213, 41.017857, 40.99107, 40.839287, 40.9375, 40.9375, 41, 40.875, 40.8125, 40.875, 41.044643, 41.375, 41.5625, 41.625, 41.5, 41.34375, 41.09375, 40.84375, 40.59375, 40.4375, 40.3125, 40.25, 40.25, 40.1875, 40.125, 40.0625, 39.9375, 40.017857, 40.125, 40.214287, 40.348213, 40.1875, 40.125, 39.8125, 39.6875, 39.5, 39.375, 39.3125, 39.3125, 39.223213, 39.151787, 39.1875, 39.089287, 39.032143, 38.773811, 38.642857, 38.6875, 38.419643, 38.25, 38.125, 37.9375, 38, 38, 38, 38, 38, 38, 38, 38, 38.0625, 38.125, 38.125, 38.125, 38, 37.8125, 37.8125, 37.875, 38.035713, 38.098213, 37.767857, 37.321426, 37, 36.8125, 36.875, 36.9375, 37.0625, 36.973213, 36.830357, 36.571426, 36.526787, 36.5625, 36.4375, 36.625, 36.625, 36.625, 36.875, 36.848213, 36.767857, 36.892857, 36.875, 36.9375, 37, 37, 37, 36.8125, 36.5625, 36.3125, 36.0625, 36.125, 36.125, 36.0625, 36.089287, 36.0625, 35.982143, 35.791668, 35.633926, 35.625, 35.75, 35.875, 35.973213, 35.901787, 35.875, 35.964287, 36, 35.758926, 35.705357, 35.5, 35.5625, 35.482143, 34.895836, 34.705357, 34.5625, 34.5625, 34.75, 34.9375, 35.0625, 35.125, 35.125, 35, 34.9375, 34.9375, 34.875, 34.8125, 34.625, 34.375, 34.401787, 34.410713, 34.357143, 34.25, 34, 33.901787, 34.0625, 34.1875, 34.3125, 34.303574, 34.0625, 34.0625, 34.107143, 34.0625, 33.928574, 33.479168, 33.258926, 33.125, 33.151787, 33.294643, 33.303574, 33.25, 33.125, 33.0625, 33.0625, 33.0625, 33.0625, 33.0625, 33, 33, 33, 33, 33, 33, 33, 33, 33, 33, 33, 32.875, 32.8125, 32.5625, 32.3125, 32.1875, 32, 32, 32.0625, 32.1875, 32.1875, 32.1875, 32.125, 32, 32, 32, 32, 32, 32, 32, 32, 32.0625, 32.1875, 32.25, 32.5, 32.6875, 32.8125, 33, 33.25, 33.4375, 33.625, 33.875, 33.9375, 34.1875, 34.5, 34.75, 34.9375, 35.1875, 35.4375, 35.625, 35.9375, 36.0625, 36.125, 36.40625, 36.59375, 36.78125, 37.03125, 37.25, 37.5, 37.75, 37.9375, 38, 38.0625, 38.0625, 38.1875, 38.375, 38.5625, 38.9375, 39.232143, 39.5, 39.75, 39.833336, -10, -10, -10, -10, -10, -10, -10, -10, -10, -10, -10, -10, -10, -10, -10, -10, -10, -10, -10, -10, -10, -10, -10, -10, -10, -10, -10, -10, -10, -10, -10, -10, 46, 46, 46, 46.125, 46.25, 46.3125, 46.3125, 46.25, 46.107143, 45.964287, 46, 45.875, 45.642857, 45.446426, 45.267857, 45.4375, 45.625, 45.919643, 46, 45.9375, 45.875, 45.75, 45.616074, 45.166668, 45.017857, 44.875, 44.875, 45.0625, 45.0625, 45.125, 45.1875, 45.125, 45.0625, 45, 44.9375, 44.9375, 44.9375, 44.8125, 44.5625, 44.375, 44.169643, 43.964287, 44, 44, 44.125, 44.1875, 44.116074, 43.75, 43.580357, 43.4375, 43.5, 43.6875, 43.8125, 43.9375, 44, 43.8125, 43.75, 43.6875, 43.6875, 43.875, 43.875, 43.875, 43.8125, 43.75, 43.75, 43.8125, 43.6875, 43.625, 43.428574, 42.979168, 42.821426, 42.75, 42.75, 42.955357, 43.285713, 43.3125, 43.375, 43.1875, 43.0625, 43, 43, 42.741074, 42.4375, 42.25, 42, 42.125, 42.0625, 41.9375, 41.875, 41.660713, 41.392857, 41.321426, 41.25, 41.25, 41.1875, 41.125, 41.125, 41.125, 41.125, 41.125, 41.0625, 41, 41.0625, 41.0625, 41.0625, 41.125, 41.0625, 41.125, 41.25, 41.098213, 40.892857, 40.830357, 40.75, 40.875, 41, 41, 40.9375, 40.875, 40.875, 41.122448, 41.357143, 41.491074, 41.5625, 41.4375, 41.28125, 41.09375, 40.84375, 40.59375, 40.4375, 40.3125, 40.3125, 40.3125, 40.25, 40.25, 40.1875, 40.125, 40.205357, 40.3125, 40.3125, 40.3125, 40.1875, 40.125, 39.9375, 39.875, 39.625, 39.375, 39.25, 39.1875, 39.160713, 39.151787, 39.3125, 39.214287, 39.157143, 38.961311, 38.767857, 38.875, 38.607143, 38.375, 38.1875, 37.9375, 38, 38, 38, 38, 38.0625, 38.0625, 38.0625, 38.0625, 38, 38, 38, 38, 37.9375, 37.875, 37.875, 37.875, 38, 38.035713, 37.705357, 37.446426, 37.1875, 37, 37, 37.125, 37.25, 37.223213, 37.080357, 36.696426, 36.526787, 36.5, 36.4375, 36.6875, 36.6875, 36.625, 36.839287, 36.848213, 36.589287, 36.785713, 36.75, 36.875, 37, 37, 37, 36.8125, 36.5625, 36.3125, 36.125, 36.25, 36.25, 36.1875, 36.089287, 35.9375, 35.875, 35.875, 35.8125, 35.8125, 35.875, 35.9375, 35.973213, 35.839287, 35.8125, 35.901787, 36, 35.758926, 35.705357, 35.5625, 35.5625, 35.482143, 34.895836, 34.642857, 34.5, 34.5625, 34.75, 34.9375, 35.0625, 35.125, 35.125, 35, 34.9375, 34.9375, 34.875, 34.875, 34.75, 34.4375, 34.464287, 34.410713, 34.232143, 34.151787, 34, 33.9375, 34.0625, 34.1875, 34.25, 34.25, 34.1875, 34.0625, 34, 33.875, 33.75, 33.625, 33.5625, 33.446426, 33.235119, 33.294643, 33.241074, 33.25, 33.125, 33.0625, 33, 33.0625, 33.0625, 33.0625, 33.0625, 33, 33, 33, 33, 33, 33, 33, 33, 33, 33, 32.9375, 32.875, 32.625, 32.375, 32.1875, 32, 32, 32, 32.0625, 32.0625, 32.0625, 32.0625, 32, 32, 32, 32, 32, 32, 32, 32, 32, 32.0625, 32.125, 32.375, 32.625, 32.8125, 33, 33.25, 33.4375, 33.625, 33.875, 33.875, 34.0625, 34.375, 34.625, 34.875, 35.125, 35.375, 35.5625, 35.875, 36.0625, 36.125, 36.34375, 36.53125, 36.71875, 36.90625, 37.125, 37.375, 37.625, 37.875, 38, 38.125, 38.125, 38.25, 38.375, 38.5, 38.9375, 39.339287, 39.625, 39.875, 39.916668, -10, -10, -10
45.75, 45.6875, 45.5625, 45.5, 45.428574, 45.041668, 44.955357, 44.875, 44.875, 45.0625, 45.0625, 45.0625, 45.0625, 45, 44.875, 44.8125, 44.8125, 44.75, 44.75, 44.625, 44.4375, 44.25, 44.125, 44.0625, 43.9375, 44.089287, 44.285713, 44.4375, 44.473213, 43.892857, 43.589283, 43.375, 43.5, 43.6875, 43.705357, 43.830357, 43.875, 43.75, 43.75, 43.6875, 43.6875, 43.875, 43.75, 43.75, 43.6875, 43.6875, 43.875, 43.9375, 43.875, 43.678574, 43.220238, 42.809525, 42.633926, 42.6875, 42.75, 42.955357, 43.223213, 43.1875, 43.25, 43.0625, 43, 42.9375, 42.875, 42.678574, 42.4375, 42.3125, 42.125, 42.1875, 42.0625, 42, 42, 41.848213, 41.642857, 41.598213, 41.5, 41.214287, 41.133926, 41, 41.0625, 41.125, 41.125, 41.1875, 41.1875, 41.125, 41.1875, 41.125, 41.0625, 41.0625, 41, 41, 41.0625, 40.973213, 40.767857, 40.767857, 40.75, 40.8125, 40.875, 40.875, 40.875, 40.9375, 41.0625, 41.020409, 41.357143, 41.428574, 41.375, 41.28125, 41.09375, 40.90625, 40.71875, 40.5, 40.375, 40.375, 40.4375, 40.4375, 40.375, 40.375, 40.3125, 40.3125, 40.392857, 40.375, 40.25, 40.1875, 40.0625, 40.0625, 40, 40, 39.741074, 39.291668, 39.008926, 38.875, 38.910713, 38.964287, 39.1875, 39.151787, 39.094643, 38.961311, 38.830357, 38.9375, 38.75, 38.625, 38.375, 38.1875, 38.1875, 38.125, 38.125, 38.0625, 38.0625, 38.0625, 38.0625, 38.0625, 38, 37.9375, 37.875, 37.8125, 37.75, 37.75, 37.8125, 37.875, 38, 38.035713, 37.767857, 37.508926, 37.3125, 37.125, 37.0625, 37.1875, 37.3125, 37.348213, 37.142857, 36.758926, 36.526787, 36.5, 36.5625, 36.8125, 36.8125, 36.75, 36.901787, 36.910713, 36.651787, 36.785713, 36.75, 36.875, 37, 37, 36.9375, 36.6875, 36.4375, 36.1875, 36.0625, 36.25, 36.25, 36.1875, 36.089287, 35.9375, 35.9375, 36, 35.9375, 35.875, 35.875, 35.9375, 35.910713, 35.776787, 35.8125, 35.75, 35.8125, 35.75, 35.625, 35.5625, 35.5625, 35.491074, 35.104168, 34.883926, 34.6875, 34.6875, 34.8125, 34.9375, 35.0625, 35.125, 35.125, 35, 34.9375, 34.9375, 34.875, 34.875, 34.75, 34.5, 34.5625, 34.4375, 34.294643, 34.151787, 34.0625, 34.0625, 34.25, 34.375, 34.375, 34.3125, 34.1875, 34.0625, 34, 33.875, 33.75, 33.625, 33.5, 33.383926, 33.110119, 33.169643, 33.178574, 33.1875, 33.1875, 33.25, 33.357143, 33.5, 33.491074, 33.229168, 33.205357, 33.1875, 33.25, 33.142857, 33.142857, 33.0625, 33.0625, 33.0625, 32.9375, 32.875, 32.875, 32.875, 32.9375, 32.75, 32.5, 32.25, 32, 32, 32, 32, 32, 32, 32, 32, 32, 32, 32, 32, 32, 32, 32, 32.0625, 32.25, 32.270832, 32.208336, 32.4375, 32.729168, 33, 33.25, 33.4375, 33.6875, 33.9375, 34, 34.125, 34.375, 34.625, 34.875, 35.125, 35.375, 35.625, 35.9375, 36.125, 36.1875, 36.28125, 36.46875, 36.65625, 36.84375, 37.125, 37.375, 37.625, 37.875, 38, 38.1875, 38.25, 38.375, 38.5, 38.5625, 38.9375, 39.401787, 39.6875, 39.9375, 40, -10, -10, -10, -10, -10, -10, -10, -10, -10, -10, -10, -10, -10, -10, -10, -10, -10, -10, -10, -10, -10, -10, -10, -10, -10, -10, -10, -10, -10, -10, -10, 46, 46.083332, 46.0625, 46.0625, 46.25, 46.3125, 46.3125, 46.3125, 46.3125, 46.294643, 46.214287, 46.25, 46.0625, 45.9375, 45.8125, 45.642857, 45.6875, 45.8125, 45.973217, 45.8125, 45.6875, 45.5, 45.4375, 45.303574, 44.979168, 44.892857, 44.8125, 44.875, 45.125, 45.125, 45.125, 45.125, 45, 44.875, 44.8125, 44.75, 44.625, 44.5625, 44.4375, 44.3125, 44.1875, 44.125, 44.0625, 43.9375, 44.026787, 44.160713, 44.330357, 44.556545, 44.038689, 43.568451, 43.258926, 43.3125, 43.4375, 43.455357, 43.580357, 43.6875, 43.6875, 43.75, 43.8125, 43.8125, 43.9375, 43.8125, 43.75, 43.75, 43.75, 43.875, 43.9375, 43.794643, 43.517857, 43.157738, 42.747025, 42.633926, 42.6875, 42.75, 42.892857, 43.098213, 43.0625, 43.0625, 42.875, 42.875, 42.8125, 42.8125, 42.741074, 42.5, 42.375, 42.1875, 42.1875, 42.0625, 42.125, 42.160713, 42, 41.955357, 41.95536, 41.857143, 41.380955, 41.276787, 41.0625, 41.125, 41.1875, 41.125, 41.1875, 41.1875, 41.125, 41.1875, 41.125, 41.0625, 41, 40.9375, 40.9375, 41, 40.973213, 40.767857, 40.767857, 40.75, 40.75, 40.75, 40.6875, 40.6875, 40.8125, 41, 41.160713, 41.276787, 41.291073, 41.397324, 41.263393, 41.09375, 40.84375, 40.625, 40.375, 40.25, 40.1875, 40.3125, 40.375, 40.375, 40.5, 40.5, 40.625, 40.6875, 40.5, 40.25, 40, 39.875, 39.875, 39.875, 39.875, 39.678574, 39.229168, 38.946426, 38.875, 38.9375, 39.0625, 39.1875, 39.107143, 39.049999, 39.107143, 39, 39.0625, 38.875, 38.75, 38.5, 38.3125, 38.25, 38.125, 38.125, 38.0625, 38.0625, 38.0625, 38.0625, 38.0625, 38, 37.875, 37.75, 37.625, 37.5625, 37.625, 37.75, 37.8125, 37.9375, 38.035713, 37.86607, 37.696426, 37.5, 37.28125, 37.21875, 37.34375, 37.40625, 37.4375, 37.25, 36.875, 36.714287, 36.6875, 36.8125, 37, 37, 36.9375, 37.026787, 37.035713, 36.714287, 36.785713, 36.75, 36.875, 37, 36.9375, 36.8125, 36.5625, 36.3125, 36.125, 36.0625, 36.1875, 36.1875, 36.1875, 36.125, 36, 36, 36, 35.9375, 35.803574, 35.541668, 35.446426, 35.4375, 35.4375, 35.5625, 35.5625, 35.5625, 35.5, 35.3125, 35.3125, 35.3125, 35.3125, 35.1875, 35.0625, 34.875, 34.8125, 34.875, 34.875, 34.9375, 35, 35, 34.875, 34.875, 34.875, 34.732143, 34.541668, 34.455357, 34.25, 34.375, 34.375, 34.169643, 34.026787, 34.0625, 34.160713, 34.4375, 34.5625, 34.5, 34.375, 34.1875, 34.0625, 34, 33.9375, 33.8125, 33.75, 33.6875, 33.446426, 33.172619, 33.107143, 33.053574, 33.125, 33.125, 33.25, 33.357143, 33.5, 33.491074, 33.229168, 33.205357, 33.1875, 33.25, 33.142857, 33.142857, 33.0625, 33.0625, 33.0625, 32.9375, 32.8125, 32.8125, 32.75, 32.75, 32.625, 32.375, 32.1875, 32, 32, 32, 32, 32, 32, 32, 32, 32, 32, 32, 32, 32, 32, 32, 32.0625, 32.1875, 32.208332, 32.145836, 32.375, 32.729168, 33, 33.1875, 33.3125, 33.5625, 33.8125, 34, 34.1875, 34.4375, 34.6875, 34.9375, 35.1875, 35.4375, 35.6875, 35.875, 36, 36, 36.09375, 36.34375, 36.59375, 36.84375, 37.125, 37.3125, 37.5625, 37.8125, 37.9375, 38.25, 38.375, 38.5, 38.625, 38.625, 38.9375, 39.401787, 39.6875, 39.9375, 40, -10, -10, -10
45.330357, 45.25, 45.294643, 45.375, 45.303574, 44.979168, 44.821426, 44.75, 44.8125, 45, 45.0625, 45.0625, 45.0625, 45, 44.875, 44.8125, 44.6875, 44.5625, 44.5, 44.4375, 44.375, 44.25, 44.1875, 44.0625, 43.875, 43.901787, 43.910713, 43.955357, 44.181545, 43.726189, 43.425594, 43.196426, 43.3125, 43.375, 43.330357, 43.455357, 43.5625, 43.625, 43.75, 43.892857, 44, 44.0625, 43.9375, 43.6875, 43.625, 43.5625, 43.625, 43.75, 43.642857, 43.357143, 43.157738, 42.782738, 42.758926, 42.8125, 42.8125, 42.955357, 43.098213, 43.0625, 43, 42.75, 42.75, 42.6875, 42.75, 42.75, 42.625, 42.4375, 42.3125, 42.25, 42.1875, 42.3125, 42.285713, 42.151787, 42.25, 42.25893, 42.169643, 41.630955, 41.464287, 41.1875, 41.1875, 41.1875, 41.0625, 41.125, 41.125, 41.125, 41.125, 41.0625, 41, 40.9375, 40.9375, 40.9375, 40.9375, 40.9375, 40.875, 40.875, 40.875, 40.8125, 40.75, 40.625, 40.625, 40.6875, 40.8125, 41, 41.089287, 41.166073, 41.366074, 41.232143, 41.1875, 40.9375, 40.6875, 40.4375, 40.25, 40.1875, 40.25, 40.25, 40.3125, 40.4375, 40.5, 40.6875, 40.6875, 40.5, 40.25, 39.9375, 39.8125, 39.8125, 39.8125, 39.8125, 39.616074, 39.166668, 38.883926, 38.9375, 39, 39.0625, 39.125, 39.0625, 39.125, 39.125, 39.125, 39.0625, 38.875, 38.75, 38.5, 38.375, 38.375, 38.25, 38.25, 38.125, 38.0625, 38.0625, 38.0625, 38.0625, 38, 37.875, 37.75, 37.6875, 37.625, 37.6875, 37.8125, 37.75, 37.75, 37.892857, 37.973213, 37.875, 37.8125, 37.53125, 37.46875, 37.53125, 37.46875, 37.3125, 36.955357, 36.6875, 36.625, 36.6875, 36.875, 37, 37, 36.9375, 36.964287, 37, 36.821426, 36.892857, 36.875, 36.9375, 36.9375, 36.8125, 36.625, 36.375, 36.1875, 36.0625, 36.0625, 36.125, 36.125, 36.125, 36.0625, 36, 36, 36, 36, 35.803574, 35.479168, 35.321426, 35.1875, 35.1875, 35.375, 35.375, 35.375, 35.375, 35.1875, 35.25, 35.3125, 35.3125, 35.25, 35.125, 35, 35, 35, 35, 35, 35, 34.9375, 34.8125, 34.75, 34.75, 34.607143, 34.291668, 34.169643, 34, 34.125, 34.25, 34.125, 34.089287, 34.125, 34.223213, 34.375, 34.4375, 34.375, 34.25, 34.125, 34.0625, 33.9375, 33.875, 33.75, 33.75, 33.75, 33.571426, 33.270832, 33, 32.875, 32.9375, 33, 33.1875, 33.357143, 33.5, 33.491074, 33.229168, 33.205357, 33.1875, 33.25, 33.142857, 33.142857, 33.0625, 33.0625, 33.0625, 32.9375, 32.8125, 32.8125, 32.6875, 32.625, 32.5, 32.3125, 32.1875, 32.0625, 32.0625, 32, 32, 32, 32, 32, 32, 32, 32, 32, 32, 32, 32, 32, 32.0625, 32.1875, 32.208332, 32.083336, 32.3125, 32.666668, 32.9375, 33.1875, 33.3125, 33.5625, 33.8125, 34.0625, 34.3125, 34.5625, 34.8125, 35, 35.25, 35.4375, 35.6875, 35.875, 35.9375, 36, 36.125, 36.375, 36.625, 36.875, 37.0625, 37.1875, 37.375, 37.5625, 37.75, 38.125, 38.419643, 38.625, 38.8125, 38.875, 39.125, 39.482143, 39.75, 39.9375, 40, -10, -10, -10, -10, -10, -10, -10, -10, -10, -10, -10, -10, -10, -10, -10, -10, -10, -10, -10, -10, -10, -10, -10, -10, -10, -10, -10, -10, -10, -10, -10, 46.166668, 46.5, 46.354168, 46.375, 46.3125, 46.125, 46, 45.9375, 45.9375, 46, 46.0625, 46, 45.9375, 45.875, 45.9375, 46, 45.9375, 45.803574, 45.407742, 45.142857, 45.125, 45.294643, 45.410713, 45.196426, 44.863094, 44.633926, 44.5625, 44.6875, 44.875, 45, 45.0625, 45.0625, 45, 44.875, 44.8125, 44.6875, 44.5625, 44.5625, 44.5625, 44.5, 44.3125, 44.080357, 43.875, 43.625, 43.651787, 43.598213, 43.580357, 43.815475, 43.476189, 43.238094, 43.133926, 43.1875, 43.25, 43.142857, 43.205357, 43.375, 43.5, 43.625, 43.848213, 44.012501, 43.883926, 43.821426, 43.5625, 43.5625, 43.5625, 43.625, 43.75, 43.642857, 43.285717, 42.979168, 42.86607, 42.8125, 42.875, 42.8125, 42.875, 42.9375, 42.919643, 42.6875, 42.5, 42.4375, 42.4375, 42.5, 42.5625, 42.4375, 42.375, 42.3125, 42.1875, 42.1875, 42.3125, 42.285713, 42.214287, 42.25, 42.19643, 42.169643, 41.675594, 41.589287, 41.375, 41.25, 41.1875, 41, 41.0625, 41.1875, 41.25, 41.25, 41.125, 41, 40.9375, 40.9375, 40.9375, 40.9375, 41, 41, 41, 41, 40.875, 40.75, 40.5625, 40.5, 40.625, 40.875, 41.1875, 41.294643, 41.299999, 41.428574, 41.294643, 41.25, 41.0625, 40.875, 40.625, 40.4375, 40.3125, 40.25, 40.25, 40.25, 40.3125, 40.375, 40.5, 40.5625, 40.5, 40.3125, 40.0625, 39.875, 39.75, 39.6875, 39.625, 39.428574, 39.041668, 38.821426, 38.9375, 39.0625, 39.125, 39.125, 39, 38.9375, 38.9375, 39, 39, 38.9375, 38.8125, 38.5625, 38.4375, 38.375, 38.25, 38.25, 38.125, 38, 38, 38, 38, 38.0625, 37.9375, 37.8125, 37.8125, 37.6875, 37.75, 37.875, 37.75, 37.75, 37.892857, 38.098213, 38.0625, 37.9375, 37.611607, 37.46875, 37.46875, 37.379463, 37.080357, 36.651787, 36.5, 36.5625, 36.6875, 36.9375, 37.0625, 37.125, 37.125, 37.125, 37.0625, 37, 37, 37, 37, 36.9375, 36.8125, 36.5625, 36.3125, 36.125, 36, 36, 36, 36.0625, 36.035713, 35.892857, 35.821426, 35.8125, 35.875, 35.9375, 35.866074, 35.541668, 35.383926, 35.25, 35.25, 35.375, 35.3125, 35.25, 35.1875, 35.0625, 35.125, 35.1875, 35.1875, 35.125, 35.0625, 35, 35.0625, 35.035713, 34.892857, 34.892857, 34.875, 34.875, 34.75, 34.625, 34.5625, 34.419643, 34.104168, 33.982143, 33.875, 34, 34.25, 34.25, 34.25, 34.1875, 34.25, 34.375, 34.375, 34.3125, 34.125, 34, 34, 33.875, 33.8125, 33.625, 33.5625, 33.5, 33.3125, 33.25, 33, 32.9375, 32.9375, 33, 33.25, 33.419643, 33.5, 33.491074, 33.166668, 33.142857, 33.25, 33.3125, 33.205357, 33.205357, 33.0625, 33.0625, 33.0625, 32.9375, 32.8125, 32.8125, 32.6875, 32.625, 32.5, 32.3125, 32.1875, 32.0625, 32.0625, 32, 32, 32, 32, 32, 32, 32, 32, 32, 32, 32, 32, 32, 32.0625, 32.1875, 32.270832, 32.208336, 32.473213, 32.791668, 33, 33.1875, 33.3125, 33.5625, 33.8125, 34.0625, 34.3125, 34.5625, 34.8125, 35.0625, 35.3125, 35.4375, 35.625, 35.75, 35.8125, 36, 36.25, 36.5, 36.75, 36.9375, 37.0625, 37.125, 37.25, 37.375, 37.5625, 37.96875, 38.388393, 38.71875, 38.96875, 39.125, 39.3125, 39.5625, 39.8125, 39.9375, 40, -10, -10, -10
45.142857, 45.125, 45.357143, 45.348213, 45.071426, 44.675594, 44.383926, 44.375, 44.5625, 44.8125, 45, 45.0625, 45.0625, 45, 44.9375, 44.875, 44.75, 44.625, 44.5, 44.392857, 44.25, 44.0625, 43.830357, 43.625, 43.5, 43.4375, 43.3125, 43.267857, 43.458332, 43.333332, 43.166668, 43.071426, 43, 43, 43, 43.0625, 43.25, 43.375, 43.5625, 43.955357, 44.119644, 43.800594, 43.776787, 43.4375, 43.4375, 43.4375, 43.4375, 43.625, 43.580357, 43.294643, 43.1875, 42.973213, 42.8125, 42.75, 42.625, 42.625, 42.767857, 42.815475, 42.416668, 42.416668, 42.008926, 42.166668, 42.458332, 42.616074, 42.5625, 42.5, 42.4375, 42.375, 42.375, 42.4375, 42.348213, 42.214287, 42.3125, 42.232143, 42.169643, 41.854168, 41.705357, 41.5625, 41.375, 41.25, 41.0625, 41.0625, 41.125, 41.1875, 41.1875, 41, 40.90625, 40.84375, 40.84375, 40.90625, 40.9375, 41, 41, 41, 41, 40.9375, 40.875, 40.6875, 40.6875, 40.75, 40.9375, 41.25, 41.294643, 41.362499, 41.553574, 41.419643, 41.375, 41.125, 40.875, 40.625, 40.4375, 40.25, 40.125, 40.125, 40.125, 40.1875, 40.25, 40.3125, 40.3125, 40.375, 40.3125, 40.125, 40, 39.8125, 39.625, 39.5, 39.3125, 39.125, 39, 39.125, 39.1875, 39.1875, 39.1875, 39.125, 39, 39, 39, 38.875, 38.8125, 38.6875, 38.4375, 38.3125, 38.25, 38.1875, 38.25, 38.1875, 38.125, 38.0625, 38, 38, 38.125, 38.0625, 38, 38.0625, 38, 38.0625, 38.125, 37.9375, 37.8125, 37.892857, 38.098213, 38.125, 38.0625, 37.736607, 37.59375, 37.46875, 37.254463, 36.892857, 36.526787, 36.4375, 36.580357, 36.848213, 37, 37.0625, 37.089287, 37.160713, 37.125, 37.125, 37, 37, 37, 36.9375, 36.8125, 36.6875, 36.4375, 36.25, 36.0625, 35.9375, 35.9375, 36, 36.1875, 36.160713, 36.017857, 35.821426, 35.6875, 35.75, 35.8125, 35.928574, 35.639881, 35.339287, 35.331631, 35.1875, 35.3125, 35.3125, 35.25, 35.125, 34.9375, 34.964287, 35.107143, 35.107143, 35.125, 35.0625, 35.0625, 35.1875, 35.142857, 34.809525, 34.785713, 34.75, 34.8125, 34.6875, 34.5, 34.375, 34.169643, 33.916668, 33.857143, 33.8125, 34, 34.3125, 34.3125, 34.3125, 34.1875, 34.125, 34.1875, 34.1875, 34.1875, 34.0625, 34, 34, 33.8125, 33.8125, 33.625, 33.625, 33.6875, 33.5625, 33.535713, 33.214287, 33.1875, 33.125, 33.1875, 33.3125, 33.25, 33.1875, 33.125, 33, 33, 33.0625, 33.0625, 33.0625, 33.0625, 33, 33, 33, 33, 32.9375, 32.9375, 32.8125, 32.6875, 32.5625, 32.375, 32.25, 32.125, 32.0625, 32, 32, 32, 32, 32, 32, 32, 32, 32, 32, 32, 32, 32, 32, 32, 32.125, 32.375, 32.660713, 32.875, 33, 33.1875, 33.375, 33.5625, 33.839287, 34.098213, 34.25, 34.5, 34.6875, 34.9375, 35.25, 35.4375, 35.5625, 35.6875, 35.8125, 36.107143, 36.375, 36.625, 36.8125, 36.9375, 37, 37, 37.125, 37.25, 37.5, 37.90625, 38.263393, 38.59375, 38.84375, 39.0625, 39.375, 39.625, 39.875, 40, 40, -10, -10, -10, -10, -10, -10, -10, -10, -10, -10, -10, -10, -10, -10, -10, -10, -10, -10, -10, -10, -10, -10, -10, -10, -10, -10, -10, -10, -10, -10, -10, -10, 46.791668, 46.541668, 46.5, 46.25, 46, 45.9375, 45.875, 45.875, 46, 46.0625, 46, 46, 45.9375, 45.9375, 45.9375, 45.8125, 45.553574, 45.104168, 44.955357, 44.9375, 45.107143, 45.035713, 44.758926, 44.300594, 44.133926, 44.1875, 44.455357, 44.75, 44.830357, 45, 44.9375, 45, 44.9375, 44.9375, 44.9375, 44.857143, 44.520832, 44.330357, 44.125, 43.9375, 43.705357, 43.5, 43.3125, 43.1875, 43.09375, 43.03125, 43.03125, 42.96875, 43, 43, 43, 43, 43, 43.0625, 43.1875, 43.3125, 43.5625, 43.92857, 44.057144, 43.630951, 43.589287, 43.3125, 43.375, 43.375, 43.375, 43.5, 43.535713, 43.39286, 43.25, 43.035713, 42.6875, 42.5625, 42.4375, 42.4375, 42.580357, 42.627975, 42.229168, 42.291668, 41.883926, 42.104168, 42.395832, 42.553574, 42.6875, 42.6875, 42.6875, 42.6875, 42.5625, 42.5, 42.375, 42.25, 42.25, 42.125, 42.0625, 41.9375, 41.75, 41.625, 41.4375, 41.3125, 41.25, 41.25, 41.25, 41.25, 41.125, 40.875, 40.75, 40.75, 40.8125, 40.9375, 41, 41, 41, 41, 41, 41, 41, 40.875, 40.875, 40.875, 40.9375, 41.125, 41.25, 41.4375, 41.5625, 41.5, 41.375, 41.0625, 40.75, 40.5, 40.3125, 40.1875, 40.0625, 40.0625, 40.0625, 40.0625, 40.125, 40.125, 40.0625, 40.214287, 40.357143, 40.366074, 40.3125, 40, 39.642857, 39.4375, 39.125, 38.9375, 38.8125, 38.883926, 39.208332, 39.232143, 39.25, 39.125, 38.875, 38.875, 38.875, 38.75, 38.6875, 38.5625, 38.4375, 38.4375, 38.330357, 38.1875, 38.1875, 38.125, 38.0625, 38.0625, 38, 38, 38.125, 38.125, 38.125, 38.25, 38.25, 38.25, 38.3125, 38.1875, 38, 38.017857, 38.125, 38.0625, 38.0625, 37.767857, 37.5625, 37.375, 37.098213, 36.767857, 36.526787, 36.4375, 36.607143, 36.946426, 37, 37.125, 37.151787, 37.223213, 37.1875, 37.1875, 37, 37, 36.9375, 36.8125, 36.6875, 36.5625, 36.375, 36.25, 36.0625, 35.9375, 36, 36.125, 36.375, 36.348213, 36.142857, 35.821426, 35.4375, 35.53125, 35.59375, 35.96875, 36.129463, 35.976189, 35.592262, 35.419643, 35.3125, 35.25, 35.125, 34.9375, 34.75, 34.776787, 34.982143, 35.044643, 35.125, 35.0625, 35.0625, 35.1875, 35.142857, 34.809525, 34.785713, 34.75, 34.8125, 34.6875, 34.4375, 34.25, 34.0625, 34.0625, 34.089287, 34.125, 34.3125, 34.5625, 34.5, 34.4375, 34.25, 34.0625, 34.0625, 34.0625, 34.0625, 34, 34, 34, 33.8125, 33.8125, 33.625, 33.5625, 33.642857, 33.6875, 33.660713, 33.526787, 33.4375, 33.3125, 33.375, 33.4375, 33.357143, 33.104168, 32.946426, 32.8125, 32.875, 33, 33.0625, 33.0625, 33.0625, 33, 33, 33, 33, 32.9375, 32.875, 32.8125, 32.6875, 32.625, 32.5625, 32.375, 32.25, 32.1875, 32.0625, 32.0625, 32.0625, 32, 32, 32, 32, 32, 32, 32, 32, 32, 32, 32, 32.0625, 32.25, 32.5, 32.785713, 32.9375, 33, 33.25, 33.5, 33.6875, 33.964287, 34.098213, 34.125, 34.375, 34.5625, 34.8125, 35.1875, 35.375, 35.5, 35.6875, 35.8125, 36.107143, 36.3125, 36.5625, 36.75, 36.875, 37, 37, 37.125, 37.25, 37.5, 37.90625, 38.200893, 38.53125, 38.78125, 39, 39.375, 39.625, 39.875, 40, 40, -10, -10, -10
44.9375, 44.9375, 44.9375, 44.660713, 44.294643, 44.071426, 44.0625, 44.1875, 44.473213, 44.8125, 44.651787, 44.892857, 44.875, 45.107143, 45.125, 45.125, 45.125, 44.982143, 44.583332, 44.330357, 44.0625, 43.875, 43.642857, 43.5, 43.375, 43.1875, 43.09375, 43.03125, 42.96875, 42.96875, 43.0625, 43.125, 43.1875, 43.1875, 43.125, 43.125, 43.125, 43.3125, 43.625, 43.973213, 44.057144, 43.630951, 43.589287, 43.4375, 43.5625, 43.5625, 43.5, 43.5, 43.5, 43.428574, 43.1875, 43, 42.625, 42.5, 42.375, 42.3125, 42.392857, 42.377975, 42.041668, 42.166668, 41.758926, 42.041668, 42.333332, 42.491074, 42.6875, 42.6875, 42.625, 42.625, 42.4375, 42.3125, 42.1875, 42.0625, 42.0625, 42, 42, 41.9375, 41.75, 41.625, 41.5, 41.4375, 41.5, 41.5, 41.5, 41.4375, 41.3125, 41.0625, 40.875, 40.8125, 40.8125, 40.9375, 41, 41, 41, 41, 41, 41, 41, 40.9375, 40.9375, 40.9375, 40.9375, 41, 41.125, 41.1875, 41.25, 41.25, 41.035713, 40.642857, 40.392857, 40.1875, 40.125, 40.125, 40.0625, 40.0625, 40, 40, 40, 40, 40, 40.089287, 40.232143, 40.32143, 40.325001, 39.883926, 39.526787, 39.25, 38.9375, 38.75, 38.625, 38.642857, 39.229164, 39.252975, 39.1875, 39.125, 38.75, 38.642857, 38.642857, 38.5625, 38.6875, 38.6875, 38.625, 38.625, 38.392857, 38.1875, 38.125, 38.0625, 38.0625, 38.0625, 38, 38, 38.125, 38.125, 38.125, 38.1875, 38.1875, 38.1875, 38.1875, 38.125, 37.9375, 37.875, 37.9375, 37.9375, 37.9375, 37.767857, 37.5625, 37.3125, 37.035713, 36.767857, 36.633926, 36.5625, 36.794643, 37.133926, 37.125, 37.25, 37.214287, 37.223213, 37.1875, 37.1875, 37, 37, 36.9375, 36.8125, 36.75, 36.6875, 36.5625, 36.5, 36.25, 36.0625, 36.0625, 36.125, 36.4375, 36.410713, 36.142857, 35.714287, 35.330357, 35.614582, 35.700893, 36.15625, 36.379463, 36.199402, 35.735119, 35.491074, 35.25, 35.1875, 35.0625, 34.875, 34.6875, 34.714287, 34.919643, 34.982143, 35.125, 35.0625, 35.0625, 35.1875, 35.142857, 34.809525, 34.785713, 34.75, 34.875, 34.8125, 34.5625, 34.375, 34.1875, 34.25, 34.375, 34.4375, 34.625, 34.6875, 34.5625, 34.4375, 34.1875, 34.0625, 34.0625, 34.0625, 34.0625, 34, 34.0625, 34.0625, 33.9375, 33.9375, 33.6875, 33.625, 33.705357, 33.8125, 33.848213, 33.714287, 33.625, 33.4375, 33.4375, 33.5, 33.294643, 33.041668, 32.883926, 32.75, 32.875, 33, 33.0625, 33.0625, 33.0625, 33, 33, 33, 33, 32.9375, 32.8125, 32.8125, 32.6875, 32.625, 32.5625, 32.3125, 32.1875, 32.125, 32.0625, 32.0625, 32.0625, 32, 32, 32, 32, 32, 32, 32, 32, 32, 32, 32, 32.125, 32.375, 32.6875, 32.973213, 33.0625, 33.125, 33.3125, 33.5625, 33.75, 33.964287, 34.035713, 34.0625, 34.3125, 34.5, 34.8125, 35.125, 35.375, 35.5, 35.6875, 35.875, 36.107143, 36.3125, 36.5625, 36.75, 36.875, 37, 37, 37.1875, 37.375, 37.625, 37.96875, 38.15625, 38.46875, 38.71875, 38.9375, 39.3125, 39.5625, 39.8125, 40, 40, -10, -10, -10, -10, -10, -10, -10, -10, -10, -10, -10, -10, -10, -10, -10, -10, -10, -10, -10, -10, -10, -10, -10, -10, -10, -10, -10, -10, -10, -10, -10, -10, 46.75, 46.5, 46.4375, 46.1875, 46, 46, 46, 46, 46.125, 46.1875, 46.125, 46.0625, 45.875, 45.75, 45.625, 45.450893, 45.072918, 44.861607, 44.78125, 44.8125, 44.732143, 44.375, 44.151787, 43.9375, 44.0625, 44.1875, 44.482143, 44.887501, 44.535713, 44.851189, 45.041668, 45.357143, 45.5, 45.375, 45.3125, 45.107143, 44.583332, 44.330357, 44.0625, 43.9375, 43.8125, 43.6875, 43.625, 43.375, 43.21875, 43.09375, 42.90625, 42.90625, 43.0625, 43.232143, 43.3125, 43.375, 43.3125, 43.3125, 43.3125, 43.5, 43.8125, 44.080357, 44.107143, 43.809525, 43.767857, 43.6875, 43.678574, 43.4375, 43.3125, 43.1875, 43.25, 43.3125, 43.3125, 43.1875, 42.9375, 42.6875, 42.455357, 42.3125, 42.205357, 42.208332, 42.041668, 42.273811, 41.946426, 42.229168, 42.520832, 42.616074, 42.8125, 42.75, 42.625, 42.625, 42.4375, 42.25, 42.125, 42.0625, 42.0625, 42, 41.964287, 41.9375, 41.6875, 41.5625, 41.517857, 41.512501, 41.580357, 41.6875, 41.5625, 41.5625, 41.375, 41.125, 40.9375, 40.8125, 40.8125, 40.9375, 41, 41, 41, 41.0625, 41.125, 41.125, 41.125, 41.0625, 41.0625, 41.0625, 41.0625, 41.0625, 41.0625, 41.125, 41.125, 41.0625, 40.785713, 40.330357, 40.080357, 39.9375, 39.9375, 39.9375, 39.964287, 40.035713, 40, 40.0625, 39.9375, 39.9375, 39.875, 39.839287, 40.044643, 40.07143, 40.075001, 39.758926, 39.401787, 39.1875, 38.9375, 38.75, 38.65625, 38.736607, 39.238094, 39.119045, 39.017857, 39, 38.8125, 38.705357, 38.705357, 38.5625, 38.625, 38.75, 38.75, 38.75, 38.517857, 38.25, 38.125, 38.0625, 38.0625, 38.0625, 38, 38, 38.0625, 38.0625, 38.0625, 38.0625, 38.125, 38.125, 38.0625, 38, 37.75, 37.625, 37.625, 37.625, 37.75, 37.75, 37.6875, 37.4375, 37.125, 36.9375, 36.8125, 36.75, 36.919643, 37.196426, 37.125, 37.1875, 37.089287, 37.098213, 37.0625, 37.1875, 37.0625, 37, 36.830357, 36.6875, 36.625, 36.625, 36.625, 36.625, 36.375, 36.1875, 36.125, 36.125, 36.4375, 36.410713, 36.142857, 35.714287, 35.339287, 35.822914, 35.870537, 36.21875, 36.379463, 36.074402, 35.547619, 35.303574, 35.0625, 35.0625, 35, 34.875, 34.75, 34.839287, 35.044643, 35.107143, 35.1875, 35.0625, 35.0625, 35.0625, 35.044643, 34.854168, 34.830357, 34.875, 34.9375, 34.875, 34.75, 34.625, 34.4375, 34.208332, 34.267857, 34.3125, 34.5625, 34.625, 34.5, 34.375, 34.125, 34, 34, 34, 34, 34, 34.0625, 34.0625, 34, 34, 33.8125, 33.75, 33.830357, 34, 33.973213, 33.839287, 33.75, 33.5625, 33.544643, 33.354168, 33.125, 32.854168, 32.758926, 32.75, 32.875, 32.9375, 33, 33, 33, 33, 33, 33, 33, 32.9375, 32.8125, 32.8125, 32.625, 32.5, 32.401787, 32.1875, 32.125, 32.125, 32.0625, 32.0625, 32.0625, 32, 32, 32, 31.9375, 31.875, 31.875, 31.875, 31.9375, 32, 32, 31.9375, 32.089287, 32.419643, 32.678574, 32.9375, 33, 33.125, 33.375, 33.625, 33.8125, 33.964287, 34.035713, 34.0625, 34.3125, 34.5, 34.75, 35.0625, 35.375, 35.5625, 35.8125, 36, 36.169643, 36.3125, 36.5625, 36.75, 36.875, 37, 37.0625, 37.3125, 37.5625, 37.8125, 38.0625, 38.1875, 38.4375, 38.6875, 38.875, 39.1875, 39.4375, 39.6875, 39.9375, 40, -10, -10, -10
44.65625, 44.6875, 44.589287, 44.104168, 43.848213, 43.625, 43.875, 44.0625, 44.464283, 44.887501, 44.473213, 44.815475, 45.148811, 45.535717, 45.75, 45.75, 45.660713, 45.375, 44.904762, 44.75, 44.5625, 44.375, 44.142857, 44, 43.875, 43.6875, 43.53125, 43.28125, 43.03125, 42.96875, 43.0625, 43.232143, 43.3125, 43.375, 43.375, 43.4375, 43.5, 43.6875, 43.875, 43.973213, 44, 43.892857, 43.875, 43.875, 43.866074, 43.5625, 43.375, 43.125, 43.0625, 43.125, 43.25, 43.3125, 43.169643, 42.791668, 42.464287, 42.21875, 41.96875, 41.84375, 41.84375, 42.044643, 42.125, 42.3125, 42.616074, 42.544643, 42.6875, 42.625, 42.4375, 42.4375, 42.375, 42.1875, 42.125, 42.1875, 42.098213, 41.964287, 41.964287, 41.875, 41.75, 41.625, 41.642857, 41.700001, 41.705357, 41.8125, 41.6875, 41.6875, 41.5625, 41.375, 41.15625, 40.96875, 40.90625, 40.96875, 41, 41, 41, 41.0625, 41.125, 41.125, 41.125, 41.0625, 40.9375, 40.9375, 40.9375, 40.9375, 41, 40.9375, 40.8125, 40.6875, 40.410713, 40.080357, 39.955357, 39.875, 39.9375, 39.875, 39.839287, 39.928574, 40, 40.125, 40.125, 40.125, 40.0625, 39.901787, 39.919643, 39.82143, 39.762501, 39.446426, 39.214287, 39.0625, 38.875, 38.75, 38.65625, 38.736607, 39.175594, 38.994045, 38.910713, 39, 38.875, 38.830357, 38.767857, 38.625, 38.6875, 38.8125, 38.875, 39, 38.74107, 38.330357, 38.071426, 37.9375, 37.9375, 37.9375, 37.875, 37.875, 37.9375, 38.107143, 38.125, 38.125, 38.125, 38.0625, 38, 37.9375, 37.75, 37.6875, 37.6875, 37.6875, 37.75, 37.6875, 37.5625, 37.375, 37.1875, 37.0625, 37, 36.9375, 37.026787, 37.160713, 37.125, 37.1875, 37.125, 37.0625, 37.0625, 37.0625, 37.026787, 37.107143, 36.913689, 36.666668, 36.642857, 36.625, 36.8125, 36.875, 36.6875, 36.5, 36.3125, 36.1875, 36.3125, 36.285713, 36.017857, 35.651787, 35.401787, 35.947914, 36.102676, 36.34375, 36.46875, 36.244045, 35.663689, 35.366074, 35.0625, 35, 34.9375, 34.875, 34.875, 35, 35.0625, 35.125, 35.125, 35, 35, 34.9375, 34.9375, 34.875, 34.8125, 34.875, 34.875, 34.875, 34.875, 34.8125, 34.75, 34.458332, 34.309525, 34.3125, 34.4375, 34.5, 34.375, 34.25, 34.0625, 34, 34, 34, 34, 34, 34.0625, 34.0625, 34.0625, 34, 33.875, 33.8125, 33.830357, 34, 33.875, 33.75, 33.625, 33.5, 33.419643, 33.229168, 33, 32.791668, 32.758926, 32.8125, 32.9375, 32.9375, 33, 33, 33, 33, 33, 33, 33, 32.9375, 32.8125, 32.8125, 32.625, 32.5, 32.464287, 32.25, 32.1875, 32.1875, 32.0625, 32.0625, 32.0625, 32, 32, 32, 31.9375, 31.875, 31.875, 31.875, 31.9375, 32, 32, 31.9375, 32.089287, 32.357143, 32.616074, 32.875, 32.9375, 33.1875, 33.4375, 33.6875, 33.9375, 34, 34, 34.0625, 34.25, 34.5, 34.75, 35, 35.3125, 35.5625, 35.8125, 36, 36.125, 36.3125, 36.5625, 36.8125, 36.9375, 37, 37.0625, 37.3125, 37.5625, 37.8125, 38.0625, 38.25, 38.5, 38.75, 38.9375, 39.125, 39.375, 39.625, 39.875, 40, -10, -10, -10, -10, -10, -10, -10, -10, -10, -10, -10, -10, -10, -10, -10, -10, -10, -10, -10, -10, -10, -10, -10, -10, -10, -10, -10, -10, -10, -10, -10, -10, 46.75, 46.5, 46.5, 46.3125, 46.125, 46.1875, 46.25, 46.25, 46.25, 46.0625, 45.75, 45.5625, 45.3125, 45.25, 45.1875, 45.075893, 44.760418, 44.611607, 44.59375, 44.6875, 44.589287, 44.104168, 43.785713, 43.5, 43.6875, 43.9375, 44.35714, 44.762501, 44.517853, 44.815475, 45.336311, 45.785717, 46.0625, 46, 45.785713, 45.392857, 45.133926, 45, 44.803574, 44.354168, 44.122025, 44.208332, 44.169643, 44.1875, 43.982143, 43.517857, 43.196426, 43, 43.0625, 43.232143, 43.3125, 43.375, 43.375, 43.5, 43.625, 43.8125, 43.9375, 43.9375, 44, 44, 44, 44, 43.928574, 43.5625, 43.375, 43.125, 43, 43.0625, 43.1875, 43.25, 43.169643, 42.791668, 42.473213, 42.356251, 42.049107, 41.96875, 41.90625, 42.107143, 42.0625, 42.125, 42.303574, 42.169643, 42.25, 42.25, 42.125, 42.125, 42.1875, 42.125, 42.125, 42.1875, 42.0625, 41.839287, 41.839287, 41.8125, 41.75, 41.75, 41.767857, 41.762501, 41.642857, 41.6875, 41.5625, 41.625, 41.625, 41.5, 41.3125, 41.125, 41, 41, 40.9375, 40.9375, 40.9375, 41, 41.125, 41.125, 41.125, 41.0625, 40.9375, 40.9375, 40.9375, 40.875, 40.8125, 40.625, 40.375, 40.25, 40.035713, 39.830357, 39.830357, 39.8125, 39.9375, 39.875, 39.776787, 39.866074, 39.9375, 40.125, 40.25, 40.25, 40.25, 40, 39.8125, 39.580357, 39.450001, 39.196426, 39.071426, 39, 38.9375, 38.9375, 38.90625, 38.977676, 39.154762, 38.824406, 38.660713, 38.830357, 38.9375, 38.892857, 38.892857, 38.6875, 38.625, 38.6875, 38.866074, 39.071426, 38.973213, 38.767857, 38.49107, 38.142857, 38.071426, 37.9375, 37.875, 37.875, 37.9375, 38.169643, 38.160713, 38.089287, 38.0625, 37.9375, 37.875, 37.75, 37.625, 37.625, 37.6875, 37.75, 37.8125, 37.6875, 37.5625, 37.375, 37.1875, 37.0625, 37.0625, 37.0625, 37.125, 37.1875, 37.125, 37.125, 37.0625, 37, 37, 37, 37.089287, 37.169643, 37.038689, 36.854168, 36.767857, 36.8125, 37, 37.125, 37, 36.75, 36.392857, 36.125, 36.125, 36.098213, 35.892857, 35.651787, 35.651787, 36.166664, 36.321426, 36.375, 36.3125, 36.035713, 35.642857, 35.383926, 35.125, 35.0625, 35.125, 35.1875, 35.3125, 35.4375, 35.375, 35.375, 35.25, 35.0625, 35.0625, 34.9375, 34.9375, 34.8125, 34.75, 34.8125, 34.8125, 34.9375, 35, 34.9375, 34.875, 34.395832, 34.122025, 34.125, 34.223213, 34.3125, 34.25, 34.125, 34.0625, 34.0625, 34.0625, 34, 33.875, 33.875, 33.9375, 34, 34.0625, 33.9375, 33.875, 33.875, 33.875, 34, 33.875, 33.6875, 33.6875, 33.625, 33.482143, 33.291668, 33.080357, 33.0625, 33.125, 33.125, 33.125, 33, 33, 33, 33, 33, 33, 32.9375, 32.9375, 32.9375, 32.875, 32.9375, 32.8125, 32.5625, 32.464287, 32.25, 32.125, 32.1875, 32.035713, 31.964287, 32, 31.9375, 32, 32, 31.9375, 31.875, 31.9375, 32, 32.0625, 32.125, 32.0625, 31.9375, 32.089287, 32.294643, 32.553574, 32.8125, 32.875, 33.25, 33.5, 33.75, 34, 34, 34, 34.125, 34.3125, 34.5625, 34.8125, 34.9375, 35.1875, 35.375, 35.625, 35.875, 36.0625, 36.375, 36.625, 36.875, 37, 37, 37.125, 37.375, 37.625, 37.9375, 38.125, 38.375, 38.625, 38.8125, 39, 39.125, 39.375, 39.625, 39.875, 40, -10, -10, -10
44.71875, 44.75, 44.589287, 44.104168, 43.642853, 43.276787, 43.4375, 43.732143, 44.151783, 44.575001, 44.571426, 44.922619, 45.732143, 46.107147, 46.3125, 46.1875, 45.910713, 45.455357, 45.196426, 45.0625, 44.857147, 44.208336, 44.038692, 44.291664, 44.276787, 44.375, 44.107143, 43.580357, 43.321426, 43.125, 43.125, 43.232143, 43.1875, 43.1875, 43.25, 43.4375, 43.6875, 43.875, 43.9375, 43.9375, 43.875, 43.875, 43.9375, 43.9375, 43.866074, 43.5625, 43.5, 43.3125, 43.142857, 43.133926, 43.1875, 43.1875, 43.044643, 42.684525, 42.619049, 42.564583, 42.153275, 42.040176, 41.90625, 42.107143, 42.0625, 42.0625, 42.116074, 41.919643, 41.9375, 41.9375, 41.9375, 42, 42.0625, 41.9375, 41.839287, 41.875, 41.8125, 41.651787, 41.714287, 41.8125, 41.770832, 41.666668, 41.714287, 41.673214, 41.580357, 41.625, 41.4375, 41.5, 41.4375, 41.241074, 40.9375, 40.875, 40.857143, 40.9375, 40.875, 40.8125, 40.8125, 40.875, 41.0625, 41.125, 41.125, 41.0625, 40.9375, 40.9375, 40.866074, 40.674999, 40.645832, 40.258926, 40.142857, 40, 39.9375, 39.9375, 39.9375, 39.9375, 40, 39.875, 39.714287, 39.803574, 39.875, 40.0625, 40.3125, 40.3125, 40.3125, 40.125, 39.9375, 39.6875, 39.5, 39.375, 39.1875, 39.125, 39.125, 39.1875, 39.21875, 39.28125, 39.133926, 38.741074, 38.660713, 38.830357, 39, 39.0625, 39.0625, 38.8125, 38.6875, 38.6875, 38.928574, 39.133926, 39.098213, 38.955357, 38.61607, 38.267857, 38.133926, 37.9375, 37.875, 37.875, 37.9375, 38.232143, 38.285713, 38.214287, 38.1875, 38, 37.9375, 37.875, 37.8125, 37.9375, 37.9375, 37.9375, 37.9375, 37.625, 37.4375, 37.25, 37.0625, 37, 37.0625, 37.125, 37.125, 37.125, 37.0625, 37, 37, 37, 37, 37, 37.089287, 37.169643, 37.038689, 36.854168, 36.767857, 36.8125, 36.9375, 37, 36.9375, 36.6875, 36.392857, 36.1875, 36.0625, 36.035713, 35.892857, 35.758926, 35.758926, 36.083332, 36.214287, 36.25, 36.1875, 36, 35.75, 35.5625, 35.375, 35.25, 35.3125, 35.3125, 35.5, 35.6875, 35.5625, 35.5625, 35.3125, 35.0625, 35.0625, 34.9375, 34.875, 34.75, 34.6875, 34.75, 34.8125, 34.9375, 34.991074, 34.666668, 34.508926, 33.958332, 33.622025, 33.696426, 33.973213, 34.125, 34.1875, 34.0625, 34.125, 34.125, 34.125, 34.0625, 33.9375, 33.9375, 34, 34.0625, 34.0625, 33.9375, 33.875, 33.875, 33.875, 34, 33.875, 33.75, 33.75, 33.75, 33.669643, 33.479168, 33.392857, 33.375, 33.375, 33.3125, 33.1875, 33.0625, 33.0625, 33.0625, 33.0625, 33, 32.9375, 32.8125, 32.75, 32.75, 32.8125, 32.875, 32.8125, 32.5625, 32.401787, 32.25, 32.1875, 32.3125, 32.160713, 32.089287, 32.0625, 31.9375, 32.0625, 32.125, 32.0625, 32, 32, 32, 32.0625, 32.125, 32.0625, 31.9375, 32.089287, 32.294643, 32.553574, 32.8125, 32.875, 33.1875, 33.4375, 33.6875, 33.9375, 34, 34, 34.125, 34.3125, 34.5625, 34.8125, 34.9375, 35.125, 35.25, 35.5, 35.75, 36, 36.3125, 36.5625, 36.8125, 37, 37.125, 37.3125, 37.5625, 37.75, 38, 38.125, 38.375, 38.625, 38.8125, 39, 39.125, 39.375, 39.625, 39.875, 40, -10, -10, -10, -10, -10, -10, -10, -10, -10, -10, -10, -10, -10, -10, -10, -10, -10, -10, -10, -10, -10, -10, -10, -10, -10, -10, -10, -10, -10, -10, -10, 46, 46.625, 46.416668, 46.3125, 46.1875, 46.232143, 46.294643, 46.375, 46.3125, 46.1875, 45.866074, 45.291668, 45.080357, 44.9375, 45.035713, 45.0625, 45, 44.875, 44.75, 44.75, 44.75, 44.482143, 43.997025, 43.392853, 43.026787, 43.125, 43.482143, 43.955357, 44.3125, 44.5, 44.651787, 45.431973, 45.775513, 46.095242, 46.071426, 45.910713, 45.517857, 45.258926, 45.0625, 44.919647, 44.333336, 44.163692, 44.363094, 44.068455, 44.1875, 44.026787, 43.580357, 43.508926, 43.3125, 43.1875, 43.1875, 43.0625, 43.0625, 43.125, 43.3125, 43.5, 43.625, 43.75, 43.8125, 43.75, 43.75, 43.8125, 43.8125, 43.8125, 43.75, 43.6875, 43.625, 43.42857, 43.214287, 43.133926, 43, 42.857143, 42.622025, 42.797619, 42.902081, 42.394348, 42.13839, 41.84375, 41.9375, 41.875, 41.875, 41.928574, 41.794643, 41.75, 41.75, 41.8125, 41.8125, 41.875, 41.75, 41.589287, 41.5625, 41.5, 41.401787, 41.4375, 41.5625, 41.645832, 41.577381, 41.696426, 41.598213, 41.5625, 41.5, 41.3125, 41.3125, 41.25, 41.116074, 40.8125, 40.8125, 40.794643, 40.875, 40.875, 40.8125, 40.8125, 40.75, 40.875, 40.9375, 40.9375, 41, 40.9375, 40.875, 40.741074, 40.487499, 40.333332, 39.946426, 39.892857, 39.75, 39.875, 39.9375, 39.9375, 40, 40, 39.9375, 39.75, 39.767857, 39.875, 39.9375, 40.339287, 40.410713, 40.375, 40.3125, 40, 39.8125, 39.6875, 39.5625, 39.4375, 39.3125, 39.25, 39.3125, 39.25, 39.25, 39.125, 38.8125, 38.767857, 38.955357, 39, 39, 39, 38.75, 38.6875, 38.6875, 38.928574, 39.196426, 39.223213, 39.142857, 38.86607, 38.517857, 38.321426, 38.125, 38, 37.9375, 38.0625, 38.357143, 38.473213, 38.464287, 38.4375, 38.1875, 38.125, 38.0625, 38, 38.25, 38.223213, 38.080357, 37.946426, 37.5625, 37.3125, 37.125, 37, 36.9375, 37.0625, 37.1875, 37.25, 37.232143, 36.979168, 36.821426, 36.8125, 36.875, 36.9375, 37, 37.089287, 37.232143, 37.208332, 36.979168, 36.892857, 36.8125, 36.8125, 36.875, 36.875, 36.6875, 36.455357, 36.25, 36, 36, 36, 35.9375, 35.9375, 36, 36.107143, 36.125, 36.125, 36.0625, 35.875, 35.75, 35.625, 35.5, 35.625, 35.6875, 35.794643, 35.729168, 35.508926, 35.5, 35.3125, 35.125, 35.125, 35, 35, 34.875, 34.8125, 34.8125, 34.8125, 34.875, 34.866074, 34.461311, 34.223213, 33.92857, 33.729168, 33.714287, 33.86607, 33.9375, 34.0625, 34, 34.0625, 34.0625, 34.0625, 34, 33.9375, 33.9375, 34, 34.0625, 34.0625, 33.9375, 33.875, 33.875, 33.875, 34, 33.875, 33.8125, 33.75, 33.6875, 33.6875, 33.6875, 33.6875, 33.6875, 33.5, 33.276787, 33.125, 33, 33.0625, 33.0625, 33.0625, 32.9375, 32.8125, 32.705357, 32.75, 32.75, 32.875, 32.8125, 32.75, 32.5625, 32.4375, 32.3125, 32.25, 32.3125, 32.223213, 32.151787, 32.125, 32, 32.0625, 32.125, 32.125, 32.125, 32.0625, 32.0625, 32.0625, 32.0625, 32.0625, 32, 32.1875, 32.3125, 32.5625, 32.8125, 32.875, 33.125, 33.375, 33.625, 33.875, 34, 34, 34.125, 34.3125, 34.5625, 34.8125, 34.9375, 35.0625, 35.1875, 35.4375, 35.6875, 35.9375, 36.1875, 36.4375, 36.6875, 37, 37.25, 37.375, 37.5625, 37.6875, 37.875, 38.125, 38.4375, 38.6875, 38.875, 39, 39.1875, 39.4375, 39.6875, 39.9375, 40, -10, -10, -10
44.6875, 44.75, 44.446426, 43.830357, 43.25, 42.901787, 43, 43.357143, 43.785713, 44.232143, 44.5, 44.6875, 44.805557, 44.976192, 45.511906, 45.758926, 45.625, 45.375, 45.125, 44.9375, 44.794647, 44.270836, 44.208336, 44.309521, 43.797619, 43.875, 43.651787, 43.392857, 43.446426, 43.3125, 43.25, 43.25, 43.0625, 43.0625, 43.0625, 43.25, 43.4375, 43.5625, 43.821426, 44.012501, 43.821426, 43.821426, 43.75, 43.6875, 43.625, 43.5625, 43.625, 43.6875, 43.61607, 43.401787, 43.196426, 42.9375, 42.75, 42.642857, 42.851189, 42.995831, 42.425598, 42.16964, 41.84375, 41.84375, 41.78125, 41.84375, 41.75, 41.625, 41.5, 41.4375, 41.5, 41.5625, 41.625, 41.5625, 41.401787, 41.3125, 41.276787, 41.25, 41.25, 41.375, 41.395832, 41.389881, 41.508926, 41.473213, 41.5, 41.375, 41.1875, 41.125, 41, 40.928574, 40.6875, 40.75, 40.794643, 40.8125, 40.8125, 40.75, 40.75, 40.75, 40.875, 40.9375, 40.9375, 41, 40.9375, 40.8125, 40.616074, 40.299999, 40.145832, 39.821426, 39.830357, 39.75, 39.875, 39.9375, 39.9375, 40, 40, 40, 39.875, 39.875, 39.875, 39.875, 40.151787, 40.223213, 40.1875, 40.1875, 40, 39.9375, 39.875, 39.8125, 39.6875, 39.5625, 39.4375, 39.4375, 39.3125, 39.25, 39.125, 38.875, 38.8125, 38.892857, 39.0625, 39.0625, 39.125, 38.9375, 38.8125, 38.75, 39.053574, 39.16964, 39.151787, 39.25, 38.982143, 38.767857, 38.508926, 38.3125, 38.1875, 38.0625, 38.1875, 38.3125, 38.410713, 38.401787, 38.4375, 38.25, 38.1875, 38.0625, 37.9375, 38.0625, 37.973213, 37.830357, 37.758926, 37.5625, 37.4375, 37.3125, 37.125, 37, 37.0625, 37.1875, 37.25, 37.232143, 36.979168, 36.821426, 36.8125, 36.875, 36.9375, 37.0625, 37.125, 37.125, 37.125, 37, 36.9375, 36.875, 36.75, 36.8125, 36.8125, 36.625, 36.455357, 36.25, 36, 36, 36, 36, 36, 36, 36, 36, 35.9375, 35.9375, 35.875, 35.8125, 35.8125, 35.75, 35.8125, 35.8125, 35.794643, 35.604168, 35.383926, 35.375, 35.25, 35.125, 35.125, 35, 35, 35, 35.0625, 35.0625, 35.0625, 35, 34.803574, 34.336311, 33.973213, 33.8125, 33.6875, 33.714287, 33.92857, 34, 34.125, 34.0625, 34.125, 34.0625, 34.0625, 34.0625, 34.0625, 34.0625, 34.125, 34.125, 34.125, 34.0625, 34, 34, 33.9375, 34, 33.9375, 34, 34, 33.9375, 33.9375, 33.875, 33.8125, 33.75, 33.5, 33.214287, 33.0625, 33, 33.0625, 33.0625, 33.0625, 32.9375, 32.8125, 32.705357, 32.75, 32.75, 32.8125, 32.6875, 32.625, 32.4375, 32.3125, 32.25, 32.1875, 32.25, 32.285713, 32.214287, 32.1875, 32.0625, 32.0625, 32.125, 32.125, 32.125, 32, 32.026787, 32.098213, 32.0625, 32.125, 32, 32.25, 32.4375, 32.6875, 32.9375, 33, 33.1875, 33.4375, 33.6875, 33.875, 34, 34, 34.125, 34.375, 34.625, 34.875, 35.0625, 35.125, 35.1875, 35.4375, 35.625, 35.8125, 36.0625, 36.3125, 36.5625, 37, 37.375, 37.5, 37.6875, 37.75, 37.875, 38.125, 38.375, 38.5625, 38.6875, 38.8125, 39.125, 39.482143, 39.75, 40, 40, -10, -10, -10, -10, -10, -10, -10, -10, -10, -10, -10, -10, -10, -10, -10, -10, -10, -10, -10, -10, -10, -10, -10, -10, -10, -10, -10, -10, -10, -10, -10, -10, 46.5, 46.333336, 46.1875, 46.0625, 46.169643, 46.169643, 46.125, 45.928574, 45.674999, 45.669643, 45.407738, 45.455357, 45.3125, 45.285713, 45.125, 44.8125, 44.625, 44.5, 44.5625, 44.6875, 44.508926, 43.883926, 43.166664, 42.848213, 42.875, 43.232143, 43.625, 44.044643, 44.3125, 44.5, 44.833332, 45.008926, 45.354168, 45.446426, 45.375, 45.25, 45.0625, 44.9375, 44.866074, 44.604168, 44.479168, 44.351189, 43.752979, 43.625, 43.419643, 43.3125, 43.375, 43.25, 43.1875, 43.125, 42.9375, 43, 43.0625, 43.3125, 43.5, 43.625, 43.883926, 44.075001, 43.883926, 43.883926, 43.75, 43.625, 43.5, 43.4375, 43.5, 43.6875, 43.74107, 43.526787, 43.321426, 43.0625, 42.8125, 42.705357, 42.842258, 42.795834, 42.282738, 41.98214, 41.78125, 41.71875, 41.78125, 41.84375, 41.75, 41.625, 41.375, 41.25, 41.25, 41.375, 41.5, 41.375, 41.214287, 41.125, 41.0625, 41.125, 41.125, 41.1875, 41.208332, 41.139881, 41.258926, 41.348213, 41.5, 41.4375, 41.3125, 41.1875, 40.9375, 40.803574, 40.5, 40.5625, 40.607143, 40.6875, 40.75, 40.6875, 40.8125, 40.919643, 41.0625, 41.125, 41.0625, 41, 40.8125, 40.625, 40.366074, 40.112499, 40.083332, 39.883926, 39.986607, 39.90625, 39.96875, 39.96875, 39.9375, 40, 40, 40, 39.9375, 40, 40.0625, 40, 40.151787, 40.223213, 40.125, 40.1875, 40.0625, 39.9375, 39.875, 39.8125, 39.6875, 39.625, 39.5625, 39.5, 39.375, 39.25, 39, 38.875, 38.8125, 38.8125, 38.955357, 39.0625, 39.0625, 39.0625, 39, 39, 39.125, 39.098213, 39.026787, 39.0625, 38.875, 38.875, 38.616074, 38.3125, 38.1875, 38, 38.1875, 38.25, 38.375, 38.4375, 38.4375, 38.3125, 38.1875, 38, 37.875, 37.9375, 37.848213, 37.705357, 37.633926, 37.53125, 37.40625, 37.34375, 37.15625, 37, 37, 37.125, 37.1875, 37.169643, 36.979168, 36.821426, 36.8125, 36.8125, 36.875, 37, 37, 37.125, 37.098213, 36.830357, 36.830357, 36.75, 36.6875, 36.75, 36.75, 36.5625, 36.4375, 36.25, 36, 36, 36, 36, 36, 36, 36, 35.9375, 35.8125, 35.75, 35.75, 35.8125, 35.875, 35.8125, 35.75, 35.625, 35.607143, 35.479168, 35.321426, 35.3125, 35.1875, 35.0625, 35.0625, 35, 35.0625, 35.1875, 35.3125, 35.3125, 35.25, 35.0625, 34.741074, 34.273811, 33.973213, 33.875, 33.875, 33.901787, 34.017857, 34.0625, 34.125, 34.0625, 34.0625, 34, 34, 34.0625, 34.1875, 34.1875, 34.25, 34.1875, 34.125, 34.125, 34.0625, 34.0625, 34, 34, 33.9375, 34, 34, 33.9375, 34, 33.875, 33.8125, 33.75, 33.4375, 33.214287, 33.0625, 33, 33.0625, 33.0625, 33.0625, 32.9375, 32.8125, 32.767857, 32.8125, 32.8125, 32.8125, 32.625, 32.5625, 32.375, 32.25, 32.1875, 32.125, 32.15625, 32.34375, 32.34375, 32.28125, 32.1875, 32.0625, 32.125, 32.125, 32.125, 31.9375, 31.901787, 31.973213, 31.9375, 32.0625, 32, 32.25, 32.5, 32.75, 33, 33.125, 33.25, 33.5, 33.75, 33.875, 34, 34, 34.125, 34.375, 34.625, 34.875, 35.0625, 35.125, 35.25, 35.5, 35.6875, 35.875, 36.0625, 36.3125, 36.5625, 37, 37.375, 37.4375, 37.5625, 37.625, 37.6875, 37.9375, 38.1875, 38.3125, 38.5, 38.75, 39.098213, 39.419643, 39.6875, 39.875, 39.916668, -10, -10, -10
44.5, 44.6875, 44.5, 43.821426, 43.282738, 42.946426, 42.9375, 43.1875, 43.5625, 43.982143, 44.3125, 44.4375, 44.5, 44.517857, 44.729168, 44.821426, 44.982143, 45.053574, 45, 44.9375, 44.875, 44.8125, 44.625, 44.205357, 43.520836, 43.3125, 43.169643, 43.1875, 43.3125, 43.1875, 43.125, 43, 42.8125, 42.9375, 43.0625, 43.375, 43.5625, 43.6875, 44.008926, 44.200001, 44.071426, 44.071426, 43.75, 43.5625, 43.375, 43.25, 43.25, 43.5, 43.723213, 43.5625, 43.238094, 43.017857, 42.8125, 42.6875, 42.633926, 42.525002, 42.053574, 41.785713, 41.65625, 41.59375, 41.71875, 41.78125, 41.6875, 41.5625, 41.3125, 41.3125, 41.3125, 41.4375, 41.5625, 41.4375, 41.3125, 41.1875, 41.0625, 41.0625, 41, 40.9375, 40.9375, 41.035713, 41.125, 41.3125, 41.5, 41.5, 41.4375, 41.25, 40.9375, 40.75, 40.5625, 40.5, 40.5625, 40.625, 40.6875, 40.75, 40.875, 40.982143, 41.125, 41.0625, 40.9375, 40.8125, 40.5625, 40.375, 40.1875, 40.0625, 40, 40.125, 40.21875, 40.15625, 40.15625, 40.03125, 39.9375, 40, 40, 40, 40, 40.0625, 40.125, 40.0625, 40.026787, 40.098213, 40, 40.0625, 40.0625, 39.875, 39.75, 39.625, 39.5, 39.5, 39.5, 39.5, 39.4375, 39.375, 39.125, 39, 38.9375, 38.875, 39.017857, 39.125, 39.0625, 39.0625, 39, 39, 39.0625, 39.035713, 38.964287, 39, 39, 39, 38.511906, 38.241074, 38.0625, 37.9375, 38.1875, 38.1875, 38.25, 38.3125, 38.3125, 38.25, 38.1875, 37.9375, 37.8125, 37.8125, 37.723213, 37.642857, 37.571426, 37.59375, 37.46875, 37.40625, 37.21875, 37, 37, 37.0625, 37.125, 37.107143, 36.916668, 36.821426, 36.8125, 36.8125, 36.875, 37, 37, 37.1875, 37.133926, 36.723213, 36.651787, 36.5, 36.5625, 36.75, 36.8125, 36.75, 36.5625, 36.3125, 36.0625, 36, 36, 36, 36, 36.0625, 36.125, 36.044643, 35.729168, 35.571426, 35.5, 35.5625, 35.625, 35.625, 35.5625, 35.5, 35.544643, 35.416668, 35.383926, 35.4375, 35.375, 35.25, 35.1875, 35.0625, 35.125, 35.3125, 35.4375, 35.4375, 35.3125, 35.0625, 34.8125, 34.607143, 34.401787, 34.3125, 34.3125, 34.267857, 34.142857, 34.1875, 34.125, 34.0625, 34, 33.9375, 33.9375, 34, 34.125, 34.125, 34.125, 34.0625, 34.0625, 34.0625, 34, 33.9375, 33.8125, 33.75, 33.6875, 33.8125, 33.875, 33.875, 34, 33.875, 33.8125, 33.6875, 33.375, 33.089287, 32.964287, 32.973213, 33, 33.0625, 33, 32.9375, 32.875, 32.892857, 32.9375, 32.9375, 32.875, 32.6875, 32.6875, 32.5, 32.375, 32.25, 32.0625, 32.03125, 32.21875, 32.21875, 32.21875, 32.1875, 32, 32, 32, 32, 31.875, 31.901787, 31.973213, 31.9375, 32.0625, 32, 32.25, 32.5, 32.75, 33, 33.125, 33.3125, 33.5625, 33.8125, 33.9375, 34, 34, 34.125, 34.375, 34.625, 34.875, 35.0625, 35.1875, 35.375, 35.625, 35.8125, 35.9375, 36.0625, 36.3125, 36.5, 36.875, 37.1875, 37.1875, 37.3125, 37.375, 37.4375, 37.75, 38.0625, 38.294643, 38.5, 38.75, 39.035713, 39.294643, 39.5625, 39.75, 39.833336, -10, -10, -10, -10, -10, -10, -10, -10, -10, -10, -10, -10, -10, -10, -10, -10, -10, -10, -10, -10, -10, -10, -10, -10, -10, -10, -10, -10, -10, -10, -10, -10, 46.375, 46.416668, 46.4375, 46.294643, 45.979168, 45.571426, 45.339287, 45.178574, 45.049999, 45.303574, 45.428574, 45.696426, 45.700001, 45.375, 45.053574, 44.5625, 44.375, 44.3125, 44.375, 44.5625, 44.5625, 43.964287, 43.425598, 43.080357, 43, 43.1875, 43.5, 43.982143, 44.419643, 44.625, 44.75, 44.6875, 44.5625, 44.5, 44.669643, 44.803574, 44.875, 44.875, 44.75, 44.625, 44.4375, 44.071426, 43.666668, 43.4375, 43.1875, 43.1875, 43.25, 43.1875, 43.1875, 43.0625, 42.875, 42.875, 43.0625, 43.4375, 43.6875, 44, 44.258926, 44.387501, 44.258926, 44.133926, 43.75, 43.5, 43.3125, 43.125, 43.125, 43.3125, 43.5, 43.482143, 43.166668, 42.982143, 42.6875, 42.5, 42.375, 42.125, 41.8125, 41.625, 41.53125, 41.40625, 41.53125, 41.53125, 41.4375, 41.3125, 41.125, 41.1875, 41.25, 41.4375, 41.5625, 41.4375, 41.3125, 41.1875, 41.0625, 41.0625, 41.0625, 41, 40.9375, 41, 41, 41.1875, 41.375, 41.375, 41.375, 41.1875, 40.875, 40.625, 40.4375, 40.3125, 40.375, 40.4375, 40.4375, 40.5625, 40.75, 40.982143, 41.1875, 41.125, 40.9375, 40.75, 40.5, 40.375, 40.3125, 40.178574, 40.0625, 40.1875, 40.28125, 40.40625, 40.34375, 40.21875, 40.0625, 40, 40, 40, 40, 40.125, 40.1875, 40.1875, 40.125, 40.0625, 40, 40, 40.0625, 39.875, 39.75, 39.625, 39.4375, 39.5, 39.5625, 39.5625, 39.625, 39.5, 39.1875, 39.125, 39, 38.9375, 39.142857, 39.25, 39.1875, 39.1875, 39.0625, 39, 39.0625, 39.035713, 38.901787, 38.875, 38.8125, 38.8125, 38.449406, 38.178574, 38.0625, 37.9375, 38.0625, 38.0625, 38.0625, 38.0625, 38.0625, 38.0625, 38.0625, 37.875, 37.8125, 37.75, 37.6875, 37.75, 37.75, 37.78125, 37.59375, 37.46875, 37.21875, 37.0625, 37.0625, 37.0625, 37.0625, 37, 37, 37, 36.9375, 36.875, 36.875, 36.875, 36.9375, 37.1875, 37.133926, 36.723213, 36.54464, 36.4375, 36.5625, 36.8125, 36.875, 36.8125, 36.625, 36.4375, 36.25, 36.125, 36.0625, 36, 36.0625, 36.1875, 36.3125, 36.232143, 35.854168, 35.571426, 35.375, 35.375, 35.375, 35.4375, 35.3125, 35.1875, 35.25, 35.3125, 35.375, 35.4375, 35.375, 35.1875, 35.125, 35.0625, 35.0625, 35.25, 35.375, 35.375, 35.3125, 35.0625, 34.8125, 34.6875, 34.625, 34.5, 34.5, 34.5, 34.3125, 34.3125, 34.1875, 34.0625, 34.0625, 34, 34, 34.0625, 34.125, 34.125, 34.125, 34.0625, 34.0625, 34.0625, 34, 33.875, 33.6875, 33.625, 33.625, 33.8125, 34, 34.0625, 34.053574, 33.666668, 33.446426, 33.3125, 33.125, 32.9375, 32.919643, 33.119045, 33.107143, 33.1875, 33.0625, 33, 33, 32.9375, 32.8125, 32.8125, 32.6875, 32.625, 32.6875, 32.5, 32.375, 32.25, 32.0625, 32.03125, 32.15625, 32.15625, 32.15625, 32.125, 32, 32, 32, 31.9375, 31.8125, 31.839287, 31.910713, 31.9375, 32.0625, 32, 32.25, 32.5, 32.75, 33, 33.125, 33.375, 33.625, 33.875, 34, 34, 34, 34.1875, 34.4375, 34.6875, 34.9375, 35.0625, 35.1875, 35.375, 35.625, 35.8125, 35.9375, 36.0625, 36.3125, 36.5, 36.8125, 37.0625, 37.0625, 37.25, 37.375, 37.5, 37.8125, 38.0625, 38.294643, 38.5, 38.75, 39.035713, 39.294643, 39.5625, 39.75, 39.833336, -10, -10, -10
44.6875, 44.875, 44.883926, 44.214287, 43.604168, 43.205357, 43.0625, 43.1875, 43.4375, 43.8125, 44.232143, 44.375, 44.5, 44.4375, 44.3125, 44.25, 44.482143, 44.678574, 44.875, 44.9375, 44.8125, 44.6875, 44.4375, 44.125, 43.9375, 43.6875, 43.5, 43.375, 43.375, 43.3125, 43.375, 43.375, 43.25, 43.25, 43.375, 43.625, 43.8125, 44, 44.125, 44.125, 44.125, 44.125, 43.848213, 43.517857, 43.321426, 43.125, 43.0625, 43.1875, 43.3125, 43.294643, 43.041668, 42.919643, 42.625, 42.4375, 42.3125, 42.0625, 41.8125, 41.625, 41.5, 41.3125, 41.375, 41.3125, 41.1875, 41.125, 41, 41.125, 41.25, 41.375, 41.4375, 41.3125, 41.1875, 41.0625, 41, 41, 41, 41, 40.9375, 41, 41, 41.125, 41.3125, 41.3125, 41.3125, 41.125, 40.75, 40.5, 40.25, 40.125, 40.1875, 40.25, 40.25, 40.375, 40.625, 40.857143, 41.125, 41.125, 40.9375, 40.75, 40.5, 40.4375, 40.4375, 40.303574, 40.1875, 40.25, 40.28125, 40.40625, 40.34375, 40.21875, 40.125, 40.125, 40.125, 40.125, 40.0625, 40.125, 40.1875, 40.1875, 40.125, 40.0625, 39.9375, 39.9375, 39.9375, 39.75, 39.6875, 39.5, 39.3125, 39.25, 39.25, 39.25, 39.375, 39.375, 39.1875, 39.1875, 39.0625, 39, 39.080357, 39.125, 39.0625, 39.0625, 39, 39, 39, 39, 38.875, 38.8125, 38.75, 38.625, 38.324406, 38.053574, 38, 37.9375, 38.0625, 38.0625, 38.0625, 38.0625, 38.0625, 38.125, 38.1875, 38.0625, 38, 37.9375, 37.875, 37.875, 37.8125, 37.78125, 37.59375, 37.46875, 37.28125, 37.125, 37.0625, 37.0625, 37.0625, 37, 37, 37, 36.9375, 36.875, 36.875, 36.8125, 36.875, 37.125, 37.008926, 36.723213, 36.54464, 36.4375, 36.625, 36.8125, 36.875, 36.875, 36.75, 36.5625, 36.375, 36.1875, 36.0625, 36.0625, 36.1875, 36.375, 36.5, 36.357143, 35.979168, 35.633926, 35.4375, 35.375, 35.25, 35.25, 35.125, 35.0625, 35.1875, 35.3125, 35.375, 35.4375, 35.3125, 35.125, 35.0625, 35, 35.125, 35.25, 35.3125, 35.3125, 35.1875, 35, 34.875, 34.8125, 34.8125, 34.6875, 34.625, 34.625, 34.375, 34.3125, 34.1875, 34, 34, 34, 34, 34, 34, 34, 34.0625, 34.0625, 34.0625, 34.0625, 33.9375, 33.8125, 33.6875, 33.625, 33.625, 33.75, 33.875, 33.9375, 33.857143, 33.270836, 33.151787, 33.0625, 33, 32.875, 32.857143, 33.056545, 33.107143, 33.25, 33.125, 33.0625, 33, 32.9375, 32.8125, 32.8125, 32.6875, 32.625, 32.625, 32.4375, 32.375, 32.3125, 32.1875, 32.15625, 32.15625, 32.09375, 32.09375, 32.0625, 32, 32, 32, 31.875, 31.75, 31.75, 31.75, 31.875, 32, 32, 32.1875, 32.4375, 32.6875, 32.9375, 33.0625, 33.25, 33.5, 33.75, 33.9375, 34, 34, 34.1875, 34.4375, 34.6875, 34.9375, 35, 35.0625, 35.3125, 35.5625, 35.8125, 36, 36.0625, 36.1875, 36.3125, 36.5625, 36.794643, 36.875, 37.125, 37.3125, 37.5, 37.8125, 38.125, 38.419643, 38.6875, 38.9375, 39.160713, 39.25, 39.4375, 39.625, 39.666668, -10, -10, -10, -10, -10, -10, -10, -10, -10, -10, -10, -10, -10, -10, -10, -10, -10, -10, -10, -10, -10, -10, -10, -10, -10, -10, -10, -10, -10, -10, -10, -10, 46.25, 46.416668, 46.4375, 46.357143, 45.979168, 45.383926, 45.089287, 45, 45.0625, 45.1875, 45.25, 45.321426, 45.325001, 45.0625, 44.866074, 44.5625, 44.526787, 44.794643, 44.991074, 45.125, 45.071426, 44.35714, 43.729168, 43.383926, 43.25, 43.375, 43.5, 43.8125, 44.232143, 44.348213, 44.4375, 44.3125, 44.0625, 44, 44.232143, 44.428574, 44.6875, 44.8125, 44.75, 44.6875, 44.4375, 44.125, 43.9375, 43.75, 43.625, 43.5625, 43.625, 43.625, 43.6875, 43.8125, 43.75, 43.6875, 43.75, 43.8125, 43.875, 44, 44.0625, 44.0625, 44.0625, 44.0625, 43.785713, 43.392857, 43.160713, 43, 43, 43.125, 43.1875, 43.169643, 42.916668, 42.857143, 42.625, 42.4375, 42.3125, 42.0625, 41.75, 41.5, 41.3125, 41.125, 41.1875, 41.1875, 41.125, 41.125, 41.0625, 41.125, 41.214287, 41.3125, 41.348213, 41.25, 41.125, 41, 41, 41.0625, 41.125, 41.125, 41.0625, 41.0625, 40.9375, 41, 41.125, 41.125, 41.1875, 41, 40.6875, 40.4375, 40.1875, 40.0625, 40.125, 40.125, 40.125, 40.3125, 40.5, 40.625, 40.8125, 40.8125, 40.6875, 40.6875, 40.5625, 40.5, 40.5, 40.366074, 40.1875, 40.1875, 40.1875, 40.25, 40.25, 40.1875, 40.1875, 40.25, 40.25, 40.25, 40.125, 40.0625, 40.0625, 40.0625, 40, 39.9375, 39.8125, 39.8125, 39.8125, 39.75, 39.8125, 39.625, 39.4375, 39.25, 39.125, 39.125, 39.25, 39.3125, 39.25, 39.25, 39.1875, 39.1875, 39.1875, 39.125, 39.0625, 39, 39, 39, 39, 39, 38.8125, 38.6875, 38.5625, 38.375, 38.145832, 38.053574, 38, 38, 38.0625, 38.0625, 38.0625, 38.0625, 38.0625, 38.125, 38.1875, 38.0625, 37.9375, 37.8125, 37.6875, 37.75, 37.6875, 37.75, 37.625, 37.375, 37.214287, 37.0625, 36.9375, 36.9375, 36.9375, 36.875, 36.9375, 37, 36.9375, 36.9375, 36.9375, 36.875, 36.9375, 37.0625, 36.973213, 36.830357, 36.651787, 36.5625, 36.6875, 36.8125, 36.875, 36.9375, 36.803574, 36.5, 36.375, 36.125, 36.0625, 36.125, 36.3125, 36.5, 36.625, 36.482143, 36.104168, 35.821426, 35.625, 35.5625, 35.410713, 35.267857, 35.133926, 35.0625, 35.125, 35.25, 35.375, 35.5, 35.5, 35.3125, 35.1875, 35.0625, 35.0625, 35.125, 35.125, 35.0625, 35, 34.875, 34.875, 34.9375, 34.875, 34.75, 34.5625, 34.4375, 34.25, 34.1875, 34.125, 34, 34, 34, 34, 34, 34, 34.0625, 34.1875, 34.1875, 34.1875, 34.125, 33.9375, 33.8125, 33.75, 33.660713, 33.589287, 33.75, 33.8125, 33.9375, 33.794643, 33.208336, 33.026787, 32.875, 32.875, 32.75, 32.794643, 33.056545, 33.107143, 33.25, 33.125, 33.0625, 33, 32.9375, 32.8125, 32.75, 32.6875, 32.625, 32.5625, 32.4375, 32.3125, 32.3125, 32.3125, 32.25, 32.1875, 32.0625, 32, 32, 32, 31.9375, 31.9375, 31.75, 31.5625, 31.625, 31.625, 31.8125, 32, 32, 32.125, 32.383926, 32.75, 32.9375, 33.0625, 33.125, 33.375, 33.625, 33.875, 34, 34, 34.1875, 34.4375, 34.6875, 34.9375, 35, 35.125, 35.375, 35.625, 35.875, 36.0625, 36.035713, 36.026787, 36.125, 36.3125, 36.669643, 36.8125, 37.1875, 37.375, 37.5625, 37.875, 38.1875, 38.544643, 38.8125, 39, 39.1875, 39.3125, 39.5, 39.75, 39.75, -10, -10, -10
45.241074, 45.3125, 45.267857, 44.73214, 44.104168, 43.821426, 43.625, 43.6875, 43.75, 43.9375, 44.232143, 44.285713, 44.25, 44.125, 44, 44, 44.1875, 44.3125, 44.5625, 44.6875, 44.6875, 44.75, 44.5, 44.3125, 44.125, 43.9375, 43.9375, 43.875, 43.875, 43.875, 43.875, 44.0625, 44.125, 44.0625, 44.0625, 44, 43.9375, 44, 44, 44, 44, 43.9375, 43.723213, 43.330357, 43.098213, 43, 43, 43.0625, 43.0625, 43.0625, 43, 42.964287, 42.6875, 42.4375, 42.25, 42, 41.75, 41.5, 41.28125, 41.09375, 41.15625, 41.28125, 41.4375, 41.520832, 41.270832, 41.169643, 41.151787, 41.25, 41.348213, 41.375, 41.3125, 41.25, 41.25, 41.3125, 41.375, 41.375, 41.375, 41.3125, 41.125, 41.0625, 41, 41, 41.0625, 40.875, 40.580357, 40.375, 40.125, 40.0625, 40.0625, 40, 40, 40.125, 40.375, 40.5625, 40.6875, 40.75, 40.6875, 40.75, 40.75, 40.75, 40.75, 40.616074, 40.375, 40.25, 40.1875, 40.1875, 40.1875, 40.25, 40.3125, 40.375, 40.375, 40.3125, 40.125, 40.0625, 40.0625, 40.0625, 40.0625, 40, 39.8125, 39.8125, 39.75, 39.75, 39.9375, 39.8125, 39.625, 39.375, 39.125, 39, 39.0625, 39.0625, 39.0625, 39.125, 39.0625, 39.0625, 39.0625, 39, 39, 39, 39, 39, 39, 39, 38.8125, 38.6875, 38.5, 38.3125, 38.3125, 38.1875, 38.125, 38.0625, 38.0625, 38.0625, 38.0625, 38.0625, 38.0625, 38.125, 38.125, 38, 37.875, 37.6875, 37.625, 37.6875, 37.5625, 37.625, 37.5, 37.3125, 37.214287, 37.0625, 36.830357, 36.75, 36.75, 36.75, 36.875, 37, 36.9375, 36.9375, 36.9375, 36.875, 36.9375, 37, 36.9375, 36.9375, 36.830357, 36.8125, 36.875, 36.9375, 36.875, 36.875, 36.723213, 36.267857, 36.133926, 35.9375, 35.9375, 36.0625, 36.3125, 36.4375, 36.5, 36.375, 36.125, 35.875, 35.75, 35.75, 35.767857, 35.642857, 35.508926, 35.375, 35.3125, 35.3125, 35.25, 35.214287, 35.1875, 35.0625, 35.0625, 35, 35.0625, 35.0625, 35.0625, 35, 34.9375, 34.875, 34.875, 34.875, 34.75, 34.625, 34.375, 34.25, 34.125, 34.0625, 34.0625, 34, 34, 34, 34, 34, 34, 34.0625, 34.1875, 34.1875, 34.1875, 34.125, 34, 33.9375, 33.9375, 33.848213, 33.776787, 33.875, 33.875, 34, 33.732143, 33.083336, 32.839287, 32.6875, 32.75, 32.75, 32.830357, 33.020832, 33.107143, 33.1875, 33.125, 33.0625, 33, 32.9375, 32.9375, 32.9375, 32.875, 32.8125, 32.5625, 32.375, 32.3125, 32.375, 32.4375, 32.375, 32.25, 32.0625, 32, 32, 32, 31.875, 31.875, 31.6875, 31.5, 31.625, 31.625, 31.8125, 32, 32, 32.125, 32.383926, 32.75, 32.9375, 33.0625, 33.0625, 33.3125, 33.5625, 33.8125, 34, 34, 34.125, 34.375, 34.625, 34.875, 35, 35, 35.25, 35.645832, 35.875, 36.125, 36.035713, 36.026787, 36.1875, 36.375, 36.794643, 37, 37.375, 37.625, 37.8125, 38.0625, 38.25, 38.375, 38.589287, 38.857143, 39.1875, 39.4375, 39.625, 39.875, 39.833332, -10, -10, -10, -10, -10, -10, -10, -10, -10, -10, -10, -10, -10, -10, -10, -10, -10, -10, -10, -10, -10, -10, -10, -10, -10, -10, -10, -10, -10, -10, -10, -10, 46.5, 46.666668, 46.5625, 46.4375, 46.125, 45.705357, 45.642857, 45.637501, 45.571426, 45.633926, 45.5, 45.229168, 45.0625, 44.9375, 44.75, 44.821426, 45.130955, 45.401787, 45.678574, 45.75, 45.642857, 45.196426, 44.711311, 44.642857, 44.25, 44.3125, 44.25, 44.3125, 44.375, 44.285713, 44.1875, 44.0625, 44, 44, 44.1875, 44.3125, 44.482143, 44.5, 44.5625, 44.5625, 44.375, 44.25, 44.125, 44.107143, 44.1875, 44.125, 44.0625, 44, 44, 44.1875, 44.25, 44.1875, 44.125, 44, 43.9375, 43.9375, 43.9375, 43.9375, 43.9375, 43.9375, 43.723213, 43.330357, 43.035713, 42.9375, 42.9375, 43, 43, 43, 43, 43, 42.8125, 42.625, 42.375, 42.1875, 42, 41.8125, 41.71875, 41.53125, 41.53125, 41.65625, 41.875, 41.979164, 41.620834, 41.535713, 41.276787, 41.4375, 41.473213, 41.5625, 41.5625, 41.5, 41.5, 41.5625, 41.625, 41.625, 41.625, 41.5625, 41.375, 41.25, 41.125, 41.125, 41.125, 40.9375, 40.705357, 40.5, 40.25, 40.1875, 40.125, 40, 40, 40.125, 40.3125, 40.4375, 40.5, 40.5, 40.5625, 40.6875, 40.75, 40.8125, 40.75, 40.6875, 40.5625, 40.375, 40.3125, 40.125, 40.125, 40.1875, 40.25, 40.375, 40.375, 40.3125, 40.125, 40, 40.0625, 40.0625, 40.0625, 40.0625, 39.8125, 39.8125, 39.75, 39.75, 39.9375, 39.8125, 39.6875, 39.4375, 39.125, 38.9375, 38.875, 38.875, 38.9375, 39, 39, 39, 39, 39, 39, 39, 39, 39, 39, 39, 38.875, 38.8125, 38.6875, 38.4375, 38.3125, 38.1875, 38.0625, 38.0625, 38.125, 38.0625, 38.0625, 38.0625, 38.0625, 38.125, 38.0625, 37.9375, 37.8125, 37.5625, 37.5625, 37.5625, 37.375, 37.4375, 37.3125, 37.1875, 37.151787, 37, 36.767857, 36.625, 36.625, 36.6875, 36.8125, 37, 37, 37.0625, 37.0625, 37, 36.9375, 36.875, 36.8125, 36.875, 37, 37.0625, 37.107143, 37, 36.875, 36.75, 36.598213, 36.080357, 35.946426, 35.875, 35.9375, 36.125, 36.3125, 36.3125, 36.3125, 36.1875, 35.9375, 35.75, 35.75, 35.8125, 35.892857, 35.705357, 35.571426, 35.4375, 35.4375, 35.5, 35.4375, 35.330357, 35.125, 35.0625, 35, 35, 35.0625, 35.0625, 35.0625, 35, 34.9375, 34.9375, 34.9375, 34.9375, 34.75, 34.5, 34.25, 34.125, 34.0625, 34.0625, 34.0625, 34.0625, 34.0625, 34.125, 34.125, 34.0625, 34.0625, 34.0625, 34.1875, 34.1875, 34.1875, 34.125, 34, 34, 34.0625, 33.973213, 33.901787, 33.9375, 33.875, 33.9375, 33.678574, 33.229168, 33.017857, 32.875, 32.875, 32.875, 32.875, 32.875, 33, 33.0625, 33.0625, 33.0625, 33, 33, 33.0625, 33.0625, 32.9375, 32.875, 32.625, 32.5, 32.5625, 32.625, 32.625, 32.5, 32.3125, 32.0625, 32, 32, 32, 31.9375, 32, 31.875, 31.75, 31.8125, 31.75, 31.875, 32, 32, 32.125, 32.383926, 32.75, 32.9375, 33.0625, 33, 33.25, 33.5, 33.75, 34, 34, 34.0625, 34.25, 34.5, 34.75, 34.9375, 35, 35.25, 35.645832, 35.875, 36.125, 36.035713, 35.964287, 36.125, 36.3125, 36.794643, 37.125, 37.5, 37.75, 37.875, 38, 38.125, 38.1875, 38.401787, 38.794643, 39.232143, 39.5, 39.6875, 39.875, 39.833332, -10, -10, -10
45.741074, 45.8125, 45.75, 45.696426, 45.354168, 45.125, 44.875, 44.84375, 44.71875, 44.75, 44.75, 44.629463, 44.46875, 44.3125, 44.1875, 44.1875, 44.3125, 44.375, 44.544643, 44.4375, 44.4375, 44.375, 44.1875, 44.125, 44, 44.044643, 44.125, 44.125, 44.125, 44.0625, 44, 44.0625, 44.0625, 43.9375, 43.9375, 43.875, 43.875, 44, 44, 44, 44, 43.8125, 43.5625, 43.3125, 43.089287, 43.125, 43.125, 43.125, 43.0625, 43, 43, 42.9375, 42.75, 42.625, 42.375, 42.25, 42.125, 41.9375, 41.90625, 41.84375, 41.90625, 42.03125, 42.25, 42.229164, 41.808334, 41.785713, 41.5625, 41.75, 41.785713, 41.8125, 41.8125, 41.75, 41.75, 41.8125, 41.875, 41.875, 41.875, 41.75, 41.5625, 41.4375, 41.25, 41.25, 41.1875, 40.9375, 40.705357, 40.5, 40.3125, 40.3125, 40.3125, 40.1875, 40.125, 40.1875, 40.25, 40.3125, 40.3125, 40.25, 40.375, 40.5625, 40.75, 40.875, 40.8125, 40.8125, 40.625, 40.5, 40.5, 40.25, 40.25, 40.25, 40.1875, 40.25, 40.25, 40.25, 40.125, 40.0625, 40.125, 40.0625, 40.0625, 40.0625, 39.875, 39.875, 39.875, 39.875, 40, 39.875, 39.6875, 39.5, 39.25, 39.125, 39.0625, 39, 39, 39, 39, 39, 39, 39, 39, 39, 39, 39, 39, 39, 38.9375, 38.875, 38.75, 38.5, 38.3125, 38.25, 38.1875, 38.1875, 38.125, 37.964287, 37.875, 37.875, 37.9375, 37.9375, 37.875, 37.75, 37.6875, 37.5, 37.5625, 37.5625, 37.4375, 37.5, 37.3125, 37.1875, 37.089287, 36.9375, 36.767857, 36.625, 36.625, 36.6875, 36.8125, 36.9375, 36.9375, 36.9375, 36.875, 36.9375, 36.875, 36.875, 36.9375, 36.9375, 37.0625, 37.125, 37.107143, 36.9375, 36.75, 36.5625, 36.348213, 35.892857, 35.821426, 35.875, 36, 36.125, 36.25, 36.125, 36.125, 36, 35.75, 35.625, 35.625, 35.75, 35.892857, 35.705357, 35.571426, 35.5, 35.5625, 35.6875, 35.6875, 35.517857, 35.3125, 35.1875, 35.0625, 35.0625, 35, 34.9375, 34.9375, 34.875, 34.875, 34.90625, 34.875, 34.875, 34.75, 34.59375, 34.375, 34.142857, 34.0625, 34, 34.0625, 34.125, 34.125, 34.1875, 34.125, 34.125, 34.125, 34.125, 34.1875, 34.125, 34.125, 34.125, 34.125, 34.107143, 33.979168, 33.794643, 33.714287, 33.8125, 33.75, 33.8125, 33.5625, 33.3125, 33.125, 33, 32.875, 32.875, 32.875, 32.875, 33, 33, 33, 33, 33.0625, 33.0625, 33.125, 33.125, 32.9375, 32.875, 32.6875, 32.473213, 32.401787, 32.4375, 32.375, 32.375, 32.25, 32.0625, 32, 32, 32, 31.9375, 32, 31.9375, 31.875, 31.9375, 31.875, 31.9375, 32, 32, 32.1875, 32.446426, 32.8125, 33, 33.0625, 33, 33.25, 33.5, 33.75, 34, 34, 34.0625, 34.25, 34.5, 34.75, 34.9375, 35, 35.25, 35.645832, 35.875, 36.125, 36.035713, 36.026787, 36.25, 36.5, 37.044643, 37.375, 37.6875, 37.875, 37.9375, 38, 38.125, 38.1875, 38.401787, 38.857143, 39.294643, 39.625, 39.875, 40, 40, -10, -10, -10, -10, -10, -10, -10, -10, -10, -10, -10, -10, -10, -10, -10, -10, -10, -10, -10, -10, -10, -10, -10, -10, -10, -10, -10, -10, -10, -10, -10, -10, -10, 47, 46.9375, 46.8125, 46.5625, 46.330357, 46.392857, 46.298214, 45.717262, 45.589287, 45.3125, 45.104168, 45.0625, 44.928574, 44.625, 44.883926, 45.345238, 45.589287, 45.8125, 45.875, 45.8125, 45.8125, 45.75, 45.5, 45.25, 45.15625, 45.03125, 45.125, 45.125, 44.96875, 44.78125, 44.5625, 44.4375, 44.4375, 44.5625, 44.625, 44.732143, 44.5, 44.375, 44.1875, 44, 44, 44, 44.107143, 44.1875, 44.1875, 44.1875, 44.1875, 44.125, 44.125, 44, 43.8125, 43.8125, 43.8125, 43.875, 44, 44, 44, 44, 43.75, 43.5625, 43.4375, 43.25, 43.3125, 43.25, 43.1875, 43.125, 43.0625, 43.0625, 42.875, 42.6875, 42.5, 42.1875, 42.0625, 42, 41.90625, 41.9375, 42, 42.0625, 42.21875, 42.5, 42.416664, 41.995834, 42.035713, 41.848213, 42, 42, 42, 42, 42, 42, 42, 42, 42, 42, 41.9375, 41.875, 41.75, 41.5, 41.5, 41.375, 41.125, 40.955357, 40.75, 40.5625, 40.5625, 40.5625, 40.4375, 40.375, 40.375, 40.3125, 40.3125, 40.3125, 40.25, 40.4375, 40.625, 40.8125, 41, 41, 40.9375, 40.6875, 40.5625, 40.5, 40.3125, 40.3125, 40.25, 40.125, 40.125, 40.125, 40.125, 40.0625, 40.125, 40.1875, 40.125, 40.125, 40.0625, 39.9375, 39.9375, 39.9375, 39.9375, 40, 39.875, 39.6875, 39.5, 39.3125, 39.25, 39.1875, 39.0625, 38.964287, 38.9375, 38.9375, 39, 39.0625, 39.0625, 39.0625, 39.0625, 39, 39, 39, 39, 39, 39, 38.875, 38.625, 38.375, 38.3125, 38.25, 38.25, 38.1875, 37.964287, 37.8125, 37.75, 37.8125, 37.8125, 37.8125, 37.8125, 37.8125, 37.6875, 37.8125, 37.75, 37.625, 37.5625, 37.3125, 37.25, 37.125, 37, 36.955357, 36.8125, 36.875, 37, 37, 37.0625, 37, 36.9375, 36.875, 36.9375, 36.875, 36.875, 36.9375, 36.9375, 37.0625, 37.125, 37.044643, 36.8125, 36.5625, 36.3125, 36.169643, 35.892857, 35.821426, 35.9375, 36, 36.0625, 36.125, 36, 36, 35.9375, 35.75, 35.625, 35.625, 35.6875, 35.794643, 35.6875, 35.5625, 35.5625, 35.6875, 35.75, 35.6875, 35.392857, 35.0625, 35, 34.9375, 35, 35, 34.875, 34.875, 34.875, 34.8125, 34.84375, 34.75, 34.6875, 34.6875, 34.59375, 34.4375, 34.205357, 34.0625, 34, 34.0625, 34.125, 34.125, 34.1875, 34.1875, 34.1875, 34.125, 34.026787, 34, 33.9375, 34, 34.0625, 34.1875, 34.142857, 33.880955, 33.758926, 33.6875, 33.8125, 33.75, 33.6875, 33.4375, 33.25, 33.125, 33.0625, 32.9375, 32.875, 32.875, 32.875, 33, 33, 33, 33, 33, 33, 33.0625, 33.125, 33, 32.875, 32.6875, 32.410713, 32.339287, 32.375, 32.25, 32.25, 32.125, 32, 32, 32, 32, 32, 32.0625, 32.0625, 32.125, 32.125, 32.0625, 32.0625, 32, 32, 32.25, 32.5, 32.75, 33, 33, 33.0625, 33.3125, 33.5625, 33.8125, 34, 34, 34, 34.1875, 34.4375, 34.6875, 34.96875, 35.03125, 35.28125, 35.677082, 35.9375, 36.125, 36.0625, 36.1875, 36.375, 36.6875, 37.169643, 37.5, 37.75, 37.9375, 38, 38.0625, 38.1875, 38.25, 38.464287, 38.857143, 39.232143, 39.5625, 39.8125, 39.9375, 40, -10, -10, -10
