-10, -10, -10, -10, -10, -10, -10, -10, -10, -10, -10, -10, -10, -10, -10, -10, -10, -10, -10, -10, 34.5, 34.333332, 34.25, 34, 34, 33.916668, 33.833332, 33.583332, 33.333332, 33.166668, 33, 33, 32.916668, 32.666668, 32.416668, 32.166668, 31.916666, 31.666666, 31.416666, 31.166666, 31, 31, 31, 31, 31, 30.75, 30.5, 30.25, 30, 30, 30, 29.916666, 29.666666, 29.416666, 29.166666, 29, 29, 28.916666, 28.666666, 28.5, 28.333334, 28.166666, 28.166666, 28.083334, 28, 27.75, 27.5, 27.25, 27, 27, 26.916666, 26.75, 26.5, 26.25, 26.166666, 25.964285, 25.607141, 25.345238, 25.083334, 25, 24.833334, 24.833334, 24.630951, 24.273809, 24.178572, 24, 24, 24, 24, 24, 24, 23.916666, 23.666666, 23.416666, 23.166666, 23, 23, 23, 22.833334, 22.583334, 22.333334, 22.083334, 22, 21.75, 21.583334, 21.416666, 21.166666, 21.166666, 21, 20.833334, 20.75, 20.75, 20.583334, 20.416666, 20.25, 20, 20, 20, 19.75, 19.5, 19.25, 19, 18.75, 18.5, 18.25, 18, 18, 18, 18, 18, 18, 17.75, 17.5, 17.25, 17, 17, 16.833334, 16.666666, 16.416666, 16.166666, 16.083334, 16, 16, 15.916667, 15.75, 15.5, 15.25, 15.083333, 15, 14.916667, 14.75, 14.5, 14.25, 14.083333, 14, 14, 13.833333, 13.583333, 13.5, 13.25, 13.166667, 13.166667, 13, 13, 12.833333, 12.583333, 12.333333, 12.083333, 12, 12, 12, 12, 12, 12, 12, 12, 12, 12, 12, 12, 12, 12, 11.916667, 11.916667, 11.833333, 11.833333, 11.916667, 11.916667, 12, 12, 12, 12.166667, 12.333333, 12.416667, 12.416667, 12.333333, 12.25, 12.166667, 12.166667, 12.083333, 12, 12, 12, 12, 12, 12, 12, 12, 11.916667, 11.75, 11.75, 11.75, 11.833333, 12, 12, 12, 12, 12, 12, 12, 11.916667, 11.833333, 11.75, 11.666667, 11.75, 11.833333, 11.916667, 12, 12, 12, 12, 12, 12, 12, 12, 12, 12, 12, 12, 12, 12, 12, 11.916667, 11.833333, 11.833333, 11.75, 11.833333, 11.916667, 11.916667, 12, 12, 12, 11.916667, 11.916667, 11.833333, 11.75, 11.666667, 11.5, 11.666667, 11.75, 11.916667, 12.083333, 12, 11.916667, 11.916667, 11.916667, 11.916667, 12, 12, 12, 11.916667, 11.916667, 11.916667, 11.916667, 12, -10, -10, -10, -10, -10, -10, -10, -10, -10, 25.916666, 26.166666, 26.446428, 26.946428, 27.226191, 27.25, 27.25, 27.083334, 26.916666, 26.916666, 26.916666, 27, 27.083334, 27.083334, 27.166666, 27, 27, 27, 26.916666, 27.166666, 27.130951, 26.946428, 26.958334, 26.791666, 26.958334, 27.125, 27.25, 27.416666, 27.416666, 27.452383, 27.75, 27.964285, 28.277779, 28.375, 28.25, 28.291668, -10, -10, -10, -10, -10, -10, -10, -10, -10, -10, -10, -10, -10, -10, -10, -10, -10, -10, -10, -10, -10, -10, -10, -10, -10, -10, -10, -10, -10, -10, -10, -10, -10, -10, -10, -10, -10, -10, -10, -10, -10, -10, -10, -10, -10, -10, -10, -10, -10, -10, -10, -10, -10, -10, -10, -10, -10, -10, -10, -10, -10, -10, -10, -10, -10, -10, -10, -10, -10, -10, -10, -10, -10, -10, -10, -10, 34.5, 34.333332, 34.25, 33.9375, 33.875, 33.8125, 33.75, 33.5625, 33.375, 33.1875, 33, 33, 32.875, 32.625, 32.375, 32.125, 31.9375, 31.75, 31.5625, 31.375, 31.1875, 31.125, 31.0625, 31, 31, 30.75, 30.5, 30.25, 30, 30, 30, 29.9375, 29.6875, 29.4375, 29.125, 28.9375, 28.875, 28.8125, 28.6875, 28.5, 28.375, 28.1875, 28.125, 28.0625, 28, 27.75, 27.5, 27.25, 27, 27, 26.9375, 26.8125, 26.5625, 26.3125, 26.1875, 25.973213, 25.642857, 25.446428, 25.1875, 25.0625, 24.9375, 24.875, 24.723213, 24.392857, 24.258928, 24.0625, 24, 24, 24, 23.9375, 23.9375, 23.875, 23.625, 23.4375, 23.1875, 23, 23, 22.9375, 22.75, 22.5, 22.25, 22.0625, 22, 21.8125, 21.625, 21.4375, 21.1875, 21.125, 21.0625, 20.910713, 20.705357, 20.633928, 20.4375, 20.3125, 20.1875, 20, 20, 20, 19.75, 19.5, 19.25, 19, 18.75, 18.5, 18.25, 18, 18, 18, 17.9375, 17.9375, 17.9375, 17.6875, 17.5, 17.25, 17, 17, 16.875, 16.6875, 16.4375, 16.1875, 16.0625, 16, 16, 15.875, 15.6875, 15.4375, 15.1875, 15.0625, 15, 14.9375, 14.8125, 14.625, 14.375, 14.1875, 14.0625, 14, 13.875, 13.6875, 13.5625, 13.3125, 13.1875, 13.125, 13, 13, 12.8125, 12.5625, 12.3125, 12.0625, 12, 12, 12, 12, 12, 12, 12, 12, 12, 12, 12, 12, 12, 12, 11.875, 11.8125, 11.75, 11.75, 11.875, 11.9375, 11.9375, 11.875, 11.875, 12, 12.1875, 12.3125, 12.3125, 12.25, 12.1875, 12.125, 12.125, 12.0625, 12, 12, 12, 12, 12, 12, 12, 12, 11.9375, 11.8125, 11.8125, 11.75, 11.8125, 11.9375, 11.9375, 12, 12, 12, 12, 12, 11.9375, 11.8125, 11.6875, 11.625, 11.6875, 11.8125, 11.9375, 12, 12, 12, 12, 12, 12, 12, 12, 12, 12, 12, 12, 12, 12, 12, 11.875, 11.8125, 11.8125, 11.75, 11.8125, 11.875, 11.875, 11.9375, 12, 11.9375, 11.8125, 11.8125, 11.75, 11.6875, 11.6875, 11.5625, 11.6875, 11.8125, 11.9375, 12.0625, 12, 11.875, 11.875, 11.875, 11.875, 12, 12, 12, 11.9375, 11.9375, 11.9375, 11.916667, -10, -10, -10, -10, -10, -10, -10, -10, -10, -10, 26.428572, 26.571428, 26.584822, 26.959822, 27.169643, 27.1875, 27.1875, 27.0625, 26.9375, 26.9375, 26.9375, 27, 27.0625, 27.0625, 27.125, 27, 27, 26.9375, 26.875, 27.0625, 27.035713, 26.959822, 26.96875, 26.90625, 27.09375, 27.21875, 27.3125, 27.375, 27.375, 27.464287, 27.75, 27.973213, 28.208334, 28.25, 28.25, 28.361113, 28.625, 28.625, -10, -10, -10, -10, -10, -10, -10, -10, -10, -10
-10, -10, -10, -10, -10, -10, -10, -10, -10, -10, -10, -10, -10, -10, -10, -10, -10, -10, -10, -10, 34.375, 34.25, 34.1875, 33.9375, 33.8125, 33.75, 33.75, 33.5625, 33.4375, 33.25, 33, 33, 32.8125, 32.5625, 32.3125, 32.0625, 31.9375, 31.8125, 31.6875, 31.5625, 31.4375, 31.375, 31.3125, 31.1875, 31.125, 30.8125, 30.5, 30.25, 30, 30, 30, 29.9375, 29.6875, 29.4375, 29.125, 28.9375, 28.875, 28.875, 28.75, 28.5625, 28.4375, 28.1875, 28.125, 28.0625, 27.9375, 27.6875, 27.5, 27.25, 27.0625, 27.0625, 27, 26.875, 26.625, 26.375, 26.1875, 26.035713, 25.767857, 25.633928, 25.4375, 25.3125, 25.1875, 25.0625, 24.848213, 24.455357, 24.258928, 24.0625, 24, 24, 24, 23.9375, 23.875, 23.75, 23.5, 23.3125, 23.125, 23, 23, 22.875, 22.6875, 22.4375, 22.1875, 22.0625, 22, 21.8125, 21.625, 21.4375, 21.1875, 21.125, 21.125, 20.946428, 20.598213, 20.455357, 20.25, 20.1875, 20.125, 20, 20, 20, 19.75, 19.5, 19.25, 19, 18.8125, 18.5625, 18.3125, 18.0625, 18, 18, 17.9375, 17.9375, 17.9375, 17.6875, 17.5, 17.25, 17, 17, 16.9375, 16.75, 16.5625, 16.303572, 16, 16, 15.875, 15.75, 15.5, 15.25, 15.0625, 15, 15, 14.9375, 14.75, 14.625, 14.375, 14.1875, 14.125, 14, 13.9375, 13.8125, 13.625, 13.375, 13.25, 13.125, 13.0625, 13.0625, 12.8125, 12.5625, 12.3125, 12.0625, 12, 12, 12, 12, 12, 12, 11.9375, 11.875, 11.875, 11.875, 11.9375, 12, 12, 12, 11.8125, 11.75, 11.6875, 11.6875, 11.8125, 11.8125, 11.75, 11.625, 11.6875, 11.8125, 12, 12.125, 12.0625, 12, 11.875, 11.875, 11.9375, 11.9375, 12, 12, 12, 12, 11.9375, 11.9375, 11.9375, 11.9375, 11.9375, 11.8125, 11.8125, 11.75, 11.8125, 11.9375, 11.9375, 12, 12, 12, 12, 12, 11.875, 11.6875, 11.5, 11.4375, 11.5625, 11.75, 11.9375, 12, 12, 12, 12, 12, 12, 12, 12, 12, 12, 12, 12, 12, 12, 11.9375, 11.75, 11.6875, 11.6875, 11.6875, 11.8125, 11.875, 11.875, 11.9375, 12, 11.9375, 11.8125, 11.8125, 11.6875, 11.5625, 11.5625, 11.4375, 11.5, 11.625, 11.75, 11.875, 11.9375, 11.8125, 11.75, 11.75, 11.75, 11.9375, 12, 12, 12.0625, 12.083333, 12, -10, -10, -10, -10, -10, -10, -10, -10, -10, -10, 27, 26.8125, 26.875, 26.84375, 26.90625, 26.9375, 26.9375, 27, 27, 26.875, 26.8125, 26.75, 26.8125, 26.9375, 26.9375, 27, 26.875, 26.90625, 26.96875, 26.96875, 27.09375, 26.910713, 26.709822, 26.736607, 26.927084, 27.209822, 27.34375, 27.375, 27.375, 27.4375, 27.526787, 27.8125, 27.973213, 28.125, 28.1875, 28.1875, 28.333334, 28.666666, 28.75, 28.910713, 28.642857, 28.458332, -10, -10, -10, -10, -10, -10, -10, -10, -10, -10, -10, -10, -10, -10, -10, -10, -10, -10, -10, -10, -10, -10, -10, -10, -10, -10, -10, -10, -10, -10, -10, -10, -10, -10, -10, -10, -10, -10, -10, -10, -10, -10, -10, -10, -10, -10, -10, -10, -10, -10, -10, -10, -10, -10, -10, -10, -10, -10, -10, -10, -10, -10, -10, -10, -10, -10, -10, -10, -10, -10, -10, 34.25, 34.166664, 34.125, 33.9375, 33.8125, 33.6875, 33.625, 33.4375, 33.3125, 33.1875, 33, 32.9375, 32.75, 32.5, 32.25, 32.0625, 32, 31.9375, 31.875, 31.75, 31.625, 31.5625, 31.419643, 31.1875, 31.125, 30.8125, 30.625, 30.375, 30.125, 30.0625, 30, 30, 29.8125, 29.5625, 29.25, 29, 28.875, 28.875, 28.8125, 28.6875, 28.625, 28.375, 28.25, 28.125, 27.875, 27.625, 27.4375, 27.1875, 27.0625, 27.0625, 27, 26.875, 26.625, 26.375, 26.125, 26, 25.875, 25.8125, 25.6875, 25.5, 25.375, 25.25, 25.035713, 24.642857, 24.383928, 24.125, 24, 24, 24, 23.9375, 23.875, 23.6875, 23.4375, 23.25, 23.125, 23.0625, 23.0625, 22.9375, 22.625, 22.375, 22.125, 22, 22, 21.875, 21.625, 21.375, 21.0625, 20.9375, 21, 20.821428, 20.473213, 20.267857, 20.0625, 20.0625, 20.0625, 20, 20, 20, 19.75, 19.5, 19.25, 19, 18.875, 18.625, 18.4375, 18.1875, 18.0625, 18.0625, 17.9375, 17.875, 17.875, 17.625, 17.4375, 17.25, 17, 17, 16.9375, 16.8125, 16.625, 16.366072, 16.0625, 15.9375, 15.75, 15.625, 15.375, 15.1875, 15.0625, 15, 15, 14.9375, 14.8125, 14.6875, 14.4375, 14.25, 14.125, 14, 14, 13.875, 13.625, 13.375, 13.25, 13.125, 13.125, 13.125, 12.8125, 12.5625, 12.3125, 12.0625, 12, 12, 12, 12, 12, 12, 11.9375, 11.8125, 11.8125, 11.8125, 11.875, 12, 12, 12, 11.8125, 11.6875, 11.5625, 11.5, 11.5625, 11.5625, 11.5, 11.375, 11.5, 11.625, 11.8125, 11.9375, 11.8125, 11.8125, 11.75, 11.8125, 11.9375, 11.9375, 12, 12, 11.9375, 11.875, 11.75, 11.75, 11.8125, 11.875, 11.9375, 11.875, 11.8125, 11.6875, 11.75, 11.8125, 11.875, 12, 12, 12, 12, 12, 11.875, 11.625, 11.375, 11.25, 11.3125, 11.5625, 11.8125, 11.9375, 12, 12, 12, 12, 12, 12, 12, 12, 11.9375, 11.9375, 11.9375, 11.9375, 12, 11.875, 11.625, 11.5, 11.4375, 11.5, 11.6875, 11.8125, 11.875, 11.9375, 12, 11.9375, 11.8125, 11.8125, 11.625, 11.4375, 11.4375, 11.3125, 11.375, 11.5, 11.5625, 11.6875, 11.8125, 11.6875, 11.625, 11.5625, 11.5625, 11.8125, 11.9375, 11.9375, 12, 12, -10, -10, -10, -10, -10, -10, -10, -10, -10, -10, 26.5, 26.777779, 26.8125, 26.8125, 26.75, 26.625, 26.625, 26.625, 26.6875, 26.75, 26.625, 26.5625, 26.5, 26.625, 26.8125, 26.8125, 26.875, 26.8125, 26.84375, 26.90625, 26.90625, 26.84375, 26.625, 26.53125, 26.517857, 26.842262, 27.324406, 27.522322, 27.5625, 27.5, 27.5, 27.526787, 27.8125, 27.973213, 28.0625, 28.125, 28.125, 28.25, 28.571428, 28.762501, 28.797617, 28.761904, 28.555555, 28.75, 29.125, 29.416668, -10, -10, -10, -10
-10, -10, -10, -10, -10, -10, -10, -10, -10, -10, -10, -10, -10, -10, -10, -10, -10, -10, -10, -10, 34.25, 34.166664, 34.125, 33.9375, 33.8125, 33.6875, 33.5625, 33.375, 33.25, 33.125, 33, 32.9375, 32.75, 32.5, 32.25, 32.0625, 32, 32, 32, 31.875, 31.75, 31.625, 31.419643, 31.1875, 31.125, 30.8125, 30.6875, 30.4375, 30.1875, 30.125, 30, 30, 29.875, 29.616072, 29.104166, 28.892857, 28.75, 28.8125, 28.8125, 28.6875, 28.625, 28.375, 28.25, 28.125, 27.8125, 27.625, 27.5, 27.25, 27.1875, 27.125, 27, 26.875, 26.6875, 26.4375, 26.1875, 26.0625, 25.9375, 25.9375, 25.8125, 25.625, 25.4375, 25.1875, 25, 24.75, 24.5, 24.25, 24.0625, 24, 24, 23.9375, 23.875, 23.75, 23.5625, 23.4375, 23.375, 23.241072, 23.0625, 22.9375, 22.5625, 22.375, 22.125, 22, 22, 21.9375, 21.75, 21.5, 21.1875, 20.9375, 20.9375, 20.758928, 20.473213, 20.330357, 20.125, 20.125, 20.125, 20.0625, 20.0625, 20.0625, 19.75, 19.5, 19.25, 19, 18.9375, 18.75, 18.625, 18.4375, 18.3125, 18.25, 18, 17.839287, 17.8125, 17.5625, 17.4375, 17.25, 17, 17, 17, 16.9375, 16.75, 16.491072, 16.125, 15.9375, 15.6875, 15.5625, 15.3125, 15.125, 15.0625, 15, 15, 15, 14.9375, 14.8125, 14.5625, 14.3125, 14.125, 14, 13.9375, 13.8125, 13.5625, 13.3125, 13.25, 13.125, 13.0625, 13, 12.625, 12.375, 12.1875, 12, 12, 12, 12, 12, 12, 12, 11.875, 11.75, 11.75, 11.75, 11.875, 11.9375, 11.875, 11.875, 11.75, 11.6875, 11.625, 11.5, 11.4375, 11.375, 11.25, 11.0625, 11.214286, 11.482143, 11.741072, 11.9375, 11.75, 11.75, 11.6875, 11.75, 11.875, 11.8125, 11.875, 11.875, 11.8125, 11.75, 11.5625, 11.5625, 11.6875, 11.8125, 12, 12, 11.9375, 11.75, 11.6875, 11.625, 11.625, 11.75, 11.8125, 11.875, 11.9375, 11.9375, 11.75, 11.5, 11.25, 11.1875, 11.25, 11.4375, 11.6875, 11.8125, 11.9375, 12, 11.9375, 11.875, 11.875, 11.8125, 11.8125, 11.8125, 11.6875, 11.75, 11.8125, 11.875, 12, 11.8125, 11.5625, 11.4375, 11.3125, 11.4375, 11.5625, 11.625, 11.6875, 11.75, 11.875, 11.875, 11.875, 11.8125, 11.625, 11.4375, 11.375, 11.3125, 11.3125, 11.4375, 11.4375, 11.5, 11.6875, 11.625, 11.5625, 11.5, 11.5, 11.625, 11.75, 11.75, 11.8125, 11.833333, -10, -10, -10, -10, -10, -10, -10, -10, -10, -10, 26.333334, 26.583334, 26.5625, 26.5625, 26.4375, 26.25, 26.1875, 26.125, 26.1875, 26.3125, 26.3125, 26.3125, 26.3125, 26.375, 26.5, 26.5, 26.5625, 26.625, 26.65625, 26.71875, 26.71875, 26.59375, 26.4375, 26.375, 26.392857, 26.717262, 27.136906, 27.375, 27.5, 27.3125, 27.3125, 27.375, 27.625, 27.875, 28, 27.9375, 28, 28.125, 28.508928, 28.887501, 28.785713, 28.821428, 28.666666, 28.916666, 29.25, 29.527779, 29.875, 29.875, -10, -10, -10, -10, -10, -10, -10, -10, -10, -10, -10, -10, -10, -10, -10, -10, -10, -10, -10, -10, -10, -10, -10, -10, -10, -10, -10, -10, -10, -10, -10, -10, -10, -10, -10, -10, -10, -10, -10, -10, -10, -10, -10, -10, -10, -10, -10, -10, -10, -10, -10, -10, -10, -10, -10, -10, -10, -10, -10, -10, -10, -10, -10, -10, -10, -10, 34.208332, 34.145832, 34.125, 34, 33.9375, 33.75, 33.5625, 33.3125, 33.125, 33.0625, 33, 32.875, 32.6875, 32.4375, 32.1875, 32.0625, 32, 32, 32, 31.8125, 31.6875, 31.5625, 31.357143, 31.1875, 31.125, 30.8125, 30.6875, 30.4375, 30.1875, 30.125, 30, 29.9375, 29.8125, 29.553572, 29.104166, 28.955357, 28.9375, 28.973213, 28.839287, 28.75, 28.5625, 28.375, 28.25, 28.0625, 27.75, 27.625, 27.5, 27.3125, 27.25, 27.125, 26.9375, 26.8125, 26.6875, 26.4375, 26.25, 26.125, 26, 26, 25.9375, 25.75, 25.5625, 25.3125, 25.0625, 24.875, 24.625, 24.4375, 24.3125, 24.1875, 24.0625, 23.892857, 23.8125, 23.625, 23.5, 23.375, 23.3125, 23.178572, 22.9375, 22.875, 22.5, 22.375, 22.1875, 22, 22, 21.9375, 21.8125, 21.625, 21.3125, 21.0625, 20.875, 20.598213, 20.392857, 20.321428, 20.25, 20.3125, 20.375, 20.25, 20.1875, 20.125, 19.75, 19.5, 19.25, 19, 19, 18.875, 18.8125, 18.625, 18.4375, 18.3125, 18.0625, 17.901787, 17.875, 17.6875, 17.5625, 17.375, 17.125, 17.0625, 17, 17, 16.8125, 16.553572, 16.1875, 15.9375, 15.625, 15.5, 15.25, 15.0625, 15.0625, 15, 15, 15, 14.9375, 14.75, 14.5, 14.25, 14.0625, 14, 13.9375, 13.75, 13.5, 13.25, 13.1875, 13.125, 13, 12.875, 12.5, 12.25, 12.125, 12, 12, 12, 11.9375, 11.875, 11.8125, 11.75, 11.625, 11.5625, 11.625, 11.6875, 11.8125, 11.8125, 11.6875, 11.6875, 11.6875, 11.6875, 11.625, 11.4375, 11.25, 11.125, 11.0625, 10.9375, 11.089286, 11.357143, 11.616072, 11.75, 11.5625, 11.5625, 11.4375, 11.5, 11.625, 11.5625, 11.625, 11.625, 11.5625, 11.5, 11.3125, 11.3125, 11.5, 11.625, 11.875, 11.9375, 11.8125, 11.6875, 11.5625, 11.4375, 11.4375, 11.5, 11.5625, 11.6875, 11.75, 11.75, 11.5625, 11.375, 11.25, 11.25, 11.3125, 11.375, 11.5, 11.625, 11.75, 11.8125, 11.75, 11.625, 11.625, 11.5625, 11.5625, 11.5625, 11.4375, 11.5625, 11.625, 11.6875, 11.8125, 11.5625, 11.375, 11.25, 11.125, 11.25, 11.375, 11.4375, 11.5, 11.5625, 11.6875, 11.75, 11.8125, 11.75, 11.5, 11.3125, 11.1875, 11.125, 11.125, 11.25, 11.25, 11.3125, 11.5, 11.5, 11.4375, 11.375, 11.375, 11.375, 11.5, 11.5, 11.5625, 11.583333, -10, -10, -10, -10, -10, -10, -10, -10, 26, 26, 26.25, 26.333334, 26.3125, 26.3125, 26.1875, 26, 25.9375, 25.875, 25.875, 26, 26, 26, 26.0625, 26.125, 26.25, 26.25, 26.3125, 26.375, 26.40625, 26.53125, 26.53125, 26.40625, 26.28125, 26.21875, 26.236607, 26.498512, 26.824406, 27.0625, 27.1875, 27.0625, 27.125, 27.1875, 27.544643, 27.8125, 28, 27.9375, 27.9375, 28, 28.258928, 28.637501, 28.598213, 28.758928, 28.75, 28.9375, 29.1875, 29.458334, 29.75, 29.916666, 29.821428, 29.410713
-10, -10, -10, -10, -10, -10, -10, -10, -10, -10, -10, -10, -10, -10, -10, -10, -10, -10, -10, 34.25, 34.208332, 34.145832, 34.125, 34, 34, 33.8125, 33.625, 33.375, 33.125, 33.0625, 33, 32.875, 32.6875, 32.4375, 32.1875, 32.0625, 32, 32, 32, 31.75, 31.5625, 31.375, 31.107143, 31, 31, 30.8125, 30.8125, 30.625, 30.375, 30.25, 30.0625, 29.875, 29.75, 29.491072, 29.041666, 28.955357, 29, 29.008926, 28.794643, 28.696428, 28.5, 28.375, 28.25, 28, 27.6875, 27.5625, 27.375, 27.25, 27.1875, 27.0625, 26.9375, 26.875, 26.75, 26.5, 26.3125, 26.125, 26, 26, 25.9375, 25.6875, 25.5, 25.25, 25.0625, 25, 24.8125, 24.6875, 24.5, 24.3125, 24.125, 23.821428, 23.541666, 23.321428, 23.25, 23.25, 23.25, 23.178572, 22.875, 22.875, 22.5, 22.375, 22.25, 22, 22, 22, 21.9375, 21.75, 21.4375, 21.125, 20.8125, 20.5625, 20.5, 20.5, 20.5, 20.5625, 20.625, 20.4375, 20.3125, 20.125, 19.6875, 19.4375, 19.1875, 19, 19, 18.9375, 18.9375, 18.8125, 18.625, 18.4375, 18.125, 17.839287, 17.8125, 17.6875, 17.625, 17.5, 17.25, 17.125, 17, 17, 16.8125, 16.5625, 16.3125, 16, 15.6875, 15.5, 15.25, 15.0625, 15.0625, 15, 15, 15, 15, 14.75, 14.5, 14.25, 14, 14, 13.9375, 13.75, 13.5, 13.25, 13.125, 13.0625, 12.875, 12.6875, 12.375, 12.125, 12.0625, 12, 12, 12, 11.9375, 11.875, 11.75, 11.625, 11.5, 11.4375, 11.5, 11.625, 11.6875, 11.625, 11.5, 11.5, 11.5625, 11.5625, 11.5, 11.25, 11.0625, 11, 11, 10.9375, 11.026786, 11.232143, 11.428572, 11.5, 11.375, 11.4375, 11.375, 11.4375, 11.5, 11.375, 11.375, 11.375, 11.3125, 11.3125, 11.1875, 11.1875, 11.375, 11.4375, 11.625, 11.6875, 11.5625, 11.4375, 11.3125, 11.1875, 11.1875, 11.25, 11.3125, 11.4375, 11.5, 11.5, 11.375, 11.3125, 11.3125, 11.3125, 11.3125, 11.25, 11.25, 11.375, 11.5, 11.5625, 11.5, 11.375, 11.375, 11.3125, 11.3125, 11.3125, 11.25, 11.4375, 11.5, 11.5625, 11.625, 11.375, 11.25, 11.125, 11, 11.0625, 11.125, 11.1875, 11.25, 11.3125, 11.4375, 11.5, 11.5625, 11.5, 11.375, 11.3125, 11.1875, 11.125, 11.0625, 11.125, 11.125, 11.125, 11.1875, 11.1875, 11.1875, 11.1875, 11.25, 11.1875, 11.25, 11.3125, 11.375, 11.416667, -10, -10, -10, -10, -10, -10, -10, -10, 25.888887, 25.916666, 26, 26.083334, 26, 25.9375, 25.892857, 25.875, 25.8125, 25.8125, 25.625, 25.625, 25.625, 25.625, 25.8125, 25.9375, 26.0625, 26.125, 26.125, 26.125, 26.0625, 26.0625, 26.0625, 26, 26.03125, 26.15625, 26.15625, 26.227678, 26.458334, 26.625, 26.9375, 26.9375, 26.964287, 27.125, 27.464287, 27.75, 28, 27.9375, 27.9375, 27.9375, 28.071428, 28.387501, 28.517857, 28.75, 28.8125, 29, 29.125, 29.4375, 29.625, 29.6875, 29.404762, 29.107141, 28.928572, 28.875, 28.904762, -10, -10, -10, -10, -10, -10, -10, -10, -10, -10, -10, -10, -10, -10, -10, -10, -10, -10, -10, -10, -10, -10, -10, -10, -10, -10, -10, -10, -10, -10, -10, -10, -10, -10, -10, -10, -10, -10, -10, -10, -10, -10, -10, -10, -10, -10, -10, -10, -10, -10, -10, -10, -10, -10, -10, -10, -10, -10, -10, -10, 34.166668, 34.208332, 34.145832, 34.125, 34, 34, 33.875, 33.6875, 33.4375, 33.1875, 33.0625, 33, 32.9375, 32.6875, 32.4375, 32.1875, 32, 32, 32, 32, 31.75, 31.5, 31.25, 31, 31, 31, 30.875, 30.8125, 30.625, 30.375, 30.25, 30.0625, 29.8125, 29.625, 29.366072, 28.916666, 28.892857, 29, 28.946426, 28.732143, 28.571428, 28.3125, 28.25, 28.125, 27.9375, 27.6875, 27.5625, 27.375, 27.25, 27.1875, 27.0625, 26.9375, 26.9375, 26.8125, 26.5625, 26.375, 26.125, 26, 26, 25.9375, 25.6875, 25.5, 25.25, 25.0625, 25.0625, 24.9375, 24.8125, 24.625, 24.375, 24.125, 23.758928, 23.354166, 23.026785, 23, 23.0625, 23.125, 23.116072, 22.8125, 22.8125, 22.5, 22.375, 22.25, 22, 22, 22, 22, 21.8125, 21.5625, 21.25, 20.875, 20.6875, 20.5625, 20.5625, 20.5625, 20.5625, 20.625, 20.4375, 20.3125, 20.0625, 19.625, 19.375, 19.125, 19, 19, 19, 19, 18.875, 18.6875, 18.4375, 18.0625, 17.776787, 17.6875, 17.625, 17.625, 17.5, 17.3125, 17.125, 17, 17, 16.875, 16.625, 16.375, 16.125, 15.8125, 15.625, 15.375, 15.125, 15.0625, 15, 15, 15, 15, 14.75, 14.5, 14.25, 14, 14, 13.9375, 13.75, 13.5, 13.25, 13.0625, 13, 12.8125, 12.625, 12.4375, 12.1875, 12.125, 12.0625, 12, 12, 11.9375, 11.8125, 11.625, 11.4375, 11.25, 11.25, 11.3125, 11.5, 11.5625, 11.4375, 11.3125, 11.25, 11.3125, 11.375, 11.375, 11.1875, 11.0625, 11, 11, 10.9375, 10.964286, 11.169643, 11.303572, 11.375, 11.3125, 11.3125, 11.25, 11.3125, 11.3125, 11.1875, 11.1875, 11.125, 11.125, 11.1875, 11.125, 11.125, 11.25, 11.25, 11.375, 11.4375, 11.375, 11.3125, 11.1875, 11.0625, 11, 11, 11.0625, 11.1875, 11.25, 11.25, 11.1875, 11.1875, 11.25, 11.3125, 11.3125, 11.1875, 11.125, 11.1875, 11.25, 11.3125, 11.25, 11.125, 11.125, 11.0625, 11.0625, 11.0625, 11.0625, 11.25, 11.3125, 11.375, 11.375, 11.1875, 11.125, 11.0625, 11, 11, 11, 11, 11, 11.0625, 11.1875, 11.25, 11.3125, 11.25, 11.1875, 11.1875, 11.125, 11.125, 11.0625, 11.125, 11.125, 11.125, 11.098214, 11.026786, 11.0625, 11.0625, 11.1875, 11.0625, 11.0625, 11.125, 11.25, 11.333333, -10, -10, -10, -10, -10, -10, -10, 25.25, 25.666666, 25.6875, 25.8125, 25.875, 25.8125, 25.6875, 25.544643, 25.5625, 25.5, 25.5625, 25.3125, 25.3125, 25.3125, 25.3125, 25.5625, 25.6875, 25.8125, 25.875, 25.875, 25.8125, 25.616072, 25.4375, 25.4375, 25.4375, 25.947916, 26.227678, 26.34375, 26.34375, 26.25, 26.321428, 26.625, 26.75, 26.901787, 27.0625, 27.339287, 27.625, 27.875, 27.875, 27.9375, 27.866072, 27.799999, 28.116072, 28.303572, 28.5625, 28.75, 28.9375, 29.0625, 29.3125, 29.4375, 29.375, 29.17857, 28.955357
-10, -10, -10, -10, -10, -10, -10, -10, -10, -10, -10, -10, -10, -10, -10, -10, -10, -10, -10, 34.25, 34.166664, 34.125, 34.125, 33.9375, 33.875, 33.8125, 33.625, 33.4375, 33.25, 33.0625, 33, 32.9375, 32.75, 32.5, 32.25, 32.0625, 32, 32, 31.9375, 31.6875, 31.4375, 31.1875, 31, 31, 31, 30.875, 30.75, 30.5625, 30.3125, 30.25, 30.125, 29.8125, 29.517857, 29.25, 29, 29, 29.125, 29.008926, 28.732143, 28.508928, 28.1875, 28.1875, 28.0625, 27.9375, 27.75, 27.5, 27.25, 27.1875, 27.098213, 26.892857, 26.830357, 26.8125, 26.6875, 26.5, 26.3125, 26.0625, 26, 26, 26, 25.75, 25.5625, 25.3125, 25.0625, 25.0625, 25, 24.9375, 24.75, 24.5, 24.1875, 23.696428, 23.291666, 22.964285, 22.875, 22.9375, 22.9375, 22.9375, 22.8125, 22.8125, 22.5625, 22.375, 22.25, 22, 22, 22, 21.9375, 21.75, 21.5, 21.25, 21, 20.875, 20.6875, 20.5625, 20.5, 20.4375, 20.5, 20.375, 20.25, 19.9375, 19.5625, 19.3125, 19.0625, 19, 19, 19, 18.9375, 18.75, 18.5, 18.25, 17.9375, 17.6875, 17.5625, 17.5, 17.5, 17.4375, 17.3125, 17.125, 17, 17, 16.875, 16.625, 16.375, 16.125, 15.875, 15.75, 15.5625, 15.375, 15.25, 15.125, 15.0625, 15, 15, 14.75, 14.5, 14.25, 14, 13.9375, 13.9375, 13.8125, 13.5625, 13.375, 13.125, 13, 12.875, 12.6875, 12.5, 12.3125, 12.1875, 12.125, 12.0625, 12, 11.875, 11.6875, 11.4375, 11.1875, 11.0625, 11.0625, 11.125, 11.3125, 11.3125, 11.25, 11.1875, 11.125, 11.1875, 11.1875, 11.1875, 11.0625, 11, 11, 11, 11, 11, 11.0625, 11.125, 11.125, 11.125, 11.125, 11.0625, 11.125, 11.125, 11.0625, 11.0625, 11, 11, 11, 11, 11, 11.0625, 11.0625, 11.125, 11.1875, 11.125, 11.125, 11.0625, 11, 11, 11, 11, 11.0625, 11.0625, 11.0625, 11.0625, 11.125, 11.25, 11.3125, 11.3125, 11.1875, 11.0625, 11.0625, 11.0625, 11, 10.9375, 10.875, 10.875, 10.9375, 11, 11, 11.0625, 11.1875, 11.1875, 11.1875, 11.125, 11, 11, 11, 11, 11, 11, 11, 11, 11, 11.0625, 11.0625, 11.0625, 11.0625, 11.0625, 11.125, 11.125, 11.125, 11.0625, 11.0625, 11.0625, 11.0625, 10.973214, 10.901786, 10.9375, 10.9375, 11.0625, 11, 11, 11.0625, -10, -10, -10, -10, -10, -10, -10, -10, 25, 25.166666, 25.416666, 25.4375, 25.5625, 25.625, 25.5, 25.3125, 25.232143, 25.3125, 25.375, 25.5, 25.25, 25.1875, 25.125, 25.125, 25.3125, 25.4375, 25.5625, 25.625, 25.5625, 25.4375, 25.241072, 24.928572, 25.071428, 25.214285, 25.885416, 26.290178, 26.46875, 26.46875, 26.375, 26.375, 26.5, 26.6875, 26.776787, 26.875, 27.089287, 27.3125, 27.625, 27.8125, 27.9375, 27.866072, 27.737499, 27.928572, 28.053572, 28.375, 28.625, 28.8125, 29.008928, 29.325001, 29.1875, 29.1875, 29.05357, 29, 29.008928, 29.125, 29.077381, 28.940475, 28.800001, 28.875, 29, -10, -10, -10, -10, -10, -10, -10, -10, -10, -10, -10, -10, -10, -10, -10, -10, -10, -10, -10, -10, -10, -10, -10, -10, -10, -10, -10, -10, -10, -10, -10, -10, -10, -10, -10, -10, -10, -10, -10, -10, -10, -10, -10, -10, -10, -10, -10, -10, -10, -10, -10, -10, -10, -10, -10, -10, 34.25, 34.166664, 34.125, 34.125, 33.9375, 33.875, 33.875, 33.75, 33.5625, 33.375, 33.125, 33, 33, 32.875, 32.625, 32.375, 32.125, 32, 31.9375, 31.8125, 31.5625, 31.3125, 31.125, 31, 31, 31, 30.875, 30.75, 30.5625, 30.3125, 30.25, 30.125, 29.8125, 29.517857, 29.25, 29, 29, 29.0625, 28.910713, 28.642857, 28.383928, 28.125, 28.1875, 28.125, 28.0625, 27.8125, 27.4375, 27.1875, 27.0625, 27.035713, 26.830357, 26.767857, 26.6875, 26.5, 26.375, 26.1875, 26, 26, 26, 26, 25.75, 25.5, 25.25, 25, 25, 25, 24.9375, 24.75, 24.5625, 24.3125, 23.928572, 23.479166, 23.089285, 22.9375, 22.9375, 22.9375, 22.9375, 22.875, 22.875, 22.625, 22.4375, 22.25, 22, 22, 22, 21.875, 21.625, 21.375, 21.125, 21, 21, 20.875, 20.6875, 20.5, 20.3125, 20.25, 20.1875, 20.125, 19.8125, 19.5625, 19.3125, 19.0625, 19.0625, 19, 19, 18.9375, 18.75, 18.5, 18.25, 17.9375, 17.6875, 17.5, 17.375, 17.3125, 17.25, 17.1875, 17.0625, 17, 16.9375, 16.8125, 16.5625, 16.3125, 16.125, 15.9375, 15.875, 15.75, 15.5625, 15.375, 15.1875, 15.0625, 15, 14.9375, 14.6875, 14.4375, 14.1875, 14, 13.9375, 13.9375, 13.8125, 13.5625, 13.375, 13.125, 13, 12.9375, 12.8125, 12.625, 12.4375, 12.25, 12.125, 12.0625, 12, 11.9375, 11.75, 11.5, 11.25, 11.0625, 11, 11, 11.125, 11.125, 11.125, 11.125, 11.0625, 11.0625, 11.0625, 11.0625, 11, 11, 11, 11, 11, 11, 11, 11, 11, 11, 11.0625, 11.0625, 11.125, 11.125, 11.0625, 11.0625, 10.9375, 10.875, 10.8125, 10.8125, 10.875, 10.9375, 11, 11, 11, 10.9375, 10.9375, 10.9375, 10.9375, 11, 11, 11, 11, 11, 11, 11, 11.0625, 11.125, 11.125, 11.125, 11.0625, 11, 11, 11, 10.9375, 10.875, 10.875, 10.875, 10.9375, 11, 11, 11.0625, 11.125, 11.125, 11.125, 11.0625, 11, 11, 11, 11, 11, 10.9375, 10.875, 10.875, 10.875, 10.9375, 11, 11, 11, 11.0625, 11.125, 11.125, 11.125, 11.0625, 11, 11, 11, 10.910714, 10.839286, 10.875, 10.875, 11, 11, 11, 11.083333, -10, -10, -10, -10, -10, -10, -10, -10, 25, 25.125, 25.166666, 25.1875, 25.3125, 25.375, 25.1875, 24.9375, 24.857143, 24.9375, 25.0625, 25.25, 25.0625, 25, 25, 25, 25.125, 25.25, 25.3125, 25.375, 25.3125, 25.1875, 24.991072, 24.8125, 25, 25.1875, 25.791666, 26.196428, 26.375, 26.375, 26.3125, 26.3125, 26.5, 26.75, 26.839287, 27, 27.107143, 27.25, 27.5, 27.6875, 27.8125, 27.741072, 27.674999, 27.803572, 27.866072, 28.25, 28.5, 28.8125, 29.133928, 29.369642, 28.979166, 28.854166, 28.851191, 29.107143
-10, -10, -10, -10, -10, -10, -10, -10, -10, -10, -10, -10, -10, -10, -10, -10, -10, -10, -10, 34.25, 34.166664, 34.125, 34.125, 33.9375, 33.875, 33.875, 33.6875, 33.5, 33.3125, 33.0625, 33, 33, 32.875, 32.625, 32.375, 32.125, 32, 31.9375, 31.8125, 31.625, 31.375, 31.1875, 31.0625, 31, 31, 30.875, 30.6875, 30.4375, 30.1875, 30.125, 30.0625, 29.875, 29.580357, 29.3125, 29.0625, 29, 29, 28.875, 28.6875, 28.4375, 28.1875, 28.1875, 28.125, 28.125, 27.9375, 27.5625, 27.3125, 27.125, 27.035713, 26.830357, 26.705357, 26.5625, 26.375, 26.25, 26.125, 26, 26, 26, 25.9375, 25.6875, 25.4375, 25.1875, 25, 25, 25, 24.875, 24.6875, 24.5, 24.25, 23.9375, 23.75, 23.392857, 23.1875, 23.125, 23, 22.9375, 22.9375, 22.9375, 22.6875, 22.5, 22.25, 22, 22, 22, 21.8125, 21.5625, 21.3125, 21.0625, 21, 21, 20.875, 20.6875, 20.4375, 20.1875, 20.0625, 20, 20, 19.75, 19.5625, 19.3125, 19.0625, 19.0625, 19, 19, 18.875, 18.625, 18.375, 18.125, 17.875, 17.75, 17.5625, 17.375, 17.25, 17.125, 17.0625, 16.9375, 16.9375, 16.875, 16.6875, 16.5, 16.25, 16.0625, 16, 16, 15.9375, 15.75, 15.5, 15.25, 15.0625, 14.9375, 14.8125, 14.5625, 14.3125, 14.125, 14, 13.9375, 13.9375, 13.8125, 13.5625, 13.375, 13.125, 13, 13, 12.9375, 12.75, 12.5625, 12.3125, 12.125, 12.0625, 11.9375, 11.8125, 11.5625, 11.3125, 11.125, 11, 11, 11, 11.0625, 11.0625, 11.0625, 11.0625, 11, 11, 11, 11, 11, 11, 11, 11, 11, 11, 11, 11, 11, 11, 11, 11, 11.0625, 11.0625, 11.0625, 11.0625, 10.9375, 10.8125, 10.6875, 10.6875, 10.75, 10.875, 11, 11, 10.9375, 10.8125, 10.75, 10.75, 10.8125, 10.9375, 11, 11, 11, 11, 11, 11, 11, 11, 11, 11, 11, 11, 11, 11, 10.9375, 10.875, 10.875, 10.875, 10.9375, 11, 11, 11, 11, 11, 11, 11, 11, 11, 11, 11, 11, 10.875, 10.8125, 10.8125, 10.8125, 10.9375, 11, 11, 11, 11, 11, 11, 11, 11, 11, 11, 11.0625, 11.035714, 10.964286, 11, 10.9375, 11, 11, 11, -10, -10, -10, -10, -10, -10, -10, -10, -10, 25, 24.9375, 24.875, 24.8125, 24.8125, 24.9375, 24.8125, 24.625, 24.526787, 24.5, 24.6875, 24.875, 24.875, 24.875, 24.9375, 25, 25.0625, 25.125, 25.125, 25.125, 25.125, 25.0625, 24.928572, 24.75, 24.9375, 25.125, 25.729166, 26.133928, 26.3125, 26.3125, 26.25, 26.25, 26.375, 26.625, 26.8125, 27, 27.0625, 27.125, 27.3125, 27.4375, 27.625, 27.616072, 27.612499, 27.803572, 27.803572, 28.25, 28.5, 28.875, 29.321428, 29.432142, 29.130951, 29.139881, 29.136906, 29.273809, 29.571428, 29.833334, 29.678572, 29.4375, 29.267857, 29.125, 29.125, 29.166666, 29.166666, 29.523809, 30.155556, 29.809525, 29.533333, -10, -10, -10, -10, -10, -10, -10, -10, -10, -10, -10, -10, -10, -10, -10, -10, -10, -10, -10, -10, -10, -10, -10, -10, -10, -10, -10, -10, -10, -10, -10, -10, -10, -10, -10, -10, -10, -10, -10, -10, -10, -10, -10, -10, -10, -10, -10, -10, -10, -10, 34.25, 34.166664, 34.125, 34.125, 33.9375, 33.875, 33.875, 33.6875, 33.5, 33.3125, 33.0625, 33, 33, 32.875, 32.625, 32.375, 32.125, 32, 31.9375, 31.8125, 31.625, 31.375, 31.1875, 31.0625, 31, 31, 30.8125, 30.5625, 30.3125, 30.0625, 30.0625, 30.0625, 29.875, 29.580357, 29.3125, 29.0625, 29, 28.9375, 28.8125, 28.5625, 28.3125, 28.125, 28.125, 28.125, 28.125, 28, 27.6875, 27.5, 27.3125, 27.160713, 26.892857, 26.705357, 26.5625, 26.375, 26.25, 26.125, 26, 26, 26, 25.875, 25.625, 25.375, 25.125, 25, 25, 25, 24.875, 24.6875, 24.5, 24.25, 24, 23.9375, 23.75, 23.5, 23.375, 23.125, 22.9375, 22.9375, 22.9375, 22.6875, 22.5, 22.25, 22, 22, 22, 21.75, 21.5, 21.25, 21, 21, 21, 20.9375, 20.8125, 20.5625, 20.3125, 20.125, 20, 19.9375, 19.6875, 19.5, 19.25, 19.0625, 19.0625, 19, 19, 18.8125, 18.5625, 18.3125, 18.0625, 17.9375, 17.875, 17.75, 17.5, 17.3125, 17.125, 17, 16.9375, 16.9375, 16.875, 16.625, 16.4375, 16.1875, 16, 16, 16, 15.9375, 15.75, 15.5, 15.25, 15.0625, 14.875, 14.75, 14.5, 14.25, 14.125, 14, 13.9375, 13.9375, 13.875, 13.625, 13.4375, 13.1875, 13, 13, 12.9375, 12.6875, 12.5, 12.25, 12.0625, 12.0625, 11.9375, 11.75, 11.5, 11.25, 11.0625, 11, 11, 11, 11, 11, 11, 11, 11, 11, 10.9375, 10.9375, 10.9375, 10.9375, 11, 11, 11, 11, 10.9375, 10.9375, 10.9375, 10.9375, 11, 11, 11, 11, 11, 11, 10.9375, 10.8125, 10.6875, 10.6875, 10.75, 10.875, 11, 10.9375, 10.875, 10.6875, 10.625, 10.6875, 10.75, 10.9375, 11, 11, 11, 11, 11, 11, 11, 11, 11, 11, 11, 11, 11, 11, 10.9375, 10.875, 10.875, 10.875, 10.9375, 11, 11, 11, 11, 11, 11, 11, 11, 11, 11, 11, 11, 10.875, 10.8125, 10.8125, 10.8125, 10.9375, 11, 11, 11, 11, 11, 10.9375, 10.875, 10.8125, 10.75, 10.8125, 10.875, 10.9375, 11, 11, 11, 11, 11, 11, -10, -10, -10, -10, -10, -10, -10, -10, 24.666668, 24.8125, 24.6875, 24.625, 24.5625, 24.5, 24.5625, 24.4375, 24.3125, 24.3125, 24.375, 24.625, 24.75, 24.875, 24.875, 24.9375, 25, 25, 25, 24.9375, 25, 25, 25, 25, 25, 25.1875, 25.375, 25.5625, 25.75, 25.839287, 25.910713, 25.9375, 26.0625, 26.25, 26.5625, 26.75, 27.0625, 27.125, 27.125, 27.25, 27.25, 27.4375, 27.5625, 27.6875, 27.839287, 27.910713, 28.25, 28.5, 28.8125, 29.258928, 29.369642, 29.130951, 29.202381, 29.261906, 29.398809
-10, -10, -10, -10, -10, -10, -10, -10, -10, -10, -10, -10, -10, -10, -10, -10, -10, -10, -10, 34.125, 34.083332, 34.0625, 34, 33.9375, 33.9375, 33.875, 33.75, 33.5, 33.1875, 33, 32.9375, 32.9375, 32.8125, 32.5625, 32.3125, 32.0625, 32, 31.9375, 31.875, 31.6875, 31.4375, 31.25, 31.0625, 31, 31, 30.875, 30.625, 30.375, 30.125, 30, 30, 29.875, 29.6875, 29.4375, 29.1875, 29.0625, 28.9375, 28.75, 28.5, 28.25, 28.0625, 28.125, 28.098213, 27.955357, 27.821428, 27.625, 27.5, 27.3125, 27.1875, 27, 26.8125, 26.6875, 26.4375, 26.25, 26.125, 26, 26, 26, 25.8125, 25.5625, 25.3125, 25.0625, 25, 25, 25, 24.8125, 24.625, 24.4375, 24.1875, 24.0625, 24, 23.8125, 23.5625, 23.375, 23.125, 22.9375, 22.9375, 22.9375, 22.6875, 22.5, 22.25, 22, 22, 22, 21.75, 21.5, 21.25, 21, 21, 21, 21, 20.875, 20.625, 20.375, 20.125, 20, 19.9375, 19.6875, 19.5, 19.25, 19.0625, 19.0625, 19, 18.9375, 18.8125, 18.625, 18.375, 18.1875, 18.0625, 18, 17.9375, 17.6875, 17.4375, 17.1875, 17, 16.9375, 16.9375, 16.875, 16.6875, 16.5, 16.25, 16.0625, 16, 16, 15.875, 15.625, 15.375, 15.125, 15, 14.875, 14.6875, 14.4375, 14.1875, 14.0625, 14, 14, 14, 13.9375, 13.6875, 13.4375, 13.1875, 13, 13, 13, 12.75, 12.5, 12.25, 12, 12, 11.9375, 11.8125, 11.5625, 11.3125, 11.125, 11, 11, 11, 11, 10.9375, 10.9375, 10.9375, 10.9375, 11, 10.875, 10.875, 10.875, 10.875, 10.9375, 10.875, 10.875, 10.875, 10.875, 10.9375, 10.9375, 10.9375, 11, 11, 11, 11, 11, 11, 10.9375, 10.8125, 10.75, 10.75, 10.8125, 10.9375, 11, 10.9375, 10.875, 10.625, 10.5, 10.5, 10.5, 10.75, 10.875, 10.9375, 11, 11, 11, 11, 11, 11, 11, 11, 10.9375, 10.9375, 10.9375, 10.9375, 11, 11, 11, 11, 11, 11, 11, 11, 11, 11, 11, 11, 11, 11, 11, 11, 11, 10.875, 10.8125, 10.8125, 10.8125, 10.9375, 11, 11, 11, 11, 11, 10.9375, 10.8125, 10.6875, 10.5625, 10.625, 10.6875, 10.75, 10.875, 10.875, 10.9375, 11, 11, -10, -10, -10, -10, -10, -10, -10, -10, 24.25, 24.444445, 24.625, 24.5, 24.5, 24.4375, 24.3125, 24.375, 24.25, 24.1875, 24.1875, 24.3125, 24.473213, 24.526787, 24.6875, 24.625, 24.8125, 24.8125, 24.8125, 24.875, 24.75, 24.875, 24.9375, 24.9375, 25, 25, 25.125, 25.25, 25.4375, 25.5625, 25.651787, 25.723213, 25.75, 25.9375, 26.232143, 26.625, 26.875, 27.25, 27.375, 27.3125, 27.3125, 27.1875, 27.25, 27.375, 27.5625, 27.776787, 27.973213, 28.3125, 28.5, 28.75, 29.0625, 29.044643, 29.005951, 29.077381, 29.074406, 29.104166, 29.3125, 29.3125, 29.375, 29.3125, 29.080357, 28.9375, 28.875, 28.919643, 28.928572, 29.267857, 29.783335, 29.654762, 29.516666, 29.261904, 29, 29, 28.875, 28.833332, -10, -10, -10, -10, -10, -10, -10, -10, -10, -10, -10, -10, -10, -10, -10, -10, -10, -10, -10, -10, -10, -10, -10, -10, -10, -10, -10, -10, -10, -10, -10, -10, -10, -10, -10, -10, -10, -10, -10, -10, -10, -10, -10, -10, -10, 34, 34, 34, 33.875, 33.875, 33.8125, 33.6875, 33.5625, 33.3125, 33, 32.875, 32.8125, 32.8125, 32.75, 32.5, 32.3125, 32.0625, 32, 32, 32, 31.8125, 31.5625, 31.3125, 31.0625, 31, 31, 30.875, 30.625, 30.375, 30.125, 30, 30, 29.9375, 29.8125, 29.5625, 29.3125, 29.125, 28.9375, 28.8125, 28.625, 28.375, 28.1875, 28.125, 28.035713, 27.830357, 27.758928, 27.625, 27.5, 27.375, 27.1875, 27.0625, 26.9375, 26.875, 26.625, 26.375, 26.1875, 26, 26, 26, 25.75, 25.5, 25.25, 25, 25, 25, 25, 24.75, 24.5, 24.25, 24, 23.9375, 23.9375, 23.875, 23.625, 23.4375, 23.1875, 23, 23, 23, 22.8125, 22.5625, 22.3125, 22.0625, 22, 22, 21.75, 21.5, 21.25, 21, 21, 21, 21, 20.875, 20.625, 20.375, 20.125, 20, 19.9375, 19.75, 19.5, 19.25, 19.0625, 19, 18.9375, 18.75, 18.526787, 18.4375, 18.285713, 18.1875, 18.125, 18, 18, 17.8125, 17.5625, 17.3125, 17.0625, 16.9375, 16.9375, 16.9375, 16.8125, 16.6875, 16.4375, 16.1875, 16.0625, 16, 15.8125, 15.5625, 15.3125, 15.0625, 15, 14.8125, 14.6875, 14.4375, 14.1875, 14.125, 14, 14, 14, 14, 13.8125, 13.625, 13.366072, 13, 13, 12.9375, 12.75, 12.5, 12.25, 12, 12, 11.9375, 11.8125, 11.5625, 11.3125, 11.125, 11, 11, 11, 11, 10.875, 10.8125, 10.75, 10.75, 10.875, 10.8125, 10.875, 10.875, 10.875, 10.9375, 10.8125, 10.8125, 10.8125, 10.875, 11, 11, 11, 11, 11, 11, 10.9375, 10.875, 10.8125, 10.75, 10.6875, 10.6875, 10.6875, 10.6875, 10.8125, 10.875, 10.875, 10.8125, 10.5625, 10.375, 10.3125, 10.3125, 10.5, 10.6875, 10.8125, 10.9375, 10.9375, 10.9375, 10.9375, 10.9375, 10.9375, 10.875, 10.875, 10.75, 10.8125, 10.875, 10.875, 11, 11, 11, 11, 10.9375, 10.875, 10.8125, 10.75, 10.8125, 10.875, 10.9375, 11, 11, 11, 11, 11, 11, 10.9375, 10.875, 10.875, 10.875, 10.9375, 11, 11, 10.9375, 10.875, 10.8125, 10.6875, 10.5625, 10.4375, 10.375, 10.5, 10.625, 10.75, 10.875, 10.875, 10.9375, 11, -10, -10, -10, -10, -10, -10, -10, -10, 24, 24.166666, 24.395834, 24.410713, 24.142857, 24.142857, 24.0625, 23.9375, 24, 23.9375, 23.9375, 24, 24.125, 24.160713, 24.151787, 24.3125, 24.375, 24.5625, 24.5625, 24.5625, 24.5625, 24.4375, 24.5625, 24.625, 24.6875, 24.875, 24.9375, 25, 25.089287, 25.357143, 25.419643, 25.526787, 25.598213, 25.625, 25.875, 26.169643, 26.5625, 26.8125, 27.125, 27.3125, 27.25, 27.25, 27.125, 27.125, 27.25, 27.375, 27.660715, 28.119047, 28.428572, 28.625, 28.6875, 28.8125, 28.8125, 28.964287, 29.035713, 28.928572, 28.729166
-10, -10, -10, -10, -10, -10, -10, -10, -10, -10, -10, -10, -10, -10, -10, -10, -10, -10, -10, 34, 34, 34.083332, 33.9375, 33.9375, 33.875, 33.6875, 33.5625, 33.3125, 33, 32.875, 32.75, 32.6875, 32.625, 32.375, 32.25, 32.0625, 32, 32, 32, 31.75, 31.5, 31.25, 31, 30.9375, 30.875, 30.6875, 30.4375, 30.25, 30.0625, 30, 30, 29.875, 29.75, 29.5, 29.25, 29.125, 28.9375, 28.8125, 28.625, 28.375, 28.1875, 28.125, 28.035713, 27.767857, 27.633928, 27.5, 27.375, 27.375, 27.3125, 27.25, 27.1875, 27.0625, 26.705357, 26.4375, 26.1875, 26, 26, 26, 25.75, 25.5, 25.25, 25, 25, 25, 25, 24.75, 24.5, 24.25, 24, 24, 24, 24, 23.75, 23.5, 23.25, 23, 23, 22.9375, 22.75, 22.5, 22.25, 22.0625, 22, 22, 21.75, 21.5, 21.25, 21, 21, 21, 21, 20.8125, 20.5625, 20.3125, 20.0625, 20, 19.9375, 19.8125, 19.5625, 19.3125, 19.125, 19, 18.866072, 18.549999, 18.517857, 18.419643, 18.348213, 18.25, 18.125, 18, 18, 17.8125, 17.5625, 17.3125, 17.0625, 17, 17, 17, 16.9375, 16.75, 16.5, 16.25, 16.0625, 16, 15.8125, 15.5625, 15.3125, 15.0625, 15, 14.875, 14.75, 14.5, 14.25, 14.125, 14, 14, 14, 14, 13.875, 13.6875, 13.366072, 12.892857, 12.8125, 12.6875, 12.5625, 12.375, 12.1875, 12, 12, 12, 11.9375, 11.6875, 11.4375, 11.1875, 11, 11, 11, 10.9375, 10.75, 10.625, 10.5, 10.5625, 10.75, 10.75, 10.875, 10.875, 10.875, 10.9375, 10.75, 10.6875, 10.6875, 10.75, 10.875, 10.9375, 10.9375, 10.9375, 11, 11, 10.875, 10.75, 10.625, 10.5625, 10.5625, 10.625, 10.6875, 10.625, 10.6875, 10.75, 10.75, 10.75, 10.5625, 10.375, 10.25, 10.1875, 10.3125, 10.4375, 10.625, 10.75, 10.75, 10.75, 10.75, 10.8125, 10.8125, 10.75, 10.6875, 10.5, 10.5625, 10.625, 10.6875, 10.875, 10.9375, 11, 11, 10.875, 10.75, 10.625, 10.5, 10.625, 10.75, 10.8125, 10.875, 10.8125, 10.8125, 10.8125, 10.875, 10.9375, 10.875, 10.8125, 10.8125, 10.8125, 10.875, 11, 10.9375, 10.8125, 10.6875, 10.5625, 10.4375, 10.375, 10.25, 10.25, 10.4375, 10.5625, 10.75, 10.8125, 10.8125, 10.9375, 11.05, -10, -10, -10, -10, -10, -10, -10, 24, 24, 24.0625, 24.020834, 23.973213, 23.705357, 23.767857, 23.8125, 23.75, 23.75, 23.6875, 23.625, 23.75, 23.9375, 23.892857, 23.764286, 23.919643, 23.875, 24.1875, 24.1875, 24.25, 24.375, 24.223213, 24.205357, 24.196428, 24.258928, 24.708334, 24.794643, 24.8125, 24.839287, 25.044643, 25.107143, 25.276787, 25.410713, 25.5, 25.875, 26.232143, 26.625, 26.875, 27.0625, 27.25, 27.1875, 27.1875, 27.125, 27.0625, 27.125, 27.25, 27.535715, 28.056547, 28.366072, 28.5, 28.5, 28.5625, 28.625, 28.75, 28.678572, 28.416666, 28.330357, 28.375, 28.4375, 28.4375, 28.4375, 28.241072, 27.857143, 27.857143, 28.051022, 28.574406, 28.866072, 29, 28.9375, 29, 28.875, 28.8125, 28.875, 28.8125, 28.854166, 29, 29, 29, 28.875, 28.833332, -10, -10, -10, -10, -10, -10, -10, -10, -10, -10, -10, -10, -10, -10, -10, -10, -10, -10, -10, -10, -10, -10, -10, -10, -10, -10, -10, -10, -10, -10, -10, -10, -10, -10, -10, -10, -10, -10, -10, -10, -10, 34, 34.083332, 33.9375, 33.9375, 33.875, 33.6875, 33.5625, 33.3125, 33, 32.8125, 32.625, 32.5, 32.4375, 32.25, 32.1875, 32.0625, 32, 32, 32, 31.75, 31.5, 31.25, 31, 30.9375, 30.8125, 30.625, 30.375, 30.1875, 30.0625, 30, 30, 29.9375, 29.8125, 29.5625, 29.3125, 29.125, 29, 28.9375, 28.75, 28.5, 28.25, 28.125, 28.035713, 27.767857, 27.571428, 27.375, 27.1875, 27.1875, 27.1875, 27.1875, 27.1875, 27.0625, 26.705357, 26.4375, 26.1875, 26, 26, 26, 25.75, 25.5, 25.25, 25, 25, 25, 25, 24.75, 24.5, 24.25, 24, 24, 24, 23.9375, 23.6875, 23.4375, 23.1875, 23, 23, 22.9375, 22.75, 22.5, 22.25, 22.0625, 22, 21.9375, 21.6875, 21.4375, 21.1875, 21, 21, 21, 20.9375, 20.6875, 20.4375, 20.1875, 20, 20, 20, 19.9375, 19.6875, 19.4375, 19.1875, 19, 18.866072, 18.549999, 18.580357, 18.482143, 18.410713, 18.3125, 18.0625, 17.9375, 17.875, 17.6875, 17.5, 17.25, 17.0625, 17, 17, 16.9375, 16.875, 16.6875, 16.4375, 16.25, 16.0625, 16, 15.8125, 15.5625, 15.3125, 15.0625, 15, 14.9375, 14.75, 14.5, 14.1875, 14, 13.9375, 13.9375, 14, 13.9375, 13.8125, 13.625, 13.303572, 12.892857, 12.75, 12.5625, 12.4375, 12.25, 12.125, 12, 12, 12, 12, 11.75, 11.5, 11.25, 11, 11, 11, 10.875, 10.625, 10.4375, 10.25, 10.3125, 10.5, 10.625, 10.75, 10.75, 10.75, 10.6875, 10.5, 10.4375, 10.4375, 10.5, 10.625, 10.6875, 10.6875, 10.6875, 10.75, 10.75, 10.625, 10.5625, 10.5, 10.5, 10.5, 10.5, 10.5625, 10.5, 10.5625, 10.6875, 10.6875, 10.625, 10.5, 10.25, 10.0625, 10, 10.0625, 10.1875, 10.375, 10.5, 10.5, 10.5, 10.5, 10.5625, 10.5625, 10.5, 10.4375, 10.25, 10.3125, 10.375, 10.4375, 10.6875, 10.75, 10.8125, 10.8125, 10.6875, 10.625, 10.5, 10.375, 10.4375, 10.5, 10.5625, 10.625, 10.5625, 10.5625, 10.5625, 10.625, 10.6875, 10.625, 10.5625, 10.5625, 10.5625, 10.625, 10.8125, 10.75, 10.625, 10.5, 10.3125, 10.25, 10.3125, 10.25, 10.3125, 10.4375, 10.4375, 10.5625, 10.5625, 10.625, 10.770833, 11.066667, -10, -10, -10, -10, -10, -10, -10, 23.666666, 23.75, 23.6875, 23.6875, 23.660713, 23.455357, 23.517857, 23.5625, 23.5, 23.5, 23.4375, 23.375, 23.5625, 23.75, 23.767857, 23.674999, 23.625, 23.508928, 23.8125, 23.875, 24.03125, 24.28125, 24.191963, 24.174107, 24.196428, 24.258928, 24.708334, 24.732143, 24.6875, 24.714287, 24.982143, 25.276787, 25.419643, 25.475, 25.758928, 26.080357, 26.482143, 26.75, 26.9375, 27, 27.1875, 27.125, 27.125, 27.125, 27, 27, 27.1875, 27.446428, 27.958334, 28.303572, 28.375, 28.375, 28.4375, 28.5, 28.625, 28.535715, 28.130953, 28.080357
-10, -10, -10, -10, -10, -10, -10, -10, -10, -10, -10, -10, -10, -10, -10, -10, -10, -10, -10, -10, 34, 34.083332, 34, 34, 33.875, 33.6875, 33.5, 33.25, 33.0625, 32.875, 32.6875, 32.5, 32.375, 32.1875, 32.125, 32.0625, 32, 32, 31.9375, 31.6875, 31.4375, 31.1875, 31, 30.9375, 30.8125, 30.5625, 30.3125, 30.125, 30, 29.9375, 29.875, 29.8125, 29.6875, 29.5, 29.3125, 29.125, 29, 29, 28.8125, 28.5625, 28.3125, 28.0625, 28, 27.875, 27.6875, 27.4375, 27.1875, 27.125, 27.1875, 27.25, 27.1875, 26.955357, 26.580357, 26.3125, 26.125, 26, 26, 26, 25.75, 25.5, 25.25, 25, 25, 25, 25, 24.75, 24.5, 24.25, 24, 24, 24, 23.9375, 23.6875, 23.4375, 23.1875, 23, 22.9375, 22.875, 22.669643, 22.339287, 22.1875, 22, 22, 21.875, 21.625, 21.375, 21.125, 21, 21, 21, 20.875, 20.6875, 20.4375, 20.1875, 20.0625, 20, 20, 19.9375, 19.6875, 19.4375, 19.1875, 19, 18.866072, 18.612499, 18.642857, 18.482143, 18.410713, 18.1875, 17.875, 17.8125, 17.6875, 17.5625, 17.4375, 17.1875, 17.0625, 17, 17, 16.9375, 16.8125, 16.625, 16.375, 16.1875, 16.0625, 16, 15.8125, 15.5625, 15.3125, 15.0625, 15, 14.9375, 14.8125, 14.5625, 14.25, 14.0625, 13.875, 13.875, 13.9375, 13.8125, 13.75, 13.5625, 13.241072, 12.892857, 12.75, 12.5625, 12.4375, 12.25, 12.125, 12, 12, 12, 12, 11.75, 11.5, 11.25, 11, 11, 11, 10.8125, 10.5625, 10.3125, 10.0625, 10.125, 10.25, 10.4375, 10.5625, 10.5625, 10.5625, 10.5, 10.375, 10.3125, 10.3125, 10.3125, 10.375, 10.4375, 10.4375, 10.4375, 10.5, 10.5, 10.375, 10.3125, 10.25, 10.25, 10.25, 10.25, 10.375, 10.3125, 10.375, 10.5, 10.4375, 10.375, 10.3125, 10.125, 10, 10, 10, 10.0625, 10.1875, 10.25, 10.25, 10.25, 10.25, 10.3125, 10.3125, 10.25, 10.1875, 10.0625, 10.125, 10.1875, 10.25, 10.4375, 10.5, 10.5625, 10.5625, 10.4375, 10.375, 10.25, 10.125, 10.1875, 10.25, 10.3125, 10.375, 10.3125, 10.3125, 10.3125, 10.375, 10.4375, 10.375, 10.3125, 10.3125, 10.3125, 10.375, 10.5625, 10.5, 10.375, 10.25, 10.0625, 10, 10.125, 10.125, 10.25, 10.375, 10.375, 10.5, 10.4375, 10.5, 10.777778, -10, -10, -10, -10, -10, -10, -10, 23, 23.5, 23.5, 23.4375, 23.4375, 23.348213, 23.142857, 23.142857, 23.1875, 23.1875, 23.1875, 23.1875, 23.0625, 23.25, 23.375, 23.482143, 23.660713, 23.44643, 23.428572, 23.5625, 23.6875, 23.90625, 24.125, 24.191963, 24.174107, 24.080357, 23.904762, 24.279762, 24.375, 24.46875, 24.620537, 24.950893, 25.276787, 25.357143, 25.35, 25.613094, 26.122025, 26.517857, 26.75, 26.875, 26.9375, 27.0625, 27.0625, 27.0625, 27.0625, 27, 27, 27.1875, 27.383928, 27.770834, 28.053572, 28.125, 28.1875, 28.3125, 28.375, 28.5, 28.410715, 28.068453, 28.017857, 27.875, 28, 28, 28, 27.928572, 27.625, 27.5625, 27.5, 27.583334, 27.8125, 28.041666, 28.178572, 28.375, 28.5, 28.625, 28.6875, 28.607143, 28.392857, 28.479166, 28.708334, 28.866072, 28.9375, 28.916666, 29, 28.833334, 28.5, 28.5, 28.416668, -10, -10, -10, -10, -10, -10, -10, -10, -10, -10, -10, -10, -10, -10, -10, -10, -10, -10, -10, -10, -10, -10, -10, -10, -10, -10, -10, -10, -10, -10, -10, -10, -10, -10, -10, -10, 34, 34.083332, 34.0625, 34.0625, 34, 33.8125, 33.5625, 33.25, 33, 32.8125, 32.6875, 32.5, 32.3125, 32.125, 32, 32, 32, 31.9375, 31.8125, 31.5625, 31.3125, 31.125, 31, 30.9375, 30.8125, 30.5625, 30.3125, 30.125, 30, 29.875, 29.75, 29.625, 29.5, 29.375, 29.25, 29.125, 29, 28.9375, 28.6875, 28.4375, 28.1875, 28, 28, 27.9375, 27.75, 27.5, 27.25, 27.1875, 27.25, 27.3125, 27.1875, 26.830357, 26.455357, 26.1875, 26.0625, 26, 26, 26, 25.8125, 25.625, 25.375, 25.125, 25.0625, 25, 24.9375, 24.6875, 24.4375, 24.1875, 24, 24, 24, 23.875, 23.625, 23.375, 23.125, 23, 22.9375, 22.875, 22.607143, 22.276787, 22.125, 21.9375, 22, 21.875, 21.6875, 21.4375, 21.1875, 21.0625, 21, 21, 20.875, 20.75, 20.5625, 20.3125, 20.1875, 20.0625, 20, 19.9375, 19.6875, 19.4375, 19.1875, 19, 18.928572, 18.799999, 18.928572, 18.669643, 18.5, 18.1875, 17.8125, 17.8125, 17.6875, 17.5, 17.375, 17.125, 17, 17, 17, 16.9375, 16.75, 16.5, 16.25, 16.0625, 16, 16, 15.8125, 15.5625, 15.3125, 15.0625, 15, 15, 14.875, 14.6875, 14.375, 14.125, 13.875, 13.75, 13.75, 13.5625, 13.5, 13.3125, 13.0625, 12.892857, 12.75, 12.625, 12.4375, 12.25, 12.125, 12, 12, 12, 12, 11.75, 11.5, 11.25, 11, 11, 11, 10.8125, 10.5625, 10.3125, 10.0625, 10.0625, 10.125, 10.25, 10.3125, 10.3125, 10.3125, 10.25, 10.1875, 10.125, 10.125, 10.125, 10.125, 10.1875, 10.1875, 10.1875, 10.25, 10.25, 10.1875, 10.1875, 10.1875, 10.25, 10.25, 10.25, 10.375, 10.3125, 10.3125, 10.375, 10.25, 10.1875, 10.1875, 10.0625, 10, 10, 10, 10, 10.0625, 10.0625, 10.0625, 10.0625, 10.0625, 10.125, 10.125, 10.125, 10.0625, 10, 10, 10, 10.0625, 10.1875, 10.25, 10.3125, 10.3125, 10.25, 10.25, 10.1875, 10.125, 10.125, 10.125, 10.125, 10.125, 10.0625, 10.0625, 10.0625, 10.125, 10.1875, 10.125, 10.125, 10.125, 10.125, 10.1875, 10.3125, 10.25, 10.1875, 10.125, 10, 10, 10.125, 10.125, 10.1875, 10.25, 10.25, 10.3125, 10.25, 10.333333, -10, -10, -10, -10, -10, -10, -10, 22.833332, 22.916666, 23.25, 23.1875, 23.0625, 22.9375, 22.8125, 22.8125, 22.8125, 22.875, 22.875, 22.8125, 22.8125, 22.6875, 22.8125, 22.9375, 23.107143, 23.285713, 23.13393, 23.053572, 23.1875, 23.4375, 23.71875, 24.0625, 24.254463, 24.236607, 24.205357, 23.940477, 24.047619, 24.008928, 24.03125, 24.263393, 24.84375, 25.3125, 25.419643, 25.2875, 25.488094, 26.041666, 26.446428, 26.6875, 26.75, 26.75, 26.75, 26.8125, 26.875, 26.9375, 27, 27, 27.25, 27.375, 27.5, 27.6875, 27.625, 27.75, 27.9375, 28.0625, 28.25, 28.223215, 27.880953, 27.892857
-10, -10, -10, -10, -10, -10, -10, -10, -10, -10, -10, -10, -10, -10, -10, -10, -10, -10, -10, -10, 34, 34, 34, 34, 33.875, 33.6875, 33.4375, 33.1875, 32.973213, 32.705357, 32.571426, 32.4375, 32.3125, 32.1875, 32.0625, 32, 32, 31.875, 31.6875, 31.4375, 31.25, 31.125, 31.0625, 31.0625, 30.875, 30.625, 30.375, 30.125, 30, 29.875, 29.75, 29.625, 29.5, 29.375, 29.25, 29.125, 29, 28.9375, 28.6875, 28.4375, 28.1875, 28, 28, 28, 27.875, 27.625, 27.375, 27.1875, 27.125, 27.125, 26.9375, 26.705357, 26.4375, 26.1875, 26.125, 26, 26, 26, 25.875, 25.75, 25.5, 25.25, 25.125, 25, 24.9375, 24.6875, 24.5, 24.25, 24.0625, 24.0625, 24, 23.8125, 23.5625, 23.3125, 23.0625, 23, 22.9375, 22.9375, 22.669643, 22.339287, 22.1875, 21.9375, 22, 21.875, 21.75, 21.5, 21.25, 21.125, 21, 21, 20.875, 20.8125, 20.6875, 20.4375, 20.3125, 20.125, 20, 19.9375, 19.6875, 19.4375, 19.1875, 19, 19, 19, 19, 18.75, 18.5, 18.1875, 17.8125, 17.8125, 17.6875, 17.5625, 17.4375, 17.1875, 17.0625, 17, 17, 16.9375, 16.6875, 16.4375, 16.1875, 16, 16, 16, 15.75, 15.5, 15.25, 15, 15, 15, 14.9375, 14.8125, 14.5625, 14.3125, 14, 13.8125, 13.6875, 13.4375, 13.3125, 13.125, 13, 13, 12.9375, 12.875, 12.625, 12.375, 12.1875, 12, 12, 12, 12, 11.75, 11.5, 11.25, 11, 11, 11, 10.8125, 10.5625, 10.3125, 10.0625, 10, 10, 10.0625, 10.0625, 10.0625, 10.0625, 10, 10, 10, 10, 10, 10, 10, 10, 10, 10, 10, 10, 10.0625, 10.125, 10.1875, 10.1875, 10.125, 10.1875, 10.1875, 10.1875, 10.25, 10.125, 10.0625, 10.0625, 10, 10, 10, 10, 10, 10, 10, 10, 10, 10, 10, 10, 10, 10, 10, 10, 10, 10, 10.0625, 10.0625, 10.0625, 10.0625, 10.0625, 10.125, 10.125, 10.125, 10.0625, 10, 10, 10, 10, 10, 10, 10, 10, 10, 10, 10, 10, 10, 10.0625, 10.0625, 10.0625, 10.0625, 10, 10, 10.0625, 10.0625, 10.0625, 10.0625, 10.0625, 10.125, 10.145833, 10.194444, -10, -10, -10, -10, -10, -10, 22.75, 22.888887, 22.9375, 22.9375, 22.8125, 22.6875, 22.5625, 22.5, 22.625, 22.625, 22.625, 22.625, 22.5, 22.5, 22.4375, 22.5, 22.5625, 22.571428, 22.820408, 22.776787, 22.866072, 22.875, 23.125, 23.40625, 23.6875, 24.075893, 24.28125, 24.321428, 23.994049, 23.776785, 23.651785, 23.65625, 23.995537, 24.885416, 25.446428, 25.526787, 25.117857, 25.27976, 25.875, 26.25, 26.5, 26.5625, 26.5625, 26.5625, 26.6875, 26.8125, 27.044643, 27.1875, 27.1875, 27.25, 27.214287, 27.25, 27.375, 27.4375, 27.5625, 27.669643, 27.625, 27.75, 27.794643, 27.839287, 27.9375, 28.0625, 28.098213, 28.026787, 28.0625, 28, 27.848213, 27.580357, 27.383928, 27.0625, 27.321428, 27.604166, 27.803572, 28, 28.1875, 28.348213, 28.3125, 28.232143, 27.892857, 27.916666, 28.145834, 28.303572, 28.4375, 28.4375, 28.5, 28.375, 28.25, 28.3125, 28.395834, 28.666666, 28.833334, 28.833332, -10, -10, -10, -10, -10, -10, -10, -10, -10, -10, -10, -10, -10, -10, -10, -10, -10, -10, -10, -10, -10, -10, -10, -10, -10, -10, -10, -10, -10, -10, -10, -10, -10, 34.125, 34.083332, 34.0625, 34, 33.8125, 33.5625, 33.375, 33.1875, 33.035713, 32.830357, 32.589287, 32.4375, 32.3125, 32.1875, 32.0625, 32, 32, 31.875, 31.6875, 31.5, 31.375, 31.25, 31.1875, 31.125, 30.875, 30.625, 30.375, 30.125, 30, 29.875, 29.75, 29.5625, 29.4375, 29.3125, 29.1875, 29.125, 29, 28.875, 28.625, 28.375, 28.125, 28, 28, 28, 27.9375, 27.6875, 27.4375, 27.25, 27.125, 27.125, 26.9375, 26.705357, 26.4375, 26.1875, 26.125, 26, 26, 26, 25.875, 25.75, 25.5, 25.25, 25.125, 25, 24.875, 24.625, 24.4375, 24.1875, 24.0625, 24.0625, 24, 23.8125, 23.5625, 23.3125, 23.0625, 23, 22.9375, 22.9375, 22.732143, 22.401787, 22.25, 22, 22, 21.9375, 21.8125, 21.625, 21.375, 21.1875, 21, 20.875, 20.75, 20.6875, 20.625, 20.4375, 20.3125, 20.125, 20, 19.9375, 19.6875, 19.4375, 19.1875, 19, 19, 19, 19, 18.75, 18.5, 18.1875, 17.8125, 17.8125, 17.75, 17.6875, 17.625, 17.375, 17.1875, 17.0625, 17, 17, 16.75, 16.5, 16.25, 16, 16, 16, 15.8125, 15.5625, 15.3125, 15.0625, 15, 15, 15, 14.875, 14.6875, 14.4375, 14.0625, 13.875, 13.6875, 13.5, 13.4375, 13.25, 13.125, 13.0625, 13, 13, 12.8125, 12.5625, 12.3125, 12.0625, 12, 12, 12, 11.8125, 11.5625, 11.3125, 11.0625, 11, 11, 10.875, 10.625, 10.375, 10.125, 10, 10, 10, 10, 10, 10, 10, 10, 10, 10, 10, 10, 10, 10, 10, 10, 10, 10, 10, 10, 10, 10, 10, 10.0625, 10.0625, 10.0625, 10.0625, 10, 10, 10, 10.0625, 10.035714, 9.9642859, 10, 9.9375, 10, 10, 10, 10, 10, 10, 10, 10, 10, 10, 10, 10, 10, 10, 10, 10, 10, 10, 10, 10, 10, 10, 10.0625, 10.0625, 10.0625, 10.0625, 10, 10, 10, 10, 10, 10, 10, 10, 9.9375, 9.9375, 9.9375, 9.9375, 10, 10, 10, 10, 10, 10, 10, 10.0625, 10.125, 10.194444, -10, -10, -10, -10, -10, -10, -10, 22.611113, 22.729166, 22.75, 22.75, 22.5625, 22.4375, 22.3125, 22.25, 22.375, 22.375, 22.375, 22.375, 22.25, 22.25, 22.1875, 22.1875, 22.1875, 22.25, 22.450001, 22.383928, 22.544643, 22.53125, 22.71875, 22.9375, 23.15625, 23.63393, 24.041666, 24, 23.644047, 23.598215, 23.607143, 23.607143, 24.120537, 24.947916, 25.401785, 25.455357, 24.910713, 24.916666, 25.732143, 26.071428, 26.375, 26.4375, 26.375, 26.375, 26.5, 26.633928, 26.994644, 27.104166, 27.294643, 27.1875, 27.089287, 27, 27.0625, 27.125, 27.375, 27.392857, 27.276787, 27.375, 27.4375, 27.6875, 27.75
-10, -10, -10, -10, -10, -10, -10, -10, -10, -10, -10, -10, -10, -10, -10, -10, -10, -10, -10, -10, 34.25, 34.166664, 34.125, 34, 33.8125, 33.625, 33.4375, 33.25, 33.098213, 32.830357, 32.526787, 32.375, 32.1875, 32.0625, 32.0625, 32.035713, 32.0625, 31.9375, 31.75, 31.625, 31.5, 31.375, 31.25, 31.125, 30.8125, 30.5625, 30.3125, 30.0625, 30, 29.9375, 29.875, 29.6875, 29.5, 29.3125, 29.1875, 29.125, 29.0625, 28.875, 28.5625, 28.3125, 28.0625, 28, 28, 28, 28, 27.75, 27.5, 27.3125, 27.0625, 27.0625, 26.9375, 26.8125, 26.5625, 26.3125, 26.1875, 26, 26, 26, 25.875, 25.75, 25.5, 25.25, 25.125, 25, 24.8125, 24.5625, 24.375, 24.125, 24.0625, 24.0625, 24, 23.75, 23.5, 23.25, 23, 23, 23, 23, 22.8125, 22.5625, 22.3125, 22.0625, 21.9375, 21.875, 21.75, 21.625, 21.5, 21.3125, 21.125, 20.875, 20.6875, 20.5625, 20.5, 20.375, 20.25, 20.125, 20, 20, 19.75, 19.5, 19.25, 19, 19, 19, 19, 18.8125, 18.5625, 18.3125, 17.9375, 17.8125, 17.75, 17.625, 17.5625, 17.3125, 17.125, 17, 16.9375, 16.9375, 16.6875, 16.4375, 16.1875, 16, 16, 16, 15.875, 15.625, 15.375, 15.125, 15, 15, 15, 14.875, 14.6875, 14.4375, 14.125, 13.9375, 13.75, 13.625, 13.5625, 13.375, 13.25, 13.125, 13, 13, 12.875, 12.625, 12.375, 12.125, 12, 12, 11.9375, 11.75, 11.5, 11.25, 11.0625, 11, 11, 10.9375, 10.6875, 10.4375, 10.1875, 10, 10, 10, 10, 10, 10, 10, 10, 10, 10, 10, 10, 10, 10, 10, 10, 10, 10, 10, 10, 10, 10, 10, 9.9375, 9.875, 9.875, 9.875, 9.9375, 10, 10, 10.0625, 9.9732141, 9.9017859, 9.9375, 9.875, 10, 9.9375, 9.9375, 9.9375, 9.9375, 10, 10, 10, 10, 10, 9.9375, 9.9375, 9.9375, 9.9375, 10, 10, 10, 10, 9.9375, 9.9375, 9.9375, 9.9375, 10.0625, 10.0625, 10.0625, 10.0625, 10, 10, 10, 10, 10, 10, 10, 10, 9.9375, 9.9375, 9.9375, 9.9375, 10, 10, 10, 10, 10, 10, 10, 10.0625, 10.125, -10, -10, -10, -10, -10, -10, -10, 22, 22.458334, 22.479166, 22.5, 22.5, 22.3125, 22.1875, 22.0625, 22, 22.125, 22.125, 22.125, 22.0625, 21.875, 21.8125, 21.75, 21.8125, 21.875, 21.875, 21.90625, 21.9375, 22.0625, 22.09375, 22.25, 22.4375, 22.625, 23.178572, 23.766666, 23.75, 23.873215, 23.883928, 23.901785, 24.25, 24.089287, 24.729166, 25.026785, 25.142857, 24.723213, 24.8125, 25.502977, 25.803572, 26.0625, 26.25, 26.1875, 26.1875, 26.3125, 26.383928, 26.807144, 26.916666, 27.169643, 27.0625, 26.964287, 26.9375, 26.9375, 27, 27.125, 27.017857, 26.839287, 26.9375, 27.0625, 27.4375, 27.5625, 27.8125, 27.785713, 27.714287, 27.8125, 27.8125, 27.785713, 27.642857, 27.633928, 27.5625, 27.75, 27.75, 27.6875, 27.625, 27.625, 27.723213, 27.625, 27.6875, 27.625, 27.5625, 27.5625, 27.5, 27.5, 27.5625, 27.75, 27.875, 27.9375, 28.125, 28.375, 28.660713, 28.71875, 28.697916, 28.479168, -10, -10, -10, -10, -10, -10, -10, -10, -10, -10, -10, -10, -10, -10, -10, -10, -10, -10, -10, -10, -10, -10, -10, -10, -10, -10, -10, -10, -10, -10, -10, -10, 34.25, 34.166664, 34.125, 34.0625, 33.848213, 33.651787, 33.5, 33.3125, 33.285713, 32.955357, 32.589287, 32.4375, 32.25, 32.125, 32.1875, 32.098213, 32.125, 32.0625, 31.9375, 31.875, 31.6875, 31.5, 31.3125, 31.125, 30.75, 30.5, 30.25, 30, 30, 30, 30, 29.875, 29.625, 29.375, 29.1875, 29.0625, 29.0625, 28.875, 28.625, 28.375, 28.125, 28.0625, 28, 28, 28, 27.75, 27.5, 27.25, 27, 27, 26.9375, 26.9375, 26.75, 26.5, 26.375, 26.107143, 25.892857, 25.892857, 25.6875, 25.5625, 25.375, 25.125, 25, 24.875, 24.6875, 24.4375, 24.3125, 24.125, 24, 23.9375, 23.875, 23.625, 23.4375, 23.25, 23, 23, 23, 23, 22.875, 22.625, 22.375, 22.125, 21.9375, 21.8125, 21.625, 21.5625, 21.5, 21.375, 21.25, 20.9375, 20.625, 20.4375, 20.3125, 20.1875, 20.125, 20.0625, 20, 20, 19.75, 19.5, 19.25, 19, 19, 19, 19, 18.8125, 18.5625, 18.3125, 17.875, 17.6875, 17.5625, 17.4375, 17.4375, 17.25, 17.125, 17, 16.9375, 16.875, 16.625, 16.375, 16.125, 16, 16, 16, 15.9375, 15.75, 15.5, 15.25, 15.0625, 15, 15, 14.8125, 14.625, 14.375, 14.125, 14.0625, 13.875, 13.8125, 13.75, 13.5, 13.375, 13.1875, 13, 13, 12.9375, 12.6875, 12.4375, 12.1875, 12, 12, 11.9375, 11.8125, 11.5625, 11.3125, 11.125, 11, 11, 10.875, 10.625, 10.375, 10.125, 10, 10, 10, 10, 10, 10, 9.9375, 9.9375, 9.9375, 9.9375, 10, 10, 10, 10, 9.9375, 9.9375, 9.9375, 9.9375, 10, 10, 10, 9.9375, 9.875, 9.75, 9.625, 9.6875, 9.75, 9.875, 10, 9.9375, 10, 9.9107141, 9.8392859, 9.9375, 9.875, 10, 9.875, 9.8125, 9.8125, 9.8125, 9.9375, 10, 10, 10, 10, 9.9375, 9.9375, 9.875, 9.875, 9.9375, 9.9375, 10, 10, 9.875, 9.8125, 9.8125, 9.8125, 10, 10.0625, 10.0625, 10.0625, 10, 10, 10, 10, 10, 10, 10, 10, 9.9375, 9.9375, 9.9375, 9.9375, 10, 10, 10, 10, 10, 10, 10, 10, 10.083333, -10, -10, -10, -10, -10, -10, 22, 22, 22.333334, 22.3125, 22.3125, 22.25, 22.125, 22.0625, 22, 21.9375, 21.9375, 21.875, 21.875, 21.8125, 21.6875, 21.6875, 21.625, 21.75, 21.8125, 21.75, 21.71875, 21.625, 21.6875, 21.71875, 21.8125, 22.0625, 22.3125, 22.964287, 23.816666, 23.544643, 23.694643, 23.803572, 24.017857, 24.223213, 24.294643, 24.622023, 24.967262, 25.0625, 24.848213, 25, 25.583334, 25.875, 26.0625, 26.3125, 26.25, 26.25, 26.3125, 26.258928, 26.619644, 26.729166, 27.044643, 26.9375, 26.901787, 26.875, 26.875, 27, 27.0625, 26.892857, 26.651787, 26.6875, 26.8125, 27.25, 27.375
-10, -10, -10, -10, -10, -10, -10, -10, -10, -10, -10, -10, -10, -10, -10, -10, -10, -10, -10, -10, 34.375, 34.25, 34.1875, 34, 33.848213, 33.714287, 33.5625, 33.375, 33.3125, 33.0625, 32.705357, 32.5, 32.25, 32.0625, 32.125, 32.098213, 32.125, 32.125, 32.0625, 32, 31.75, 31.5, 31.25, 31.0625, 30.75, 30.5, 30.25, 30, 30, 30, 30, 29.9375, 29.6875, 29.4375, 29.25, 29.0625, 29.0625, 28.875, 28.6875, 28.4375, 28.1875, 28.125, 28, 28, 28, 27.75, 27.5, 27.25, 27, 27, 27, 27, 26.875, 26.625, 26.4375, 26.169643, 25.892857, 25.830357, 25.5625, 25.375, 25.1875, 25, 24.9375, 24.875, 24.625, 24.375, 24.1875, 24, 23.875, 23.75, 23.6875, 23.5, 23.375, 23.25, 23.0625, 23, 23, 22.9375, 22.8125, 22.5625, 22.3125, 22.125, 21.9375, 21.75, 21.5, 21.5, 21.5, 21.4375, 21.375, 20.9375, 20.5625, 20.375, 20.1875, 20.125, 20.0625, 20.0625, 20.0625, 20.0625, 19.8125, 19.5, 19.25, 19, 19, 19, 18.9375, 18.75, 18.5, 18.25, 17.875, 17.6875, 17.5625, 17.4375, 17.5, 17.3125, 17.1875, 17.0625, 16.9375, 16.875, 16.6875, 16.4375, 16.1875, 16.0625, 16, 16, 16, 15.875, 15.625, 15.375, 15.125, 15, 15, 14.75, 14.5, 14.25, 14, 14, 13.9375, 13.9375, 13.9375, 13.6875, 13.5, 13.25, 13, 13, 13, 12.75, 12.5, 12.25, 12, 12, 11.9375, 11.8125, 11.5625, 11.3125, 11.125, 10.9375, 10.9375, 10.8125, 10.5625, 10.375, 10.125, 10, 10, 10, 10, 10, 10, 9.875, 9.8125, 9.8125, 9.8125, 9.9375, 10, 9.9375, 9.875, 9.75, 9.75, 9.8125, 9.875, 10, 10, 10, 9.9375, 9.875, 9.6875, 9.5625, 9.625, 9.6875, 9.875, 10, 9.9375, 10, 9.9107141, 9.7767859, 9.875, 9.8125, 9.9375, 9.8125, 9.6875, 9.625, 9.625, 9.8125, 9.9375, 10, 10, 10, 9.9375, 9.875, 9.75, 9.6875, 9.75, 9.8125, 9.9375, 10, 9.8125, 9.75, 9.75, 9.75, 10, 10.0625, 10.0625, 10.0625, 10, 10, 10, 10, 9.9375, 9.9375, 9.9375, 9.9375, 9.9375, 9.9375, 9.9375, 9.9375, 10, 10, 10, 10, 10, 10, 10, 10, -10, -10, -10, -10, -10, -10, 22, 22, 22, 22.083334, 22.0625, 22.0625, 22, 21.875, 21.8125, 21.8125, 21.8125, 21.8125, 21.8125, 21.8125, 21.75, 21.6875, 21.6875, 21.625, 21.75, 21.8125, 21.75, 21.71875, 21.625, 21.625, 21.65625, 21.8125, 22.0625, 22.3125, 22.794643, 23.593452, 23.428572, 23.600893, 23.897322, 24.174107, 24.410713, 24.4375, 24.455357, 24.645834, 24.8125, 25.122023, 25.333334, 25.8125, 25.946428, 26.0625, 26.25, 26.1875, 26.1875, 26.1875, 26.071428, 26.262501, 26.354166, 26.732143, 26.8125, 26.9375, 26.9375, 26.875, 26.8125, 26.830357, 26.785713, 26.651787, 26.75, 26.8125, 27.125, 27.1875, 27.25, 27.25, 27.1875, 27.25, 27.375, 27.4375, 27.625, 27.75, 27.75, 27.75, 27.5625, 27.4375, 27.3125, 27.25, 27.25, 27.125, 27.125, 27.1875, 27.125, 27.151787, 27.25, 27.223213, 27.4375, 27.625, 27.75, 27.9375, 27.919643, 27.7875, 28.056547, 27.915178, 28.28125, 28.453871, 28.583334, 28.833332, -10, -10, -10, -10, -10, -10, -10, -10, -10, -10, -10, -10, -10, -10, -10, -10, -10, -10, -10, -10, -10, -10, -10, -10, -10, -10, -10, -10, -10, -10, 34.375, 34.25, 34.1875, 34, 33.848213, 33.714287, 33.5, 33.25, 33.1875, 33, 32.741074, 32.395836, 32.21875, 31.96875, 32.09375, 32.035713, 32, 32, 31.875, 31.875, 31.625, 31.375, 31.1875, 31, 30.8125, 30.625, 30.4375, 30.1875, 30.1875, 30.125, 30.0625, 30.0625, 29.75, 29.5, 29.3125, 29.0625, 29.0625, 28.9375, 28.75, 28.5, 28.25, 28.125, 28, 28, 28, 27.75, 27.5, 27.25, 27, 27, 27, 27, 26.875, 26.625, 26.4375, 26.169643, 25.892857, 25.830357, 25.625, 25.4375, 25.25, 25.0625, 24.9375, 24.8125, 24.5625, 24.3125, 24.125, 24, 23.875, 23.75, 23.625, 23.4375, 23.3125, 23.1875, 23, 22.875, 22.8125, 22.6875, 22.5625, 22.375, 22.1875, 22.0625, 21.9375, 21.75, 21.5625, 21.5, 21.5, 21.4375, 21.375, 21.0625, 20.6875, 20.5, 20.25, 20.125, 20.0625, 20.125, 20.1875, 20.169643, 19.791666, 19.446428, 19.1875, 19, 19, 19, 18.875, 18.6875, 18.4375, 18.1875, 17.9375, 17.75, 17.625, 17.5, 17.5, 17.3125, 17.1875, 17.0625, 16.9375, 16.875, 16.75, 16.5, 16.25, 16.125, 16, 16, 16, 15.875, 15.625, 15.375, 15.125, 15, 14.9375, 14.6875, 14.4375, 14.1875, 14, 14, 13.9375, 13.9375, 13.9375, 13.75, 13.5625, 13.3125, 13.0625, 13, 12.9375, 12.6875, 12.4375, 12.1875, 12, 12, 11.875, 11.6875, 11.4375, 11.1875, 11.0625, 10.875, 10.875, 10.75, 10.5, 10.375, 10.125, 10, 10, 10, 10, 10, 10, 9.875, 9.8125, 9.8125, 9.75, 9.875, 9.875, 9.75, 9.75, 9.625, 9.6875, 9.8125, 9.875, 10, 10, 9.9375, 9.8125, 9.75, 9.5, 9.4375, 9.5, 9.5, 9.75, 9.875, 9.875, 9.9375, 9.8125, 9.6875, 9.6875, 9.6875, 9.75, 9.625, 9.5, 9.375, 9.375, 9.625, 9.8125, 9.9375, 10, 10, 9.9375, 9.875, 9.75, 9.6875, 9.75, 9.8125, 9.9375, 10, 9.75, 9.6875, 9.6875, 9.6875, 9.9375, 10, 10, 10, 10, 10, 10, 9.9375, 9.8125, 9.75, 9.6875, 9.6875, 9.75, 9.8125, 9.875, 9.9375, 10, 10, 9.9375, 9.875, 9.875, 9.875, 9.916667, -10, -10, -10, -10, -10, -10, -10, 22, 21.9375, 21.9375, 21.9375, 21.9375, 22, 21.866072, 21.541666, 21.455357, 21.4375, 21.5, 21.5625, 21.5, 21.526787, 21.535713, 21.4375, 21.5625, 21.5, 21.6875, 21.8125, 21.75, 21.71875, 21.625, 21.625, 21.6875, 21.90625, 22.1875, 22.4375, 22.830357, 23.426788, 23.3125, 23.575893, 23.763393, 23.96875, 24.160713, 24.1875, 24.267857, 24.458334, 24.776787, 25.291666, 25.5, 25.75, 25.8125, 25.9375, 26.125, 26.125, 26.125, 26.125, 26, 26.0625, 26.25, 26.5, 26.6875, 26.875, 26.9375, 26.8125, 26.6875, 26.410713, 26.375, 26.3125, 26.5, 26.625, 26.875, 26.9375
-10, -10, -10, -10, -10, -10, -10, -10, -10, -10, -10, -10, -10, -10, -10, -10, -10, -10, -10, -10, 34.25, 34.166664, 34.125, 34, 33.910713, 33.714287, 33.5, 33.25, 33.0625, 32.9375, 32.741074, 32.458336, 32.46875, 32.21875, 32.21875, 32.125, 31.973213, 31.901787, 31.8125, 31.6875, 31.5, 31.25, 31.125, 31, 30.875, 30.6875, 30.5, 30.25, 30.1875, 30.125, 30.0625, 30, 29.6875, 29.4375, 29.1875, 29, 29, 28.875, 28.75, 28.5, 28.25, 28.125, 28, 28, 28, 27.75, 27.5, 27.25, 27, 27, 27, 27, 26.875, 26.625, 26.4375, 26.169643, 25.892857, 25.830357, 25.625, 25.4375, 25.25, 25.0625, 24.875, 24.6875, 24.4375, 24.1875, 24.0625, 24, 23.875, 23.8125, 23.660713, 23.392857, 23.258928, 23.1875, 23.035713, 22.767857, 22.633928, 22.4375, 22.4375, 22.3125, 22.1875, 22.125, 22, 21.875, 21.6875, 21.5625, 21.4375, 21.3125, 21.25, 21.0625, 20.8125, 20.6875, 20.4375, 20.25, 20.125, 20.125, 20.1875, 20.107143, 19.729166, 19.383928, 19.125, 19, 19, 19, 18.8125, 18.5625, 18.3125, 18.0625, 17.9375, 17.875, 17.8125, 17.75, 17.75, 17.5625, 17.375, 17.1875, 17, 16.9375, 16.8125, 16.5625, 16.3125, 16.125, 16, 16, 16, 15.875, 15.625, 15.375, 15.0625, 14.875, 14.75, 14.5, 14.3125, 14.125, 14, 14, 13.9375, 13.9375, 13.9375, 13.8125, 13.625, 13.375, 13.125, 13, 12.875, 12.625, 12.375, 12.125, 12, 12, 11.9375, 11.75, 11.5, 11.25, 11.0625, 10.875, 10.875, 10.6875, 10.4375, 10.3125, 10.0625, 10, 10, 10, 9.9375, 9.875, 9.875, 9.75, 9.75, 9.8125, 9.6875, 9.75, 9.6875, 9.5, 9.5, 9.4375, 9.5625, 9.75, 9.8125, 9.875, 9.8125, 9.6875, 9.5625, 9.5625, 9.375, 9.375, 9.4375, 9.375, 9.625, 9.75, 9.8125, 9.9375, 9.8125, 9.625, 9.5625, 9.5, 9.5, 9.4375, 9.3125, 9.1875, 9.1875, 9.4375, 9.6875, 9.875, 9.9375, 9.875, 9.8125, 9.6875, 9.625, 9.5625, 9.5625, 9.625, 9.6875, 9.75, 9.5625, 9.5, 9.5, 9.5625, 9.8125, 9.875, 9.875, 9.8125, 9.75, 9.8125, 9.875, 9.8125, 9.75, 9.625, 9.5, 9.5, 9.5, 9.5625, 9.625, 9.6875, 9.8125, 9.875, 9.8125, 9.75, 9.708333, 9.833333, 9.8888893, -10, -10, -10, -10, -10, -10, 21.5, 21.75, 21.6875, 21.6875, 21.6875, 21.6875, 21.75, 21.616072, 21.229166, 21.142857, 21.125, 21.25, 21.375, 21.3125, 21.339287, 21.348213, 21.3125, 21.5, 21.5625, 21.75, 21.875, 21.875, 21.8125, 21.75, 21.75, 21.8125, 22, 22.3125, 22.625, 22.910713, 23.389286, 23.303572, 23.325893, 23.53125, 23.65625, 23.910713, 24.125, 24.330357, 24.645834, 24.964287, 25.416666, 25.625, 25.8125, 25.875, 26, 26, 26.026787, 26.098213, 26.0625, 26.0625, 26, 26.25, 26.4375, 26.625, 26.875, 26.875, 26.75, 26.5, 26.1875, 26.1875, 26.1875, 26.4375, 26.5, 26.625, 26.625, 26.625, 26.625, 26.651787, 26.794643, 26.875, 26.803572, 26.767857, 26.892857, 27.044643, 27.0625, 26.9375, 26.75, 26.6875, 26.598213, 26.526787, 26.5, 26.375, 26.5, 26.5, 26.589287, 26.9375, 26.973213, 27.008928, 27.053572, 27.125, 27.604166, 27.678572, 27.4125, 27.458334, 27.196428, 27.4375, 27.651787, 27.607143, 27.761904, 27.25, -10, -10, -10, -10, -10, -10, -10, -10, -10, -10, -10, -10, -10, -10, -10, -10, -10, -10, -10, -10, -10, -10, -10, -10, -10, -10, -10, -10, -10, 34.375, 34.249996, 34.1875, 33.9375, 33.875, 33.75, 33.5, 33.3125, 33.0625, 32.9375, 32.803574, 32.520836, 32.53125, 32.28125, 32.21875, 32.1875, 31.946428, 31.803572, 31.6875, 31.4375, 31.375, 31.125, 31.0625, 31.0625, 31, 30.875, 30.75, 30.4375, 30.3125, 30.1875, 30.0625, 30, 29.6875, 29.4375, 29.25, 29.0625, 29.0625, 28.9375, 28.6875, 28.4375, 28.1875, 28.0625, 28, 28, 28, 27.75, 27.5, 27.25, 27, 27, 27, 27, 26.8125, 26.5625, 26.3125, 26.0625, 26, 25.9375, 25.75, 25.5, 25.25, 25.0625, 24.875, 24.6875, 24.4375, 24.1875, 24.0625, 24, 23.9375, 23.875, 23.660713, 23.392857, 23.258928, 23.1875, 23.035713, 22.660713, 22.446428, 22.1875, 22.1875, 22.125, 22.0625, 22.0625, 22, 21.9375, 21.8125, 21.625, 21.4375, 21.25, 21.125, 21, 20.875, 20.75, 20.5, 20.3125, 20.125, 20.125, 20.1875, 20.044643, 19.666666, 19.321428, 19.0625, 19, 19, 18.9375, 18.6875, 18.4375, 18.1875, 18, 18, 18, 18, 18, 17.9375, 17.6875, 17.4375, 17.125, 16.9375, 16.9375, 16.8125, 16.625, 16.375, 16.125, 16, 16, 16, 15.8125, 15.5625, 15.3125, 15, 14.875, 14.6875, 14.4375, 14.25, 14.0625, 14, 14, 14, 13.9375, 13.875, 13.75, 13.5, 13.3125, 13.0625, 12.875, 12.6875, 12.4375, 12.25, 12.0625, 12, 12, 11.9375, 11.6875, 11.4375, 11.1875, 11, 10.875, 10.875, 10.6875, 10.4375, 10.3125, 10.0625, 10, 10, 10, 9.9375, 9.875, 9.8125, 9.6875, 9.625, 9.625, 9.5, 9.5, 9.4375, 9.25, 9.25, 9.25, 9.375, 9.625, 9.6875, 9.6875, 9.625, 9.4375, 9.375, 9.4375, 9.3125, 9.375, 9.375, 9.25, 9.4375, 9.5, 9.625, 9.75, 9.625, 9.4375, 9.3125, 9.25, 9.25, 9.25, 9.1875, 9.0625, 9.0625, 9.25, 9.5, 9.6875, 9.75, 9.6875, 9.5625, 9.4375, 9.4375, 9.375, 9.375, 9.4375, 9.4375, 9.5, 9.375, 9.375, 9.375, 9.4375, 9.625, 9.625, 9.625, 9.5625, 9.5, 9.5625, 9.625, 9.5625, 9.5, 9.375, 9.25, 9.25, 9.25, 9.3125, 9.375, 9.4375, 9.625, 9.6875, 9.625, 9.5625, 9.458333, -10, -10, -10, -10, -10, -10, 21, 21, 21.333334, 21.5, 21.4375, 21.4375, 21.4375, 21.4375, 21.5, 21.366072, 20.979166, 20.892857, 20.875, 21.0625, 21.25, 21.25, 21.276787, 21.348213, 21.3125, 21.4375, 21.5, 21.625, 21.8125, 21.9375, 22, 22, 22, 22, 22.125, 22.3125, 22.5625, 22.75, 23.026787, 23.196428, 23.21875, 23.53125, 23.59375, 23.8125, 24.0625, 24.1875, 24.375, 24.732143, 25.166666, 25.4375, 25.625, 25.625, 25.75, 25.75, 25.839287, 25.973213, 26, 26.0625, 26, 26.1875, 26.3125, 26.4375, 26.6875, 26.75, 26.6875, 26.5, 26.1875, 26.1875, 26.125, 26.3125, 26.3125, 26.3125, 26.3125
-10, -10, -10, -10, -10, -10, -10, -10, -10, -10, -10, -10, -10, -10, -10, -10, -10, -10, -10, -10, 34.25, 34.166664, 34.125, 34, 33.9375, 33.8125, 33.625, 33.375, 33.125, 33, 32.866074, 32.645836, 32.71875, 32.53125, 32.40625, 32.25, 31.839285, 31.678572, 31.5625, 31.375, 31.4375, 31.1875, 31.125, 31.125, 31.0625, 31, 30.875, 30.5625, 30.375, 30.1875, 30.0625, 30, 29.75, 29.5625, 29.4375, 29.25, 29.1875, 29, 28.625, 28.375, 28.125, 28, 28, 28, 28, 27.75, 27.5, 27.25, 27, 27, 27, 27, 26.75, 26.5, 26.25, 26, 26, 26, 25.8125, 25.5625, 25.3125, 25.0625, 24.875, 24.625, 24.4375, 24.25, 24.125, 24.125, 24.125, 24.035713, 23.74107, 23.330357, 23.160713, 23.160713, 22.910713, 22.55357, 22.258928, 22, 22.0625, 22.0625, 22.125, 22.1875, 22.125, 22.125, 21.9375, 21.6875, 21.4375, 21.1875, 21.0625, 21, 20.9375, 20.75, 20.5, 20.25, 20.0625, 20.0625, 20.125, 19.982143, 19.604166, 19.321428, 19.0625, 19, 19, 18.9375, 18.6875, 18.4375, 18.1875, 18, 18, 18, 18, 17.9375, 17.8125, 17.5625, 17.3125, 17.0625, 16.9375, 16.875, 16.6875, 16.5, 16.25, 16.0625, 16, 16, 15.9375, 15.6875, 15.4375, 15.1875, 14.9375, 14.875, 14.6875, 14.5, 14.3125, 14.125, 14.0625, 14, 14, 13.9375, 13.8125, 13.6875, 13.4375, 13.25, 13, 12.75, 12.5625, 12.3125, 12.1875, 12.0625, 12, 12, 11.9375, 11.6875, 11.4375, 11.1875, 11, 10.9375, 10.9375, 10.8125, 10.625, 10.5, 10.25, 10.125, 10.0625, 10, 9.9375, 9.8125, 9.6875, 9.5625, 9.5, 9.5, 9.375, 9.3125, 9.1875, 9.0625, 9.125, 9.1875, 9.3125, 9.5, 9.5, 9.4375, 9.375, 9.1875, 9.125, 9.1875, 9.125, 9.1875, 9.1875, 9.0625, 9.1875, 9.25, 9.375, 9.5, 9.375, 9.25, 9.125, 9.0625, 9.0625, 9.0625, 9.0625, 9, 9, 9.125, 9.3125, 9.4375, 9.5, 9.4375, 9.3125, 9.25, 9.3125, 9.3125, 9.3125, 9.3125, 9.25, 9.25, 9.1875, 9.1875, 9.1875, 9.25, 9.375, 9.375, 9.375, 9.3125, 9.25, 9.3125, 9.375, 9.3125, 9.3125, 9.1875, 9.0625, 9.0625, 9, 9.0625, 9.125, 9.1875, 9.375, 9.4375, 9.375, 9.3125, 9.208333, -10, -10, -10, -10, -10, -10, 21, 21, 21.25, 21.25, 21.1875, 21.1875, 21.1875, 21.1875, 21.25, 21.116072, 20.729166, 20.642857, 20.625, 20.8125, 21, 20.9375, 20.964287, 21.098213, 21.098213, 21.25, 21.3125, 21.375, 21.625, 21.8125, 21.9375, 22, 22, 22.0625, 22.125, 22.25, 22.5, 22.6875, 23, 23.125, 23.1875, 23.375, 23.5, 23.8125, 24.098213, 24.25, 24.4375, 24.625, 24.75, 24.875, 25.026787, 25.232143, 25.5, 25.625, 25.776787, 25.973213, 25.9375, 25.9375, 25.875, 26, 26.125, 26.25, 26.4375, 26.5625, 26.625, 26.5, 26.107143, 25.901787, 25.8125, 25.875, 25.9375, 25.875, 25.875, 26.0625, 26.232143, 26.401787, 26.669643, 26.625, 26.419643, 26.080357, 26.142857, 26.267857, 26.375, 26.4375, 26.223213, 26.017857, 25.857141, 25.714287, 25.8125, 25.8125, 25.9375, 26, 26.0625, 26.34375, 26.59375, 26.561012, 26.355656, 26.395834, 26.729166, 26.915178, 27.03125, 27.03125, 27.09375, 27, 27, 27, 27.0625, 27.1875, 27.305555, 27.166668, -10, -10, -10, -10, -10, -10, -10, -10, -10, -10, -10, -10, -10, -10, -10, -10, -10, -10, -10, -10, -10, -10, -10, -10, -10, -10, -10, 34.125, 34.083332, 34.0625, 34, 34, 33.9375, 33.8125, 33.5625, 33.25, 33.0625, 32.9375, 32.9375, 33, 32.8125, 32.5625, 32.3125, 31.714285, 31.616072, 31.607143, 31.375, 31.5, 31.25, 31.125, 31.1875, 31.0625, 31, 30.8125, 30.5, 30.25, 30.0625, 30, 29.9375, 29.8125, 29.6875, 29.625, 29.5, 29.4375, 29.1875, 28.8125, 28.5625, 28.3125, 28.1875, 28.125, 28.0625, 28, 27.75, 27.5, 27.25, 27, 27, 27, 27, 26.75, 26.5, 26.25, 26, 26, 26, 25.8125, 25.5625, 25.3125, 25.0625, 24.875, 24.6875, 24.5625, 24.375, 24.3125, 24.25, 24.25, 24.142857, 23.696428, 23.276787, 23.160713, 23.285713, 23.098213, 22.74107, 22.410715, 22.1875, 22.1875, 22.25, 22.3125, 22.294643, 22.041666, 21.946428, 21.6875, 21.5, 21.3125, 21.125, 21.0625, 21, 20.9375, 20.75, 20.5, 20.25, 20.0625, 20, 20, 19.8125, 19.5625, 19.3125, 19.0625, 19, 19, 18.875, 18.625, 18.375, 18.125, 18, 18, 18, 18, 17.875, 17.6875, 17.4375, 17.1875, 17, 16.9375, 16.875, 16.625, 16.5, 16.25, 16.0625, 16.0625, 16, 15.875, 15.625, 15.375, 15.125, 14.9375, 14.875, 14.75, 14.625, 14.4375, 14.25, 14.0625, 13.9375, 13.9375, 13.875, 13.75, 13.5625, 13.3125, 13.125, 12.9375, 12.75, 12.625, 12.4375, 12.3125, 12.1875, 12.0625, 12, 12, 11.75, 11.4375, 11.151786, 10.9375, 10.9375, 11, 10.8125, 10.625, 10.5, 10.25, 10.1875, 10.125, 10, 9.875, 9.6875, 9.5, 9.3125, 9.25, 9.25, 9.1875, 9.125, 9.0625, 9, 9, 9.0625, 9.125, 9.25, 9.25, 9.1875, 9.125, 9, 9, 9.0625, 9.0625, 9.0625, 9.0625, 9, 9.0625, 9.125, 9.1875, 9.25, 9.1875, 9.125, 9.0625, 9, 9, 9, 9, 9, 8.9375, 9, 9.125, 9.1875, 9.25, 9.1875, 9.0625, 9, 9.0625, 9.0625, 9.0625, 9.0625, 9, 9, 9, 9, 9, 9.0625, 9.125, 9.125, 9.125, 9.0625, 9, 9.0625, 9.125, 9.125, 9.1875, 9.125, 9.0625, 9.0625, 9, 9, 9, 9, 9.125, 9.1875, 9.1875, 9.1875, 9.1111107, -10, -10, -10, -10, -10, -10, 21, 21, 21, 21, 21, 21, 20.9375, 20.875, 20.875, 20.75, 20.625, 20.5625, 20.5, 20.625, 20.75, 20.75, 20.8125, 20.9375, 21.035713, 21.125, 21.1875, 21.25, 21.5, 21.75, 21.9375, 22, 22, 22.125, 22.098213, 22.125, 22.491072, 22.544643, 22.8125, 22.875, 22.875, 23.0625, 23.25, 23.5625, 23.910713, 24.0625, 24.25, 24.3125, 24.375, 24.375, 24.464287, 24.794643, 25.035713, 25.1875, 25.339287, 25.535713, 25.5625, 25.625, 25.625, 25.6875, 25.75, 25.9375, 26.1875, 26.482143, 26.6875, 26.625, 26.285715, 25.818451, 25.6875, 25.5625, 25.625, 25.5625, 25.625
-10, -10, -10, -10, -10, -10, -10, -10, -10, -10, -10, -10, -10, -10, -10, -10, -10, -10, -10, 34, 34.125, 34.083332, 34.0625, 33.9375, 33.9375, 33.875, 33.75, 33.5625, 33.3125, 33.125, 33, 33, 32.9375, 32.75, 32.5, 32.1875, 31.67857, 31.651787, 31.669643, 31.5, 31.5625, 31.3125, 31.125, 31.1875, 31.0625, 31.0625, 30.875, 30.5625, 30.3125, 30.0625, 30, 30, 29.9375, 29.875, 29.8125, 29.625, 29.5, 29.3125, 29, 28.8125, 28.5625, 28.3125, 28.1875, 28.0625, 28, 27.75, 27.5, 27.25, 27, 27, 27, 27, 26.75, 26.5, 26.25, 26, 26, 26, 25.875, 25.625, 25.375, 25.125, 24.9375, 24.8125, 24.75, 24.625, 24.5625, 24.5, 24.428572, 23.997025, 23.482143, 23.133928, 23.151787, 23.285713, 23.0625, 22.8125, 22.526787, 22.375, 22.375, 22.375, 22.375, 22.294643, 21.979166, 21.821428, 21.5625, 21.4375, 21.3125, 21.1875, 21.125, 21, 20.9375, 20.6875, 20.4375, 20.1875, 20, 20, 19.9375, 19.75, 19.5, 19.25, 19.0625, 19, 19, 18.875, 18.6875, 18.4375, 18.1875, 18.0625, 18, 18, 18, 17.875, 17.625, 17.375, 17.125, 16.9375, 16.9375, 16.8125, 16.5625, 16.5, 16.3125, 16.1875, 16.1875, 16, 15.75, 15.5, 15.25, 15.0625, 15, 15, 14.9375, 14.875, 14.625, 14.375, 14.125, 13.9375, 13.875, 13.75, 13.5625, 13.3125, 13.125, 13, 12.875, 12.6875, 12.625, 12.5, 12.375, 12.3125, 12.125, 12, 12, 11.75, 11.4375, 11.151786, 10.9375, 10.9375, 11, 10.8125, 10.625, 10.5, 10.25, 10.1875, 10.125, 9.9375, 9.8125, 9.625, 9.375, 9.1875, 9.0625, 9, 9, 9, 9, 9, 9, 9, 9, 9.0625, 9.0625, 9.0625, 9.0625, 9, 9, 9, 9, 9, 9, 9, 9, 9, 9, 9, 9, 9, 9, 9, 9, 9, 9, 9, 8.9375, 8.9375, 9, 9, 9.0625, 9.0625, 9, 9, 9, 9, 9, 9, 9, 9, 9, 9, 9, 9, 9, 9, 9, 9, 9, 9, 9, 9, 9, 9, 9, 9, 9, 9, 9, 9, 9.0625, 9.0625, 9.0625, 9.0625, -10, -10, -10, -10, -10, -10, -10, 20.875, 20.833334, 20.875, 20.8125, 20.8125, 20.8125, 20.6875, 20.625, 20.625, 20.5, 20.4375, 20.375, 20.25, 20.3125, 20.375, 20.375, 20.5625, 20.75, 20.848213, 20.9375, 20.9375, 21, 21.3125, 21.625, 21.875, 22, 22, 22.125, 22.035713, 22.026787, 22.473213, 22.440475, 22.458334, 22.53125, 22.53125, 22.78125, 23.0625, 23.375, 23.660713, 23.8125, 24, 23.991072, 23.924999, 23.991072, 24.089287, 24.482143, 24.723213, 24.9375, 25, 25.125, 25.1875, 25.25, 25.375, 25.375, 25.4375, 25.625, 25.9375, 26.330357, 26.625, 26.669643, 26.214287, 25.702381, 25.5, 25.375, 25.4375, 25.375, 25.4375, 25.473213, 25.50893, 25.6875, 25.919643, 26.107143, 26.178572, 26.0625, 26, 25.973213, 26, 25.982143, 25.702381, 25.464285, 25.321428, 25.25, 25.3125, 25.3125, 25.392857, 25.645834, 25.741072, 26.03125, 26.34375, 26.552084, 26.427084, 26.333334, 26.25, 26.15625, 26.21875, 26.28125, 26.540178, 26.854166, 26.90625, 27.03125, 27.03125, 27.0625, 27.0625, 27.083334, 27, -10, -10, -10, -10, -10, -10, -10, -10, -10, -10, -10, -10, -10, -10, -10, -10, -10, -10, -10, -10, -10, -10, -10, -10, -10, -10, 34, 34, 34, 33.9375, 33.9375, 33.8125, 33.6875, 33.5, 33.25, 33.125, 33, 33, 32.875, 32.6875, 32.4375, 32.0625, 31.642857, 31.6875, 31.732143, 31.625, 31.625, 31.375, 31.125, 31.125, 31, 31, 30.75, 30.5, 30.25, 30, 29.9375, 29.9375, 29.9375, 29.9375, 29.875, 29.6875, 29.5, 29.3125, 29.0625, 28.875, 28.625, 28.3125, 28.1875, 28.0625, 28, 27.75, 27.5, 27.25, 27, 27, 27, 27, 26.75, 26.5, 26.25, 26, 26, 26, 25.9375, 25.6875, 25.4375, 25.1875, 25, 24.9375, 24.9375, 24.875, 24.8125, 24.75, 24.607143, 23.976189, 23.428572, 23.071428, 23.089287, 23.223213, 23.0625, 22.919643, 22.714287, 22.625, 22.625, 22.5625, 22.5, 22.357143, 21.916666, 21.696428, 21.4375, 21.375, 21.3125, 21.25, 21.1875, 21, 20.9375, 20.75, 20.5, 20.25, 20.0625, 20, 19.9375, 19.75, 19.5, 19.3125, 19.125, 19.0625, 19.0625, 18.875, 18.75, 18.5, 18.25, 18.125, 18, 18, 18, 17.875, 17.625, 17.375, 17.125, 17, 17, 16.875, 16.625, 16.5625, 16.4375, 16.3125, 16.3125, 16, 15.625, 15.375, 15.125, 15, 15, 15, 15, 15, 14.75, 14.5, 14.1875, 13.9375, 13.875, 13.8125, 13.625, 13.375, 13.1875, 13, 12.9375, 12.8125, 12.8125, 12.6875, 12.5, 12.375, 12.125, 12, 12, 11.75, 11.4375, 11.151786, 10.9375, 10.9375, 10.9375, 10.75, 10.5625, 10.4375, 10.25, 10.1875, 10.125, 9.9375, 9.8125, 9.5625, 9.3125, 9.125, 9, 9, 9, 9, 9, 9, 9, 9, 9, 9, 9, 9, 9, 9, 9, 9, 9, 9, 9, 9, 9, 9, 9, 9, 9, 9, 9, 9, 9, 9, 9, 9, 8.9375, 8.9375, 8.9375, 8.9375, 9, 9, 9, 9, 9, 9, 9, 9, 8.9375, 8.9375, 8.9375, 8.9375, 9, 8.9375, 8.875, 8.875, 8.875, 8.9375, 9, 9, 9, 9, 9, 9, 9, 9, 9, 9, 9, 9, 9, 9, 9, 9, -10, -10, -10, -10, -10, -10, -10, 20.625, 20.583334, 20.625, 20.5625, 20.5625, 20.5625, 20.375, 20.25, 20.1875, 20.0625, 20.0625, 20, 19.875, 19.875, 19.875, 19.9375, 20.1875, 20.375, 20.535713, 20.625, 20.6875, 20.8125, 21.1875, 21.5625, 21.8125, 22, 22, 22.125, 22.035713, 22.089287, 22.446428, 22.279762, 22.270834, 22.28125, 22.40625, 22.65625, 22.96875, 23.28125, 23.504463, 23.71875, 23.875, 23.803572, 23.737499, 23.741072, 23.839287, 24.294643, 24.598213, 24.8125, 24.8125, 24.8125, 24.75, 24.8125, 25, 25, 25.0625, 25.25, 25.46875, 25.799107, 26.09375, 26.075893, 25.714287, 25.327381, 25.1875, 25.125, 25.1875, 25.125, 25.125
-10, -10, -10, -10, -10, -10, -10, -10, -10, -10, -10, -10, -10, -10, -10, -10, -10, -10, -10, -10, 34, 34, 34, 33.9375, 33.9375, 33.75, 33.5625, 33.375, 33.125, 33.0625, 33, 33, 32.8125, 32.5625, 32.3125, 32, 31.75, 31.8125, 31.857143, 31.6875, 31.5625, 31.3125, 31.0625, 31.0625, 31, 31, 30.75, 30.5, 30.25, 30, 29.875, 29.8125, 29.75, 29.75, 29.6875, 29.5, 29.267857, 29.125, 29, 28.875, 28.6875, 28.375, 28.1875, 28, 27.875, 27.6875, 27.4375, 27.25, 27.0625, 27, 27, 26.9375, 26.6875, 26.4375, 26.1875, 26, 26, 26, 26, 25.75, 25.5, 25.25, 25, 25, 24.9375, 24.875, 24.8125, 24.6875, 24.482143, 23.877975, 23.473215, 23.258928, 23.3125, 23.3125, 23.1875, 23.026787, 22.839287, 22.75, 22.6875, 22.5625, 22.4375, 22.232143, 21.729166, 21.508928, 21.375, 21.3125, 21.3125, 21.25, 21.125, 21, 20.9375, 20.8125, 20.5625, 20.3125, 20.125, 20, 19.9375, 19.75, 19.5625, 19.4375, 19.25, 19.125, 19.026787, 18.8125, 18.6875, 18.5, 18.25, 18.125, 18, 18, 17.9375, 17.8125, 17.5625, 17.3125, 17.125, 17, 17, 16.9375, 16.75, 16.6875, 16.5625, 16.375, 16.3125, 15.9375, 15.5625, 15.3125, 15.0625, 15, 15, 15, 15, 15, 14.75, 14.5, 14.1875, 13.875, 13.75, 13.6875, 13.5, 13.3125, 13.1875, 13, 13, 12.9375, 12.9375, 12.8125, 12.5625, 12.375, 12.125, 12, 12, 11.75, 11.4375, 11.151786, 10.9375, 10.9375, 10.875, 10.625, 10.375, 10.1875, 10.0625, 10.0625, 10.0625, 9.9375, 9.75, 9.5, 9.25, 9.0625, 9, 9, 9, 9, 9, 9, 9, 9, 9, 9, 9, 9, 9, 9, 9, 9, 9, 9, 9, 9, 9, 9, 9, 9, 9, 9, 9, 9, 9, 9, 9, 9, 8.9375, 8.9375, 8.9375, 8.9375, 9, 9, 9, 9, 9, 9, 9, 9, 8.875, 8.875, 8.875, 8.875, 9, 8.9375, 8.875, 8.875, 8.875, 8.9375, 9, 9, 9, 9, 9, 9, 8.9375, 8.9375, 8.9375, 8.9375, 9, 9, 9, 9, 9.0625, 9.083333, -10, -10, -10, -10, -10, -10, 20, 20.375, 20.333334, 20.375, 20.3125, 20.25, 20.1875, 19.9375, 19.75, 19.6875, 19.625, 19.75, 19.8125, 19.6875, 19.714287, 19.723213, 19.8125, 20.125, 20.125, 20.214287, 20.25, 20.375, 20.6875, 21.125, 21.5625, 21.8125, 22, 22, 22.0625, 21.941963, 21.964287, 22.196428, 21.967262, 21.940477, 22.114584, 22.334822, 22.65625, 22.90625, 23.09375, 23.21875, 23.40625, 23.5625, 23.616072, 23.612499, 23.741072, 23.875, 24.125, 24.223213, 24.28125, 24.21875, 24.21875, 24.28125, 24.4375, 24.625, 24.625, 24.6875, 24.875, 25.15625, 25.352041, 25.571428, 25.551022, 25.401787, 25.113094, 25, 25, 25.0625, 25.0625, 25.0625, 24.910713, 24.714287, 24.8125, 24.982143, 25.357143, 25.6875, 25.875, 25.8125, 25.75, 25.6875, 25.482143, 25.291666, 25.133928, 25, 25, 25, 24.9375, 24.955357, 25.145834, 25.241072, 25.4375, 25.625, 25.875, 25.9375, 25.875, 25.875, 25.875, 26.044643, 26.125, 26.258928, 26.479166, 26.53125, 26.78125, 26.84375, 26.9375, 27, 27, 27, -10, -10, -10, -10, -10, -10, -10, -10, -10, -10, -10, -10, -10, -10, -10, -10, -10, -10, -10, -10, -10, -10, -10, -10, -10, -10, 34, 34, 34, 33.875, 33.875, 33.625, 33.375, 33.25, 33, 32.9375, 32.875, 32.8125, 32.625, 32.4375, 32.25, 32.0625, 32, 32, 32, 31.75, 31.5, 31.25, 31, 31, 31, 31, 30.75, 30.5, 30.25, 30, 29.875, 29.75, 29.625, 29.5625, 29.4375, 29.25, 28.955357, 28.875, 28.8125, 28.75, 28.625, 28.3125, 28.125, 27.875, 27.75, 27.625, 27.375, 27.25, 27.125, 27, 27, 26.9375, 26.6875, 26.4375, 26.1875, 26, 26, 26, 26, 25.75, 25.5, 25.25, 25, 25, 24.9375, 24.9375, 24.8125, 24.6875, 24.419643, 23.770832, 23.517857, 23.375, 23.375, 23.25, 23.125, 22.964287, 22.875, 22.8125, 22.75, 22.5, 22.3125, 22.125, 21.75, 21.5625, 21.4375, 21.3125, 21.3125, 21.25, 21.125, 21, 21, 20.875, 20.625, 20.375, 20.125, 20, 19.9375, 19.8125, 19.6875, 19.5625, 19.375, 19.125, 18.901787, 18.6875, 18.5625, 18.4375, 18.25, 18.125, 18, 18, 17.9375, 17.8125, 17.5625, 17.3125, 17.125, 17, 17, 16.9375, 16.75, 16.625, 16.5, 16.3125, 16.25, 15.9375, 15.625, 15.375, 15.125, 15.0625, 15, 15, 15, 14.9375, 14.6875, 14.4375, 14.1875, 13.875, 13.6875, 13.625, 13.375, 13.25, 13.1875, 13, 13, 12.9375, 12.875, 12.6875, 12.4375, 12.25, 12.0625, 12, 11.9375, 11.6875, 11.4375, 11.1875, 11, 11, 10.875, 10.625, 10.375, 10.125, 10, 10, 10, 9.9375, 9.75, 9.5, 9.25, 9.0625, 9, 9, 9, 9, 9, 9, 9, 9, 9, 9, 9, 9, 9, 9, 9, 8.9375, 8.875, 8.8125, 8.8125, 8.875, 8.9375, 9, 9, 9, 9, 9, 9, 9, 9, 9, 9, 9, 9, 8.9375, 8.875, 8.875, 8.875, 8.9375, 9, 9, 8.9375, 8.9375, 8.9375, 8.9375, 8.875, 8.875, 8.875, 8.875, 9, 8.9375, 8.875, 8.875, 8.875, 8.9375, 9, 8.9375, 8.9375, 8.9375, 8.9375, 9, 8.9375, 8.9375, 8.9375, 8.9375, 9, 9, 9, 9, 9.125, 9.166666, -10, -10, -10, -10, -10, 20, 20, 20.0625, 19.958334, 19.9375, 19.875, 19.875, 19.8125, 19.625, 19.4375, 19.3125, 19.3125, 19.4375, 19.5, 19.5, 19.589287, 19.660713, 19.8125, 20, 19.875, 19.839287, 19.75, 19.9375, 20.3125, 20.928572, 21.482143, 21.75, 22, 22, 22, 21.90625, 21.964287, 22.017857, 21.797619, 21.690477, 21.944941, 22.355656, 22.709822, 22.90625, 22.96875, 23.03125, 23.21875, 23.482143, 23.616072, 23.612499, 23.741072, 23.875, 23.9375, 24, 24.03125, 23.96875, 24.03125, 24.09375, 24.25, 24.375, 24.4375, 24.5625, 24.75, 24.96875, 25.129463, 25.28125, 25.263393, 25.080357, 25.008928, 24.9375, 25, 25, 25.125, 25.0625
-10, -10, -10, -10, -10, -10, -10, -10, -10, -10, -10, -10, -10, -10, -10, -10, -10, -10, -10, -10, 34, 34, 34, 33.9375, 33.875, 33.625, 33.375, 33.1875, 33, 32.9375, 32.8125, 32.6875, 32.5, 32.3125, 32.1875, 32.0625, 32, 31.9375, 31.875, 31.625, 31.4375, 31.25, 31.0625, 31.0625, 31, 31, 30.75, 30.5, 30.25, 30, 29.8125, 29.625, 29.4375, 29.3125, 29.25, 29.125, 28.892857, 28.8125, 28.75, 28.625, 28.5, 28.25, 28.0625, 27.803572, 27.5, 27.4375, 27.1875, 27.1875, 27.125, 27, 27, 26.9375, 26.6875, 26.4375, 26.1875, 26, 26, 26, 26, 25.75, 25.5, 25.25, 25, 25, 24.9375, 24.9375, 24.75, 24.5625, 24.303572, 23.854166, 23.696428, 23.5625, 23.4375, 23.25, 23.125, 23, 22.875, 22.8125, 22.625, 22.375, 22.1875, 22, 21.75, 21.625, 21.553572, 21.25, 21.25, 21.125, 21.0625, 21, 21, 20.875, 20.625, 20.375, 20.125, 20, 20, 19.9375, 19.8125, 19.6875, 19.4375, 19.125, 18.901787, 18.6875, 18.5625, 18.4375, 18.25, 18.125, 17.9375, 17.875, 17.8125, 17.6875, 17.5, 17.3125, 17.125, 17, 17, 17, 16.8125, 16.625, 16.4375, 16.1875, 16.125, 15.9375, 15.75, 15.5625, 15.375, 15.3125, 15.1875, 15.125, 15.0625, 14.875, 14.625, 14.375, 14.125, 13.875, 13.75, 13.75, 13.5625, 13.4375, 13.3125, 13.0625, 13, 13, 12.875, 12.625, 12.375, 12.125, 12, 12, 11.875, 11.625, 11.375, 11.125, 11, 11, 10.875, 10.625, 10.375, 10.125, 10, 10, 10, 10, 9.8125, 9.5625, 9.3125, 9.0625, 9, 9, 9, 9, 9, 9, 9, 9, 9, 9, 9, 9, 9, 9, 9, 8.875, 8.75, 8.625, 8.5625, 8.625, 8.75, 8.875, 8.9375, 9, 9, 9, 9, 9, 9, 9, 9, 9, 9, 8.9375, 8.875, 8.8125, 8.8125, 8.875, 8.9375, 9, 8.9375, 8.9375, 8.9375, 8.9375, 8.875, 8.875, 8.875, 8.875, 9, 8.9375, 8.875, 8.875, 8.875, 8.9375, 9, 8.9375, 8.9375, 8.9375, 8.9375, 9, 8.9375, 8.9375, 8.9375, 8.9375, 9, 9, 9, 9, 9.125, 9.2222214, -10, -10, -10, -10, -10, 20, 20, 19.875, 19.75, 19.625, 19.5625, 19.5625, 19.5, 19.375, 19.1875, 19.0625, 19.0625, 19.1875, 19.25, 19.375, 19.526787, 19.598213, 19.75, 19.75, 19.5625, 19.526787, 19.4375, 19.625, 20.008928, 20.845238, 21.428572, 21.75, 22, 22, 22, 21.96875, 22, 21.910713, 21.714287, 21.732143, 22.038691, 22.511906, 22.803572, 22.90625, 22.933037, 23.004463, 23.09375, 23.357143, 23.375, 23.5, 23.5, 23.5625, 23.5625, 23.5625, 23.59375, 23.59375, 23.65625, 23.78125, 23.875, 23.9375, 24.080357, 24.395834, 24.616072, 24.71875, 24.71875, 24.78125, 24.78125, 24.8125, 24.8125, 24.75, 24.6875, 24.75, 25, 25, 24.892857, 24.758928, 24.6875, 24.8125, 24.90625, 25.03125, 25.116072, 25.196428, 25.458334, 25.520834, 25.148809, 24.863094, 24.705357, 24.625, 24.625, 24.714287, 24.857143, 24.857143, 24.9375, 24.9375, 24.9375, 25.0625, 25.25, 25.375, 25.5, 25.6875, 25.8125, 26.044643, 26.125, 26.1875, 26.1875, 26.1875, 26.3125, 26.4375, 26.5625, 26.75, 26.875, 26.916666, -10, -10, -10, -10, -10, -10, -10, -10, -10, -10, -10, -10, -10, -10, -10, -10, -10, -10, -10, -10, -10, -10, -10, -10, -10, -10, 34, 34, 34, 33.9375, 33.875, 33.6875, 33.4375, 33.25, 33.0625, 32.9375, 32.8125, 32.6875, 32.5, 32.3125, 32.25, 32.1875, 32.107143, 31.854166, 31.696428, 31.5, 31.375, 31.25, 31.125, 31.0625, 31, 31, 30.75, 30.5, 30.25, 30, 29.875, 29.6875, 29.4375, 29.25, 29.125, 28.9375, 28.767857, 28.6875, 28.625, 28.625, 28.5625, 28.375, 28.25, 27.928572, 27.5, 27.464287, 27.25, 27.3125, 27.3125, 27.0625, 26.892857, 26.75, 26.5, 26.3125, 26.125, 26, 26, 26, 26, 25.75, 25.5, 25.25, 25, 25, 24.875, 24.8125, 24.5625, 24.3125, 24.125, 23.9375, 23.875, 23.75, 23.5625, 23.3125, 23.125, 23, 22.803572, 22.5625, 22.375, 22.125, 22.0625, 21.9375, 21.8125, 21.75, 21.678572, 21.3125, 21.25, 21.0625, 21, 21, 21, 20.875, 20.625, 20.375, 20.125, 20, 20, 20, 19.875, 19.6875, 19.4375, 19.0625, 18.839287, 18.75, 18.625, 18.5, 18.3125, 18.0625, 17.8125, 17.75, 17.6875, 17.625, 17.5, 17.3125, 17.125, 17, 17, 16.9375, 16.75, 16.5, 16.25, 16.0625, 16, 15.9375, 15.875, 15.75, 15.5625, 15.5, 15.3125, 15.1875, 15.125, 14.8125, 14.5625, 14.3125, 14.0625, 13.875, 13.75, 13.75, 13.625, 13.5, 13.375, 13.125, 13, 13, 12.875, 12.625, 12.375, 12.125, 12, 12, 11.875, 11.625, 11.375, 11.125, 11, 11, 10.9375, 10.6875, 10.4375, 10.1875, 10, 10, 10, 10, 9.75, 9.5, 9.25, 9, 9, 8.9375, 8.875, 8.8125, 8.75, 8.75, 8.8125, 8.875, 8.9375, 8.9375, 8.875, 8.8125, 8.75, 8.8125, 8.875, 8.8125, 8.6875, 8.5, 8.375, 8.375, 8.5625, 8.75, 8.875, 9, 9, 9, 9, 9, 9, 9, 9, 8.9375, 8.875, 8.8125, 8.75, 8.75, 8.8125, 8.875, 8.875, 8.875, 8.8125, 8.8125, 8.8125, 8.875, 8.875, 8.875, 8.9375, 8.875, 8.875, 8.875, 8.875, 8.9375, 9, 9, 9, 8.9375, 8.9375, 8.9375, 8.9375, 9, 8.9375, 8.875, 8.8125, 8.75, 8.8125, 8.875, 8.9375, 9, 9.166667, -10, -10, -10, -10, -10, -10, 19.75, 19.75, 19.625, 19.5, 19.375, 19.3125, 19.3125, 19.25, 19.1875, 19.0625, 19, 19, 19.0625, 19.125, 19.3125, 19.589287, 19.705357, 19.6875, 19.625, 19.3125, 19.276787, 19.25, 19.375, 19.8125, 20.886904, 21.446428, 21.8125, 22, 22, 22, 21.96875, 21.9375, 21.875, 21.75, 21.732143, 22.101191, 22.511906, 22.803572, 22.8125, 22.714287, 22.785713, 22.8125, 23.107143, 23.1875, 23.25, 23.25, 23.3125, 23.25, 23.1875, 23.15625, 23.15625, 23.28125, 23.40625, 23.5, 23.5625, 23.8125, 24.208334, 24.428572, 24.5, 24.5, 24.5, 24.5625, 24.625, 24.5625, 24.5, 24.4375, 24.5625, 24.875, 24.9375
-10, -10, -10, -10, -10, -10, -10, -10, -10, -10, -10, -10, -10, -10, -10, -10, -10, -10, -10, 34, 34.125, 34, 33.892857, 33.8125, 33.75, 33.6875, 33.5, 33.3125, 33.125, 32.9375, 32.8125, 32.6875, 32.5, 32.3125, 32.25, 32.1875, 32.044643, 31.729166, 31.508928, 31.375, 31.3125, 31.25, 31.1875, 31.0625, 31, 30.9375, 30.6875, 30.4375, 30.1875, 30, 29.9375, 29.8125, 29.5625, 29.3125, 29.125, 28.9375, 28.875, 28.75, 28.625, 28.625, 28.5, 28.3125, 28.071428, 27.633928, 27.25, 27.276787, 27.294643, 27.4375, 27.4375, 27.1875, 26.955357, 26.8125, 26.625, 26.4375, 26.25, 26.0625, 26, 26, 26, 25.8125, 25.5625, 25.3125, 25.0625, 25, 24.9375, 24.8125, 24.5625, 24.3125, 24.125, 24, 23.9375, 23.8125, 23.5625, 23.3125, 23.0625, 22.875, 22.678572, 22.4375, 22.3125, 22.1875, 22.125, 22, 21.9375, 21.8125, 21.741072, 21.375, 21.25, 21.0625, 21, 21, 21, 20.8125, 20.5625, 20.3125, 20.0625, 20, 20, 20, 19.8125, 19.5625, 19.3125, 19, 18.875, 18.8125, 18.75, 18.5625, 18.375, 18.0625, 17.6875, 17.625, 17.625, 17.6875, 17.625, 17.4375, 17.1875, 17, 17, 16.875, 16.6875, 16.4375, 16.1875, 16.0625, 16, 16, 15.9375, 15.8125, 15.625, 15.5, 15.25, 15, 14.839286, 14.5, 14.3125, 14.1875, 14, 13.9375, 13.875, 13.875, 13.75, 13.5625, 13.3125, 13.0625, 12.9375, 12.9375, 12.875, 12.625, 12.375, 12.125, 12, 12, 11.875, 11.625, 11.375, 11.125, 11, 11, 11, 10.75, 10.5, 10.25, 10, 10, 10, 10, 9.75, 9.5, 9.25, 9, 9, 8.9375, 8.8125, 8.6875, 8.5625, 8.5, 8.5625, 8.6875, 8.8125, 8.8125, 8.8125, 8.6875, 8.5625, 8.6875, 8.75, 8.75, 8.6875, 8.4375, 8.25, 8.1875, 8.3125, 8.5625, 8.6875, 8.8125, 8.875, 8.8125, 8.8125, 8.8125, 8.8125, 8.875, 8.9375, 8.875, 8.75, 8.625, 8.5625, 8.5625, 8.625, 8.6875, 8.625, 8.625, 8.5625, 8.5625, 8.5625, 8.6875, 8.8125, 8.875, 8.9375, 8.8125, 8.6875, 8.6875, 8.75, 8.8125, 8.875, 8.8125, 8.8125, 8.75, 8.8125, 8.8125, 8.75, 8.8125, 8.75, 8.6875, 8.625, 8.5625, 8.5625, 8.625, 8.6875, 8.75, -10, -10, -10, -10, -10, -10, 19, 19.5, 19.5, 19.375, 19.25, 19.125, 19.0625, 19.125, 19.125, 19.125, 19.0625, 19, 19, 19, 19, 19.125, 19.3125, 19.357143, 19.3125, 19.25, 19.0625, 19.0625, 19.125, 19.25, 19.625, 20.699404, 21.258928, 21.732143, 21.9375, 22, 22, 22, 22, 22, 21.9375, 21.875, 22.017857, 22.333334, 22.553572, 22.5625, 22.464287, 22.598213, 22.6875, 23.044643, 23.1875, 23.1875, 23.125, 23.125, 23.0625, 23, 22.9375, 22.9375, 23, 23.125, 23.25, 23.375, 23.625, 24.020834, 24.178572, 24.125, 24.125, 24.0625, 24.125, 24.25, 24.1875, 24.1875, 24.1875, 24.3125, 24.625, 24.6875, 24.580357, 24.383928, 24.25, 24.375, 24.254463, 24.245537, 24.455357, 24.428572, 24.833334, 24.833334, 24.523809, 24.238094, 24.142857, 24.125, 24.1875, 24.339287, 24.607143, 24.732143, 24.875, 24.875, 24.875, 24.9375, 25, 25.1875, 25.375, 25.5625, 25.75, 25.875, 25.9375, 26, 26, 26, 26, 26.1875, 26.375, 26.625, 26.875, 26.916666, -10, -10, -10, -10, -10, -10, -10, -10, -10, -10, -10, -10, -10, -10, -10, -10, -10, -10, -10, -10, -10, -10, -10, -10, -10, -10, 34.125, 33.916668, 33.830357, 33.8125, 33.75, 33.75, 33.5625, 33.3125, 33.125, 33, 32.9375, 32.875, 32.625, 32.375, 32.25, 32.125, 32.044643, 31.666666, 31.383928, 31.25, 31.1875, 31.1875, 31.1875, 31.0625, 30.9375, 30.8125, 30.5625, 30.3125, 30.125, 30, 29.9375, 29.8125, 29.5625, 29.3125, 29.125, 28.9375, 28.9375, 28.75, 28.5625, 28.5, 28.3125, 28.1875, 27.946428, 27.571428, 27.25, 27.276787, 27.419643, 27.5625, 27.5, 27.25, 26.955357, 26.8125, 26.6875, 26.5, 26.3125, 26.125, 26, 26, 26, 25.8125, 25.5625, 25.3125, 25.0625, 25, 24.9375, 24.8125, 24.5625, 24.3125, 24.125, 24, 24, 23.875, 23.625, 23.375, 23.0625, 22.875, 22.616072, 22.3125, 22.1875, 22.0625, 22.0625, 22, 22, 21.9375, 21.928572, 21.5625, 21.375, 21.125, 21, 21, 21, 20.8125, 20.5625, 20.375, 20.125, 20.0625, 20.0625, 20, 19.8125, 19.5625, 19.3125, 19.0625, 19, 19, 19, 18.8125, 18.5625, 18.1875, 17.6875, 17.5, 17.4375, 17.5, 17.5, 17.375, 17.1875, 17, 17, 16.875, 16.6875, 16.4375, 16.1875, 16.0625, 16, 16, 15.9375, 15.8125, 15.625, 15.5, 15.25, 14.928572, 14.589286, 14.3125, 14.125, 14.125, 14, 14, 14, 13.9375, 13.8125, 13.5625, 13.25, 13.0625, 12.9375, 12.9375, 12.875, 12.625, 12.375, 12.125, 12, 12, 11.9375, 11.6875, 11.4375, 11.1875, 11, 11, 11, 10.8125, 10.5625, 10.3125, 10.0625, 10, 10, 10, 9.8125, 9.5625, 9.3125, 9.0625, 9, 8.9375, 8.75, 8.5625, 8.375, 8.25, 8.3125, 8.4375, 8.625, 8.625, 8.625, 8.5, 8.3125, 8.4375, 8.5, 8.5625, 8.5625, 8.375, 8.1875, 8.0625, 8.125, 8.3125, 8.4375, 8.5625, 8.625, 8.5625, 8.5625, 8.5625, 8.625, 8.6875, 8.75, 8.6875, 8.5, 8.4375, 8.4375, 8.4375, 8.5, 8.5, 8.375, 8.375, 8.375, 8.375, 8.375, 8.5, 8.5625, 8.625, 8.6875, 8.5625, 8.4375, 8.4375, 8.5, 8.5625, 8.625, 8.5625, 8.625, 8.625, 8.75, 8.75, 8.625, 8.625, 8.5, 8.4375, 8.375, 8.3125, 8.3125, 8.375, 8.5, 8.583333, -10, -10, -10, -10, -10, -10, 19, 19.25, 19.178572, 18.9375, 18.875, 18.8125, 18.8125, 18.8125, 18.8125, 18.75, 18.75, 18.75, 18.75, 18.75, 18.8125, 18.9375, 19.1875, 19.232143, 19.125, 19.125, 18.9375, 19, 19.125, 19.1875, 19.5, 20.458332, 21.008928, 21.544643, 21.8125, 21.9375, 22, 22.0625, 22.0625, 22.0625, 22.0625, 21.9375, 22.0625, 22.25, 22.482143, 22.5, 22.464287, 22.598213, 22.625, 22.875, 23, 22.9375, 22.875, 22.8125, 22.8125, 22.8125, 22.75, 22.75, 22.6875, 22.75, 22.875, 23.125, 23.375, 23.708334, 23.741072, 23.5625, 23.5625, 23.5, 23.625, 23.75, 23.75, 23.6875, 23.6875, 23.8125, 24, 24.125
