-10, -10, -10, -10, -10, -10, -10, -10, -10, -10, -10, -10, -10, -10, 42.5, 43.416668, 43.270836, 43.25, 42.982143, 42.580357, 42.321426, 42.25, 42.25, 42.0625, 41.848213, 41.333332, 40.866074, 40.455357, 40.142857, 39.8125, 39.6875, 39.75, 39.75, 39.75, 39.6875, 39.419643, 38.770836, 38.526787, 38.25, 37.875, 37.636906, 37.767857, 37.657738, 37.25, 37.017857, 36.776787, 36.395832, 36.3125, 36.0625, 36, 36, 36.035713, 35.857143, 35.57143, 35.446426, 35.3125, 35.3125, 35.098213, 34.598213, 34.258926, 34, 33.9375, 33.75, 33.625, 33.25, 32.75, 32.455357, 32.25, 31.982143, 31.604166, 31.321428, 31, 30.875, 30.6875, 30.4375, 30.375, 30.25, 30.1875, 30.1875, 30, 29.6875, 29.4375, 29.1875, 28.75, 28.5, 28.25, 27.875, 27.8125, 27.5625, 27.3125, 27.0625, 26.625, 26.5, 26.25, 26.125, 26.125, 26.008928, 26.0625, 25.803572, 25.395834, 25.071428, 24.75, 24.5, 24.3125, 24.125, 23.9375, 23.6875, 23.375, 23.125, 23, 22.875, 22.75, 22.5, 22.25, 22.125, 21.875, 21.625, 21.375, 21.125, 21, 20.9375, 20.875, 20.75, 20.5, 20.125, 19.598213, 19.3125, 19.0625, 18.8125, 18.6875, 18.5, 18.25, 18.053572, 17.674999, 17.544643, 17.25, 17.1875, 16.875, 16.580357, 16.383928, 16.1875, 16.125, 16.125, 15.9375, 15.75, 15.5625, 15.383928, 15.261905, 15.119048, 14.857142, 14.678572, 14.571428, 14.714286, 15.129464, 15.089286, 15.357142, 15.321428, 15.125, 15.357142, 15.198979, 15.178572, 15.142858, 15.204082, 15.125, 15.1875, 15.1875, 15.1875, 15.25, 15.3125, 15.3125, 15.375, 15.25, 15.125, 15, 14.9375, 14.875, 14.9375, 14.910714, 14.776786, 14.8125, 14.625, 14.8125, 15.035714, -10, -10, -10, 16, 16, -10, -10, -10, -10, -10, -10, -10, -10, -10, -10, -10, -10, -10, -10, -10, -10, -10, -10, -10, -10, -10, -10, -10, -10, -10, -10, -10, -10, -10, -10, -10, -10, -10, -10, -10, -10, -10, -10, -10, -10, -10, -10, -10, 63.208332, 63.125, 63, 63, 63, 63.142857, 63.748299, 65.48214, 66.25, 66.852676, 67.739586, 68.339287, 69.004463, 69.450897, 69.78125, 70, 70.125, 70.3125, 70.811226, 71.3125, 71.642853, 71.955353, 72.357147, 72.544647, 72.8125, 73.03125, 73.325897, 73.59375, 73.84375, 74.0625, 74.25, 74.53125, 74.8125, 75, 75.303574, 75.71875, 75.776787, 76.116074, 76.464287, 76.9375, 77.4375, 77.5, 77.75, 78.017853, 78.547623, 79.125, 79.5625, 79.875, 80.1875, 80.508926, 80.958336, 81.178574, 81.3125, 81.4375, 81.5625, 81.8125, 82.1875, 82.4375, 82.8125, 83.0625, 83.4375, 83.6875, 83.875, 84.28125, 84.53125, 84.816963, 84.96875, 85.151787, 85.383926, 85.803574, 86.458336, 86.803574, 87.28125, 87.5625, 88, 88.3125, 88.5, 88.625, 88.741074, 89.208336, 89.5, 89.875, 90.25, 90.71875, 91.209824, 91.375, 91.625, 91.71875, 91.875, 92.0625, 92.25, 92.5, 92.875, 93.627975, 93.866074, 94.133926, 94.711311, 95.107147, 95.961304, 96.330353, 96.669647, 96.75, 96.892853, 97.333336, 97.616074, 97.9375, 98.25, 98.5, 98.75, 98.9375, 99.125, 99.375, 99.625, 100.125, 100.5, 100.75, 101.125, 101.3125, 101.5625, 101.875, 102.125, 102.3125, 102.5625, 102.75, 103.0625, 103.5625, 104.02679, 104.3125, 104.5625, 104.6875, 104.75, -10, -10, -10, -10, -10, -10, -10, -10, -10, -10, -10, -10, -10, -10, -10, -10, -10, -10, -10, -10, -10, -10, -10, -10, -10, -10, -10, -10, -10, 43.166668, 43.104168, 43.125, 42.919643, 42.517857, 42.258926, 42.1875, 42.1875, 42.0625, 41.848213, 41.333332, 40.928574, 40.580357, 40.205357, 39.875, 39.625, 39.625, 39.625, 39.5625, 39.5, 39.241074, 38.854168, 38.633926, 38.3125, 37.892857, 37.866074, 38.089287, 38.032738, 37.6875, 37.392857, 37.089287, 36.708332, 36.5625, 36.25, 36.125, 36, 36, 36.035713, 35.892857, 35.758926, 35.5625, 35.375, 35, 34.580357, 34.25, 34, 33.875, 33.625, 33.392857, 33.0625, 32.625, 32.392857, 32.25, 31.919643, 31.541666, 31.258928, 30.9375, 30.875, 30.6875, 30.4375, 30.375, 30.25, 30.1875, 30.1875, 29.991072, 29.5625, 29.375, 29.0625, 28.6875, 28.4375, 28.1875, 27.9375, 27.875, 27.6875, 27.5, 27.241072, 26.75, 26.625, 26.375, 26.25, 26.1875, 25.9375, 25.6875, 25.4375, 25.1875, 25, 24.75, 24.5625, 24.375, 24.1875, 24.0625, 23.75, 23.4375, 23.1875, 23, 22.9375, 22.8125, 22.5625, 22.3125, 22.125, 21.875, 21.625, 21.375, 21.125, 21, 20.9375, 20.875, 20.6875, 20.4375, 20.0625, 19.580357, 19.3125, 19.0625, 18.875, 18.6875, 18.5, 18.25, 17.991072, 17.674999, 17.544643, 17.25, 17.1875, 16.9375, 16.705357, 16.571428, 16.4375, 16.4375, 16.5, 16.375, 16.3125, 16.1875, 16.133928, 16.819445, 16.694445, 16.416666, 16.336309, 16.465279, 16.800596, 16.647959, 16.494898, 16.37755, 16.321428, 16.625, 16.392857, 16.306122, 16.321428, 16.25, 16.285715, 16.321428, 16.09375, 16.09375, 16.125, 16.25, 16.3125, 16.3125, 16.5, 16.1875, 16.0625, 16, 16, 16.178572, 16.178572, 16.107143, 15.75, 15.6875, 15.785714, 15.892858, 15.952382, -10, -10, -10, 16.25, 16.333334, -10, -10, -10, -10, -10, -10, -10, -10, -10, -10, -10, -10, -10, -10, -10, -10, -10, -10, -10, -10, -10, -10, -10, -10, -10, -10, -10, -10, -10, -10, -10, -10, -10, -10, -10, -10, -10, -10, -10, -10, -10, -10, -10, 63.083332, 63.0625, 63, 63, 63, 63, 63.42857, 65.166664, 66, 67.035713, 67.90625, 68.410713, 68.941963, 69.388397, 69.65625, 69.875, 70.125, 70.357147, 70.763397, 71.4375, 71.767853, 72.0625, 72.28125, 72.53125, 72.78125, 73, 73.28125, 73.46875, 73.736603, 74.133926, 74.21875, 74.5625, 74.78125, 74.875, 75.178574, 75.558037, 75.589287, 75.955353, 76.446426, 76.928574, 77.375, 77.508926, 78.020836, 78.303574, 78.714287, 79.1875, 79.5625, 79.875, 80.1875, 80.517853, 81.083336, 81.241074, 81.375, 81.375, 81.5625, 81.875, 82.357147, 82.625, 82.9375, 83.125, 83.4375, 83.6875, 83.875, 84.25, 84.4375, 84.660713, 84.821426, 85.172623, 85.375, 85.696426, 86.333336, 86.616074, 87.09375, 87.4375, 87.8125, 88.125, 88.375, 88.5, 88.678574, 89.208336, 89.4375, 89.767853, 90.232147, 90.678574, 91.116074, 91.28125, 91.53125, 91.71875, 92.044647, 92.25, 92.5, 92.75, 93.0625, 93.708336, 93.991074
-10, -10, -10, -10, -10, -10, -10, -10, -10, -10, -10, -10, -10, -10, -10, 42.666668, 42.6875, 42.6875, 42.5625, 42.375, 42.1875, 42.1875, 42.1875, 42.125, 41.848213, 41.333332, 40.991074, 40.6875, 40.392857, 40.125, 39.875, 39.75, 39.625, 39.4375, 39.25, 39.0625, 38.9375, 38.8125, 38.5, 38.080357, 37.964287, 37.982143, 37.791668, 37.4375, 37.142857, 36.9375, 36.875, 36.6875, 36.4375, 36.1875, 36.0625, 36, 36, 35.9375, 35.8125, 35.5625, 35.3125, 34.9375, 34.5625, 34.25, 34, 33.8125, 33.5625, 33.330357, 33.0625, 32.6875, 32.392857, 32.1875, 31.75, 31.5, 31.25, 30.9375, 30.875, 30.75, 30.5, 30.4375, 30.3125, 30.1875, 30.125, 29.866072, 29.4375, 29.1875, 28.875, 28.5625, 28.3125, 28.125, 28, 28, 27.875, 27.75, 27.491072, 27, 26.8125, 26.5625, 26.375, 26.25, 26, 25.6875, 25.4375, 25.125, 24.964287, 24.75, 24.5625, 24.4375, 24.1875, 24.125, 23.8125, 23.5, 23.25, 23, 22.9375, 22.8125, 22.5625, 22.3125, 22.125, 21.9375, 21.6875, 21.4375, 21.1875, 21, 20.875, 20.75, 20.5, 20.25, 20, 19.625, 19.375, 19.125, 18.9375, 18.75, 18.5625, 18.3125, 18.053572, 17.799999, 17.732143, 17.5, 17.4375, 17.25, 17.142857, 17.133928, 17.125, 17.125, 17.357143, 17.321428, 17.357143, 17.392857, 17.403061, 17.702381, 17.630953, 17.428572, 17.395407, 17.541668, 17.829082, 17.880102, 17.67347, 17.520407, 17.392857, 17.464285, 17.336735, 16.848213, 16.892857, 16.875, 17.260204, 17.285715, 17.214285, 16.9375, 17.035715, 17.178572, 17.321428, 17.357143, 17.357143, 17.25, 17.071428, 17.107143, 17.25, 17.25, 17.25, 17.142857, 16.928572, 16.857143, 16.785715, 16.625, 16.666668, 17.5, 17.5625, 17.625, 16.875, 16.875, 17.75, -10, -10, -10, -10, -10, -10, -10, -10, -10, -10, -10, -10, -10, -10, -10, -10, -10, -10, -10, -10, -10, -10, -10, -10, -10, -10, -10, -10, -10, -10, -10, -10, -10, -10, -10, -10, -10, -10, -10, -10, -10, -10, 63, 63, 63, 63, 63, -10, -10, -10, -10, 68.354164, 68.273811, 68.4375, 68.816963, 69.263397, 69.5, 69.84375, 70.25, 70.651787, 71.09375, 71.4375, 71.625, 71.875, 72.09375, 72.40625, 72.71875, 72.90625, 73.25, 73.4375, 73.767853, 74.258926, 74.28125, 74.59375, 74.71875, 74.6875, 75.053574, 75.464287, 75.464287, 75.85714, 76.5, 76.928574, 77.375, 77.633926, 78.190475, 78.491074, 78.857147, 79.25, 79.5625, 79.8125, 80.0625, 80.339279, 81.020836, 81.178574, 81.375, 81.3125, 81.5, 81.75, 82.232147, 82.6875, 82.9375, 83.25, 83.5, 83.75, 83.9375, 84.25, 84.4375, 84.732147, 84.946426, 85.297623, 85.5, 85.758926, 86.333336, 86.616074, 87.03125, 87.375, 87.6875, 87.9375, 88.1875, 88.3125, 88.553574, 89.145836, 89.5, 89.9375, 90.357147, 90.803574, 91.071426, 91.15625, 91.40625, 91.59375, 91.982147, 92.3125, 92.625, 92.9375, 93.375, 94.083336, 94.428574, 94.625, 94.794647, 94.919647, 95.479164, 95.830353, 96.357147, 96.669647, 96.75, 97.089287, 97.648811, 97.946426, 98.375, 98.5625, 98.75, 99, 99.125, 99.375, 99.6875, 100.125, 100.5625, 100.78125, 101.18304, 101.5134, 101.7009, 102, 102.20535, 102.58334, 102.86607, 103, 103.25, 103.625, 104.08929, 104.5, 104.75, 104.875, 105, -10, -10, -10, -10, -10, -10, -10, -10, -10, -10, -10, -10, -10, -10, -10, -10, -10, -10, -10, -10, -10, -10, -10, -10, -10, -10, -10, -10, -10, 42.5, 42.5, 42.5, 42.4375, 42.3125, 42.1875, 42.125, 42.0625, 41.9375, 41.642857, 41.375, 41.0625, 40.8125, 40.5625, 40.3125, 40.0625, 39.8125, 39.625, 39.375, 39.1875, 39.0625, 38.9375, 38.875, 38.5625, 38.205357, 38, 37.625, 37.5, 37.4375, 37.276787, 37.125, 37, 36.712502, 36.674999, 36.223213, 36.169643, 36, 35.9375, 35.8125, 35.625, 35.375, 35.1875, 34.875, 34.5625, 34.3125, 34.0625, 33.875, 33.6875, 33.392857, 33.125, 32.75, 32.392857, 32.1875, 31.75, 31.5, 31.25, 30.9375, 30.875, 30.8125, 30.5625, 30.4375, 30.3125, 30.125, 30, 29.741072, 29.3125, 29.0625, 28.8125, 28.625, 28.375, 28.1875, 28.0625, 28, 27.875, 27.75, 27.491072, 27.0625, 26.9375, 26.75, 26.5625, 26.375, 26.0625, 25.75, 25.5625, 25.241072, 24.880951, 24.571428, 24.375, 24.3125, 24.125, 24.0625, 23.705357, 23.4375, 23.1875, 23, 22.9375, 22.8125, 22.5625, 22.3125, 22.125, 22, 21.8125, 21.5625, 21.3125, 21.0625, 20.8125, 20.625, 20.375, 20.125, 20, 19.75, 19.5, 19.25, 19.0625, 18.8125, 18.625, 18.4375, 18.25, 18.1875, 18.1875, 18.0625, 17.875, 17.839287, 17.875, 18, 18.0625, 18, 18, 18.25, 18.392857, 18.464285, 18.540815, 18.458334, 18.333334, 18.489796, 18.523809, 18.807541, 18.793367, 18.737244, 19.015306, 18.734694, 18.375, 18.3125, 18.169643, 17.785713, 17.767857, 17.607143, 18.040178, 18.0625, 17.96875, 17.84375, 18.178572, 17.803572, 17.964285, 18.035715, 18.25, 18.1875, 17.785715, 18.321428, 18.392857, 18.321428, 18.25, 18.107143, 17.928572, 17.928572, 17.928572, 17.75, 17.523809, 18.25, 18.208334, 18.166666, 17.857143, 17.857143, 18.166666, -10, -10, -10, -10, -10, -10, -10, -10, -10, -10, -10, -10, -10, -10, -10, -10, -10, -10, -10, -10, -10, -10, -10, -10, -10, -10, -10, -10, -10, -10, -10, -10, -10, -10, -10, -10, -10, -10, -10, -10, -10, -10, 63, 63, 63, 63, 63, -10, -10, -10, -10, 68.803574, 68.827385, 68.75, 68.825897, 69.120537, 69.419647, 69.638397, 70.0625, 70.339287, 70.71875, 71.125, 71.34375, 71.65625, 71.90625, 72.28125, 72.625, 72.875, 73.1875, 73.375, 73.705353, 74.133926, 74.15625, 74.46875, 74.65625, 74.785713, 75.214287, 75.607147, 75.714287, 76.08036, 76.70536, 76.991074, 77.3125, 77.633926, 78.190475, 78.598213, 78.9375, 79.3125, 79.5625, 79.8125, 79.9375, 80.089279, 80.761902, 81.095238, 81.446426, 81.4375, 81.5625, 81.8125, 82.232147, 82.6875, 82.9375, 83.3125, 83.5625, 83.75, 83.9375, 84.125, 84.3125, 84.877975, 85.125, 85.547623, 85.75, 85.9375, 86.3125, 86.5625, 86.96875, 87.375, 87.625, 87.875, 88.125, 88.3125, 88.616074, 89.208336, 89.5625, 89.9375, 90.294647, 90.616074, 90.75, 90.883926, 91.333336, 91.616074, 92.107147, 92.4375, 92.75, 93.125, 93.5, 94.083336, 94.491074
-10, -10, -10, -10, -10, -10, -10, -10, -10, -10, -10, -10, -10, -10, -10, 42.25, 42.3125, 42.375, 42.375, 42.3125, 42.1875, 42.0625, 42, 41.875, 41.625, 41.375, 41, 40.75, 40.4375, 40.1875, 40, 39.75, 39.5625, 39.3125, 39.125, 39.0625, 38.973213, 38.830357, 38.5, 38.25, 37.982143, 37.464287, 37.375, 37.3125, 37.3125, 37.1875, 37, 36.739285, 36.758331, 36.089287, 36.026787, 35.8125, 35.75, 35.5625, 35.267857, 35.0625, 34.875, 34.625, 34.4375, 34.1875, 34, 33.8125, 33.5625, 33.205357, 32.9375, 32.625, 32.375, 32.1875, 31.75, 31.5625, 31.375, 31.0625, 31, 30.8125, 30.5, 30.3125, 30.1875, 30.0625, 29.875, 29.571428, 29.1875, 28.9375, 28.75, 28.6875, 28.5, 28.3125, 28.1875, 28.0625, 27.875, 27.75, 27.491072, 27.125, 27.0625, 26.875, 26.625, 26.267857, 26, 25.75, 25.625, 25.303572, 24.773811, 24.446428, 24.25, 24.3125, 24.1875, 24.0625, 23.660713, 23.375, 23.125, 23, 22.9375, 22.8125, 22.5625, 22.3125, 22.125, 22, 21.8125, 21.5625, 21.3125, 21.0625, 20.8125, 20.6875, 20.5, 20.25, 20.125, 19.875, 19.625, 19.4375, 19.375, 19.1875, 18.821428, 18.714285, 18.553572, 18.78125, 18.78125, 18.892857, 18.892857, 19.035715, 19.107143, 19.25, 19.285715, 19, 19, 19, 19.125, 19.25, 19.375, 19.375, 19.25, 19.561224, 20.095238, 20.36508, 20.494047, 20.416666, 20, 19.795918, 19.642857, 19.5, 19.326532, 18.863266, 19.010204, 19.267859, 18.977678, 18.9375, 18.90625, 18.90625, 19.285715, 19.708334, 19.708334, 19.541666, 19.178572, 19.219387, 19.291666, 19.321428, 19.1875, 19.1875, 19.125, 18.9375, 18.75, 18.75, 19.035715, 19.119047, 18.75, 18.5, 18.450001, 18.4, 18.4, 18.857143, 18.4, 19, -10, -10, -10, -10, -10, -10, -10, -10, -10, -10, -10, -10, -10, -10, -10, -10, -10, -10, -10, -10, -10, -10, -10, -10, -10, -10, -10, -10, -10, -10, -10, -10, -10, -10, -10, -10, -10, -10, -10, -10, -10, 63, 63, 63, 63, 63, -10, -10, -10, -10, 69.0625, 68.958336, 68.90625, 68.75, 68.870537, 69.013397, 69.200897, 69.625, 70.008926, 70.375, 70.821426, 71.239586, 71.584824, 71.90625, 72.28125, 72.625, 72.875, 73.1875, 73.375, 73.705353, 74.133926, 74.15625, 74.46875, 74.71875, 74.946426, 75.375, 75.75, 75.964287, 76.303574, 76.848213, 76.991074, 77.1875, 77.508926, 78.065475, 78.58036, 78.875, 79.25, 79.5, 79.8125, 80.125, 80.375, 80.803574, 81.041664, 81.321426, 81.3125, 81.5, 81.8125, 82.232147, 82.6875, 82.875, 83.25, 83.4375, 83.625, 83.875, 84, 84.25, 84.815475, 85.1875, 85.708336, 85.866074, 86.0625, 86.3125, 86.5625, 86.9375, 87.375, 87.6875, 87.9375, 88.1875, 88.4375, 88.625, 89.0625, 89.4375, 89.8125, 90.232147, 90.491074, 90.625, 90.821426, 91.377975, 91.678574, 92.232147, 92.5625, 92.875, 93.3125, 93.625, 93.875, 94.125, 94.142853, 94.535713, 94.867348, 95.375, 95.875, 96.375, 96.732147, 96.6875, 96.991074, 97.630951, 98.008926, 98.5, 98.6875, 98.875, 99.151787, 99.419647, 99.678574, 100.0625, 100.4375, 100.78571, 101.03125, 101.37946, 101.95387, 102.19197, 102.4375, 102.51785, 102.77084, 102.92857, 103.125, 103.3125, 103.5625, 103.8125, 104.1875, 104.5, 104.75, 105, -10, -10, -10, -10, -10, -10, -10, -10, -10, -10, -10, -10, -10, -10, -10, -10, -10, -10, -10, -10, -10, -10, -10, -10, -10, -10, -10, -10, 42, 42.25, 42.3125, 42.375, 42.375, 42.303574, 42.0625, 42, 41.9375, 41.875, 41.625, 41.375, 41, 40.75, 40.5, 40.241074, 39.9375, 39.6875, 39.4375, 39.25, 39.0625, 39.0625, 39.035713, 38.86607, 38.455357, 38.196426, 37.919643, 37.464287, 37.4375, 37.3125, 37.3125, 37.1875, 36.9375, 36.739285, 36.758331, 36.089287, 36.026787, 35.8125, 35.6875, 35.4375, 35.142857, 34.9375, 34.8125, 34.625, 34.4375, 34.1875, 34, 33.8125, 33.625, 33.375, 33.125, 32.875, 32.625, 32.375, 31.875, 31.651787, 31.419643, 31.017857, 30.946428, 30.75, 30.5, 30.3125, 30.1875, 30.0625, 29.8125, 29.517857, 29.25, 29, 29, 28.919643, 28.604166, 28.383928, 28.1875, 28, 27.75, 27.5625, 27.3125, 27.125, 27, 26.8125, 26.5, 26.080357, 25.875, 25.6875, 25.5625, 25.303572, 24.711311, 24.383928, 24.0625, 24.125, 24.0625, 23.875, 23.598213, 23.3125, 23.0625, 23, 22.9375, 22.8125, 22.5625, 22.3125, 22.125, 22, 21.875, 21.625, 21.375, 21.125, 20.8125, 20.6875, 20.5625, 20.375, 20.375, 20.3125, 20.1875, 20.125, 20.125, 19.9375, 20.25, 20.208334, 20.041666, 19.821428, 19.964285, 20, 20.107143, 20.321428, 20.285715, 20.321428, 20.25, 20.035715, 19.964285, 19.75, 19.875, 20.0625, 20.25, 20.5, 20.5, 20.632654, 21.071428, 21.336735, 21.416668, 21.15476, 20.964285, 20.785715, 20.821428, 20.647959, 20.357143, 20.043537, 20.285715, 20.301022, 20.397961, 20.03125, 20, 20.267857, 20.464285, 20.535715, 20.464285, 20.25, 19.8125, 19.848213, 20, 20.178572, 20.142857, 20.224489, 20.452381, 20.273809, 19.976191, 19.938776, 20, 20.119047, -10, -10, -10, -10, -10, 19.166666, -10, -10, -10, -10, -10, -10, -10, -10, -10, -10, -10, -10, -10, -10, -10, -10, -10, -10, -10, -10, -10, -10, -10, -10, -10, -10, -10, -10, -10, -10, -10, -10, -10, -10, -10, -10, -10, -10, -10, -10, -10, -10, 63.125, 63.041668, 63.03125, 63.03125, 63.09375, 63.125, -10, -10, -10, -10, 68.547623, 68.408333, 68.370537, 68.375, 68.433037, 68.700897, 69.075897, 69.375, 69.776787, 70.053574, 70.738091, 71.230659, 71.647324, 72, 72.375, 72.71875, 72.90625, 73.1875, 73.4375, 73.75, 74.0625, 74.125, 74.383926, 74.895836, 75.116074, 75.5, 75.875, 76.232147, 76.620537, 77.147324, 77.28125, 77.4375, 77.6875, 77.982147, 78.464287, 78.75, 79.15625, 79.4375, 79.75, 80, 80.267853, 80.761909, 81.041664, 81.383926, 81.4375, 81.6875, 82, 82.3125, 82.75, 82.875, 83.3125, 83.5, 83.75, 84.0625, 84.1875, 84.5, 85.065475, 85.366074, 85.6875, 85.8125, 86, 86.3125, 86.5625, 86.9375, 87.383926, 87.895836, 88.178574, 88.4375, 88.625, 88.75, 89.125, 89.5, 89.857147, 90.1875, 90.4375, 90.625, 90.883926, 91.440475, 91.678574, 92.125, 92.5, 92.8125, 93.3125, 93.625, 93.875, 94.0625
-10, -10, -10, -10, -10, -10, -10, -10, -10, -10, -10, -10, -10, -10, -10, 42.375, 42.395832, 42.4375, 42.4375, 42.339287, 41.955357, 41.821426, 41.75, 41.6875, 41.5, 41.3125, 40.9375, 40.75, 40.5625, 40.366074, 40.125, 39.9375, 39.6875, 39.5, 39.25, 39.1875, 39.098213, 38.80357, 38.392857, 38.133926, 37.857143, 37.464287, 37.5, 37.3125, 37.3125, 37.1875, 36.875, 36.739285, 36.758331, 36.089287, 36.026787, 35.75, 35.5625, 35.3125, 35.017857, 34.875, 34.75, 34.5625, 34.375, 34.125, 33.9375, 33.75, 33.5625, 33.3125, 33.125, 32.9375, 32.75, 32.491074, 31.854166, 31.598215, 31.294643, 30.955357, 30.946428, 30.857143, 30.669643, 30.270834, 30.125, 30, 29.75, 29.517857, 29.25, 29.0625, 29.125, 29.044643, 28.729166, 28.446428, 28.1875, 27.9375, 27.625, 27.375, 27.125, 26.9375, 26.8125, 26.625, 26.25, 25.830357, 25.6875, 25.5625, 25.5, 25.366072, 24.809525, 24.446428, 24.125, 24.125, 24.0625, 23.875, 23.660713, 23.4375, 23.25, 23.1875, 23.0625, 22.875, 22.5625, 22.3125, 22.125, 22, 21.9375, 21.75, 21.625, 21.5, 21.25, 21.25, 21.125, 20.9375, 20.875, 20.839287, 20.919643, 21.204082, 21.392857, 21.321428, 21.285715, 21.214285, 21.035715, 20.928572, 20.928572, 20.964285, 21.071428, 21.25, 21.25, 21.125, 21.15625, 20.75, 20.714285, 20.632654, 20.866072, 20.883928, 21, 21.285715, 21.392857, 21.530613, 21.75, 22.107143, 22.150299, 21.778273, 21.611607, 21.4375, 21.75, 21.719387, 21.258928, 21.319048, 21.561224, 21.515306, 21.5, 21.285715, 21.267857, 21.267857, 21.410715, 21.28125, 21.0625, 20.875, 20.75, 20.892857, 20.9375, 20.857143, 20.785715, 21.133928, 21.630953, 21.523809, 21.261904, 21.117346, 20.8125, 20.804165, -10, -10, -10, -10, -10, -10, -10, -10, -10, -10, -10, -10, -10, -10, -10, -10, -10, -10, -10, -10, -10, -10, -10, -10, -10, -10, -10, -10, -10, -10, -10, -10, -10, -10, -10, -10, -10, -10, -10, -10, -10, -10, -10, -10, -10, -10, -10, -10, 63.25, 63.125, 63.09375, 63.0625, 63.1875, 63.25, -10, -10, -10, -10, 66.06945, 67.400002, 67.447281, 67.808037, 67.982147, 68.440475, 68.848213, 69.09375, 69.450897, 69.772324, 70.648804, 71.337799, 71.834824, 72.25, 72.5625, 72.84375, 72.96875, 73.1875, 73.4375, 73.6875, 73.9375, 74.0625, 74.383926, 74.994049, 75.241074, 75.580353, 76.083336, 76.571426, 76.96875, 77.34375, 77.46875, 77.53125, 77.6875, 77.875, 78.339287, 78.625, 79.03125, 79.3125, 79.5625, 79.75, 80.053574, 80.761909, 81.184525, 81.571426, 81.6875, 81.9375, 82.25, 82.5, 82.8125, 83, 83.375, 83.625, 83.8125, 84.125, 84.25, 84.5, 84.958336, 85.178574, 85.5, 85.6875, 85.9375, 86.3125, 86.5625, 86.9375, 87.383926, 87.895836, 88.116074, 88.3125, 88.4375, 88.5625, 88.982147, 89.28125, 89.59375, 89.90625, 90.15625, 90.4375, 90.758926, 91.315475, 91.616074, 92.0625, 92.482147, 92.75, 93.25, 93.5, 93.6875, 93.9375, 93.955353, 94.39286, 94.867348, 95.5625, 96.169647, 96.625, 96.875, 96.875, 97.098213, 97.565483, 97.866074, 98.258926, 98.583336, 98.8125, 99.107147, 99.482147, 99.741074, 100.0625, 100.375, 100.72321, 101, 101.32143, 101.81548, 102.24107, 102.71429, 102.875, 103, 103, 103.1875, 103.3125, 103.5, 103.75, 103.9375, 104.3125, 104.625, 104.83333, -10, -10, -10, -10, -10, -10, -10, -10, -10, -10, -10, -10, -10, -10, -10, -10, -10, -10, -10, -10, -10, -10, -10, -10, -10, -10, -10, -10, -10, 42.75, 42.8125, 42.732143, 42.541668, 42.276787, 41.767857, 41.633926, 41.5, 41.4375, 41.3125, 41.1875, 40.9375, 40.875, 40.75, 40.616074, 40.4375, 40.25, 40, 39.75, 39.375, 39.25, 39.160713, 38.80357, 38.392857, 38.133926, 37.857143, 37.714287, 37.75, 37.5, 37.375, 37.125, 36.75, 36.651787, 36.458332, 36.053574, 35.919643, 35.6875, 35.5, 35.25, 34.955357, 34.875, 34.75, 34.5625, 34.375, 34.125, 33.9375, 33.6875, 33.4375, 33.125, 32.9375, 32.8125, 32.6875, 32.459824, 31.822916, 31.566965, 31.263393, 30.955357, 30.946428, 30.857143, 30.669643, 30.270834, 30.125, 30, 29.75, 29.517857, 29.25, 29.0625, 29.125, 28.982143, 28.666666, 28.383928, 28.125, 27.875, 27.5625, 27.3125, 27.0625, 26.9375, 26.8125, 26.5625, 26.1875, 25.705357, 25.5, 25.375, 25.25, 25.1875, 24.892857, 24.625, 24.3125, 24.1875, 24.0625, 23.875, 23.767857, 23.625, 23.5, 23.375, 23.25, 23.0625, 22.75, 22.5625, 22.4375, 22.375, 22.375, 22.071428, 22.25, 22.1875, 22.0625, 22.25, 21.9375, 21.6875, 21.589287, 21.69643, 22.183674, 22.418367, 22.607143, 22.5, 22.392857, 22.0625, 21.84375, 21.71875, 21.65625, 21.625, 21.71875, 21.84375, 21.84375, 21.9375, 22.142857, 22.333334, 22.416666, 22.351191, 22.025511, 21.883928, 22, 21.928572, 22.3125, 22.4375, 22.625, 23.142857, 23.064627, 22.398809, 22.267857, 22.1875, 22.4375, 22.683672, 22.551022, 22.433332, 22.530613, 22.489796, 22.428572, 22.25, 22.321428, 22.0625, 22.125, 22.1875, 21.678572, 21.464285, 21.666666, 22.142857, 22.214285, 22.583334, 22.583334, 22.474489, 22.773809, 22.738096, 22.440475, 22.188776, 21.8125, 21.679165, -10, -10, -10, -10, -10, -10, -10, -10, -10, -10, -10, -10, -10, -10, -10, -10, -10, -10, -10, -10, -10, -10, -10, -10, -10, -10, -10, -10, -10, -10, -10, -10, -10, -10, -10, -10, -10, -10, -10, -10, -10, -10, -10, -10, -10, -10, -10, -10, 63.104168, 63.0625, 63.09375, 63.09375, 63.28125, 63.40625, -10, -10, -10, -10, 65.059525, 65.673813, 66.869896, 67.40625, 67.705353, 68.020836, 68.428574, 68.65625, 69.084824, 69.605659, 70.523804, 71.306549, 71.919647, 72.348213, 72.5625, 72.78125, 72.8125, 73.0625, 73.375, 73.65625, 73.9375, 74.0625, 74.383926, 74.931549, 75.205353, 75.580353, 76.083336, 76.620537, 77.03125, 77.40625, 77.59375, 77.75, 77.875, 78.0625, 78.419647, 78.6875, 79.09375, 79.3125, 79.5625, 79.75, 80, 81.166672, 81.446426, 81.75, 81.75, 82.0625, 82.375, 82.625, 83, 83.1875, 83.5, 83.75, 83.9375, 84.1875, 84.3125, 84.53125, 84.71875, 84.90625, 85.21875, 85.508926, 86.020836, 86.428574, 86.6875, 86.9375, 87.321426, 87.833336, 88.116074, 88.4375, 88.5625, 88.6875, 89.044647, 89.21875, 89.53125, 89.84375, 90.15625, 90.5625, 90.9375, 91.294647, 91.5625, 92, 92.464294, 92.8125, 93.3125, 93.5625, 93.75, 93.9375
-10, -10, -10, -10, -10, -10, -10, -10, -10, -10, -10, -10, -10, -10, -10, 43, 43, 42.919643, 42.666668, 42.339287, 41.767857, 41.508926, 41.3125, 41.25, 41.1875, 41.125, 41, 41, 41, 40.857143, 40.5, 40.3125, 40, 39.875, 39.5, 39.25, 39.017857, 38.723213, 38.392857, 38.196426, 37.9375, 37.875, 37.8125, 37.625, 37.4375, 37.125, 36.520832, 36.330357, 36.1875, 36.160713, 36.125, 35.875, 35.354168, 35.142857, 34.9375, 34.9375, 34.9375, 34.75, 34.5, 34.25, 33.9375, 33.6875, 33.4375, 33.125, 32.9375, 32.75, 32.625, 32.397324, 31.822916, 31.504465, 31.138393, 30.830357, 30.821428, 30.857143, 30.794643, 30.395834, 30.125, 29.901787, 29.6875, 29.5625, 29.375, 29.1875, 29.1875, 28.982143, 28.666666, 28.446428, 28.25, 28.125, 27.875, 27.395834, 27.107143, 26.9375, 26.8125, 26.5625, 26.25, 25.875, 25.5625, 25.4375, 25.3125, 25.25, 25.125, 24.875, 24.5, 24.1875, 23.964287, 23.8125, 23.8125, 23.8125, 23.75, 23.6875, 23.625, 23.5625, 23.3125, 23.1875, 23.125, 23.0625, 23.1875, 23.625, 23.357143, 23.321428, 23.285715, 23.214285, 23.071428, 22.928572, 22.589287, 22.974491, 23.326532, 23.525511, 23.571428, 23.464285, 23.285715, 23.035715, 22.857143, 22.785715, 22.5625, 22.5625, 22.625, 22.6875, 22.75, 22.875, 22.96875, 23.125, 23.166666, 23.074831, 22.908163, 22.903061, 23.12245, 23.541666, 23.428572, 23.571428, 23.75, 23.8125, 23.806549, 23.336309, 23.232143, 23.223213, 23.375, 23.36607, 23.438776, 23.380951, 23.3125, 23.482143, 23.142857, 22.969387, 23.041666, 23, 22.973213, 23.178572, 23.291666, 23.333334, 23.547617, 23.408163, 23.37755, 23.357143, 23.285715, 23.326529, 23.333334, 23.395834, 23.452379, 23.326529, 23.214285, 22.942858, 23.916668, -10, -10, -10, -10, -10, -10, -10, -10, -10, -10, -10, -10, -10, -10, -10, -10, -10, -10, -10, -10, -10, -10, -10, -10, -10, -10, -10, -10, -10, -10, -10, -10, -10, -10, -10, -10, -10, -10, -10, -10, -10, -10, -10, -10, -10, -10, 62.5, 63.138889, 63.0625, 63.09375, 63.09375, 63.34375, 63.53125, 63.8125, 64, 64, 64, 64.395836, 64.995918, 66.589287, 67.196426, 67.642853, 68.020836, 68.366074, 68.46875, 68.790176, 69.293159, 70.139877, 70.794647, 71.657738, 72.107147, 72.375, 72.65625, 72.6875, 72.9375, 73.3125, 73.59375, 73.875, 74.0625, 74.383926, 74.869049, 75.169647, 75.642853, 76.190475, 76.63839, 76.96875, 77.299103, 77.677086, 77.928574, 78.0625, 78.1875, 78.4375, 78.6875, 79.09375, 79.3125, 79.5, 79.5625, 79.883926, 80.916672, 81.258926, 81.6875, 81.75, 82.0625, 82.4375, 82.6875, 83.125, 83.375, 83.625, 83.875, 84, 84.1875, 84.375, 84.59375, 84.78125, 84.90625, 85.09375, 85.383926, 85.958336, 86.473213, 86.75, 86.9375, 87.258926, 87.708336, 88.053574, 88.4375, 88.5625, 88.75, 89.044647, 89.21875, 89.53125, 89.90625, 90.28125, 90.75, 91.125, 91.375, 91.625, 92, 92.464294, 92.8125, 93.3125, 93.5, 93.75, 94.125, 94.419647, 94.6875, 95.125, 95.5, 95.857147, 96.25, 96.5625, 96.75, 97.071426, 97.520836, 97.616074, 97.852676, 98.177086, 98.450897, 98.861603, 99.25, 99.571426, 100.08334, 100.36607, 100.6875, 100.875, 101, 101.25, 101.6875, 102.1875, 102.58929, 103.19048, 103.35715, 103.5625, 103.6875, 103.75, 103.875, 103.9375, 104.19643, 104.70834, 104.89999, -10, -10, -10, -10, -10, -10, -10, -10, -10, -10, -10, -10, -10, -10, -10, -10, -10, -10, -10, -10, -10, -10, -10, -10, -10, -10, -10, -10, -10, 43, 43, 42.919643, 42.604168, 42.285713, 41.830357, 41.446426, 41.25, 41.125, 41, 41, 40.9375, 40.9375, 41, 40.928574, 40.6875, 40.4375, 40.080357, 39.9375, 39.5625, 39.25, 38.848213, 38.5, 38.25, 38.125, 37.875, 37.75, 37.6875, 37.5, 37.375, 37.125, 36.520832, 36.267857, 36.125, 36.098213, 36.0625, 35.875, 35.416668, 35.205357, 35, 35.0625, 34.973213, 34.705357, 34.375, 34.125, 33.875, 33.6875, 33.5, 33.1875, 32.9375, 32.6875, 32.5625, 32.334824, 31.885416, 31.540178, 31.15625, 31, 31, 31.107143, 31.044643, 30.538691, 29.958334, 29.651787, 29.4375, 29.4375, 29.3125, 29.125, 29.0625, 28.875, 28.75, 28.625, 28.5, 28.366072, 27.916666, 27.404762, 27.169643, 27, 26.9375, 26.6875, 26.3125, 26, 25.6875, 25.625, 25.5625, 25.4375, 25.3125, 25.0625, 24.75, 24.5, 24.276787, 24.1875, 24.1875, 24.3125, 24.375, 24.375, 24.375, 24.3125, 24.321428, 24.285715, 24.25, 24.285715, 24.357143, 24.357143, 24.392857, 24.357143, 24.428572, 24.1875, 23.991072, 23.892857, 23.816328, 23.887756, 24.265306, 24.459183, 24.3125, 24.3125, 24.125, 23.875, 23.75, 23.6875, 23.857143, 23.857143, 23.785715, 23.714285, 23.821428, 24, 23.96875, 24.625, 24.5, 24.002977, 23.62245, 23.581633, 24.336735, 24.5, 24.464285, 24.5, 24.535715, 24.375, 24.348213, 24.255102, 24.183674, 24.2551, 24.321428, 24.205357, 24.169643, 24, 24.125, 24.530613, 24.75, 24.720238, 24.041666, 24, 23.7551, 24.125, 24.125, 24.464285, 24.612244, 24.632654, 24.330357, 24.3125, 24, 24.1875, 24.15625, 24.21875, 24.21875, 24.428572, 24.464285, 24.257143, 24.611113, 25.25, 24.333334, -10, -10, -10, -10, -10, -10, -10, -10, -10, -10, -10, -10, -10, -10, -10, -10, -10, -10, -10, -10, -10, -10, -10, -10, -10, -10, -10, -10, -10, -10, -10, -10, -10, -10, -10, -10, -10, -10, -10, -10, -10, -10, -10, -10, -10, -10, 63.020832, 63.0625, 63.0625, 63.3125, 63.59375, 63.970234, 64.166664, 64.166664, 64.238098, 64.4375, 64.854767, 66.553574, 67.035713, 67.611603, 67.927086, 68.147324, 68.34375, 68.602676, 69.177086, 69.723213, 70.214287, 71.282738, 71.875, 72.1875, 72.53125, 72.625, 72.90625, 73.3125, 73.59375, 73.875, 74.0625, 74.375, 74.660713, 75.0625, 75.642853, 76.297623, 76.745537, 77, 77.267853, 77.583336, 77.803574, 78, 78.125, 78.4375, 78.6875, 79.125, 79.375, 79.625, 79.75, 80.044647, 80.895836, 81.196426, 81.625, 81.75, 82, 82.375, 82.5625, 82.875, 83.166664, 83.604164, 83.964287, 84.125, 84.1875, 84.375, 84.53125, 84.78125, 85.03125, 85.21875, 85.508926, 86.020836, 86.473213, 86.75, 86.9375, 87.25, 87.5, 87.8125, 88.1875, 88.375, 88.625, 88.982147, 89.25, 89.59375, 89.96875, 90.34375, 90.71875, 91.125, 91.375, 91.6875, 92.125, 92.526794, 92.875, 93.3125, 93.5, 93.75, 94.125
-10, -10, -10, -10, -10, -10, -10, -10, -10, -10, -10, -10, -10, -10, -10, 43.25, 43.166668, 43, 42.604168, 42.25, 41.9375, 41.625, 41.375, 41.1875, 41, 40.875, 40.8125, 40.8125, 40.875, 40.803574, 40.5, 40.142857, 39.767857, 39.5625, 39.25, 38.9375, 38.535713, 38.375, 38.25, 38.169643, 37.791668, 37.571426, 37.5, 37.4375, 37.375, 37.1875, 36.645832, 36.330357, 36.1875, 36.160713, 36, 35.8125, 35.354168, 35.142857, 35.0625, 35.1875, 35.142857, 34.663689, 34.241074, 34, 33.8125, 33.8125, 33.651787, 32.979168, 32.651787, 32.375, 32.419643, 32.34375, 32.15625, 31.78125, 31.361607, 31.125, 31, 31, 30.9375, 30.633928, 29.875, 29.535715, 29.3125, 29.3125, 29.25, 29.125, 29.0625, 28.875, 28.75, 28.625, 28.5, 28.366072, 27.916666, 27.404762, 27.169643, 27.0625, 27.0625, 26.8125, 26.5625, 26.25, 25.875, 25.8125, 25.6875, 25.5625, 25.5, 25.375, 25.125, 24.9375, 24.776787, 24.6875, 24.6875, 24.8125, 24.875, 25.178572, 25.357143, 25.464285, 25.5, 25.5, 25.464285, 25.5, 25.25, 25.1875, 25.125, 25, 25.125, 25.25, 25.132654, 24.928572, 24.836735, 24.669643, 24.928572, 25.0625, 25.0625, 25.25, 25.071428, 24.892857, 24.857143, 24.857143, 24.857143, 24.892857, 24.892857, 24.892857, 25.035715, 25.142857, 25.142857, 25.285715, 25.214285, 24.880953, 25.160715, 25.208334, 25.229593, 25.357143, 25.1875, 25.25, 25.3125, 25.071428, 25.071428, 24.887756, 24.816328, 24.897959, 25.125, 25.080357, 25.044643, 24.8125, 25, 25.276787, 25.535715, 25.647959, 25.52721, 25.851191, 25.940475, 25.833334, 25.708334, 25.464285, 25.469387, 25.428572, 25.37755, 25.357143, 25.583334, 25.1875, 25.15625, 25.15625, 25.09375, 25.392857, 25.5, 25.392857, 25.369049, 25.666666, -10, -10, -10, -10, -10, -10, -10, -10, -10, -10, -10, -10, -10, -10, -10, -10, -10, -10, -10, -10, -10, -10, -10, -10, -10, -10, -10, -10, -10, -10, -10, -10, -10, -10, -10, -10, -10, -10, -10, -10, -10, -10, -10, -10, -10, -10, -10, 62.9375, 63, 63.03125, 63.21875, 63.540176, 64.019341, 64.15625, 64.28125, 64.397324, 64.794647, 65.092262, 66.470238, 66.883926, 67.40625, 67.700897, 67.96875, 68.25, 68.508926, 69.020836, 69.383926, 70.175591, 71.104164, 71.625, 71.964287, 72.388397, 72.553574, 72.90625, 73.3125, 73.59375, 73.875, 74.071426, 74.387497, 74.446426, 74.821426, 75.321426, 76.130951, 76.602676, 76.875, 77.142853, 77.458336, 77.709824, 77.9375, 78.125, 78.375, 78.625, 79.125, 79.482147, 79.875, 80.0625, 80.3125, 80.833336, 81.053574, 81.5, 81.6875, 81.9375, 82.3125, 82.5, 82.75, 83.041664, 83.479164, 83.839287, 84, 84.089287, 84.357147, 84.522324, 84.78125, 85.09375, 85.28125, 85.571426, 86.020836, 86.410713, 86.6875, 86.875, 87.1875, 87.4375, 87.8125, 88.3125, 88.625, 88.875, 89.125, 89.34375, 89.625, 90.0625, 90.4375, 90.78125, 91.25, 91.5, 91.8125, 92.25, 92.544647, 92.875, 93.3125, 93.5, 93.8125, 94.1875, 94.482147, 94.75, 95, 95.3125, 95.5625, 95.875, 96.258926, 96.645836, 97, 97.583336, 97.741074, 98.03125, 98.28125, 98.513397, 98.78125, 99.133926, 99.758926, 100.18155, 100.52232, 100.59375, 100.6875, 100.88393, 101.33334, 101.74107, 102.16964, 102.79762, 103.49405, 103.73215, 103.875, 103.9375, 103.9375, 104, 104.13393, 104.38393, 104.70834, 104.85001, -10, -10, -10, -10, -10, -10, -10, -10, -10, -10, -10, -10, -10, -10, -10, -10, -10, -10, -10, -10, -10, -10, -10, -10, -10, -10, -10, -10, -10, 43.25, 43, 42.785713, 42.5, 42.1875, 41.9375, 41.625, 41.375, 41.1875, 40.9375, 40.8125, 40.6875, 40.6875, 40.8125, 40.678574, 40.3125, 39.848213, 39.517857, 39.4375, 39.375, 39.125, 38.494049, 38.294643, 38.125, 38.044643, 37.666668, 37.383926, 37.25, 37.25, 37.25, 37.1875, 36.770832, 36.455357, 36.3125, 36.223213, 36, 35.8125, 35.354168, 35.142857, 35.0625, 35.1875, 35.080357, 34.601189, 34.178574, 33.875, 33.6875, 33.6875, 33.464287, 32.916668, 32.589287, 32.3125, 32.419643, 32.3125, 32.3125, 31.9375, 31.372023, 31.125, 30.9375, 31, 31, 30.6875, 29.729166, 29.357143, 29.125, 29.1875, 29.1875, 29.125, 29, 28.8125, 28.6875, 28.5625, 28.5, 28.428572, 27.979166, 27.467262, 27.232143, 27.0625, 27.0625, 26.875, 26.6875, 26.5625, 26.3125, 26.3125, 26.25, 26.0625, 26, 25.875, 25.6875, 25.5, 25.551022, 25.535715, 25.535715, 25.714285, 25.857143, 26.035715, 26.214285, 26.321428, 26.464285, 26.464285, 26.392857, 26.392857, 26.125, 26.0625, 26.0625, 25.714285, 26.125, 26.392857, 26.239796, 25.9375, 25.785715, 25.690477, 25.738094, 25.955357, 25.75, 25.839287, 25.857143, 26.061224, 25.833334, 26.071428, 26, 26, 25.928572, 26, 26.178572, 26.214285, 26, 26.0625, 25.9375, 25.904764, 25.959185, 26.035715, 25.919643, 25.9375, 25.901787, 25.9375, 26.311224, 26.625, 26.619049, 26.625, 26.476191, 26.326529, 26.25, 26.017857, 26.229593, 26.107143, 26.125, 26.401787, 26.4375, 26.535713, 26.717686, 26.729593, 26.734694, 26.535715, 26.357143, 26.125, 26.160713, 26.1875, 26.142857, 26.357143, 26.392857, 26.392857, 26.428572, 26.428572, 26.392857, 26.28125, 26.375, 26.3125, 26.464285, 26.40476, -10, -10, -10, -10, -10, -10, -10, -10, -10, -10, -10, -10, -10, -10, -10, -10, -10, -10, -10, -10, -10, -10, -10, -10, -10, -10, -10, -10, -10, -10, -10, -10, -10, -10, -10, -10, -10, -10, -10, -10, -10, -10, -10, -10, -10, -10, -10, 62.857143, 62.9375, 62.9375, 63.0625, 63.383926, 64.050591, 64.1875, 64.375, 64.428574, 64.794647, 65.011909, 65.991074, 66.383926, 66.78125, 67.227676, 67.864586, 68.214287, 68.5, 68.6875, 68.821426, 69.721085, 70.550591, 71.130951, 71.6875, 72.116074, 72.598213, 73.03125, 73.5, 73.857147, 74.125, 74.321426, 74.512497, 74.446426, 74.696426, 75.133926, 75.988098, 76.383926, 76.6875, 76.892853, 77.208336, 77.491074, 77.75, 77.9375, 78.25, 78.5, 79, 79.482147, 79.875, 80.125, 80.375, 80.625, 80.8125, 81.3125, 81.5625, 81.8125, 82.25, 82.4375, 82.625, 82.916664, 83.354164, 83.714287, 83.875, 84.053574, 84.464287, 84.669647, 85, 85.3125, 85.5, 85.8125, 86, 86.357147, 86.6875, 86.982147, 87.25, 87.5, 87.75, 88.1875, 88.5625, 88.8125, 89.1875, 89.46875, 89.75, 90.1875, 90.46875, 90.75, 91.21875, 91.59375, 91.973213, 92.375, 92.625, 92.875, 93.3125, 93.5, 93.8125, 94.125
-10, -10, -10, -10, -10, -10, -10, -10, -10, -10, -10, -10, -10, -10, -10, 43.125, 42.833332, 42.660713, 42.4375, 42.0625, 41.830357, 41.5625, 41.375, 41.223213, 40.830357, 40.705357, 40.5, 40.5, 40.625, 40.5, 40.3125, 39.848213, 39.580357, 39.4375, 39.4375, 39.241074, 38.517857, 38.30357, 38.125, 37.982143, 37.604168, 37.321426, 37.25, 37.28125, 37.1875, 36.75, 36.625, 36.5625, 36.375, 36.258926, 35.9375, 35.8125, 35.6875, 35.4375, 35.3125, 35.3125, 35.017857, 34.476189, 34.053574, 33.6875, 33.5625, 33.5625, 33.339287, 32.854168, 32.526787, 32.3125, 32.419643, 32.375, 32.4375, 32.125, 31.622023, 31.3125, 31.0625, 31.0625, 31, 30.6875, 29.729166, 29.357143, 29.0625, 29.0625, 29.0625, 29, 28.9375, 28.75, 28.5625, 28.375, 28.25, 28.116072, 27.729166, 27.446428, 27.339287, 27.419643, 27.491072, 27.375, 27.1875, 27.0625, 26.875, 26.875, 26.875, 26.8125, 26.8125, 26.75, 26.857143, 26.5, 26.375, 26.375, 26.4375, 26.625, 26.8125, 26.714285, 26.857143, 26.964285, 27.142857, 27.142857, 27.071428, 27.25, 27, 27.178572, 27.214285, 27.5, 27.464285, 27.5, 27.387754, 27.428572, 28.166666, 28.045633, 27.597221, 27.234694, 26.75, 26.901787, 26.982143, 27.204082, 27.583334, 27.285715, 27.214285, 27, 26.678572, 27.290815, 27.270407, 27.270407, 27.107143, 26.875, 26.875, 26.8125, 26.875, 26.9375, 26.875, 26.84375, 26.870537, 26.90625, 27.418367, 27.571428, 27.530613, 27.571428, 27.428572, 27.357143, 27.321428, 27.285715, 27.346939, 27.357143, 27.464285, 27.561224, 27.464285, 27.530613, 27.693878, 27.482143, 27.5625, 27.366072, 27.049999, 27.116072, 27.053572, 27.1875, 27.25, 27.28125, 27.34375, 27.28125, 27.553572, 27.517857, 27.446428, 27.553572, 27.571428, 27.571428, 27.28125, 27.197916, -10, -10, -10, -10, -10, -10, -10, -10, -10, -10, -10, -10, -10, -10, -10, -10, -10, -10, -10, -10, -10, -10, -10, -10, -10, -10, -10, -10, -10, -10, -10, -10, -10, 51.625, 51.75, -10, -10, -10, -10, -10, -10, -10, -10, -10, -10, 61.125, 61.857143, 62.714287, 62.875, 62.90625, 62.90625, 63.223213, 64.050591, 64.1875, 64.5, 64.553574, 64.982147, 65.208336, 65.803574, 66, 66.053574, 66.674103, 67.65625, 68.10714, 68.375, 68.40625, 68.415176, 68.829933, 70.133926, 70.773804, 71.375, 71.741074, 72.294647, 72.793747, 73.255104, 73.591835, 73.85714, 74.113091, 74.449997, 74.477676, 74.633926, 74.946426, 75.693451, 76.133926, 76.5625, 76.875, 77.125, 77.4375, 77.75, 78, 78.3125, 78.625, 79.0625, 79.544647, 79.9375, 80.125, 80.375, 80.625, 80.8125, 81.3125, 81.5625, 81.875, 82.3125, 82.5625, 82.6875, 82.916664, 83.354164, 83.651787, 83.875, 84.116074, 84.526787, 84.732147, 85.125, 85.5, 85.857147, 86.1875, 86.25, 86.375, 86.5625, 86.732147, 87.008926, 87.375, 87.571426, 88.169647, 88.553574, 88.8125, 89.1875, 89.40625, 89.625, 90, 90.21875, 90.5, 91.03125, 91.513397, 91.910713, 92.375, 92.625, 92.9375, 93.375, 93.625, 93.9375, 94.125, 94.375, 94.625, 94.8125, 95.25, 95.5, 95.75, 96.133926, 96.458336, 96.75, 97.333336, 97.723221, 98.0625, 98.375, 98.625, 98.6875, 99, 99.721428, 99.85714, 100.28125, 100.21875, 100.375, 100.82143, 101.42262, 101.80357, 102.33928, 103.16667, 103.41072, 103.625, 103.625, 103.625, 103.75, 103.875, 104.08928, 104.54465, 104.67857, 104.78334, -10, -10, -10, -10, -10, -10, -10, -10, -10, -10, -10, -10, -10, -10, -10, -10, -10, -10, -10, -10, -10, -10, -10, -10, -10, -10, -10, -10, -10, 43.125, 42.833332, 42.660713, 42.5, 42.1875, 41.946426, 41.541668, 41.392857, 41.196426, 40.785713, 40.589287, 40.3125, 40.3125, 40.375, 40.25, 40.125, 39.785713, 39.616074, 39.229168, 39.196426, 38.991074, 38.4375, 38.36607, 38.25, 38.05357, 37.458336, 37.196426, 37.125, 37.34375, 37.160713, 36.095238, 36.059521, 36.458332, 36.392857, 36.339287, 36, 35.8125, 35.6875, 35.4375, 35.3125, 35.25, 34.919643, 34.458332, 34.116074, 33.6875, 33.5, 33.4375, 33.151787, 32.729168, 32.464287, 32.25, 32.357143, 32.375, 32.4375, 32.25, 31.747023, 31.375, 31.125, 31.0625, 30.9375, 30.669643, 29.958332, 29.607143, 29.375, 29.25, 29.25, 29.125, 29, 28.75, 28.4375, 28.25, 28.125, 28.1875, 28.1875, 27.821428, 27.7449, 28.107143, 28.116072, 28.178572, 27.875, 27.75, 27.625, 27.625, 27.928572, 28, 28.142857, 28.214285, 28.142857, 28, 27.5, 27.5, 27.928572, 28, 28.071428, 28.291666, 28.333334, 28.541666, 28.791666, 28.875, 28.791666, 28.357143, 27.9375, 28.142857, 28.25, 28.428572, 28.678572, 28.647959, 28.413265, 28.556122, 29, 28.931973, 28.476191, 28.234694, 27.785715, 27.887756, 28.051022, 28.132654, 28.285715, 28.214285, 28.142857, 28.071428, 28.291666, 28.183672, 27.955357, 27.955357, 27.8125, 27.964285, 27.928572, 27.928572, 27.928572, 28, 27.928572, 27.821428, 27.959185, 28.107143, 28.489796, 28.714285, 28.673471, 28.642857, 28.428572, 28.1875, 28.321428, 28.357143, 28.5, 28.535715, 28.602041, 28.719387, 28.571428, 28.173471, 28.336735, 28.265306, 28.5625, 28.303572, 27.924999, 28.311224, 28.275511, 28.357143, 28.392857, 28.392857, 28.5, 28.40625, 28.46875, 28.678572, 28.642857, 28.571428, 28.571428, 28.571428, 28.446428, 28.369047, 29.0625, 28.875, -10, -10, -10, -10, -10, -10, -10, -10, -10, -10, -10, -10, -10, -10, -10, -10, -10, -10, -10, -10, -10, -10, -10, 47.083336, 47.333336, 47.875, 48.732143, 49.714287, 50.42857, 50.9375, 51.854164, 51.988098, 52.166668, -10, -10, -10, -10, -10, -10, -10, 59.625, 59.75, 60.053574, 61.25, 62, 62.651787, 62.875, 62.90625, 62.84375, 63.035713, 63.791664, 63.9375, 64.375, 64.5, 64.857147, 65.25, 65.5625, 65.85714, 66.208336, 66.696426, 67.625, 67.95089, 68.09375, 67.9375, 67.739792, 68.54422, 69.632652, 70.443451, 70.9375, 71.241074, 71.857147, 72.470833, 72.220238, 72.315475, 72.529762, 73.863091, 74.280357, 74.352676, 74.446426, 74.633926, 75.336311, 75.758926, 76.1875, 76.5625, 76.875, 77.3125, 77.6875, 78.0625, 78.4375, 78.857147, 79.1875, 79.607147, 79.875, 80, 80.3125, 80.625, 80.982147, 81.4375, 81.6875, 82, 82.375, 82.6875, 82.9375, 83.1875, 83.4375, 83.625, 83.75, 83.991074, 84.401787, 84.669647, 85.0625, 85.375, 85.741074, 86.270836, 86.357147, 86.4375, 86.5, 86.607147, 86.883926, 87.357147, 87.571426, 88.169647, 88.553574, 88.8125, 89.125, 89.25, 89.375, 89.625, 89.888397, 90.53125, 91.111603, 91.638397, 91.910713, 92.3125, 92.5625, 92.8125, 93.1875, 93.392853, 93.833336, 94.053574
-10, -10, -10, -10, -10, -10, -10, -10, -10, -10, -10, -10, -10, -10, -10, 43, 42.75, 42.580357, 42.401787, 42.125, 41.821426, 41.416668, 41.267857, 41.071426, 40.723213, 40.651787, 40.375, 40.25, 40.142857, 39.9375, 39.84375, 39.736607, 39.709824, 39.434525, 39.238094, 38.857143, 38.5, 38.42857, 38.25, 38.008926, 37.434525, 37.125, 37.026787, 37.254463, 36.973213, 35.967262, 35.895832, 36.377975, 36.375, 36.401787, 36.125, 35.9375, 35.8125, 35.5625, 35.3125, 35.125, 34.75, 34.5, 34.25, 33.75, 33.5, 33.25, 32.9375, 32.9375, 32.6875, 32.4375, 32.3125, 32.1875, 32.25, 32.1875, 31.791666, 31.4375, 31.1875, 31.0625, 30.875, 30.616072, 30.104166, 29.785715, 29.625, 29.5, 29.5625, 29.5, 29.4375, 29.071428, 28.785715, 28.607143, 28.5, 28.8125, 28.8125, 29.125, 29.184525, 29.193878, 29.204082, 29.214285, 29.142857, 28.75, 28.75, 28.75, 29.035715, 29.142857, 29.214285, 29.214285, 29.214285, 29.178572, 29.333334, 29.333334, 29.142857, 29.107143, 29.071428, 29.071428, 29.071428, 29.285715, 29.535715, 29.678572, 29.678572, 29.464285, 29.25, 29.0625, 29.1875, 29.375, 29.785715, 29.7551, 29.330357, 29.455357, 29.8125, 29.690475, 29.229166, 29.017857, 28.892857, 28.979593, 28.794643, 28.741072, 28.875, 28.8125, 28.8125, 28.8125, 29.071428, 28.848213, 28.830357, 28.892857, 28.875, 28.875, 29.142857, 29.142857, 29.142857, 29.178572, 29.035715, 28.892857, 28.943878, 29.035715, 29.280613, 29.428572, 29.408163, 29.125, 29.142857, 29.071428, 29.071428, 29.214285, 29.321428, 29.25, 29.339287, 29.683672, 29.642857, 29.916666, 29.916666, 29.875, 29.642857, 29.454082, 29.128571, 29.311224, 29.346939, 29.25, 29.3125, 29.21875, 29.446428, 29.517857, 29.482143, 29.571428, 29.571428, 29.25, 29.25, 29.1875, 29.25, 29.202379, 29.375, 29.25, 29.5, -10, -10, -10, -10, -10, -10, -10, -10, -10, -10, -10, -10, -10, -10, -10, -10, -10, -10, -10, -10, -10, 46.5, 47.083336, 47.388889, 47.916668, 48.710316, 49.865082, 50.619049, 51.208332, 52.140869, 52.348217, 52.541668, -10, -10, -10, -10, -10, -10, -10, 59.5, 59.700001, 60.226192, 61.330357, 62.107143, 62.589287, 62.875, 62.90625, 62.84375, 63.035713, 63.75, 63.96875, 64.40625, 64.46875, 64.8125, 65.1875, 65.5, 65.85714, 66.273811, 66.589287, 67.5, 67.70089, 67.870537, 67.794647, 67.861603, 68.51786, 69.455353, 70.130951, 70.598213, 70.821426, 71.491074, 72.095833, 72.096939, 72.234695, 72.525513, 73.476189, 74.017853, 74.28125, 74.4375, 74.75, 75.276787, 75.625, 76.0625, 76.4375, 76.75, 77.25, 77.625, 78, 78.508926, 79.044647, 79.25, 79.5625, 79.6875, 79.75, 80.116074, 80.729164, 81.125, 81.5625, 81.75, 82.0625, 82.4375, 82.75, 83, 83.1875, 83.446426, 83.699997, 83.767853, 84.026787, 84.294647, 84.616074, 85, 85.359375, 85.772324, 86.364586, 86.428574, 86.4375, 86.553574, 86.598221, 86.946426, 87.419647, 87.571426, 88.133934, 88.535721, 88.803574, 89.125, 89.25, 89.375, 89.625, 89.950897, 90.700897, 91.236603, 91.763397, 91.910713, 92.214287, 92.544647, 92.803574, 93.125, 93.330353, 93.708336, 93.866074, 94.258926, 94.645836, 94.866074, 95.267853, 95.583336, 95.946426, 96.479164, 96.59375, 96.84375, 97.09375, 97.419647, 97.75, 98.1875, 98.5, 98.625, 98.866074, 99.283928, 99.616074, 100.09821, 100.25, 100.4375, 100.82143, 101.42262, 101.74107, 102.26785, 102.83334, 102.98215, 103.3125, 103.4375, 103.5625, 103.875, 104.125, 104.33035, 104.73215, 104.92857, 105, -10, -10, -10, -10, -10, -10, -10, -10, -10, -10, -10, -10, -10, -10, -10, -10, -10, -10, -10, -10, -10, -10, -10, -10, -10, -10, -10, -10, -10, 42.75, 42.583332, 42.5, 42.339287, 42.1875, 41.883926, 41.479168, 41.330357, 41.071426, 40.785713, 40.714287, 40.4375, 40.25, 39.955357, 39.6875, 39.53125, 39.53125, 39.459824, 39.122025, 38.800594, 38.5, 38.291668, 38.321426, 38.25, 38.008926, 37.497025, 37.1875, 37.089287, 37.316963, 36.910713, 35.904762, 35.833332, 36.377975, 36.5, 36.526787, 36.25, 36.0625, 35.875, 35.625, 35.375, 35.0625, 34.6875, 34.5, 34.25, 33.8125, 33.517857, 33.25, 33, 33, 32.8125, 32.5625, 32.375, 32.25, 32.125, 32.125, 31.9375, 31.5625, 31.375, 31.125, 30.875, 30.6875, 30.5, 30.339287, 30.25, 30.125, 30.1875, 30.125, 30.1875, 30.541666, 30.416666, 30.291666, 30.166666, 30.071428, 30.071428, 30.107143, 30.193878, 30.107143, 30.178572, 30.1875, 30.285715, 30.035715, 30, 29.928572, 29.892857, 30.030613, 30.044643, 30.116072, 30.125, 30.392857, 30.357143, 30.285715, 30.25, 29.875, 29.8125, 29.875, 29.9375, 30.1875, 30.375, 30.5, 30.4375, 30.357143, 30.285715, 30.285715, 30.357143, 30.464285, 30.571428, 30.540815, 30.448978, 30.392857, 30.4375, 30.357143, 30.1875, 30.125, 29.9375, 30, 29.642857, 29.5, 29.535715, 29.5, 29.8125, 29.8125, 29.875, 29.910713, 29.830357, 29.955357, 30.178572, 30.214285, 30.178572, 30.142857, 30.214285, 30.214285, 30.178572, 29.90625, 29.90625, 29.84375, 29.870537, 30, 30.107143, 29.821428, 29.785715, 29.714285, 29.714285, 29.857143, 29.928572, 30.25, 30.339287, 30.473213, 30.678572, 30.785715, 30.714285, 30.642857, 30.607143, 30.241072, 30.385714, 30.276785, 30.133928, 30.205357, 30.428572, 30.25, 30.3125, 30.3125, 30.25, 30.25, 30.25, 30.25, 30.285713, 29.964285, 29.892857, 29.821428, 29.767857, 29.696428, 30.125, 30.958334, 31.285715, 32.25, -10, -10, -10, -10, -10, -10, -10, -10, -10, -10, -10, -10, -10, -10, -10, -10, -10, -10, -10, -10, 47.388889, 47.916668, 48.710316, 50.273811, 50.839287, 51.208332, 52.140869, 52.630951, 52.888889, -10, -10, -10, -10, -10, -10, -10, 59.375, 59.632141, 60.419643, 61.413689, 62.357143, 62.732143, 63, 62.96875, 62.90625, 63.10714, 63.75, 63.9375, 64.4375, 64.5625, 65.0625, 65.5, 65.75, 66.133926, 66.458336, 66.875, 67.541664, 67.611603, 67.745537, 67.794647, 68.102676, 69.040817, 69.517853, 70.151787, 70.4375, 70.75, 71.258926, 71.783333, 71.928574, 72.026779, 72.303574, 73.229164, 73.705353, 74.09375, 74.34375, 74.65625, 75.133926, 75.75, 76.178574, 76.5625, 76.8125, 77.25, 77.625, 77.9375, 78.321426, 78.848221, 79.166664, 79.508926, 79.6875, 79.6875, 80.116074, 80.729164, 81.125, 81.5625, 81.75, 82.0625, 82.4375, 82.75, 83, 83.1875, 83.383926, 83.574997, 83.642853, 83.875, 84.125, 84.616074, 85.044647, 85.453125, 85.897324, 86.427086, 86.553574, 86.53125, 86.553574, 86.491074, 86.821426, 87.232147, 87.383926, 87.991074, 88.577377, 88.794647, 89.0625, 89.232147, 89.366074, 89.6875, 90.107147, 90.964294, 91.455353, 91.919647, 91.910713, 92.053574, 92.419647, 92.660721, 92.9375, 93.205353, 93.583336, 93.741074
-10, -10, -10, -10, -10, -10, -10, -10, -10, -10, -10, -10, -10, -10, -10, 42.833332, 42.5, 42.458332, 42.339287, 42.3125, 42.053574, 41.559525, 41.330357, 41.035713, 40.830357, 40.758926, 40.5625, 40.3125, 40.080357, 39.794643, 39.424107, 39.352676, 39.147324, 38.747025, 38.425594, 38.196426, 38.25, 38.375, 38.3125, 38.071426, 37.622025, 37.375, 37.276787, 37.410713, 37.035713, 36.404762, 36.270832, 36.627975, 36.75, 36.642857, 36.375, 36.125, 35.875, 35.625, 35.375, 35, 34.625, 34.375, 34.125, 33.75, 33.455357, 33.25, 33, 33, 32.875, 32.625, 32.4375, 32.25, 32.0625, 32.0625, 31.875, 31.625, 31.5, 31.3125, 31.125, 31, 30.9375, 30.875, 30.9375, 30.875, 30.9375, 31.214285, 31.321428, 31.357143, 31.285715, 31.142857, 31, 31.071428, 31.081633, 31.321428, 31.1875, 31.3125, 31.464285, 31.5, 31.392857, 31.142857, 31.142857, 30.969387, 30.666668, 30.673471, 31.035715, 31.071428, 31.0625, 31.0625, 31.0625, 31, 30.9375, 30.75, 30.6875, 30.892857, 30.964285, 31.214285, 31.25, 31.1875, 31.1875, 31.0625, 31.321428, 31.321428, 31.357143, 31.1875, 31.3125, 31.348213, 31.267857, 31.581633, 31.5, 31.428572, 31.357143, 31.321428, 31.357143, 31.285715, 31.333334, 31.166666, 31, 30.916666, 30.785715, 30.785715, 30.785715, 30.857143, 30.928572, 31.071428, 31.142857, 31.142857, 31.071428, 31.035715, 31.107143, 31.107143, 31.107143, 31.071428, 30.964285, 30.6875, 30.651787, 30.8125, 30.982143, 31.5, 31.625, 31.625, 31.625, 31.625, 31.666666, 31.464285, 31.551022, 31.473213, 31.642857, 31.5, 31.375, 31.3125, 31.375, 31.348213, 31.571428, 31.612244, 31.205357, 31.37755, 31.357143, 31.357143, 31.392857, 31.25, 31.1875, 31.1875, 31.1875, 31.392857, 31.5051, 31.625, 31.625, 31.541666, 31.541666, 31.666666, 31.708334, 32.450001, 32.685715, 32.666668, 33.428574, 33.599998, -10, -10, -10, -10, -10, -10, -10, -10, -10, -10, -10, -10, -10, -10, -10, -10, -10, -10, -10, -10, -10, 50.460316, 50.976192, -10, -10, -10, -10, -10, -10, -10, -10, -10, -10, 59.5, 59.375, 59.703568, 60.773811, 61.797619, 62.61607, 62.875, 63.0625, 63, 63, 63.174103, 63.65625, 63.875, 64.375, 64.59375, 65.03125, 65.4375, 65.6875, 66.196426, 66.708336, 67.116074, 67.5625, 67.59375, 67.808037, 68.075897, 68.571426, 69.357147, 69.705353, 70.25, 70.4375, 70.75, 71.25, 71.708336, 72.107147, 72.392853, 72.785713, 73.375, 73.705353, 74.008926, 74.489586, 74.870537, 75.415176, 76.03125, 76.397324, 76.6875, 76.8125, 77.1875, 77.5, 77.8125, 78.290176, 78.816971, 79.197914, 79.540176, 79.6875, 79.75, 80.178574, 80.791664, 81.25, 81.625, 81.8125, 82.0625, 82.3125, 82.5625, 82.8125, 83, 83.196426, 83.387497, 83.392853, 83.625, 83.928574, 84.636902, 84.982147, 85.390625, 85.727676, 86.346725, 86.553574, 86.65625, 86.678574, 86.647324, 86.875, 87.107147, 87.25, 87.602684, 88.255951, 88.644646, 88.875, 89.491074, 89.696426, 90.0625, 90.482147, 91.214294, 91.580353, 91.9375, 91.848213, 91.866074, 92.1875, 92.494049, 92.8125, 93.142853, 93.583336, 93.866074, 94.285713, 94.681549, 94.741074, 95.017853, 95.333336, 95.9375, 96.630951, 96.84375, 97.09375, 97.09375, 97.276787, 97.803574, 98.366074, 98.6875, 98.875, 99.008926, 99.375, 99.669647, 100.16071, 100.4375, 100.625, 101.00893, 101.45834, 101.74107, 102.21875, 102.46875, 102.71875, 103.03125, 103.1875, 103.375, 103.6875, 104, 104.32143, 104.79166, 104.90625, 105.04166, -10, -10, -10, -10, -10, -10, -10, -10, -10, -10, -10, -10, -10, -10, -10, -10, -10, -10, -10, -10, -10, -10, -10, -10, -10, -10, -10, -10, -10, -10, 42.375, 42.375, 42.276787, 42.1875, 41.9375, 41.535713, 41.25, 41, 40.866074, 40.6875, 40.625, 40.419643, 40.1875, 39.711311, 39.245537, 39.102676, 38.96875, 38.830357, 38.604168, 38.446426, 38.375, 38.375, 38.25, 38, 37.830357, 37.625, 37.526787, 37.473213, 37.0625, 36.714287, 36.4375, 36.50893, 36.714287, 36.607143, 36.4375, 36.1875, 35.875, 35.616074, 35.166668, 34.830357, 34.5625, 34.375, 34.1875, 33.875, 33.517857, 33.375, 33.125, 33.0625, 33, 32.6875, 32.5, 32.375, 32.223213, 32.3125, 32.3125, 32.125, 32, 31.705357, 31.5625, 31.4375, 31.4375, 31.714285, 31.785715, 31.857143, 31.964285, 32.07143, 32, 32.125, 32.1875, 32.125, 31.785715, 31.785715, 32.295918, 32.5, 32.5, 32.607143, 32.607143, 32.57143, 32.392857, 32.142857, 31.875, 31.723213, 31.666668, 32.309525, 32.07653, 32.12925, 32.273808, 31.785715, 31.821428, 31.714285, 31.875, 31.6875, 31.857143, 31.857143, 32, 32.25, 32.0625, 31.964285, 32.3125, 32.1875, 32.142857, 32.125, 32.125, 32.1875, 32.25, 32.5, 32.57143, 32.57143, 32.464287, 32.42857, 32.392857, 32.392857, 32.535713, 32.464287, 32.285713, 32.142857, 31.857143, 31.714285, 31.75, 31.714285, 31.714285, 31.714285, 31.5625, 31.6875, 31.8125, 31.875, 31.8125, 31.75, 31.8125, 31.8125, 31.875, 31.875, 32, 31.928572, 31.816328, 32, 32.265308, 32.464287, 32.535713, 32.535713, 32.535713, 32.5, 32.57143, 32.607143, 32.642857, 32.607143, 32.3125, 32.1875, 32.0625, 32.0625, 32.392857, 32.540813, 32.67857, 32.719387, 32.520409, 32.484692, 32.25, 32.25, 32.5, 32.42857, 32.392857, 32.357143, 32.357143, 32.535713, 32.647957, 32.57143, 32.5, 32.357143, 32.392857, 32.464287, 32.535713, 32.75, 32.918369, 33.214287, 33.869049, 34.133331, -10, -10, -10, -10, -10, -10, -10, -10, -10, -10, -10, -10, -10, -10, -10, -10, -10, -10, -10, -10, -10, -10, -10, -10, -10, -10, -10, -10, -10, -10, -10, -10, -10, 59.916668, 59.6875, 59.984818, 61.023811, 61.964287, 62.723217, 62.9375, 63.0625, 63, 63, 63.245537, 63.84375, 64.03125, 64.53125, 64.625, 65, 65.375, 65.625, 66.125, 66.5, 66.875, 67.375, 67.5, 67.839287, 68.294647, 68.803574, 69.357147, 69.6875, 70.1875, 70.5625, 70.982147, 71.4375, 71.75, 72.232147, 72.625, 73.075897, 73.46875, 73.78125, 74.102676, 74.677086, 75.183037, 75.772324, 76.34375, 76.709824, 76.875, 76.9375, 77.25, 77.5, 77.8125, 78.227676, 78.647324, 79.135414, 79.477676, 79.6875, 79.8125, 80.178574, 80.791664, 81.25, 81.625, 81.8125, 82, 82.1875, 82.4375, 82.75, 82.973213, 83.133926, 83.324997, 83.267853, 83.5625, 83.866074, 84.574402, 84.919647, 85.390625, 85.78125, 86.263397, 86.508926, 86.59375, 86.678574, 86.616074, 86.75, 86.875, 87, 87.36161, 88.380951, 88.850006, 89.1875, 89.866074, 90.133926, 90.5625, 90.875, 91.214294, 91.5, 91.8125, 91.785713, 91.803574, 92.0625, 92.431549, 92.875, 93.357147, 93.6875, 94
-10, -10, -10, -10, -10, -10, -10, -10, -10, -10, -10, -10, -10, -10, -10, -10, 42.333332, 42.395832, 42.3125, 42.1875, 41.9375, 41.473213, 41.25, 41, 40.866074, 40.6875, 40.625, 40.482143, 40.419643, 39.934525, 39.357143, 39.080357, 38.8125, 38.6875, 38.625, 38.5, 38.375, 38.25, 38.0625, 37.8125, 37.75, 37.625, 37.633926, 37.587502, 37.053574, 36.75, 36.4375, 36.401787, 36.607143, 36.482143, 36.375, 36.1875, 35.9375, 35.678574, 35.166668, 34.794643, 34.5625, 34.375, 34.25, 34, 33.642857, 33.625, 33.5, 33.5, 33.5625, 33.07143, 32.892857, 33.0625, 32.910713, 32.9375, 33.17857, 33, 32.6875, 32.517857, 32.410713, 32.205357, 32.291668, 32.583332, 32.459187, 32.57143, 32.642857, 32.714287, 32.785713, 33.125, 33.1875, 33.32143, 33.541668, 33.583332, 33.403061, 33.67857, 33.607143, 33.67857, 33.642857, 33.3125, 33.125, 32.875, 32.75, 32.897957, 32.940479, 33.193878, 32.910713, 32.988094, 33.345238, 33.625, 33.666668, 33.458332, 33.17857, 33.142857, 33.142857, 32.767857, 32.821426, 33, 33.25, 33.666668, 33.57143, 33.464287, 33.377552, 33.42857, 33.42857, 33.42857, 33.4949, 33.535713, 33.57143, 33.607143, 33.25, 33.25, 33.25, 33.25, 33.4375, 33.3125, 33.125, 33.0625, 32.75, 32.6875, 32.6875, 32.5625, 32.5625, 32.5625, 32.535713, 32.455357, 32.517857, 32.5625, 32.625, 32.625, 32.6875, 32.6875, 32.75, 32.8125, 32.8125, 32.964287, 32.979591, 33.214287, 33.346939, 33.535713, 33.3125, 33.25, 33.3125, 33.3125, 33.642857, 33.642857, 33.57143, 33.25, 33.0625, 33, 32.9375, 33.142857, 33.357143, 33.540813, 33.642857, 33.535713, 33.653061, 33.581631, 33.5, 33.535713, 33.57143, 33.464287, 33.392857, 33.285713, 33.214287, 33.357143, 33.285713, 33.3125, 33.3125, 33.25, 33.28125, 33.34375, 33.34375, 33.53125, 33.625, 33.767857, 34.25893, 34.714287, -10, -10, -10, -10, -10, -10, -10, -10, -10, -10, -10, -10, -10, 43.833336, -10, -10, -10, -10, -10, -10, -10, -10, -10, -10, -10, -10, -10, -10, -10, -10, -10, -10, -10, 60.3125, 60.125, 60.441963, 61.526787, 62.285717, 62.928574, 63, 63.0625, 63, 63.0625, 63.361607, 63.879463, 64.03125, 64.40625, 64.4375, 64.6875, 65.071426, 65.520836, 65.991074, 66.4375, 66.75, 67.25, 67.5, 67.875, 68.3125, 68.772324, 69.325897, 69.65625, 70.160713, 70.770836, 71.223213, 71.625, 71.84375, 72.1875, 72.5625, 73.013397, 73.4375, 73.71875, 73.977676, 74.427086, 75.07653, 75.748512, 76.441963, 76.897324, 77.107147, 77.125, 77.375, 77.5625, 77.8125, 78.15625, 78.459824, 79.072914, 79.522324, 79.8125, 80, 80.3125, 80.6875, 81.214287, 81.5625, 81.8125, 81.9375, 82.125, 82.375, 82.75, 83.066963, 83.15625, 83.28125, 83.21875, 83.40625, 83.772324, 84.418152, 84.825897, 85.34375, 85.75, 86.169647, 86.4375, 86.59375, 86.5625, 86.5625, 86.6875, 86.857147, 87, 87.397324, 88.565475, 89.064285, 89.4375, 90.053574, 90.258926, 90.625, 90.8125, 91.044647, 91.3125, 91.625, 91.723213, 91.839287, 92.080353, 92.377975, 92.839287, 93.401794, 93.8125, 94.1875, 94.464287, 94.723213, 94.75, 95, 95.25, 95.741074, 96.339287, 96.6875, 96.9375, 97, 97.33036, 97.732147, 98.178574, 98.4375, 98.6875, 98.883926, 99.375, 99.625, 100, 100.3125, 100.5, 100.94643, 101.45834, 101.74107, 102.20312, 102.40625, 102.53125, 102.6875, 102.78348, 103.13541, 103.46875, 103.875, 104.24107, 104.72916, 104.90625, 105.04166, -10, -10, -10, -10, -10, -10, -10, -10, -10, -10, -10, -10, -10, -10, -10, -10, -10, -10, -10, -10, -10, -10, -10, -10, -10, -10, -10, -10, -10, -10, 42.5, 42.583332, 42.5625, 42.366074, 41.916668, 41.419643, 41.1875, 41.0625, 40.991074, 40.8125, 40.75, 40.5, 40.419643, 39.934525, 39.419643, 39.080357, 38.8125, 38.6875, 38.5625, 38.5, 38.375, 38.25, 38.0625, 37.8125, 37.6875, 37.5625, 37.571426, 37.462502, 36.991074, 36.6875, 36.375, 36.401787, 36.607143, 36.482143, 36.375, 36.1875, 36, 35.741074, 35.166668, 34.898811, 34.895832, 34.75, 34.75, 34.32143, 34.035713, 34.107143, 34.25, 34.125, 34.357143, 34.333332, 34.291668, 34.17857, 34.183674, 34.285713, 34.357143, 33.958332, 33.75, 33.710884, 33.612244, 33.142857, 33.229168, 33.666664, 34.029762, 34.166668, 34.208332, 34.25, 34.25, 34.142857, 34.214287, 34.214287, 34.32143, 34.32143, 34.362244, 34.5, 34.25, 34.375, 34.3125, 34.21875, 34.09375, 33.90625, 33.90625, 34.163265, 34.238094, 34.1875, 33.991074, 33.934525, 34.273808, 34.357143, 34.42857, 34.285713, 34.285713, 34.285713, 34.25, 34.056122, 34.045918, 33.9375, 34.25, 34.535713, 34.642857, 34.57143, 34.520409, 34.57143, 34.57143, 34.57143, 34.566326, 34.375, 34.375, 34.57143, 34.464287, 34.464287, 34.392857, 34.392857, 34.57143, 34.392857, 34.285713, 34.25, 33.92857, 33.92857, 33.92857, 33.7551, 33.67347, 33.642857, 33.540813, 33.205357, 33.267857, 33.3125, 33.714287, 33.92857, 34, 34.07143, 33.791668, 33.773808, 34.102043, 34.214287, 34.214287, 34.392857, 34.42857, 34.3125, 34.25, 34, 34.3125, 34.25, 34.3125, 34.25, 34.125, 34.0625, 33.9375, 33.875, 34.17857, 34.25, 34.1875, 34.410713, 34.4375, 34.5, 34.714287, 34.67857, 34.642857, 34.57143, 34.5, 34.42857, 34.285713, 34.0625, 34.0625, 34.125, 34, 34.25, 34.25, 34.464287, 34.464287, 34.1875, 34, 34.026787, 34.125, 34.44643, 35.044643, 35.3125, -10, -10, -10, -10, -10, -10, -10, -10, -10, -10, -10, 43.583336, 43.666668, 43.833336, -10, -10, -10, -10, -10, -10, -10, -10, -10, -10, -10, -10, -10, -10, -10, -10, -10, -10, -10, 61.125, 61, 61.30357, 62.026787, 62.577381, 63.035713, 63, 63.0625, 63, 63.0625, 63.361607, 63.879463, 64.03125, 64.34375, 64.3125, 64.5, 64.883926, 65.440475, 65.866074, 66.3125, 66.607147, 67.375, 67.696426, 68.125, 68.5, 68.84375, 69.34375, 69.65625, 70.098213, 70.645836, 70.973213, 71.321426, 71.739586, 72.125, 72.5625, 73.075897, 73.5, 73.84375, 74.373512, 74.543648, 74.925003, 76.002975, 76.379463, 76.90625, 77.107147, 77.15625, 77.4375, 77.5625, 77.9375, 78.34375, 78.65625, 79.15625, 79.558037, 79.8125, 80.0625, 80.3125, 80.6875, 81.276787, 81.625, 81.875, 82, 82.125, 82.375, 82.8125, 83.129463, 83.25, 83.4375, 83.375, 83.5625, 83.897324, 84.427086, 84.825897, 85.375, 85.75, 86.107147, 86.3125, 86.4375, 86.4375, 86.5, 86.75, 87.044647, 87.357147, 87.727676, 88.648811, 89.135712, 89.5, 90.071426, 90.267853, 90.625, 90.75, 90.875, 91.1875, 91.4375, 91.6875, 92, 92.205353, 92.520836, 92.964287, 93.464294, 93.8125, 94.25
-10, -10, -10, -10, -10, -10, -10, -10, -10, -10, -10, -10, -10, -10, -10, -10, 42.875, 42.833332, 42.75, 42.491074, 41.770836, 41.419643, 41.160713, 41.026787, 41.116074, 40.833332, 40.604168, 40.375, 40.169643, 39.764881, 39.464287, 39.133926, 39, 38.919643, 38.580357, 38.517857, 38.3125, 38.1875, 38.0625, 37.875, 37.75, 37.5625, 37.464287, 37.337502, 36.866074, 36.625, 36.375, 36.401787, 36.607143, 36.544643, 36.4375, 36.25, 36.0625, 35.803574, 35.354168, 35.273811, 35.520832, 35.5625, 35.625, 35.916668, 35.708332, 35.75, 35.5, 35.392857, 35.464287, 35.32143, 35.32143, 35.42857, 35.377552, 35.357143, 35.392857, 35.541668, 35.458332, 35.057823, 34.630951, 34.273808, 34.654762, 34.809521, 34.918369, 35.107143, 35.142857, 35.142857, 35.142857, 34.9375, 35.0625, 35.15625, 35.28125, 35.28125, 35.21875, 35.1875, 35.125, 35.1875, 35.25, 35.21875, 35.32143, 35.142857, 35.107143, 35.142857, 35.17857, 35.25, 35.214287, 35.238094, 35.208332, 35.3125, 35.375, 35.25, 35.1875, 35.357143, 35.25, 35.091835, 35.117348, 35.214287, 35.1875, 35.4375, 35.5, 35.4375, 35.581631, 35.57143, 35.5, 35.392857, 35.151787, 35.1875, 35.25, 35.464287, 35.42857, 35.357143, 35.285713, 35.357143, 35.535713, 35.25, 35.357143, 35.357143, 35.107143, 35.07143, 35.07143, 34.897957, 34.852043, 34.666668, 34.589283, 34.398808, 34.440475, 34.214287, 34.666668, 35.142857, 35.142857, 35.142857, 35.375, 35.422619, 35.280613, 35.42857, 35.42857, 35.464287, 35.1875, 35.125, 35.17857, 35.458332, 35.32143, 35.32143, 35.1875, 35.125, 35.0625, 35.0625, 35.214287, 35.25, 35.32143, 35.285713, 35.25, 35.285713, 35.285713, 35.357143, 35.5, 35.5, 35.5, 35.25, 35.125, 35.0625, 34.9375, 34.9375, 34.9375, 34.9375, 35.333332, 35.214287, 35.25, 35.357143, 35.42857, 35.392857, 35.25, 34.67347, 34.714287, 35.32143, 35.767857, 35.887497, 36.25, 36.25, 36.333332, -10, -10, -10, -10, -10, -10, -10, 42.75, 43.583336, 43.666668, -10, -10, -10, -10, -10, -10, -10, -10, 50, -10, -10, -10, -10, -10, -10, -10, -10, -10, -10, -10, 61.75, 61.833336, 62.012756, 62.289116, 62.537205, 62.879463, 62.90625, 63.03125, 63, 63.0625, 63.401787, 64.035713, 64.125, 64.4375, 64.3125, 64.5625, 64.883926, 65.440475, 65.803574, 66.1875, 66.752975, 67.491074, 67.821426, 68.125, 68.4375, 68.78125, 69.325897, 69.65625, 70.035713, 70.520836, 70.85714, 71.342262, 71.793152, 72.1875, 72.5, 72.96875, 73.645836, 74.09375, 74.677086, 75.015312, 75.474487, 75.846725, 76.160713, 76.758926, 77.190475, 77.263397, 77.5625, 77.625, 77.875, 78.1875, 78.4375, 78.9375, 79.446426, 79.8125, 80.125, 80.375, 80.75, 81.214287, 81.5625, 81.8125, 81.9375, 82.0625, 82.1875, 82.616074, 83.108627, 83.321426, 83.625, 83.625, 83.875, 84.15625, 84.53125, 84.950897, 85.4375, 85.8125, 86, 86.125, 86.25, 86.375, 86.59375, 87.0625, 87.526794, 87.857147, 88.258926, 89.041664, 89.285706, 89.6875, 89.875, 90.0625, 90.4375, 90.625, 90.8125, 91.1875, 91.5, 91.848213, 92.267853, 92.669647, 92.866074, 93.214287, 93.589294, 93.8125, 94.125, 94.3125, 94.5625, 94.8125, 95.1875, 95.5, 95.75, 96.1875, 96.5, 96.75, 97.125, 97.553574, 97.741074, 98, 98.0625, 98.3125, 98.6875, 99.276787, 99.625, 99.9375, 100.25, 100.4375, 100.75893, 101.33334, 101.61607, 102.10938, 102.4375, 102.5625, 102.71875, 102.90848, 103.19791, 103.46875, 103.95535, 104.42262, 104.74107, 105, 105, -10, -10, -10, -10, -10, -10, -10, -10, -10, -10, -10, -10, -10, -10, -10, -10, -10, -10, -10, -10, -10, -10, -10, -10, -10, -10, -10, -10, -10, -10, 43, 42.916664, 42.8125, 42.553574, 41.833336, 41.651787, 41.410713, 41.276787, 41.401787, 41.190475, 40.684525, 40.339287, 40.0625, 39.848213, 39.642857, 39.383926, 39.25, 39.098213, 38.497025, 38.410713, 38.25, 38.1875, 38.125, 37.9375, 37.75, 37.5625, 37.464287, 37.337502, 36.928574, 36.857143, 36.6875, 36.75, 36.8125, 36.6875, 36.625, 36.5, 36.4375, 36.25, 36, 36.005955, 36.488094, 36.642857, 36.785713, 36.67857, 36.5, 36.464287, 36.357143, 36.25, 36.357143, 36.357143, 36.392857, 36.535713, 36.535713, 36.540813, 36.5, 36.413265, 36.285713, 36.083336, 36.190475, 35.970238, 35.809525, 35.645832, 35.741074, 35.875, 35.875, 35.875, 35.9375, 36, 36.125, 36.357143, 36.42857, 36.42857, 36.357143, 36.1875, 36.0625, 36.09375, 36.357143, 36.42857, 36.42857, 36.357143, 36.285713, 36, 35.9375, 35.9375, 36.142857, 36.214287, 36.32143, 36.42857, 36.42857, 36.32143, 36.25, 36.0625, 36.0625, 36.017857, 36.32653, 36.392857, 36.5, 36.607143, 36.642857, 36.642857, 36.4375, 36.4375, 36.3125, 36.125, 35.964287, 36, 36.125, 36.25, 36.3125, 36.25, 36.1875, 36.25, 36.3125, 36.392857, 36.357143, 36.357143, 36.285713, 36.09375, 36.09375, 36.183674, 36.137756, 36.541668, 36.482143, 36.30357, 36.220238, 36.041668, 36.166668, 36.17857, 36.25, 36.32143, 36.357143, 36.32653, 36.280613, 36.32143, 36.357143, 36.392857, 36.357143, 36.125, 36.32143, 36.42857, 36.464287, 36.42857, 36.1875, 36.125, 36.214287, 36.25, 36.214287, 36.25, 36.285713, 36.214287, 36, 36, 36.0625, 35.92857, 36.3125, 36.3125, 36.3125, 36.25, 35.857143, 35.785713, 35.866074, 35.604168, 35.724491, 35.724491, 36.095238, 35.919643, 36, 36.0625, 36.0625, 36.25, 36.214287, 36.392857, 36.5, 36.57143, 36.517857, 36.462502, 36.666668, 36.75, 36.936508, -10, -10, -10, -10, -10, 41.25, 41.700001, 42.566666, -10, -10, -10, -10, -10, -10, -10, -10, -10, -10, 50, -10, -10, -10, -10, -10, -10, -10, -10, -10, -10, -10, 62, 61.916668, 62.026787, 62.177082, 62.308037, 62.638393, 62.763393, 62.96875, 63, 63.0625, 63.4375, 64.135712, 64.129463, 64.5, 64.3125, 64.625, 64.883926, 65.440475, 65.803574, 66.354164, 66.994049, 67.678574, 67.946426, 68.1875, 68.375, 68.6875, 69.169647, 69.4375, 69.816963, 70.270836, 70.678574, 71.261902, 71.730652, 72.1875, 72.5, 73, 73.885422, 74.303574, 75.023811, 75.015312, 75.331627, 75.614586, 75.973213, 76.696426, 77.297623, 77.450897, 77.75, 77.75, 77.9375, 78.21875, 78.53125, 79.03125, 79.540176, 79.9375, 80.25, 80.5, 80.8125, 81.107147, 81.4375, 81.6875, 81.875, 82.0625, 82.1875, 82.553574, 83.010414, 83.321426, 83.6875, 83.857147, 84.125, 84.34375, 84.59375, 84.919647, 85.28125, 85.65625, 85.84375, 86.0625, 86.4375, 86.5625, 86.9375, 87.375, 87.839294, 88.232147, 88.625, 89.148811, 89.25, 89.425003, 89.678574, 89.803574, 90.25, 90.5, 90.75, 91.1875, 91.5, 91.848213, 92.330353, 92.857147, 93.160721, 93.464287, 93.732147, 93.9375, 94.1875
-10, -10, -10, -10, -10, -10, -10, -10, -10, -10, -10, -10, -10, -10, -10, -10, -10, 43.166664, 43.012501, 42.866074, 42.145836, 42.026787, 41.723213, 41.526787, 41.526787, 41.252975, 40.684525, 40.339287, 40, 39.8125, 39.75, 39.5625, 39.5, 39.348213, 38.809525, 38.723213, 38.5625, 38.4375, 38.3125, 38.125, 38, 37.9375, 37.767857, 37.5625, 37.375, 37.3125, 37.3125, 37.4375, 37.5, 37.375, 37.25, 37.0625, 36.9375, 36.8125, 36.964287, 37.095242, 37.145832, 37.375, 37.5, 37.5, 37.5, 37.25, 37.204079, 37.089287, 37.160713, 37.395832, 37.354168, 37.67857, 37.607143, 37.540813, 37.42857, 37.142857, 37.0625, 36.854168, 37.07143, 36.964287, 36.857143, 36.785713, 36.785713, 36.857143, 36.857143, 36.938774, 37.157143, 37.163265, 37.357143, 37.375, 37.482143, 37.482143, 37.482143, 37.392857, 37.32143, 37.32143, 37.392857, 37.482143, 37.410713, 37.30357, 36.96875, 36.9375, 36.9375, 37, 36.785713, 37.125, 37.464287, 37.464287, 37.392857, 37.25, 36.875, 36.875, 37.142857, 37.285713, 37.5, 37.5, 37.57143, 37.607143, 37.607143, 37.607143, 37.57143, 37.5, 37.1875, 37.125, 36.75, 36.82143, 37.1875, 37.341835, 37.42857, 37.357143, 37.392857, 37.535713, 37.535713, 37.5, 37.1875, 37.125, 37.25, 37.25, 37.32143, 37.270409, 37.265308, 37.357143, 37.25, 37.25, 37.147957, 36.841835, 36.904762, 36.958332, 37.116074, 37.25, 37.3125, 37.223213, 37.089287, 37.0625, 37.0625, 37.125, 37.392857, 37.464287, 37.464287, 37.57143, 37.57143, 37.535713, 37.5, 37.464287, 37.42857, 37.464287, 37.1875, 37.125, 37.0625, 36.875, 36.8125, 36.8125, 36.875, 37.333332, 37.214287, 37.214287, 37.214287, 37.25, 37.416668, 37.5, 37.239799, 36.476192, 36.438774, 36.438774, 37.083332, 37.107143, 37.125, 37.125, 36.857143, 36.857143, 37.392857, 37.408165, 37.42857, 37.530613, 37.285713, 37.1875, 37.125, 37.25, 37.327381, 38.416664, -10, -10, -10, -10, 40.976192, 41.466667, 42.424999, -10, -10, -10, -10, -10, -10, -10, -10, -10, 49.75, 49.875, -10, -10, -10, -10, -10, -10, -10, -10, -10, -10, -10, 62.166668, 61.916668, 61.919643, 61.84375, 62, 62.357143, 62.669643, 62.9375, 63, 63, 63.357143, 64.199997, 64.102676, 64.625, 64.4375, 64.875, 65.15625, 65.544647, 65.9375, 66.416664, 67.119049, 68.011909, 68.25, 68.5, 68.5625, 68.84375, 69.325897, 69.566963, 69.90625, 70.125, 70.5, 71.136902, 71.699402, 72.25, 72.5625, 73.0625, 73.916672, 74.428574, 75.083336, 75.169647, 75.46875, 75.59375, 75.875, 76.553574, 77.127975, 77.325897, 77.5625, 77.625, 77.875, 78.21875, 78.59375, 79.09375, 79.558037, 79.9375, 80.25, 80.5, 80.75, 81, 81.375, 81.625, 81.8125, 81.9375, 82.0625, 82.410721, 82.854164, 83.290176, 83.65625, 83.950897, 84.28125, 84.4375, 84.696426, 85.159225, 85.388397, 85.71875, 85.84375, 86.0625, 86.625, 86.75, 87.1875, 87.5625, 88.089294, 88.544647, 88.875, 89.044647, 88.982147, 89.050003, 89.303574, 89.553574, 90.125, 90.482147, 90.75, 91.25, 91.5, 91.866074, 92.4375, 92.982147, 93.410721, 93.6875, 93.875, 94, 94.25, 94.544647, 94.8125, 95.0625, 95.375, 95.625, 95.8125, 96.1875, 96.4375, 96.6875, 97.0625, 97.375, 97.6875, 98.044647, 98.25, 98.5, 98.8125, 99.339287, 99.625, 99.9375, 100.3125, 100.5625, 100.8125, 101.125, 101.3125, 101.69643, 102.33334, 102.67857, 102.9375, 103.25, 103.375, 103.625, 104.08035, 104.50298, 104.80357, 105, 105, -10, -10, -10, -10, -10, -10, -10, -10, -10, -10, -10, -10, -10, -10, -10, -10, -10, -10, -10, -10, -10, -10, -10, -10, -10, -10, -10, -10, -10, -10, -10, 43.354164, 43.137501, 43.03125, 42.510418, 42.392857, 42.098213, 41.714287, 41.526787, 41.190475, 40.622025, 40.446426, 40.25, 40.125, 40.0625, 39.9375, 39.875, 39.785713, 39.309525, 39.160713, 38.9375, 38.75, 38.5625, 38.4375, 38.375, 38.375, 38.330357, 38.1875, 38.0625, 38.0625, 38.0625, 38.25, 38.375, 38.3125, 37.94643, 37.785713, 37.714287, 37.958332, 37.979168, 37.857143, 37.964287, 38.375, 38.375, 38.3125, 38.5, 38.791668, 39.142857, 39.291668, 39.333332, 39.125, 38.875, 38.642857, 38.535713, 38.540813, 38.42857, 37.955357, 38, 38, 38, 37.9375, 37.8125, 37.75, 37.75, 37.8125, 37.75, 37.821426, 38.157143, 38.163265, 38.392857, 38.125, 38.1875, 38.1875, 38.32143, 38.357143, 38.357143, 38.32143, 38.357143, 38.15625, 38.03125, 37.9375, 37.75, 37.92857, 37.92857, 38.035713, 38.416668, 38.392857, 38.5, 38.25, 38.125, 38, 37.875, 37.9375, 38.25, 38.32143, 38.42857, 38.32143, 38.1875, 38.1875, 38.21875, 38.28125, 38.5, 38.535713, 38.464287, 38.42857, 38.625, 38.666668, 38.5, 38.448978, 38.5, 38.464287, 38.535713, 38.642857, 38.535713, 38.42857, 38.32143, 38, 37.96875, 38.03125, 38.267857, 38.267857, 38.285713, 38.0625, 38, 38.03125, 38.004463, 37.538265, 37.822918, 37.958332, 38.204082, 38.25, 38.25, 38.142857, 37.875, 37.875, 38, 38.125, 38.5, 38.535713, 38.535713, 38.57143, 38.5, 38.57143, 38.57143, 38.5, 38.464287, 38.42857, 38.357143, 38.1875, 38.0625, 37.75, 37.625, 37.5625, 37.541668, 38.204082, 37.919643, 37.9375, 37.875, 38.107143, 38.142857, 38.214287, 38.204082, 38.111111, 38.047619, 38.130951, 38.238094, 38.265308, 38.357143, 38.32143, 38.416668, 38.458332, 38.357143, 38.42857, 38.3125, 38.3125, 38.125, 38.142857, 38.107143, 38.32143, 38.44558, 38.861111, 39.125, 39.125, 39.375, 39.875, 41.065475, 41.528572, 42.121429, -10, -10, -10, -10, -10, -10, -10, -10, -10, 49.666668, 49.75, -10, -10, -10, -10, -10, -10, -10, -10, -10, -10, -10, -10, 61.354168, 61.409225, 61.415176, 61.71875, 62.125, 62.607143, 62.875, 63, 63, 63.348213, 64.074997, 64.071426, 64.65625, 64.65625, 65.15625, 65.40625, 65.75, 66.125, 66.604164, 67.333336, 68.095238, 68.357147, 68.625, 68.6875, 68.986603, 69.558037, 69.808037, 70.15625, 70.375, 70.8125, 71.440475, 71.866074, 72.40625, 72.71875, 73.21875, 74.072922, 74.553574, 74.9375, 75.0625, 75.3125, 75.5, 75.8125, 76.428574, 77.002975, 77.232147, 77.5, 77.625, 77.8125, 78.15625, 78.53125, 78.96875, 79.388397, 79.8125, 80.125, 80.4375, 80.75, 81, 81.375, 81.625, 81.75, 81.75, 81.830353, 82.327377, 82.791664, 83.321426, 83.6875, 83.982147, 84.3125, 84.4375, 84.571426, 84.944939, 85.245537, 85.584824, 85.78125, 86, 86.633926, 86.958336, 87.333336, 87.5, 87.933044, 88.21875, 88.65625, 88.888397, 88.919647, 88.987503, 89.178574, 89.428574, 90, 90.464294, 90.75, 91.25, 91.5625, 91.973221, 92.5, 93.044647, 93.410721, 93.6875, 93.875, 94, 94.1875
-10, -10, -10, -10, -10, -10, -10, -10, -10, -10, -10, -10, -10, -10, -10, -10, -10, 43.020832, 42.924999, 43.114582, 42.950893, 42.8125, 42.455357, 42, 41.589287, 41.294643, 40.830357, 40.696426, 40.5625, 40.4375, 40.375, 40.25, 40.125, 39.991074, 39.729168, 39.642857, 39.5, 39.3125, 39.0625, 38.875, 38.8125, 38.875, 38.9375, 38.875, 38.875, 39.142857, 39.25, 39.535713, 39.75, 39.785713, 40.083332, 40, 39.916668, 40, 39.958332, 39.934525, 39.597225, 39.331631, 39.125, 39.125, 39.57143, 39.558334, 39.979591, 40.025513, 39.92857, 39.82143, 39.67857, 39.719387, 39.4375, 39.473213, 39.3125, 39.080357, 39.392857, 39.392857, 39.392857, 39.392857, 39.17857, 39.07143, 39, 38.92857, 38.857143, 38.974487, 39.121429, 38.955357, 39.1875, 39.09375, 39.1875, 39.1875, 38.92857, 39.25, 39.25, 39.15625, 39.09375, 39.03125, 38.90625, 38.8125, 38.651787, 38.625, 38.6875, 39.07143, 39.214287, 39.392857, 39.42857, 39.1875, 39.125, 38.9375, 39.035713, 39.107143, 39.142857, 39, 39.0625, 39, 39.0625, 39.0625, 39.15625, 39.21875, 39.28125, 39.40625, 39.535713, 39.57143, 39.607143, 39.607143, 39.642857, 39.556122, 39.57143, 39.57143, 39.57143, 39.57143, 39.392857, 39.214287, 39.142857, 38.875, 38.9375, 39.125, 39.1875, 39.125, 39.0625, 38.875, 38.75, 38.84375, 39.112244, 39.208332, 38.702385, 38.784016, 38.616074, 38.6875, 38.758926, 38.8125, 38.6875, 38.92857, 38.964287, 39.142857, 39.32143, 39.25, 39.375, 39.473213, 39.375, 39.401787, 39.375, 39.375, 39.142857, 39.333332, 39.291668, 39.535713, 39.392857, 39.035713, 38.6875, 38.6875, 38.666668, 39.053574, 38.982143, 38.9375, 38.8125, 38.8125, 38.875, 38.9375, 38.928574, 38.952385, 38.897957, 38.969387, 39.190472, 39.204082, 39.285713, 39.32143, 39.285713, 39.357143, 39.464287, 39.42857, 39.392857, 39.1875, 39.0625, 39, 39.0625, 39.1875, 39.223213, 39.208332, 39.416668, 39.416668, 39.666668, 40.166668, 41.172619, 41.616074, 42.192856, 43.333332, 43.599998, -10, -10, -10, -10, -10, -10, -10, 49.92857, 49.92857, -10, -10, -10, -10, -10, -10, -10, -10, -10, -10, -10, -10, 60.5625, 60.71875, 60.852676, 61.330357, 62.177082, 62.66518, 62.96875, 63, 63.071426, 63.526787, 64.074997, 64.102676, 64.5625, 64.6875, 65.232147, 65.53125, 65.875, 66.25, 66.729164, 67.25, 68.25, 68.535713, 68.9375, 68.9375, 69.191963, 70.012756, 70.252556, 70.40625, 70.6875, 71.178574, 71.642853, 72, 72.40625, 72.59375, 73.075897, 73.989586, 74.446426, 74.75, 74.875, 75.125, 75.419647, 75.8125, 76.419647, 76.794647, 77.0625, 77.375, 77.5625, 77.8125, 78.21875, 78.59375, 79, 79.375, 79.71875, 79.96875, 80.3125, 80.6875, 81.107147, 81.5, 81.75, 81.8125, 81.875, 82.142853, 82.684525, 82.9375, 83.375, 83.625, 83.919647, 84.25, 84.375, 84.446426, 84.819939, 85.129471, 85.584824, 85.84375, 86.1875, 86.821426, 87.145836, 87.333336, 87.3125, 87.683044, 87.959824, 88.46875, 88.825897, 88.955353, 88.987503, 89.116074, 89.241074, 89.794647, 90.589294, 90.955353, 91.4375, 91.6875, 92.0625, 92.544647, 92.9375, 93.263397, 93.5, 93.75, 93.9375, 94.15625, 94.473221, 95, 95.196426, 95.375, 95.4375, 95.5625, 96.053574, 96.464287, 96.8125, 97.0625, 97.25, 97.625, 98.026787, 98.4375, 98.75, 98.875, 99.1875, 99.4375, 99.75, 100.29465, 100.5625, 100.875, 101.125, 101.3125, 101.57143, 102.08334, 102.36607, 102.5, 102.83929, 103.41667, 103.79465, 104.25, 104.5, 104.75, 104.9375, 105, -10, -10, -10, -10, -10, -10, -10, -10, -10, -10, -10, -10, -10, -10, -10, -10, -10, -10, -10, -10, -10, -10, -10, -10, -10, -10, -10, -10, -10, -10, -10, 42.895832, 42.841667, 43.114582, 43.013393, 42.8125, 42.455357, 41.9375, 41.5, 41.25, 40.9375, 40.875, 40.8125, 40.6875, 40.6875, 40.5625, 40.4375, 40.375, 40.3125, 40.3125, 40.1875, 40, 39.75, 39.625, 39.625, 39.75, 39.875, 39.875, 40, 40.25, 40.285713, 40.535713, 40.75, 40.892857, 41.035713, 40.964287, 40.857143, 40.92857, 40.92857, 40.872448, 40.654762, 40.010201, 39.92857, 40, 40.5625, 41.028572, 40.982143, 41.022324, 40.78125, 40.53125, 40.40625, 40.410713, 40.5, 40.535713, 40.42857, 40.32143, 40.535713, 40.714287, 40.683674, 40.520409, 40.341835, 40.142857, 40.142857, 40.142857, 40.07143, 39.977676, 40.075001, 40.080357, 40.392857, 40.25, 40.32143, 40.392857, 40.714283, 40.535713, 40.607143, 40.464287, 40.125, 40, 39.75, 39.625, 39.620537, 39.44643, 39.612244, 40.0625, 40.1875, 40.25, 40.3125, 40.392857, 40.285713, 40.17857, 40.142857, 40.17857, 39.9375, 39.875, 39.8125, 39.8125, 39.9375, 40, 40.357143, 40.42857, 40.5, 40.642857, 40.607143, 40.375, 40.375, 40.375, 40.57143, 40.581635, 40.57143, 40.5, 40.464287, 40.1875, 40.125, 40, 39.875, 39.8125, 40.035713, 40.17857, 40.214287, 40.142857, 40, 39.82143, 39.785713, 39.92857, 40.056122, 40.035713, 39.82143, 39.592262, 39.346943, 39.392857, 39.438774, 39.8125, 39.75, 39.964287, 39.75, 39.875, 39.9375, 40.0625, 40.25, 40.612244, 40.57143, 40.401787, 40.375, 40.57143, 40.916668, 40.833332, 40.75, 40.464287, 40.285713, 40, 39.82143, 39.892857, 39.797619, 40.132656, 40.051022, 39.92857, 39.785713, 39.5625, 39.625, 39.625, 39.6875, 39.6875, 39.75, 39.875, 39.9375, 39.9375, 39.9375, 40, 40.0625, 40.1875, 40.5, 40.3125, 40.1875, 40.285713, 40.142857, 40.142857, 40.285713, 40.464287, 40.25, 39.92857, 39.892857, 39.857143, 40.25, 40.517857, 41.172619, 41.491074, 42.17857, 43.444443, 43.733334, -10, -10, -10, -10, -10, -10, -10, 50.666668, 50.733334, -10, -10, -10, -10, -10, -10, -10, -10, -10, -10, -10, -10, 60.1875, 60.458332, 60.758926, 61.375, 62.239582, 62.683037, 62.96875, 63, 63.142857, 63.752979, 64.082146, 64.254463, 64.53125, 64.65625, 65.138397, 65.40625, 65.75, 66.1875, 66.544647, 67.071426, 68.1875, 68.64286, 69.1875, 69.3125, 69.660713, 70.547623, 70.821426, 71.1875, 71.375, 71.75, 72.071426, 72.276787, 72.65625, 72.825897, 73.325897, 74, 74.392853, 74.625, 74.75, 75.03125, 75.401787, 75.75, 76.232147, 76.4375, 76.6875, 77.0625, 77.419647, 77.6875, 78.125, 78.375, 78.65625, 79.049103, 79.489586, 79.772324, 80.196426, 80.770836, 81.285713, 81.6875, 81.875, 81.875, 81.875, 82.151787, 82.892853, 83.178574, 83.5625, 83.6875, 83.8125, 84.125, 84.3125, 84.508926, 84.976189, 85.348221, 85.803574, 86.107147, 86.375, 86.892853, 87.4375, 87.489586, 87.53125, 87.776794, 87.897324, 88.34375, 88.59375, 88.785713, 89, 89.0625, 89.3125, 89.919647, 90.821426, 91.236603, 91.6875, 91.9375, 92.3125, 92.700897, 93, 93.15625, 93.3125, 93.5, 93.6875, 93.96875
-10, -10, -10, -10, -10, -10, -10, -10, -10, -10, -10, -10, -10, -10, -10, -10, -10, 42.75, 42.891666, 43.114582, 43.075893, 42.8125, 42.455357, 42, 41.5625, 41.375, 41.1875, 41.1875, 41.25, 41.1875, 41.1875, 41.125, 41, 40.9375, 40.875, 40.875, 40.8125, 41.035713, 41, 40.92857, 41, 41.07143, 41.17857, 41.25, 41.392857, 41.357143, 41.357143, 41.3125, 41.4375, 41.625, 41.78125, 41.75, 41.75, 41.8125, 41.78125, 41.732143, 41.726192, 41.797619, 41.75, 41.833332, 41.785713, 41.916325, 41.785713, 41.596943, 41.1875, 41.071426, 41.333332, 41.214287, 41.458332, 41.214287, 41.375, 41.5, 41.67857, 41.857143, 41.82653, 41.424107, 41.299107, 41.125, 41.125, 41.32143, 41.214287, 41.25, 41.270409, 41.559521, 41.622448, 41.25, 41.535713, 41.535713, 41.612244, 41.67857, 41.642857, 41.5, 41.42857, 41.32143, 41.102043, 41.07143, 41.066326, 41.5, 41.595238, 41.32143, 41.285713, 41.25, 41.25, 41.214287, 41.17857, 41.107143, 41.07143, 40.875, 40.875, 40.75, 40.625, 40.92857, 41, 41.07143, 41.232143, 41.339287, 41.44643, 41.625, 41.642857, 41.375, 41.3125, 41.25, 41.3125, 41.3125, 41.25, 41.1875, 41.125, 41.0625, 41.0625, 41.214287, 40.875, 41.035713, 41.035713, 40.875, 41.17857, 41.07653, 40.651787, 40.785713, 40.785713, 40.691963, 40.674107, 40.65625, 40.447918, 40.383926, 40.791668, 40.916668, 40.880951, 40.857143, 40.92857, 41.107143, 40.683674, 40.767857, 40.732143, 40.96875, 41.125, 41.433674, 41.42857, 41.42347, 41.32143, 41.357143, 41.5, 41.5, 41.5, 41.25, 40.92857, 40.714287, 40.833332, 41.214287, 41.166668, 41.116074, 40.982143, 40.875, 40.75, 40.857143, 40.857143, 40.5625, 40.5625, 40.32143, 40.92857, 40.964287, 40.75, 40.6875, 40.75, 40.875, 40.9375, 41.285713, 41.357143, 41.285713, 41.25, 41.0625, 41, 41.32143, 41.464287, 41.57143, 41.791668, 41.75, 41.75, 41.666668, 41.42857, 41.330357, 41.815475, 41.991074, 42.42857, 43.333332, 43.612499, -10, -10, -10, -10, -10, -10, 50.5, 50.75, 50.849998, -10, -10, -10, -10, -10, -10, -10, -10, -10, -10, -10, -10, 60.1875, 60.541664, 60.852676, 61.46875, 62.333332, 62.714287, 62.96875, 63, 63.214287, 63.979172, 64.089287, 64.34375, 64.40625, 64.53125, 64.888397, 65.0625, 65.401787, 66.083336, 66.526787, 67.040176, 67.925598, 68.630951, 69.196426, 69.5, 69.973213, 70.90477, 71.160713, 71.4375, 71.5625, 71.875, 72.133926, 72.339287, 72.71875, 73.03125, 73.544647, 74.28125, 74.611603, 74.75, 74.8125, 75.0625, 75.433037, 75.71875, 76.09375, 76.25, 76.5, 77, 77.464287, 77.75, 78.1875, 78.375, 78.59375, 78.924103, 79.364586, 79.647324, 80.133926, 80.833336, 81.392853, 81.75, 81.9375, 81.9375, 81.9375, 82.214287, 82.910713, 83.178574, 83.5625, 83.6875, 83.8125, 84.125, 84.383926, 84.6875, 84.892853, 85.366074, 85.741074, 86.169647, 86.5, 86.830353, 87.508926, 87.65625, 87.625, 87.763397, 87.741074, 88.09375, 88.477676, 88.994049, 89.303574, 89.4375, 89.5625, 90.044647, 90.776787, 91.111603, 91.60714, 91.918373, 92.419647, 92.736603, 93, 93.03125, 93.1875, 93.375, 93.625, 93.90625, 94.223221, 94.75, 94.946426, 95.125, 95.1875, 95.375, 95.803574, 96.214287, 96.625, 96.90625, 97.21875, 97.65625, 98.058037, 98.3125, 98.571426, 98.833336, 99.0625, 99.520836, 99.803574, 100.29465, 100.625, 101.10715, 101.4375, 101.6875, 101.9375, 102.1875, 102.375, 102.4375, 102.74107, 103.39881, 103.72321, 104.0625, 104.3125, 104.5625, 104.8125, 105, -10, -10, -10, -10, -10, -10, -10, -10, -10, -10, -10, -10, -10, -10, -10, -10, -10, -10, -10, -10, -10, -10, -10, -10, -10, -10, -10, -10, -10, -10, -10, -10, 42.766666, 43.020832, 42.982143, 42.75, 42.455357, 42.125, 41.875, 41.8125, 41.6875, 41.625, 41.6875, 41.6875, 41.75, 41.875, 41.875, 42.035713, 42.035713, 41.875, 41.8125, 41.875, 42.035713, 42, 42.07143, 42.142857, 42.214287, 42.214287, 42.392857, 42.357143, 42.392857, 42.3125, 42.3125, 42.5, 42.625, 42.625, 42.625, 42.6875, 42.6875, 42.669643, 42.880955, 42.7551, 42.75, 42.92857, 42.964287, 42.864288, 42.6875, 42.168369, 42.1875, 42.133926, 42.702381, 43.202381, 43.241669, 42.958332, 42.642857, 42.5, 42.4375, 42.53125, 42.441963, 42.236607, 42.288265, 42.142857, 42.25, 42.357143, 42.357143, 42.44643, 42.556122, 42.809521, 42.801022, 42.895832, 42.57143, 42.5, 42.612244, 42.714287, 42.4375, 42.607143, 42.57143, 42.5, 42.352043, 42.357143, 42.372448, 42.57143, 42.581631, 42.392857, 42.25, 41.9375, 41.9375, 41.90625, 41.84375, 41.71875, 41.65625, 41.625, 41.92857, 41.857143, 41.785713, 41.892857, 41.75, 41.875, 42.0625, 42.125, 42.1875, 42.3125, 42.535713, 42.535713, 42.535713, 42.464287, 42.25, 42.1875, 42.125, 42.0625, 42.0625, 42.285713, 42.392857, 42.42857, 42.285713, 42.25, 41.9375, 41.875, 41.9375, 41.848213, 41.714287, 41.75, 41.5, 41.848213, 41.484692, 41.392857, 41.119049, 41.380951, 41.785713, 41.92857, 41.969387, 41.833332, 42.142857, 42.25, 42.55357, 42.583332, 42.541668, 42.214287, 42.125, 42.223213, 42.1875, 42.151787, 42, 42, 42.1875, 42.25, 42.3125, 42.3125, 42.666668, 42.625, 42.5, 42.285713, 42.285713, 42.214287, 42.142857, 42.107143, 42.07143, 42.07143, 42.142857, 42.07143, 42, 42.208332, 41.92857, 41.857143, 41.785713, 41.785713, 41.92857, 42.107143, 42.285713, 42.125, 42.1875, 42.125, 42.0625, 42.357143, 42.357143, 42.464287, 42.5, 42.535713, 42.57143, 42.464287, 42.5, 42.42857, 42.32143, 42.270409, 42.294643, 42.4375, 42.794643, 43.5, 43.712502, 43.892857, 44.666664, 45.166664, -10, -10, -10, 49.904766, 50.791668, 51.162498, -10, -10, -10, -10, -10, -10, -10, -10, -10, -10, -10, -10, 60.625, 60.833332, 61.09375, 61.625, 62.395832, 62.776787, 62.96875, 63, 63.285713, 64.250008, 64.39286, 64.5625, 64.5, 64.419647, 64.508926, 64.625, 64.85714, 65.916672, 66.446426, 67, 67.717262, 68.452385, 69.300591, 69.830353, 70.4375, 71.235123, 71.482147, 71.625, 71.6875, 71.875, 72.08036, 72.422623, 72.8125, 73.199997, 73.53125, 74.25, 74.486603, 74.6875, 74.75, 75, 75.370537, 75.65625, 76.03125, 76.324997, 76.479164, 77.116074, 77.51786, 77.8125, 78.25, 78.375, 78.59375, 78.986603, 79.409225, 79.709824, 80.196426, 80.833336, 81.392853, 81.75, 81.9375, 82, 82.0625, 82.383926, 82.869049, 83.116074, 83.5, 83.625, 83.8125, 84.1875, 84.446426, 84.8125, 85, 85.321426, 85.6875, 86.107147, 86.5625, 86.946426, 87.604164, 87.858627, 87.9375, 88.044647, 87.959824, 88.1875, 88.508926, 89.056549, 89.428574, 89.625, 89.75, 90.169647, 90.794647, 91.111603, 91.331627, 91.789116, 92.491074, 92.799103, 92.9375, 92.96875, 93.125, 93.357147, 93.75, 94.15625
-10, -10, -10, -10, -10, -10, -10, -10, -10, -10, -10, -10, -10, -10, -10, -10, -10, -10, 42.888889, 43.214287, 43.142857, 42.887756, 42.729168, 42.517857, 42.375, 42.357143, 42.357143, 42.1875, 42.294643, 42.375, 42.5625, 43.035713, 43.17857, 43.17857, 43.142857, 43.035713, 42.892857, 43.035713, 43.107143, 43.107143, 43.107143, 42.839287, 42.875, 42.9375, 43.125, 43.125, 43.42857, 43.5, 43.57143, 43.67857, 43.714287, 43.714287, 43.714287, 43.785713, 43.714287, 43.714287, 43.82143, 43.5625, 43.625, 43.92857, 43.790176, 44.268707, 44.190479, 43.67857, 43.738098, 43.367344, 43.738094, 44.081631, 44.171429, 43.92857, 43.857143, 43.642857, 43.535713, 43.375, 43.285713, 43.080357, 42.877552, 42.785713, 42.964287, 43.348213, 43.413265, 43.448978, 43.520409, 43.809521, 43.872448, 43.785713, 43.57143, 43.1875, 43.223213, 43.3125, 43.25, 43.5, 43.607143, 43.57143, 43.4949, 43.464287, 43.44643, 43.34375, 43.321426, 43.125, 42.9375, 42.875, 42.9375, 42.90625, 42.535713, 42.42857, 42.65625, 42.6875, 42.8125, 42.8125, 42.75, 42.8125, 42.839287, 42.775513, 43.232143, 43, 43.07143, 43.142857, 43.482143, 43.607143, 43.642857, 43.5, 43.42857, 43.125, 43.0625, 43.214287, 43.357143, 43.464287, 43.57143, 43.57143, 43.392857, 43.32143, 43.107143, 43.035713, 43.107143, 43.07653, 43.030613, 43.07143, 43.25, 42.969387, 43.095242, 43.130951, 43.166668, 43.291668, 43.061226, 42.8125, 43, 43.166668, 43.142857, 43.32143, 43.474487, 43.57143, 43.464287, 43.285713, 43.357143, 43.32143, 43.1875, 43.1875, 43.0625, 42.714287, 43.0625, 43.125, 43.42857, 43.535713, 43.5, 43.42857, 43.285713, 43.17857, 43.17857, 43.107143, 43.035713, 43.142857, 43.214287, 43.285713, 43.357143, 43.32143, 43.25, 43.25, 42.916668, 42.57143, 42.5, 42.5, 43.214287, 43.285713, 43.392857, 43.357143, 43.32143, 43.1875, 43.392857, 43.5, 43.535713, 43.607143, 43.57143, 43.3125, 43.3125, 43.1875, 43.25, 43.25, 43.1875, 42.877552, 42.964287, 43.57143, 43.535713, 43.979168, 44.0625, 44.261902, 44.777775, 45.111111, 46.107143, 47.5, 48.232143, 49.834824, 50.416668, 50.9375, -10, -10, -10, -10, -10, -10, -10, -10, -10, -10, -10, -10, 61.200001, 61.222218, 61.572918, 62.132141, 62.491074, 62.8125, 62.90625, 63, 63.285713, 64.333336, 64.64286, 64.875, 64.758926, 64.232147, 64.008926, 63.9375, 64.25, 65.770836, 66.5, 67.0625, 67.540176, 68.232147, 69.317451, 70.023811, 70.726189, 71.565475, 71.678574, 71.71875, 71.65625, 71.75, 71.98214, 72.467262, 72.9375, 73.481247, 73.767853, 74.15625, 74.375, 74.625, 74.8125, 75.0625, 75.325897, 75.53125, 75.825897, 76.449997, 76.684525, 77.303574, 77.70536, 78, 78.375, 78.5, 78.6875, 79.017853, 79.502975, 79.803574, 80.258926, 80.833336, 81.223221, 81.625, 81.8125, 81.9375, 82, 82.196426, 82.583336, 82.866074, 83.3125, 83.607147, 83.8125, 84.1875, 84.446426, 84.8125, 85, 85.25, 85.5, 85.919647, 86.375, 86.821426, 87.479164, 87.921127, 88.0625, 88.1875, 88.09375, 88.25, 88.508926, 88.958336, 89.428574, 89.75, 90.107147, 90.5, 90.857147, 91.03125, 91.339287, 91.922623, 92.473213, 92.799103, 92.875, 92.875, 93.125, 93.357147, 93.75, 94.25, 94.607147, 94.875, 95.125, 95.3125, 95.5, 95.75, 95.875, 96, 96.1875, 96.28125, 96.665176, 97.46875, 97.897324, 98.0625, 98.23214, 98.836311, 99.107147, 99.645836, 99.803574, 100.125, 100.5, 100.91965, 101.38393, 101.89584, 102.24107, 102.5625, 102.75, 102.875, 103.08929, 103.41965, 103.67857, 103.9375, 104.21875, 104.46875, 104.84375, 105.125, -10, -10, -10, -10, -10, -10, -10, -10, -10, -10, -10, -10, -10, -10, -10, -10, -10, -10, -10, -10, -10, -10, -10, -10, -10, -10, -10, -10, -10, -10, -10, -10, -10, 44.333332, 44.291668, 43.918369, 43.416668, 43.267857, 43.214287, 43.112244, 43.030613, 43.07143, 43.158165, 43.5, 43.785713, 43.964287, 44.107143, 44.188774, 44.488094, 44.119049, 43.958332, 44.041668, 44.357143, 44.357143, 43.857143, 43.734699, 43.770832, 43.75, 43.8125, 43.875, 44.32143, 44.464287, 44.642857, 44.75, 44.75, 44.75, 44.714287, 44.714287, 44.5, 44.404758, 44.741074, 44.841835, 44.82143, 44.857143, 44.903057, 45.217686, 45.154762, 44.67857, 44.704082, 44.612244, 44.645832, 44.946426, 45.025002, 45, 44.892857, 44.591835, 44.25, 44.1875, 44.1875, 44.125, 44.583332, 44.583332, 44.708332, 44.612244, 44.267857, 44.520409, 44.267857, 44.458332, 44.544643, 44.5, 44.375, 44.1875, 44.125, 44.1875, 44.125, 44.3125, 44.375, 44.3125, 44.214287, 44.125, 44.0625, 44.0625, 44.0625, 43.9375, 43.75, 43.964287, 43.92857, 43.964287, 44.145832, 44.020832, 43.75, 43.857143, 43.964287, 44.035713, 44.291668, 43.964287, 44.030613, 44.517857, 44.479591, 44.791668, 44.833332, 44.875, 44.693878, 44.57143, 44.57143, 44.392857, 44.25, 44.142857, 44.107143, 44.17857, 44.392857, 44.57143, 44.67857, 44.375, 44.1875, 44.214287, 43.964287, 44, 44.158165, 44.234692, 44.255104, 44.07143, 44, 43.535713, 43.795921, 43.82653, 43.892857, 44.07143, 44.025513, 43.857143, 43.92857, 43.6875, 44.035713, 44, 44.196426, 44.34375, 44.34375, 44.15625, 44.42857, 44.32143, 44.32143, 44.32143, 44.142857, 44.25, 44.07143, 44.17857, 44.285713, 44.392857, 44.125, 44.089287, 44.035713, 43.875, 44, 43.9375, 43.875, 44, 44, 44.214287, 44.357143, 44.357143, 44.357143, 44.32143, 44.375, 44.375, 44.333332, 44.333332, 44.32143, 44.285713, 44.285713, 44.214287, 44.25, 44.357143, 44.464287, 44.642857, 44.67857, 44.714287, 44.642857, 44.3125, 44.1875, 43.82143, 43.82143, 44.1875, 44.25, 44.666668, 44.791668, 44.642857, 44.642857, 44.642857, 44.375, 44.446426, 44.904762, 45.416664, 46.309525, 47.333332, 47.964283, 49.543156, 50.202381, 50.804165, -10, -10, -10, -10, -10, -10, -10, -10, -10, -10, -10, -10, -10, -10, 61.440479, 61.885715, 62.214287, 62.604168, 62.825893, 63, 63.285713, 64.333336, 64.785721, 65.0625, 65.008926, 64.443878, 64.153061, 64.14286, 64.5, 66.059525, 66.892853, 67.383926, 67.811012, 68.333336, -10, -10, -10, 71.669647, 71.625, 71.5, 71.34375, 71.34375, 71.665176, 72.346725, 72.84375, 73.467857, 73.674103, 74.03125, 74.3125, 74.625, 74.875, 75.125, 75.28125, 75.46875, 75.825897, 76.804169, 77.122025, 77.741074, 78.035721, 78.21875, 78.5, 78.625, 78.875, 79.25, 79.669647, 80, 80.375, 80.75, 81.044647, 81.4375, 81.6875, 81.875, 82, 82.1875, 82.375, 82.625, 83.0625, 83.419647, 83.6875, 84.125, 84.446426, 84.8125, 85, 85.25, 85.4375, 85.75, 86.25, 86.625, 87.125, 87.702377, 87.90625, 88.15625, 88.09375, 88.366074, 88.5625, 89.020836, 89.428574, 89.75, 90.107147, 90.4375, 90.6875, 90.8125, 91.098213, 92.08844, 92.392853, 92.767853, 92.8125, 92.875, 93.25, 93.544647, 93.9375, 94.375
