-10, -10, -10, -10, -10, -10, -10, -10, -10, -10, -10, -10, -10, -10, -10, -10, -10, -10, -10, -10, -10, -10, -10, -10, -10, -10, -10, -10, -10, -10, -10, -10, -10, -10, -10, -10, -10, -10, -10, -10, -10, -10, -10, -10, -10, -10, -10, -10, -10, -10, -10, -10, -10, -10, -10, -10, -10, -10, -10, -10, -10, -10, -10, -10, -10, -10, -10, -10, -10, -10, -10, -10, -10, -10, -10, -10, -10, -10, -10, -10, -10, -10, -10, 30.25, 30.458332, 30.625, 30.5, 30.694445, 30.5625, 30.541666, 30.714287, 30.794643, 30.928572, 30.9375, 30.8125, 30.75, 30.705357, 30.875, 30.875, 31, 30.9375, 30.8125, 30.75, 30.8125, 31.375, 31.612244, 32.178574, 32.419643, 32.5625, 32.8125, 33.0625, 33.294643, 33.4375, 33.5, 33.5, 33.5625, 33.892857, 34.565475, 34.803574, 35.0625, 35, 35, 34.75, 34.5, 34.0625, 33.5625, 33.339287, 32.982143, 32.666668, 32.446426, 32.125, 31.8125, 31.392857, 31.1875, 30.8125, 30.6875, 30.5, 30.169643, 29.684525, 29.517857, 29.3125, 29.125, 28.9375, 28.272322, 27.111607, 26.641369, 26.375, 11.833333, 11.604167, 11.625, 11.625, 11.5, 11.4375, 11.25, 11.0625, 11.1875, 11.1875, 11.1875, 11.1875, 11.0625, 11.125, 11.1875, 11.25, 11.3125, 11.25, 11.25, 11.1875, 11.125, 11.125, 11.1875, 11.3125, 11.5, 11.5, 11.4375, 11.4375, 11.3125, 11.4375, 11.5625, 11.5, 11.526786, 11.535714, 11.375, 11.330357, 11.3125, 11.25, 11.25, 11.3125, 11.375, 11.5, 11.5625, 11.5625, 11.625, 11.5, 11.4375, 11.375, 11.3125, 11.25, 11.3125, 11.3125, 11.25, 11.4375, 11.3125, 11.25, 11.3125, 11.125, 11.125, 11.25, 11.1875, 11.1875, 11.1875, 11.0625, 11, 11, 11.125, 11.1875, 11.3125, 11.375, 11.375, 11.5, 11.5625, 11.625, 11.616072, 11.375, 11.25, 11.25, 11.1875, 11.25, 11.3125, 11.25, 11.375, 11.3125, 11.25, 11.3125, 11.4375, 11.5, 11.5, 11.375, 11.125, 11, 11, 11, 11.125, 11.25, 11.3125, 11.375, 11.25, 11.1875, 11.3125, 11.375, 11.5, 11.5, 11.375, 11.3125, 11.1875, 11.125, 11.0625, 11, 11, 11, 11.0625, 11.1875, 11.375, 11.348214, 11.214286, 11.125, 11, 11.0625, 11.0625, 11.0625, 11.1875, 11.375, 11.5, 11.5625, 11.375, 11.3125, 11.4375, 11.5, 11.5, 11.4375, 11.3125, 11.1875, 11.25, 11.4375, 11.5625, 11.6875, 11.75, 11.5, 11.25, 11.125, 11.1875, 11.375, 11.5, 11.5, 11.375, 11.383928, 11.758333, 11.991666, -10, -10, -10, -10, -10, -10, 20.541668, 21.738096, 25.160316, 25.607141, 26.404762, 26.525, 27.414286, 27.916666, 28.5, 28.895834, 29.227678, 29.717262, 30.044643, 30.125, 30.125, 30.258928, 30.625, 30.8125, 31.0625, 31, 31.0625, 31.3125, 31.5625, 31.875, 32.1875, 32.4375, 32.625, 33.017857, 33.482143, 33.741074, 34, 34.1875, 34.375, 34.625, 34.875, 34.9375, 35, 35.0625, 35.0625, 35.0625, 35.125, 35.1875, 35.25, 35.3125, 35.375, 35.354168, 35.222225, 35.125, -10, -10, -10, -10, -10, -10, -10, -10, -10, -10, -10, -10, -10, -10, -10, -10, -10, -10, -10, -10, -10, -10, -10, -10, -10, -10, -10, -10, -10, -10, -10, -10, -10, -10, -10, -10, -10, -10, -10, -10, -10, -10, -10, -10, -10, -10, -10, -10, -10, -10, -10, -10, -10, -10, -10, -10, -10, -10, -10, -10, -10, -10, -10, -10, -10, -10, -10, -10, -10, -10, -10, -10, -10, -10, -10, -10, -10, -10, -10, -10, -10, -10, -10, -10, -10, -10, -10, -10, -10, -10, -10, -10, -10, -10, -10, -10, -10, -10, -10, -10, -10, -10, -10, -10, -10, -10, 29.875, 30, 30.166666, 30.305555, 30.5, 30.5, 30.708334, 30.8125, 30.803572, 30.666666, 30.580357, 30.625, 30.625, 30.625, 30.6875, 30.6875, 30.8125, 30.875, 30.9375, 30.9375, 30.875, 30.946428, 31.137501, 31.604168, 32.265308, 32.419643, 32.607143, 32.6875, 32.9375, 33.1875, 33.482143, 33.6875, 33.75, 33.75, 33.875, 34.196426, 34.669643, 34.875, 35.0625, 35, 35, 34.75, 34.5, 34.125, 33.625, 33.339287, 32.875, 32.416668, 32.071426, 31.75, 31.5, 31.25, 31.0625, 30.75, 30.625, 30.5, 30.285713, 29.708332, 29.526787, 29.241072, 28.9375, 28.875, 28.325893, 27.34375, 26.870537, 26.53125, 27, 11.541667, 11.520833, 11.5625, 11.4375, 11.3125, 11.1875, 11, 11.0625, 11.0625, 11.0625, 11.0625, 11, 11.0625, 11.0625, 11.0625, 11.125, 11.125, 11.1875, 11.1875, 11.125, 11.0625, 11.0625, 11.125, 11.25, 11.25, 11.1875, 11.1875, 11.125, 11.25, 11.375, 11.3125, 11.339286, 11.348214, 11.1875, 11.142857, 11.0625, 11, 11, 11.0625, 11.1875, 11.3125, 11.375, 11.375, 11.375, 11.25, 11.1875, 11.125, 11.0625, 11.0625, 11.1875, 11.25, 11.25, 11.375, 11.25, 11.25, 11.25, 11.125, 11.125, 11.125, 11.125, 11.125, 11.125, 11.0625, 11, 11, 11.125, 11.1875, 11.25, 11.3125, 11.3125, 11.4375, 11.5625, 11.625, 11.553572, 11.25, 11.125, 11.0625, 11.0625, 11.1875, 11.1875, 11.125, 11.1875, 11.0625, 11.0625, 11.1875, 11.3125, 11.4375, 11.4375, 11.3125, 11.125, 11, 11, 11, 11.0625, 11.1875, 11.25, 11.3125, 11.25, 11.1875, 11.25, 11.25, 11.3125, 11.25, 11.125, 11.0625, 11, 11, 11, 11, 11, 11, 11, 11.0625, 11.1875, 11.160714, 11.089286, 11.0625, 11, 11.0625, 11.0625, 11.0625, 11.125, 11.25, 11.3125, 11.3125, 11.1875, 11.125, 11.25, 11.3125, 11.3125, 11.3125, 11.1875, 11.125, 11.1875, 11.3125, 11.5, 11.5625, 11.5625, 11.375, 11.125, 11.0625, 11.125, 11.25, 11.3125, 11.3125, 11.321428, 11.654761, 12.095834, -10, -10, -10, -10, -10, -10, -10, 22.166666, 24.902779, 26.463945, 26.816328, 27.346939, 27.392857, 27.653061, 28.0625, 28.5, 29, 29.321428, 29.779762, 30.107143, 30.125, 30.125, 30.258928
-10, -10, -10, -10, -10, -10, -10, -10, -10, -10, -10, -10, -10, -10, -10, -10, -10, -10, -10, -10, -10, -10, -10, -10, -10, -10, -10, -10, -10, -10, -10, -10, -10, -10, -10, -10, -10, -10, -10, -10, -10, -10, -10, -10, -10, -10, -10, -10, -10, -10, -10, -10, -10, -10, -10, -10, -10, -10, -10, -10, -10, -10, -10, -10, -10, -10, -10, -10, -10, -10, -10, -10, -10, -10, -10, -10, -10, -10, -10, 29.375, 29.583332, 29.833334, 30, 30.125, 30.229166, 30.375, 30.5, 30.625, 30.6875, 30.616072, 30.479166, 30.392857, 30.375, 30.375, 30.3125, 30.375, 30.4375, 30.5625, 30.625, 30.75, 30.8125, 30.875, 31.133928, 31.369644, 31.770832, 32.241074, 32.482143, 32.732143, 32.75, 33.0625, 33.375, 33.669643, 33.9375, 33.9375, 34, 34.125, 34.383926, 34.8125, 34.9375, 35.0625, 35, 35, 34.75, 34.5, 34.0625, 33.5625, 33.214287, 32.75, 32.291668, 31.946428, 31.625, 31.375, 31.1875, 30.9375, 30.75, 30.5625, 30.375, 30.178572, 29.729166, 29.571428, 29.285713, 28.875, 28.75, 28.245537, 27.59375, 27.138393, 26.84375, 27, 11.388889, 11.270833, 11.395833, 11.375, 11.3125, 11.25, 11.125, 11.0625, 11.0625, 11.0625, 11, 11, 11, 11, 11, 11, 11, 11, 11, 11, 11, 11, 11, 11.0625, 11.0625, 11.0625, 11.0625, 11.0625, 11.125, 11.1875, 11.1875, 11.125, 11.0625, 11, 11, 11, 11, 11, 10.9375, 11.026786, 11.232143, 11.232143, 11.25, 11.1875, 11.0625, 11.0625, 11.0625, 11, 11, 11.0625, 11.0625, 11, 11.0625, 11, 11.0625, 11.125, 11.0625, 11.0625, 11.0625, 11.125, 11.125, 11.125, 11.0625, 11, 11, 11.0625, 11.125, 11.1875, 11.25, 11.25, 11.3125, 11.375, 11.375, 11.303572, 11.0625, 11, 10.9375, 11, 11.0625, 11.0625, 11.0625, 11.0625, 11, 11, 11.125, 11.25, 11.3125, 11.375, 11.25, 11.125, 11.0625, 11, 11, 11, 11.0625, 11.0625, 11.125, 11.125, 11.125, 11.1875, 11.125, 11.125, 11.0625, 11, 11, 11, 10.9375, 10.964286, 11.035714, 11, 11.0625, 11, 11, 11.0625, 11.035714, 10.964286, 11, 10.9375, 11, 11, 11, 11.0625, 11.125, 11.125, 11.125, 11.0625, 11.0625, 11.1875, 11.25, 11.25, 11.1875, 11.125, 11.0625, 11.0625, 11.1875, 11.3125, 11.3125, 11.3125, 11.1875, 11, 11, 11.0625, 11.125, 11.1875, 11.3125, 11.496428, 11.789683, 12.377778, -10, -10, -10, -10, -10, -10, -10, 24.972221, 26.09524, 27.316666, 27.5625, 28, 28, 28.1875, 28.4375, 28.6875, 29.125, 29.446428, 29.895834, 30.107143, 30.125, 30.0625, 30.196428, 30.5, 30.6875, 30.9375, 30.9375, 31.1875, 31.4375, 31.6875, 32, 32.1875, 32.4375, 32.625, 33.017857, 33.482143, 33.741074, 34.0625, 34.1875, 34.25, 34.5, 34.6875, 34.8125, 35, 35, 35, 35.03125, 35.15625, 35.34375, 35.34375, 35.1875, 35.026787, 34.973213, 35, 35.538689, 36.099209, 36.349209, -10, -10, -10, -10, -10, -10, -10, -10, -10, -10, -10, -10, -10, -10, -10, -10, -10, -10, -10, -10, -10, -10, -10, -10, -10, -10, -10, -10, -10, -10, -10, -10, -10, -10, -10, -10, -10, -10, -10, -10, -10, -10, -10, -10, -10, -10, -10, -10, -10, -10, -10, -10, -10, -10, -10, -10, -10, -10, -10, -10, -10, -10, -10, -10, -10, -10, -10, -10, -10, -10, -10, -10, -10, -10, -10, -10, -10, -10, -10, -10, -10, -10, -10, -10, -10, -10, -10, -10, -10, -10, -10, -10, -10, -10, -10, -10, -10, -10, -10, -10, 29, 29.125, 29.416666, 29.638887, 29.875, 30, 30, 30.0625, 30.1875, 30.3125, 30.4375, 30.5, 30.428572, 30.166666, 30.017857, 30, 30, 30, 30.1875, 30.25, 30.375, 30.375, 30.4375, 30.5625, 30.833334, 31.133928, 31.557144, 31.958332, 32.428574, 32.553574, 32.6875, 32.75, 33.125, 33.5, 33.75, 34, 33.9375, 34, 34.125, 34.375, 34.6875, 34.875, 35, 35, 35, 34.741074, 34.375, 34, 33.4375, 33.089287, 32.580357, 32.25, 31.875, 31.5, 31.25, 31.125, 30.910713, 30.776787, 30.625, 30.375, 30.178572, 29.541666, 29.383928, 28.973213, 28.625, 28.4375, 28.03125, 27.84375, 27.46875, 27.21875, 27.0625, 26.875, 11.111111, 11.208333, 11.270833, 11.25, 11.25, 11.25, 11.125, 11.125, 11.125, 11, 11, 11, 11, 11, 11, 11, 10.9375, 10.9375, 10.9375, 10.9375, 11, 11, 11, 11, 11, 11, 11, 11, 11, 11, 11, 11, 11, 11, 11, 11, 11, 10.9375, 10.964286, 11.107143, 11.107143, 11.125, 11.0625, 11, 11, 11, 11, 11, 11, 10.875, 10.8125, 10.8125, 10.8125, 11, 11.0625, 11.0625, 11.0625, 11, 11, 11, 11, 11, 11, 11, 11, 11, 11, 11, 11, 11.0625, 11.125, 11.125, 11.125, 11.0625, 10.9375, 10.9375, 10.9375, 10.9375, 11, 11, 11, 11, 11, 11.0625, 11.125, 11.0625, 11.0625, 10.9375, 10.8125, 10.875, 10.875, 10.9375, 11, 11, 11, 11.0625, 11.0625, 11.0625, 11.0625, 11, 11, 11, 11, 11, 11, 10.875, 10.839286, 10.910714, 10.875, 11.0625, 11.125, 11.1875, 11.1875, 11.125, 11.0625, 11, 11, 11, 11, 11, 11, 11, 11, 11, 11, 11, 11.0625, 11.0625, 11.0625, 11.0625, 11, 11.0625, 11.0625, 11.125, 11.1875, 11.125, 11.125, 11.0625, 11, 11, 10.9375, 10.964286, 11.1125, 11.25, 11.578571, -10, -10, -10, -10, -10, 25.25, 25.5, 25.714287, 26.142857, 26.190475, 26.895834, 27.604166, 27.75, 28, 28, 28.25, 28.5, 28.75, 29.1875, 29.4375, 29.6875, 29.9375, 30, 30, 30.1875
-10, -10, -10, -10, -10, -10, -10, -10, -10, -10, -10, -10, -10, -10, -10, -10, -10, -10, -10, -10, -10, -10, -10, -10, -10, -10, -10, -10, -10, -10, -10, -10, -10, -10, -10, -10, -10, -10, -10, -10, -10, -10, -10, -10, -10, -10, -10, -10, -10, -10, -10, -10, -10, -10, -10, -10, -10, -10, -10, -10, -10, -10, -10, -10, -10, -10, -10, -10, -10, -10, -10, -10, -10, -10, -10, 29.125, 29, 29, 29.083334, 29.375, 29.604166, 29.75, 29.875, 29.875, 29.875, 30, 30.125, 30.1875, 30.25, 30.116072, 29.791666, 29.723213, 29.8125, 29.875, 30, 30.0625, 30.125, 30.1875, 30.125, 30.1875, 30.375, 30.854168, 31.071428, 31.414288, 31.541666, 32.035713, 32.178574, 32.5, 32.625, 33, 33.4375, 33.6875, 33.9375, 34, 34.0625, 34.1875, 34.4375, 34.6875, 34.875, 35, 35, 35, 34.803574, 34.428574, 33.916668, 33.446426, 33.125, 32.642857, 32.3125, 31.875, 31.5, 31.25, 31.125, 30.848213, 30.776787, 30.6875, 30.5, 30.428572, 29.791666, 29.571428, 28.982141, 28.517857, 28.3125, 27.9375, 27.875, 27.5625, 27.3125, 27.125, 26.916666, 26.833332, 11.277778, 11.270833, 11.25, 11.25, 11.25, 11.0625, 11.0625, 11.0625, 10.9375, 11, 11, 11, 11, 11, 11, 10.9375, 10.875, 10.875, 10.875, 10.9375, 11, 11, 11, 11, 11, 11, 11, 11, 11, 11, 10.9375, 10.9375, 10.9375, 10.9375, 11, 11, 10.9375, 10.964286, 11.107143, 11.107143, 11.125, 11, 10.875, 10.875, 10.875, 10.9375, 11, 11, 10.875, 10.8125, 10.8125, 10.8125, 11, 11.0625, 11.0625, 11.0625, 10.9375, 10.875, 10.875, 10.875, 10.9375, 11, 11, 11, 11, 11, 11, 11, 11, 11, 11, 11, 11, 10.9375, 10.9375, 10.9375, 10.875, 10.9375, 10.9375, 10.9375, 11, 11, 11, 10.9375, 10.875, 10.875, 10.8125, 10.75, 10.75, 10.6875, 10.75, 10.875, 10.9375, 11, 11, 10.9375, 10.9375, 10.9375, 10.875, 10.875, 10.875, 10.8125, 10.8125, 10.875, 10.75, 10.696428, 10.660714, 10.6875, 10.848214, 10.9375, 11.080357, 11.1875, 11.125, 11.125, 11, 11, 11, 11, 11, 11, 11, 10.9375, 10.9375, 10.875, 10.8125, 10.8125, 10.75, 10.75, 10.8125, 10.875, 11, 11.0625, 11.0625, 11.0625, 11, 11, 11, 11, 10.9375, 10.875, 10.880953, 11.150001, -10, -10, -10, -10, -10, -10, -10, 25.666666, 25.888887, 26.059525, 26.428572, 26.875, 27.208334, 27.5625, 27.8125, 28.0625, 28.125, 28.375, 28.5625, 28.8125, 29.1875, 29.375, 29.5625, 29.8125, 29.9375, 30.035713, 30.1875, 30.34375, 30.53125, 30.78125, 30.96875, 31.3125, 31.6875, 31.973213, 32.25, 32.5, 32.625, 32.9375, 33.25, 33.5, 33.75, 34.0625, 34.1875, 34.3125, 34.5625, 34.6875, 34.875, 35, 35, 35, 35.03125, 35.21875, 35.316963, 35.245537, 35.125, 34.901787, 34.973213, 35.0625, 35.663689, 36.011906, 36.25893, 36.333332, 36.071426, 36.166664, -10, -10, -10, -10, -10, -10, -10, -10, -10, -10, -10, -10, -10, -10, -10, -10, -10, -10, -10, -10, -10, -10, -10, -10, -10, -10, -10, -10, -10, -10, -10, -10, -10, -10, -10, -10, -10, -10, -10, -10, -10, -10, -10, -10, -10, -10, -10, -10, -10, -10, -10, -10, -10, -10, -10, -10, -10, -10, -10, -10, -10, -10, -10, -10, -10, -10, -10, -10, -10, -10, -10, -10, -10, -10, -10, -10, -10, -10, -10, -10, -10, -10, -10, -10, -10, -10, -10, -10, -10, -10, -10, -10, -10, 29.75, 29.452381, 29.166666, 29, 29, 29.0625, 29.25, 29.4375, 29.5625, 29.625, 29.625, 29.6875, 29.8125, 29.9375, 30, 30, 29.875, 29.839287, 29.86607, 29.9375, 30, 30, 30, 30, 30, 29.875, 30, 30.25, 30.791668, 30.9375, 31.178574, 31.482143, 31.785715, 32, 32.3125, 32.5, 32.875, 33.375, 33.625, 33.875, 34, 34.0625, 34.125, 34.375, 34.625, 34.8125, 35, 35, 35, 34.866074, 34.446426, 33.6875, 33.258926, 33, 32.6875, 32.4375, 32.0625, 31.625, 31.375, 31.1875, 30.848213, 30.714287, 30.5625, 30.3125, 30.1875, 29.75, 29.5625, 28.991072, 28.642857, 28.375, 28.0625, 28, 27.6875, 27.4375, 27.1875, 26.9375, 26.805555, 26.75, 11.277778, 11.1875, 11.1875, 11.25, 11, 11, 11, 10.8125, 10.875, 10.8125, 10.821428, 11, 11, 11.0625, 10.866072, 10.675, 10.803572, 10.803572, 10.9375, 11, 11, 11, 11, 11, 11, 11, 10.9375, 10.875, 10.892857, 10.8875, 10.830357, 10.9375, 10.875, 11, 11, 10.9375, 10.964286, 11.169643, 11.232143, 11.232143, 10.916667, 10.696428, 10.625, 10.625, 10.6875, 10.8125, 10.875, 10.75, 10.6875, 10.625, 10.625, 10.75, 10.875, 10.9375, 10.9375, 10.9375, 10.9375, 10.910714, 10.767857, 10.830357, 10.875, 10.875, 10.875, 10.875, 10.875, 10.9375, 11, 11, 11, 10.9375, 10.9375, 10.9375, 10.875, 10.875, 10.8125, 10.6875, 10.75, 10.8125, 10.875, 11, 11, 11, 10.875, 10.75, 10.75, 10.75, 10.75, 10.642857, 10.508928, 10.5625, 10.75, 10.875, 11, 10.9375, 10.8125, 10.8125, 10.8125, 10.75, 10.75, 10.6875, 10.5625, 10.5625, 10.6875, 10.625, 10.633928, 10.660714, 10.6875, 10.785714, 10.8125, 10.955357, 11.0625, 11, 11.0625, 10.9375, 10.9375, 11, 11, 11, 11, 10.9375, 10.8125, 10.8125, 10.75, 10.6875, 10.6875, 10.5625, 10.5625, 10.6875, 10.8125, 11, 11.0625, 11.125, 11.125, 11.125, 11.1875, 11.1875, 11.25, 11.125, 11.041667, 10.84127, -10, -10, -10, -10, -10, -10, -10, -10, 25.928572, 25.854166, 25.982143, 26.321428, 26.732143, 27.0625, 27.5, 27.75, 28, 28.125, 28.375, 28.5625, 28.8125, 29.1875, 29.3125, 29.4375, 29.705357, 30.020834, 30.214287, 30.3125
-10, -10, -10, -10, -10, -10, -10, -10, -10, -10, -10, -10, -10, -10, -10, -10, -10, -10, -10, -10, -10, -10, -10, -10, -10, -10, -10, -10, -10, -10, -10, -10, -10, -10, -10, -10, -10, -10, -10, -10, -10, -10, -10, -10, -10, -10, -10, -10, -10, -10, -10, -10, -10, -10, -10, -10, -10, -10, -10, -10, -10, -10, -10, -10, -10, -10, -10, -10, -10, -10, 29.25, 29.5, 29.571428, 29.5, 29.38492, 29.1875, 29.0625, 29, 28.9375, 29.080357, 29.395834, 29.482143, 29.5625, 29.5, 29.5, 29.625, 29.75, 29.875, 29.9375, 29.875, 29.714287, 29.67857, 29.6875, 29.6875, 29.75, 29.8125, 29.875, 29.9375, 29.875, 30, 30.25, 30.791668, 30.9375, 31.116074, 31.357143, 31.660715, 31.875, 32.25, 32.5, 32.8125, 33.3125, 33.5625, 33.8125, 34, 34.0625, 34.0625, 34.3125, 34.625, 34.848213, 35.0625, 35.0625, 35, 34.866074, 34.39286, 33.479168, 33.133926, 32.9375, 32.75, 32.5, 32.125, 31.625, 31.375, 31.1875, 30.848213, 30.651787, 30.5, 30.1875, 30.0625, 29.625, 29.375, 28.821428, 28.580357, 28.294643, 27.964287, 28, 27.71875, 27.53125, 27.28125, 26.90625, 26.729166, 26.583334, 26.166668, 11.083333, 11.0625, 11.125, 10.9375, 10.9375, 10.9375, 10.8125, 10.875, 10.75, 10.758928, 10.9375, 10.875, 10.9375, 10.678572, 10.425, 10.553572, 10.616072, 10.8125, 10.9375, 11, 11, 11, 11, 11, 10.9375, 10.8125, 10.6875, 10.642857, 10.6375, 10.642857, 10.8125, 10.8125, 11, 11, 11, 11, 11, 11, 10.919643, 10.604167, 10.446428, 10.375, 10.4375, 10.5625, 10.6875, 10.75, 10.625, 10.5625, 10.5625, 10.625, 10.6875, 10.75, 10.75, 10.75, 10.8125, 10.875, 10.910714, 10.705357, 10.767857, 10.8125, 10.75, 10.75, 10.6875, 10.6875, 10.8125, 10.9375, 11, 10.9375, 10.8125, 10.8125, 10.8125, 10.8125, 10.8125, 10.6875, 10.5625, 10.625, 10.6875, 10.75, 10.875, 10.875, 10.9375, 10.8125, 10.625, 10.5, 10.4375, 10.4375, 10.330357, 10.321428, 10.4375, 10.75, 10.9375, 11.0625, 10.9375, 10.6875, 10.625, 10.5, 10.4375, 10.4375, 10.375, 10.3125, 10.3125, 10.5, 10.5625, 10.607143, 10.5625, 10.5625, 10.598214, 10.6875, 10.830357, 11, 10.9375, 11, 10.9375, 10.9375, 11, 10.9375, 10.875, 10.8125, 10.6875, 10.625, 10.6875, 10.6875, 10.6875, 10.6875, 10.5625, 10.5, 10.5625, 10.6875, 10.875, 10.9375, 11, 10.9375, 10.9375, 11.0625, 11.1875, 11.375, 11.291667, 11.055556, -10, -10, -10, -10, -10, -10, -10, -10, 26, 26.125, 26.041666, 26.0625, 26.321428, 26.714287, 27, 27.446428, 27.8125, 28, 28.1875, 28.375, 28.5, 28.767857, 29.232143, 29.294643, 29.375, 29.580357, 29.958334, 30.321426, 30.5, 30.65625, 30.71875, 30.84375, 31.15625, 31.4375, 31.875, 32.285713, 32.5, 32.75, 32.9375, 33.125, 33.25, 33.5, 33.625, 33.875, 34.1875, 34.375, 34.625, 34.8125, 34.9375, 35, 35, 35, 35, 35.0625, 35.035713, 34.964287, 35.0625, 35.125, 35.3125, 35.5, 35.6875, 35.75, 35.830357, 36, 36.035713, 36.083332, 36.027775, 35.75, 35.541664, -10, -10, -10, -10, -10, -10, -10, -10, -10, -10, -10, -10, -10, -10, -10, -10, -10, -10, -10, -10, -10, -10, -10, -10, -10, -10, -10, -10, -10, -10, -10, -10, -10, -10, -10, -10, -10, -10, -10, -10, -10, -10, -10, -10, -10, -10, -10, -10, -10, -10, -10, -10, -10, -10, -10, -10, -10, -10, -10, -10, -10, -10, -10, -10, -10, -10, -10, -10, -10, -10, -10, -10, -10, -10, -10, -10, -10, -10, -10, -10, -10, -10, -10, -10, -10, 29.125, 29.125, 29.25, 29.333334, 29.380951, 29.375, 29.288691, 29.1875, 29.0625, 28.9375, 28.75, 28.848213, 29.208334, 29.232143, 29.4375, 29.3125, 29.3125, 29.5, 29.625, 29.8125, 29.875, 29.75, 29.589287, 29.55357, 29.5625, 29.5625, 29.625, 29.6875, 29.8125, 29.875, 29.875, 30.0625, 30.357143, 30.770834, 31, 31.116074, 31.419643, 31.723215, 31.9375, 32.25, 32.5, 32.75, 33.1875, 33.4375, 33.625, 33.8125, 33.883926, 34.145832, 34.428574, 34.8125, 34.973213, 35.125, 35.125, 35, 34.875, 34.51786, 33.541668, 33.196426, 32.9375, 32.75, 32.5, 32.1875, 31.6875, 31.375, 31.089287, 30.6875, 30.5, 30.375, 30.125, 30, 29.75, 29.375, 28.821428, 28.517857, 28.232143, 27.964287, 28, 27.71875, 27.53125, 27.21875, 26.84375, 26.625, 26.4375, 26.111113, 26, 11, 11, 10.875, 10.875, 10.875, 10.8125, 10.875, 10.6875, 10.696428, 10.875, 10.8125, 10.875, 10.616072, 10.3, 10.366072, 10.428572, 10.5625, 10.6875, 10.8125, 10.875, 10.875, 10.875, 10.875, 10.75, 10.625, 10.5, 10.392857, 10.3875, 10.392857, 10.5625, 10.625, 10.8125, 10.8125, 10.8125, 10.8125, 10.875, 10.9375, 10.857143, 10.479167, 10.321428, 10.25, 10.375, 10.5625, 10.625, 10.625, 10.5, 10.375, 10.375, 10.4375, 10.4375, 10.5, 10.5, 10.571428, 10.8125, 10.875, 10.973214, 10.642857, 10.705357, 10.75, 10.6875, 10.6875, 10.5625, 10.5, 10.5625, 10.6875, 10.8125, 10.75, 10.625, 10.6875, 10.625, 10.6875, 10.6875, 10.5, 10.5, 10.5625, 10.625, 10.6875, 10.6875, 10.625, 10.75, 10.625, 10.5, 10.4375, 10.4375, 10.5625, 10.392857, 10.321428, 10.375, 10.625, 10.875, 11, 10.8125, 10.5, 10.375, 10.1875, 10.125, 10.125, 10.0625, 10.125, 10.1875, 10.4375, 10.625, 10.669643, 10.5625, 10.5625, 10.473214, 10.4375, 10.517857, 10.6875, 10.6875, 10.875, 10.9375, 10.9375, 10.928572, 10.6875, 10.625, 10.5, 10.4375, 10.375, 10.5, 10.5625, 10.625, 10.625, 10.4375, 10.3125, 10.3125, 10.4375, 10.625, 10.75, 10.8125, 10.875, 10.9375, 11.0625, 11.25, 11.375, 11.388889, -10, -10, -10, -10, -10, -10, -10, 26, 26, 26, 26.125, 25.979166, 25.96875, 26.15625, 26.370537, 26.71875, 27.133928, 27.625, 27.875, 28.125, 28.375, 28.53125, 28.861607, 29.388393, 29.450893, 29.5, 29.642857, 30.020834, 30.446426, 30.625
-10, -10, -10, -10, -10, -10, -10, -10, -10, -10, -10, -10, -10, -10, -10, -10, -10, -10, -10, -10, -10, -10, -10, -10, -10, -10, -10, -10, -10, -10, -10, -10, -10, -10, -10, -10, -10, -10, -10, -10, -10, -10, -10, -10, -10, -10, -10, -10, -10, -10, -10, -10, -10, -10, -10, -10, -10, -10, -10, -10, -10, -10, -10, -10, -10, -10, 28.375, 28.809525, 29.194445, 29.321428, 29.4375, 29.4375, 29.410713, 29.3125, 29.205357, 29.125, 29.0625, 28.875, 28.625, 28.629463, 28.927084, 29.013393, 29.28125, 29.1875, 29.1875, 29.375, 29.4375, 29.6875, 29.75, 29.625, 29.526787, 29.410713, 29.3125, 29.375, 29.4375, 29.625, 29.8125, 29.875, 29.9375, 30.1875, 30.482143, 30.75, 31.0625, 31.214287, 31.544643, 31.803572, 32, 32.1875, 32.375, 32.625, 33.0625, 33.348213, 33.5, 33.6875, 33.821426, 34.252975, 34.553574, 35, 35.160713, 35.25, 35.25, 35.0625, 34.875, 34.589287, 33.803574, 33.291668, 33.008926, 32.75, 32.5, 32.1875, 31.479166, 31.133928, 30.839287, 30.5, 30.25, 30.125, 29.875, 29.625, 29.4375, 29.0625, 28.625, 28.4375, 28.169643, 27.964287, 27.9375, 27.71875, 27.59375, 27.263393, 26.760416, 26.446428, 26.1875, 26.083334, 25.916666, 11, 10.875, 10.770833, 10.8125, 10.8125, 10.8125, 10.8125, 10.5625, 10.508928, 10.625, 10.5625, 10.625, 10.366072, 10.175, 10.241072, 10.303572, 10.4375, 10.5, 10.625, 10.75, 10.75, 10.6875, 10.75, 10.5625, 10.4375, 10.375, 10.205357, 10.2625, 10.267857, 10.375, 10.5, 10.625, 10.625, 10.625, 10.5625, 10.6875, 10.75, 10.669643, 10.354167, 10.258928, 10.25, 10.4375, 10.5625, 10.5, 10.4375, 10.25, 10.125, 10.125, 10.1875, 10.1875, 10.1875, 10.1875, 10.321428, 10.732143, 10.875, 10.973214, 10.580357, 10.517857, 10.5625, 10.5, 10.5, 10.4375, 10.3125, 10.375, 10.5, 10.5625, 10.5625, 10.5, 10.625, 10.625, 10.6875, 10.625, 10.375, 10.4375, 10.5, 10.625, 10.6875, 10.5625, 10.4375, 10.5625, 10.5625, 10.5, 10.5, 10.5, 10.5625, 10.392857, 10.321428, 10.375, 10.625, 10.875, 10.9375, 10.75, 10.4375, 10.25, 10.0625, 10, 10, 9.9375, 10.125, 10.25, 10.5, 10.6875, 10.6875, 10.625, 10.5625, 10.5625, 10.5625, 10.625, 10.6875, 10.625, 10.6875, 10.75, 10.75, 10.741072, 10.5, 10.4375, 10.25, 10.1875, 10.1875, 10.3125, 10.4375, 10.5625, 10.5625, 10.4375, 10.3125, 10.25, 10.3125, 10.5, 10.625, 10.6875, 10.8125, 10.875, 11.0625, 11.333333, 11.5, -10, -10, -10, -10, -10, -10, -10, -10, 25.888887, 25.916666, 26, 26.0625, 25.875, 25.90625, 26.09375, 26.245537, 26.59375, 26.977678, 27.375, 27.6875, 28, 28.28125, 28.59375, 28.986607, 29.513393, 29.638393, 29.6875, 29.767857, 30.145834, 30.535713, 30.75, 30.9375, 30.9375, 30.9375, 31.1875, 31.4375, 31.75, 32.25, 32.5625, 32.8125, 33.125, 33.125, 33.125, 33.3125, 33.375, 33.625, 33.9375, 34.0625, 34.375, 34.625, 34.8125, 35, 35, 35, 34.875, 34.901787, 34.982143, 34.982143, 35.125, 35.25, 35.4375, 35.6875, 35.8125, 35.8125, 35.8125, 35.6875, 35.625, 35.5625, 35.5625, 35.625, 35.645832, 35.888889, 36, -10, -10, -10, -10, -10, -10, -10, -10, -10, -10, -10, -10, -10, -10, -10, -10, -10, -10, -10, -10, -10, -10, -10, -10, -10, -10, -10, -10, -10, -10, -10, -10, -10, -10, -10, -10, -10, -10, -10, -10, -10, -10, -10, -10, -10, -10, -10, -10, -10, -10, -10, -10, -10, -10, -10, -10, -10, -10, -10, -10, -10, -10, -10, -10, -10, -10, -10, -10, -10, -10, -10, -10, -10, -10, -10, -10, -10, -10, 28.15, 28.333332, 28.017857, 28.440475, 28.70635, 29.145834, 29.366072, 29.5, 29.4375, 29.375, 29.3125, 29.3125, 29.25, 29.1875, 28.9375, 28.5625, 28.504463, 28.739584, 28.763393, 29.102678, 29.1875, 29.125, 29.3125, 29.25, 29.4375, 29.5, 29.4375, 29.3125, 29.125, 29.125, 29.1875, 29.375, 29.625, 29.8125, 29.875, 29.9375, 30.125, 30.419643, 30.625, 31.017857, 31.357143, 31.616072, 31.875, 32, 32.125, 32.3125, 32.5625, 32.9375, 33.285713, 33.375, 33.580357, 33.928574, 34.431549, 34.741074, 35.1875, 35.348213, 35.375, 35.375, 35.125, 34.803574, 34.363094, 33.791664, 33.291668, 33.071426, 32.8125, 32.5625, 32.25, 31.541666, 31.133928, 30.839287, 30.5, 30.25, 30.0625, 29.8125, 29.5625, 29.375, 29, 28.5625, 28.375, 28.107143, 27.964287, 27.875, 27.65625, 27.59375, 27.200893, 26.46875, 26.116072, 25.8125, 25.75, 25.6875, 25.333332, 10.833333, 10.583333, 10.708333, 10.6875, 10.75, 10.75, 10.5, 10.4375, 10.375, 10.3125, 10.3125, 10.25, 10.25, 10.1875, 10.25, 10.25, 10.25, 10.375, 10.5, 10.5, 10.4375, 10.5, 10.3125, 10.25, 10.3125, 10.1875, 10.1875, 10.25, 10.1875, 10.3125, 10.375, 10.375, 10.375, 10.3125, 10.375, 10.375, 10.3125, 10.1875, 10.1875, 10.3125, 10.5625, 10.6875, 10.5625, 10.375, 10.125, 10, 10.125, 10.1875, 10.1875, 10.125, 10, 10.133928, 10.544643, 10.625, 10.75, 10.5, 10.375, 10.4375, 10.375, 10.4375, 10.4375, 10.3125, 10.3125, 10.3125, 10.3125, 10.3125, 10.375, 10.5, 10.5, 10.5625, 10.4375, 10.25, 10.375, 10.5, 10.625, 10.625, 10.4375, 10.25, 10.3125, 10.4375, 10.5, 10.5625, 10.5625, 10.5, 10.375, 10.3125, 10.375, 10.5625, 10.75, 10.75, 10.625, 10.4375, 10.25, 10.0625, 9.9375, 9.875, 9.875, 10.1875, 10.375, 10.5625, 10.6875, 10.625, 10.5, 10.5, 10.625, 10.625, 10.625, 10.625, 10.5, 10.5, 10.5625, 10.5625, 10.491072, 10.25, 10.1875, 10, 10, 10.0625, 10.1875, 10.3125, 10.4375, 10.4375, 10.375, 10.25, 10.125, 10.125, 10.3125, 10.4375, 10.4375, 10.5625, 10.5625, 10.729167, 11.111111, -10, -10, -10, -10, -10, -10, -10, -10, 25.416668, 25.791666, 25.875, 26, 26.0625, 25.9375, 26.03125, 26.21875, 26.325893, 26.65625, 26.977678, 27.3125, 27.5625, 27.875, 28.15625, 28.575893, 29.017857, 29.544643, 29.732143, 29.84375, 29.875, 30.0625, 30.419643, 30.625
-10, -10, -10, -10, -10, -10, -10, -10, -10, -10, -10, -10, -10, -10, -10, -10, -10, -10, -10, -10, -10, -10, -10, -10, -10, -10, -10, -10, -10, -10, -10, -10, -10, -10, -10, -10, -10, -10, -10, -10, -10, -10, -10, -10, -10, -10, -10, -10, -10, -10, -10, -10, -10, -10, -10, -10, -10, -10, -10, -10, -10, -10, 28.5, 28.35, 28.388887, 28.178572, 28.517857, 28.717262, 29.145834, 29.366072, 29.5, 29.375, 29.25, 29.1875, 29.125, 29.09375, 29.03125, 28.78125, 28.46875, 28.361607, 28.40625, 28.40625, 28.696428, 28.875, 28.9375, 29.125, 29.09375, 29.25, 29.25, 29.1875, 29.125, 29, 29.125, 29.3125, 29.5625, 29.8125, 29.9375, 29.9375, 29.9375, 30.125, 30.419643, 30.6875, 31.080357, 31.482143, 31.741072, 31.9375, 32.0625, 32.0625, 32.25, 32.5, 32.84375, 33.254463, 33.28125, 33.50893, 33.901787, 34.369049, 34.758926, 35.270832, 35.491074, 35.5, 35.4375, 35.1875, 34.794643, 34.208336, 33.916664, 33.441666, 33.133926, 32.875, 32.5625, 32.3125, 31.666666, 31.258928, 30.964287, 30.6875, 30.4375, 30.25, 30.0625, 29.75, 29.455357, 29, 28.5, 28.25, 28, 28, 27.8125, 27.625, 27.5, 27.044643, 26.3125, 25.991072, 25.75, 25.571428, 25.508928, 25.222221, 25, 10.444444, 10.458333, 10.4375, 10.5, 10.5, 10.3125, 10.25, 10.1875, 10.1875, 10.1875, 10.1875, 10.25, 10.1875, 10.1875, 10.125, 10.0625, 10.125, 10.25, 10.25, 10.1875, 10.25, 10.125, 10.125, 10.25, 10.1875, 10.1875, 10.1875, 10.0625, 10.125, 10.125, 10.125, 10.125, 10.0625, 10.1875, 10.25, 10.25, 10.1875, 10.1875, 10.3125, 10.5, 10.5625, 10.4375, 10.25, 10.0625, 10, 10.0625, 10.0625, 10.0625, 10, 9.9375, 10.071428, 10.419643, 10.4375, 10.5, 10.3125, 10.1875, 10.25, 10.25, 10.3125, 10.375, 10.25, 10.1875, 10.125, 10.0625, 10.125, 10.25, 10.375, 10.375, 10.375, 10.25, 10.125, 10.25, 10.375, 10.5, 10.5, 10.3125, 10.125, 10.125, 10.25, 10.4375, 10.625, 10.75, 10.6875, 10.5, 10.3125, 10.25, 10.3125, 10.4375, 10.4375, 10.375, 10.3125, 10.1875, 10.125, 10, 9.9375, 10, 10.3125, 10.5, 10.625, 10.625, 10.5, 10.4375, 10.5, 10.625, 10.5625, 10.5, 10.4375, 10.3125, 10.3125, 10.3125, 10.3125, 10.241072, 10.0625, 10.0625, 9.9375, 10, 10, 10.0625, 10.125, 10.1875, 10.1875, 10.125, 10.0625, 10, 10, 10.1875, 10.3125, 10.3125, 10.5625, 10.583333, 10.805556, -10, -10, -10, -10, -10, -10, -10, -10, 25, 25.388891, 25.666666, 25.8125, 26, 26.03125, 25.90625, 26, 26.1875, 26.325893, 26.65625, 26.90625, 27.0625, 27.3125, 27.625, 28.03125, 28.620537, 29.125, 29.5625, 29.8125, 29.90625, 29.9375, 30.0625, 30.25, 30.4375, 30.6875, 30.8125, 30.875, 31.0625, 31.1875, 31.4375, 31.8125, 32.1875, 32.5625, 32.8125, 32.875, 32.9375, 33.0625, 33.232143, 33.5, 33.75, 33.875, 34.25, 34.5, 34.75, 35, 35, 35.0625, 34.9375, 35.026787, 35.107143, 34.982143, 35, 35.017857, 35.333332, 35.616074, 35.8125, 35.6875, 35.5625, 35.3125, 35.125, 35.0625, 35.1875, 35.375, 35.5625, 35.75, 35.6875, 35.666668, -10, -10, -10, -10, -10, -10, -10, -10, -10, -10, -10, -10, -10, -10, -10, -10, -10, -10, -10, -10, -10, -10, -10, -10, -10, -10, -10, -10, -10, -10, -10, -10, -10, -10, -10, -10, -10, -10, -10, -10, -10, -10, -10, -10, -10, -10, -10, -10, -10, -10, -10, -10, -10, -10, -10, -10, -10, -10, -10, -10, -10, -10, -10, -10, -10, -10, -10, -10, -10, -10, -10, -10, -10, -10, 28.375, 28.458332, 28.333334, 28.191071, 28.041666, 27.946428, 28.196428, 28.491072, 29.020834, 29.303572, 29.375, 29.25, 29.0625, 28.9375, 28.875, 28.84375, 28.78125, 28.59375, 28.40625, 28.34375, 28.28125, 28.28125, 28.321428, 28.5, 28.625, 28.785713, 28.84375, 29, 29, 29.0625, 29.0625, 29, 29.1875, 29.4375, 29.6875, 29.9375, 30, 30, 30, 30.1875, 30.4375, 30.6875, 31.080357, 31.482143, 31.741072, 31.9375, 32, 31.9375, 32.089287, 32.419643, 32.84375, 33.316963, 33.34375, 33.63393, 34.017857, 34.223213, 34.580357, 35.029762, 35.428574, 35.4375, 35.4375, 35.1875, 34.857143, 34.333336, 34.166664, 33.816666, 33.5, 33.104168, 32.758926, 32.4375, 31.854166, 31.508928, 31.25, 31, 30.6875, 30.330357, 30.1875, 29.848213, 29.473213, 29.071428, 28.5625, 28.3125, 28.0625, 28, 27.75, 27.5625, 27.4375, 26.982143, 26.375, 26.053572, 25.75, 25.535713, 25.383928, 25.229166, 25.083334, 25, 10.277778, 10.1875, 10.25, 10.25, 10.125, 10.0625, 10, 10, 10, 10.0625, 10.1875, 10.1875, 10.1875, 10.125, 10.0625, 10.0625, 10.125, 10.125, 10.0625, 10.125, 10.0625, 10.0625, 10.1875, 10.1875, 10.1875, 10.1875, 10.0625, 10.0625, 10.0625, 10.0625, 10.0625, 10, 10.0625, 10.0625, 10.0625, 10.0625, 10.0625, 10.1875, 10.3125, 10.3125, 10.25, 10.125, 10, 10, 10.0625, 10.0625, 10.0625, 10, 9.9375, 10, 10.169643, 10.1875, 10.1875, 10.125, 9.9375, 10, 10, 10.0625, 10.25, 10.1875, 10.1875, 10.125, 10, 10.0625, 10.1875, 10.25, 10.3125, 10.3125, 10.1875, 10.1875, 10.3125, 10.375, 10.5, 10.4375, 10.25, 10.125, 10.0625, 10.1875, 10.4375, 10.625, 10.75, 10.625, 10.375, 10.1875, 10.125, 10.1875, 10.25, 10.25, 10.25, 10.25, 10.1875, 10.1875, 10.0625, 10, 10.0625, 10.25, 10.375, 10.4375, 10.375, 10.3125, 10.3125, 10.375, 10.5, 10.4375, 10.375, 10.3125, 10.1875, 10.1875, 10.125, 10.125, 10.125, 10.0625, 10.0625, 10, 10, 10, 10, 10, 10, 10, 10, 10, 10, 10, 10.125, 10.1875, 10.25, 10.458333, 10.527778, -10, -10, -10, -10, -10, -10, -10, -10, -10, 25.083334, 25.416668, 25.604166, 25.8125, 26, 26.03125, 25.96875, 26.09375, 26.34375, 26.544643, 26.8125, 27.09375, 27.1875, 27.4375, 27.8125, 28.15625, 28.714287, 29.09375, 29.46875, 29.71875, 29.78125, 29.8125, 29.875, 30.0625, 30.357143
-10, -10, -10, -10, -10, -10, -10, -10, -10, -10, -10, -10, -10, -10, -10, -10, -10, -10, -10, -10, -10, -10, -10, -10, -10, -10, -10, -10, -10, -10, -10, -10, -10, -10, -10, -10, -10, -10, -10, -10, -10, -10, -10, -10, -10, -10, -10, -10, -10, -10, -10, -10, -10, -10, -10, -10, -10, 27.375, 27.875, 28.285713, 28.416666, 28.472221, 28.3125, 28.316071, 28, 28.008928, 28.321428, 28.513393, 28.8125, 29, 28.9375, 28.8125, 28.59375, 28.321428, 28.321428, 28.53125, 28.53125, 28.40625, 28.28125, 28.25, 28.1875, 28.125, 28.102678, 28.25, 28.375, 28.473213, 28.59375, 28.75, 28.8125, 29, 29, 29.0625, 29.3125, 29.5625, 29.8125, 30, 30, 30, 30, 30.1875, 30.4375, 30.6875, 31.080357, 31.482143, 31.741072, 31.9375, 32.0625, 32.0625, 32.214287, 32.57143, 33.013393, 33.459824, 33.53125, 33.75893, 34.080357, 34.116074, 34.392857, 34.779762, 35.241074, 35.348213, 35.375, 35.1875, 34.857143, 34.333336, 34.175594, 34.171429, 33.741074, 33.354168, 33.008926, 32.6875, 32.25, 31.901787, 31.625, 31.3125, 31.0625, 30.580357, 30.375, 29.973213, 29.473213, 29.071428, 28.5625, 28.3125, 28.0625, 28, 27.75, 27.5, 27.25, 26.75, 26.333334, 26.044643, 25.75, 25.42857, 25.258928, 25.0625, 25, 24.833334, 24.625, 10.083333, 10.0625, 10.0625, 10, 10, 10, 10, 10, 10.0625, 10.125, 10.125, 10.125, 10.0625, 10, 10, 10, 10, 10, 10, 10, 10, 10.0625, 10.125, 10.125, 10.125, 10.0625, 10, 10, 10, 10, 9.9375, 9.875, 9.875, 9.875, 9.875, 9.9375, 10, 10.0625, 10.125, 10.125, 10.0625, 10, 10, 10.0625, 10.0625, 10.0625, 10.0625, 10, 10, 10.0625, 10.0625, 10.0625, 10.0625, 9.875, 9.875, 9.875, 9.9375, 10.125, 10.125, 10.125, 10.0625, 10, 10, 10.0625, 10.0625, 10.0625, 10.0625, 10, 10.0625, 10.1875, 10.25, 10.3125, 10.25, 10.125, 10.0625, 10, 10.0625, 10.25, 10.375, 10.5, 10.4375, 10.1875, 10, 9.9375, 9.9375, 10, 10.0625, 10.0625, 10.125, 10.125, 10.125, 10.0625, 10, 10.0625, 10.1875, 10.25, 10.25, 10.1875, 10.1875, 10.25, 10.3125, 10.375, 10.25, 10.125, 10.0625, 10, 10.0625, 10.0625, 10.0625, 10.0625, 10, 10, 10, 10, 10, 10, 10, 10, 10, 10, 10, 10, 10, 10.0625, 10.125, 10.208333, 10.361111, -10, -10, -10, -10, -10, -10, -10, -10, 25, 25, 25.125, 25.416668, 25.625, 25.875, 26, 25.96875, 25.96875, 26.03125, 26.28125, 26.669643, 26.982143, 27.3125, 27.4375, 27.625, 27.9375, 28.25, 28.714287, 28.96875, 29.28125, 29.46875, 29.53125, 29.625, 29.6875, 29.875, 30.107143, 30.339287, 30.669643, 30.803572, 31, 31.09375, 31.34375, 31.59375, 31.90625, 32.3125, 32.5625, 32.8125, 33.0625, 33.1875, 33.419643, 33.625, 33.8125, 34, 34.3125, 34.5625, 34.8125, 35, 35, 35.125, 35.035713, 35.026787, 35.0625, 34.875, 34.9375, 35.017857, 35.333332, 35.491074, 35.6875, 35.5, 35.3125, 35.25, 35.1875, 35.3125, 35.375, 35.375, 35.3125, 35.1875, 35.104168, -10, -10, -10, -10, -10, -10, -10, -10, -10, -10, -10, -10, -10, -10, -10, -10, -10, -10, -10, -10, -10, -10, -10, -10, -10, -10, -10, -10, -10, -10, -10, -10, -10, -10, -10, -10, -10, -10, -10, -10, -10, -10, -10, -10, -10, -10, -10, -10, -10, -10, -10, -10, -10, -10, -10, -10, -10, -10, -10, -10, -10, -10, -10, -10, -10, -10, -10, -10, -10, -10, 27.375, 27.5, 27.583334, 27.916666, 28.273809, 28.4375, 28.479166, 28.3125, 28.178572, 27.875, 27.9375, 28.178572, 28.325893, 28.4375, 28.5, 28.375, 28.25, 28.09375, 28.03125, 28.03125, 28.09375, 28.15625, 28.09375, 28.09375, 28.0625, 28.0625, 28.0625, 27.96875, 28, 28.125, 28.160713, 28.40625, 28.625, 28.75, 28.9375, 28.875, 28.955357, 29.333334, 29.616072, 29.875, 30, 30, 30, 30, 30.25, 30.5, 30.75, 31.0625, 31.267857, 31.645834, 31.866072, 32.125, 32.1875, 32.276787, 32.57143, 32.96875, 33.480652, 33.647324, 33.866074, 33.973213, 33.9375, 34.142857, 34.529762, 34.991074, 35.160713, 35.25, 35.125, 34.928574, 34.604168, 34.479168, 34.337502, 33.928574, 33.479168, 33.133926, 32.75, 32.3125, 31.991074, 31.6875, 31.4375, 31.3125, 30.892857, 30.6875, 30.056549, 29.482143, 29.071428, 28.75, 28.5625, 28.3125, 28.142857, 27.8125, 27.375, 27.0625, 26.5625, 26.4375, 26.1875, 25.9375, 25.55357, 25.321428, 25.0625, 24.9375, 24.75, 24.5, 24, 10, 9.875, 9.916667, 9.9375, 9.9375, 10, 10, 10, 10, 10, 10, 10, 10, 10, 10, 10, 10, 10, 10, 9.9375, 9.9375, 9.875, 9.8125, 9.8125, 9.8125, 9.875, 9.9375, 10, 10, 9.9375, 9.8125, 9.75, 9.75, 9.6875, 9.8125, 9.875, 9.875, 10, 9.9375, 9.9375, 9.9375, 9.9375, 10, 10, 10, 10, 10, 10, 10, 10, 10, 10, 9.875, 9.875, 9.875, 9.875, 10, 10, 10, 10, 10, 10, 10, 10, 10, 10, 10, 10.0625, 10.125, 10.125, 10.125, 10.0625, 10, 10, 10, 10, 10.125, 10.1875, 10.25, 10.25, 10, 9.875, 9.8125, 9.8125, 9.9375, 10, 10, 10, 10, 10, 10, 10, 10.0625, 10.125, 10.125, 10.125, 10.0625, 10.0625, 10.125, 10.125, 10.125, 10.0625, 10, 10, 10, 10.0625, 10.0625, 10.0625, 10.0625, 10, 10, 10, 10, 10, 10, 9.9375, 9.9375, 9.9375, 9.9375, 10, 10, 10, 10, 10.083333, 10.194444, -10, -10, -10, -10, -10, -10, -10, -10, 24.625, 24.833334, 24.916666, 25.1875, 25.458334, 25.6875, 25.9375, 26, 25.96875, 25.96875, 26.03125, 26.28125, 26.669643, 27.044643, 27.375, 27.5625, 27.8125, 28.125, 28.4375, 28.794643, 29, 29.1875, 29.3125, 29.3125, 29.4375, 29.5625, 29.8125, 30.169643
-10, -10, -10, -10, -10, -10, -10, -10, -10, -10, -10, -10, -10, -10, -10, -10, -10, -10, -10, -10, -10, -10, -10, -10, -10, -10, -10, -10, -10, -10, -10, -10, -10, -10, -10, -10, -10, -10, -10, -10, -10, -10, -10, -10, -10, -10, -10, -10, -10, -10, -10, -10, -10, 28.125, 28.333332, 27.773809, 27.533333, 27.6875, 27.866072, 28.205357, 28.25, 28.25, 28.125, 27.928572, 27.75, 27.8125, 27.991072, 28.138393, 28.1875, 28.25, 28.1875, 28.125, 28.03125, 27.96875, 27.90625, 27.9375, 28, 28, 28, 27.9375, 27.9375, 27.9375, 27.875, 27.9375, 27.9375, 28.035713, 28.458334, 28.6875, 28.875, 28.875, 28.8125, 28.955357, 29.449406, 29.776785, 30, 30.0625, 30, 30, 30, 30.25, 30.5625, 30.785713, 31, 31.189732, 31.489584, 31.772322, 32.09375, 32.171875, 32.214287, 32.44643, 32.82143, 33.470238, 33.660713, 33.875, 33.875, 33.9375, 34.333332, 34.553574, 34.9375, 35.035713, 35.125, 35.0625, 34.9375, 34.8125, 34.625, 34.375, 34.053574, 33.541668, 33.258926, 32.875, 32.428574, 31.907738, 31.5, 31.25, 31.1875, 30.830357, 30.678572, 29.910713, 29.410715, 29.071428, 28.875, 28.75, 28.5, 28.205357, 27.767857, 27.3125, 27, 26.5625, 26.5, 26.21875, 25.84375, 25.575893, 25.28125, 25, 24.8125, 24.5625, 24.375, 24, 24, 9.75, 9.833334, 9.875, 9.875, 10, 10, 10, 10, 10, 9.9375, 9.875, 9.875, 9.875, 9.9375, 10, 10, 10, 10, 9.875, 9.75, 9.625, 9.6696434, 9.6696434, 9.6875, 9.75, 9.8125, 9.9375, 10, 9.9375, 9.8125, 9.75, 9.75, 9.6875, 9.8125, 9.875, 9.875, 10, 9.9375, 9.9375, 9.9375, 9.9375, 10, 10, 10, 10, 10, 10, 10, 9.9375, 9.875, 9.8125, 9.6875, 9.75, 9.8125, 9.875, 10, 10, 10, 10, 10, 10, 10, 10, 10, 10, 10, 10.0625, 10.125, 10.125, 10.125, 10.0625, 10, 10, 10, 10, 10, 9.9375, 9.875, 9.8125, 9.625, 9.5625, 9.625, 9.6875, 9.875, 10, 10, 10, 10, 10, 10, 10, 10, 10, 10, 10, 10, 10, 10, 10, 10, 10, 10, 10, 10, 10.0625, 10, 10, 10, 9.9375, 10, 10, 10, 10, 9.9375, 9.9017859, 10.044643, 10.044643, 10.0625, 10.0625, 10, 10, 10, -10, -10, -10, -10, -10, -10, -10, -10, 24, 24.0625, 24.5, 24.75, 24.90625, 25.25, 25.53125, 25.78125, 26, 26, 26, 26.125, 26.25, 26.5, 26.8125, 27.107143, 27.4375, 27.6875, 28, 28.3125, 28.5, 28.6875, 28.75, 28.875, 29, 29.0625, 29.3125, 29.5, 29.875, 30.294643, 30.526787, 30.857143, 30.928572, 31, 31.196428, 31.645832, 31.857143, 32.0625, 32.3125, 32.5, 32.875, 33.25, 33.4375, 33.6875, 33.9375, 34.066963, 34.15625, 34.522324, 34.647324, 34.875, 35, 35, 35.125, 35.035713, 34.964287, 35, 34.9375, 35.125, 35.3125, 35.5, 35.5625, 35.6875, 35.491074, 35.041668, 34.982143, 35, 35.1875, 35.3125, 35.25, 35.125, 34.9375, 34.854168, 34.625, 34.5, 34.375, 34.333336, -10, -10, -10, -10, -10, -10, -10, -10, -10, -10, -10, -10, -10, -10, -10, -10, -10, -10, -10, -10, -10, -10, -10, -10, -10, -10, -10, -10, -10, -10, -10, -10, -10, -10, -10, -10, -10, -10, -10, -10, -10, -10, -10, -10, -10, -10, -10, -10, -10, -10, -10, -10, -10, -10, -10, -10, -10, -10, -10, -10, -10, 28, 28.333334, 28.375, 28.166666, 28.222221, 27.705357, 27.525, 27.6875, 27.803572, 28.169643, 28.125, 28.125, 28.0625, 27.9375, 28, 27.9375, 27.9375, 27.84375, 27.8125, 27.875, 27.875, 27.875, 27.84375, 27.84375, 27.84375, 27.9375, 28, 28, 27.9375, 27.8125, 27.75, 27.6875, 27.75, 27.875, 27.875, 28, 28.395834, 28.5625, 28.75, 28.6875, 28.5625, 28.705357, 29.199406, 29.589285, 29.919643, 30, 30, 30, 30, 30.25, 30.625, 30.883928, 31, 31.158482, 31.364584, 31.647322, 32.03125, 32.203125, 32.25, 32.401787, 32.75893, 33.452377, 33.723213, 33.875, 33.875, 33.9375, 34.333332, 34.607143, 34.875, 35.035713, 35.0625, 35.0625, 35, 34.848213, 34.517857, 34.125, 33.75, 33.4375, 33.1875, 32.9375, 32.491074, 31.970238, 31.5, 31.1875, 31.1875, 30.875, 30.678572, 29.875, 29.392857, 29.0625, 28.9375, 28.875, 28.625, 28.267857, 27.723213, 27.25, 27, 26.660713, 26.526787, 26.28125, 25.84375, 25.504463, 25.21875, 24.90625, 24.6875, 24.4375, 24.1875, 24.03125, 24, 9.666667, 9.708334, 9.791667, 9.8125, 10, 10, 10, 10, 10, 9.875, 9.75, 9.75, 9.75, 9.875, 10, 10, 10, 10, 9.8125, 9.6875, 9.5625, 9.6071434, 9.6071434, 9.5625, 9.625, 9.6875, 9.875, 10, 9.9375, 9.8125, 9.75, 9.75, 9.6875, 9.8125, 9.875, 9.875, 10, 9.9375, 9.9375, 9.9375, 9.9375, 10, 10, 10, 10, 10, 10, 10, 9.9375, 9.875, 9.8125, 9.75, 9.8125, 9.875, 9.9375, 10, 10, 10, 10, 10, 9.9375, 9.875, 9.875, 9.875, 9.9375, 10, 10, 10, 10, 10, 10, 10, 10, 10, 10, 9.875, 9.75, 9.625, 9.5, 9.375, 9.375, 9.5, 9.625, 9.8125, 9.9375, 9.9375, 9.9375, 10, 10, 10, 10, 10, 10, 10, 10, 10, 10, 10, 10, 10, 10, 10, 10, 10, 10, 9.875, 9.875, 9.875, 9.875, 10, 10, 10, 10, 9.875, 9.7767859, 9.8571434, 9.7946434, 9.875, 10, 10.107143, 10.166667, -10, -10, -10, -10, -10, -10, -10, -10, 24, 24, 24.125, 24.5, 24.6875, 24.90625, 25.25, 25.53125, 25.78125, 26, 26, 26.0625, 26.25, 26.375, 26.625, 26.875, 27.169643, 27.5, 27.75, 28.0625, 28.25, 28.375, 28.5, 28.5625, 28.6875, 28.8125, 29, 29.3125, 29.5625, 29.9375, 30.1875
-10, -10, -10, -10, -10, -10, -10, -10, -10, -10, -10, -10, -10, -10, -10, -10, -10, -10, -10, -10, -10, -10, -10, -10, -10, -10, -10, -10, -10, -10, -10, -10, -10, -10, -10, -10, -10, -10, -10, -10, -10, -10, -10, -10, -10, -10, -10, -10, -10, -10, 28, 28.138891, 28.25, 28.125, 28.166666, 27.955357, 27.775, 27.875, 27.866072, 28, 27.875, 27.8125, 27.75, 27.6875, 27.75, 27.6875, 27.625, 27.5, 27.5, 27.625, 27.6875, 27.75, 27.6875, 27.5625, 27.5, 27.571428, 27.833334, 27.928572, 27.9375, 27.8125, 27.6875, 27.5625, 27.5625, 27.625, 27.6875, 27.875, 28.270834, 28.4375, 28.5625, 28.4375, 28.3125, 28.392857, 28.886906, 29.339285, 29.776787, 29.9375, 30, 30, 30, 30.1875, 30.5625, 30.821428, 30.875, 30.970982, 31.052084, 31.28125, 31.802084, 32.006695, 32.125, 32.258926, 32.735119, 33.452377, 33.723213, 33.875, 33.875, 33.9375, 34.395832, 34.669643, 34.875, 35, 35, 35, 34.9375, 34.723213, 34.392857, 34, 33.625, 33.3125, 33.026787, 32.8125, 32.491074, 32.005951, 31.4375, 31.089287, 31.0625, 30.875, 30.772322, 30.03125, 29.549107, 29.21875, 29.125, 29.0625, 28.875, 28.455357, 27.848213, 27.267857, 27.0625, 26.723213, 26.526787, 26.28125, 25.84375, 25.549107, 25.34375, 25.013393, 24.642857, 24.3125, 24.0625, 23.96875, 23.875, 23.833332, 9.708334, 9.708334, 9.75, 9.9375, 9.9375, 9.9375, 9.875, 9.875, 9.6875, 9.5625, 9.625, 9.625, 9.8125, 10, 10, 10, 10, 9.75, 9.5625, 9.375, 9.3571434, 9.3571434, 9.3125, 9.3125, 9.375, 9.625, 9.8571434, 9.875, 9.8125, 9.6875, 9.625, 9.625, 9.75, 9.875, 9.9375, 10, 9.875, 9.8125, 9.8125, 9.8125, 9.9375, 10, 9.9375, 9.875, 9.875, 9.875, 9.9375, 9.9375, 9.875, 9.8125, 9.8125, 9.875, 9.875, 9.9375, 9.9375, 9.875, 9.9375, 9.875, 9.8125, 9.6875, 9.5, 9.4375, 9.4375, 9.625, 9.8571434, 9.9375, 9.9375, 9.875, 9.875, 9.875, 9.9375, 10, 10, 10, 9.875, 9.6785717, 9.291667, 9.1428566, 9.0625, 9.25, 9.5, 9.6875, 9.875, 9.9375, 9.9375, 9.9375, 10, 10, 10, 10, 10, 10, 10, 10, 10, 10, 10, 10, 9.9375, 9.875, 9.8125, 9.8125, 9.8125, 9.8125, 9.6875, 9.625, 9.625, 9.625, 9.75, 9.8125, 9.875, 9.9375, 9.875, 9.7142859, 9.7633934, 9.6696434, 9.75, 9.9375, 10.065476, 10.222222, -10, -10, -10, -10, -10, -10, -10, 24, 24, 24, 24.15625, 24.375, 24.625, 24.84375, 25.125, 25.34375, 25.59375, 25.875, 25.9375, 26.0625, 26.1875, 26.3125, 26.5, 26.6875, 26.9375, 27.25, 27.5625, 27.875, 28.125, 28.3125, 28.4375, 28.625, 28.8125, 28.9375, 29.125, 29.375, 29.5625, 29.9375, 30.25, 30.5, 30.8125, 31.044643, 31.1875, 31.415178, 31.802082, 32.013393, 32.15625, 32.3125, 32.4375, 32.6875, 33.0625, 33.419643, 33.6875, 34, 34.129463, 34.09375, 34.397324, 34.522324, 34.75, 34.9375, 35, 35.125, 35.1875, 35.1875, 35.25, 35.25, 35.25, 35.375, 35.4375, 35.5625, 35.75, 35.616074, 35.229168, 34.982143, 34.8125, 34.875, 35, 35, 35, 35, 34.9375, 34.875, 34.785713, 34.517857, 34.300598, 33.928574, -10, -10, -10, -10, -10, -10, -10, -10, -10, -10, -10, -10, -10, -10, -10, -10, -10, -10, -10, -10, -10, -10, -10, -10, -10, -10, -10, -10, -10, -10, -10, -10, -10, -10, -10, -10, -10, -10, -10, -10, -10, -10, -10, -10, -10, -10, -10, -10, -10, -10, -10, -10, -10, -10, -10, -10, -10, -10, 28.416668, 27.9, 27.9375, 28.041668, 28.125, 28.1875, 28.1875, 27.892857, 27.5875, 27.6875, 27.616072, 27.6875, 27.571428, 27.5875, 27.375, 27.446428, 27.607143, 27.59375, 27.53125, 27.40625, 27.40625, 27.5, 27.5625, 27.5625, 27.4375, 27.25, 27.1875, 27.196428, 27.458334, 27.616072, 27.625, 27.625, 27.5, 27.375, 27.375, 27.446428, 27.854166, 28.125, 28.458334, 28.455357, 28.4375, 28.25, 28.258928, 28.450001, 28.696428, 29.223213, 29.63393, 29.875, 30, 30, 30, 30.125, 30.5, 30.732143, 30.714287, 30.828125, 30.65625, 30.924107, 31.572918, 31.810268, 32, 32.205357, 32.925594, 33.547623, 33.794643, 33.875, 33.875, 33.9375, 34.458332, 34.732143, 34.9375, 35.0625, 35, 35, 34.9375, 34.785713, 34.517857, 34.125, 33.75, 33.258926, 32.857143, 32.6875, 32.428574, 32.104164, 31.5625, 30.985119, 30.866072, 30.65625, 30.647322, 30.197916, 29.727678, 29.375, 29.125, 28.96875, 28.78125, 28.34375, 27.754463, 27.330357, 27.125, 26.910713, 26.651787, 26.40625, 25.96875, 25.674107, 25.53125, 25.191965, 24.622023, 24.258928, 24, 23.96875, 23.8125, 23.722221, 9.7222223, 9.6944456, 9.3125, 9.4375, 9.5, 9.5625, 9.5625, 9.625, 9.375, 9.25, 9.3125, 9.375, 9.6875, 9.9375, 9.9375, 9.9375, 9.875, 9.625, 9.4375, 9.25, 9.2946434, 9.2946434, 9.25, 9.1875, 9.1875, 9.375, 9.6696434, 9.75, 9.75, 9.6875, 9.625, 9.6875, 9.8125, 9.9375, 10, 10, 9.9375, 9.875, 9.875, 9.875, 9.9375, 9.9375, 9.75, 9.5892859, 9.5625, 9.625, 9.8125, 9.875, 9.875, 9.8125, 9.75, 9.75, 9.6875, 9.75, 9.8125, 9.75, 9.875, 9.75, 9.625, 9.5, 9.3125, 9.3125, 9.375, 9.625, 9.7946434, 9.875, 9.8125, 9.6875, 9.6875, 9.6875, 9.75, 9.875, 9.9375, 9.9375, 9.875, 9.6071434, 9.0916672, 9, 8.875, 9.1875, 9.4375, 9.6875, 9.8125, 9.8125, 9.75, 9.75, 9.875, 9.9375, 10, 10, 10, 9.9375, 9.9375, 9.9375, 9.9375, 10, 10, 10, 9.875, 9.75, 9.625, 9.5625, 9.5625, 9.5625, 9.5, 9.4375, 9.4375, 9.4375, 9.5, 9.625, 9.75, 9.875, 9.875, 9.7142859, 9.7425594, 9.6428576, 9.75, 9.916667, 10.087302, -10, -10, -10, -10, -10, -10, -10, 24, 23.916666, 23.9375, 23.9375, 24.09375, 24.375, 24.5625, 24.71875, 24.9375, 25.15625, 25.584822, 25.910713, 26, 26.125, 26.1875, 26.25, 26.4375, 26.625, 26.8125, 27.125, 27.4375, 27.75, 28, 28.1875, 28.25, 28.375, 28.5, 28.625, 28.875, 29.241072, 29.544643, 29.875, 30.125
-10, -10, -10, -10, -10, -10, -10, -10, -10, -10, -10, -10, -10, -10, -10, -10, -10, -10, -10, -10, -10, -10, -10, -10, -10, -10, -10, -10, -10, -10, -10, -10, -10, -10, -10, -10, -10, -10, -10, -10, -10, -10, -10, -10, -10, -10, 28.75, 28.547619, 28.166666, 27.695236, 27.6875, 27.708334, 27.75, 27.8125, 27.75, 27.5625, 27.5, 27.4375, 27.4375, 27.4375, 27.446428, 27.525, 27.375, 27.446428, 27.482143, 27.40625, 27.28125, 27.15625, 27.15625, 27.25, 27.25, 27.25, 27.125, 26.9375, 26.9375, 26.946428, 27.145834, 27.303572, 27.3125, 27.375, 27.3125, 27.1875, 27.1875, 27.196428, 27.738094, 28.208334, 28.428572, 28.392857, 28.25, 28.1875, 28.258928, 28.557142, 28.625, 28.9375, 29.38393, 29.669643, 29.9375, 30, 30, 30.0625, 30.375, 30.571428, 30.651787, 30.754463, 30.526787, 30.767857, 31.354168, 31.700893, 32, 32.392857, 33.211308, 33.651787, 33.9375, 33.9375, 33.9375, 34, 34.25, 34.5625, 34.8125, 35, 35, 35, 35, 34.910713, 34.705357, 34.375, 33.9375, 33.339287, 32.857143, 32.5625, 32.375, 32.25, 31.8125, 31.190475, 30.991072, 30.71875, 30.65625, 30.40625, 29.90625, 29.5, 29.1875, 28.90625, 28.71875, 28.34375, 27.861607, 27.455357, 27.25, 27.035713, 26.714287, 26.5, 26.125, 25.830357, 25.75, 25.441965, 24.809523, 24.339287, 24.0625, 23.96875, 23.75, 23.666666, 23.25, 23, 9.125, 9.166666, 9.3125, 9.375, 9.375, 9.375, 9.1875, 9.125, 9.1875, 9.3125, 9.5625, 9.75, 9.75, 9.6875, 9.625, 9.4375, 9.375, 9.25, 9.1875, 9.1875, 9.1875, 9.125, 9.125, 9.25, 9.4196434, 9.5, 9.5, 9.4375, 9.4375, 9.5625, 9.75, 9.9375, 9.9375, 9.9375, 9.7946434, 9.5892859, 9.625, 9.625, 9.8125, 9.875, 9.6875, 9.4642859, 9.3125, 9.25, 9.4553566, 9.770833, 9.8571434, 9.875, 9.75, 9.625, 9.5, 9.5625, 9.6875, 9.625, 9.8125, 9.625, 9.4375, 9.3125, 9.125, 9.1875, 9.25, 9.5, 9.6071434, 9.6875, 9.625, 9.5, 9.5, 9.4375, 9.5, 9.625, 9.6875, 9.75, 9.8125, 9.6696434, 9.2791672, 9.1875, 9, 9.25, 9.375, 9.5625, 9.625, 9.5625, 9.5, 9.5, 9.625, 9.6875, 9.75, 9.8125, 9.8125, 9.75, 9.8125, 9.8125, 9.8125, 9.875, 9.8125, 9.75, 9.6875, 9.5625, 9.5, 9.4375, 9.375, 9.4375, 9.4375, 9.4375, 9.4375, 9.375, 9.3125, 9.375, 9.5, 9.6875, 9.75, 9.5625, 9.46875, -10, -10, -10, -10, -10, -10, -10, -10, -10, -10, 23.5, 23.583334, 23.651787, 23.794643, 23.866072, 24.0625, 24.3125, 24.5, 24.625, 24.875, 25.125, 25.553572, 25.910713, 26, 26.125, 26.1875, 26.25, 26.4375, 26.625, 26.8125, 27.125, 27.4375, 27.75, 28, 28.1875, 28.3125, 28.5, 28.625, 28.75, 28.9375, 29.178572, 29.482143, 29.75, 30, 30.3125, 30.625, 31.107143, 31.4375, 31.625, 31.875, 32.0625, 32.1875, 32.375, 32.5, 32.6875, 33.107143, 33.482143, 33.75, 33.9375, 34, 34, 34.125, 34.375, 34.625, 34.875, 35.125, 35.3125, 35.5, 35.5625, 35.625, 35.544643, 35.375, 35.625, 35.520832, 35.517857, 35.642857, 35.625, 35.6875, 35.5, 35.25, 35.125, 35, 35, 35, 35, 35.03125, 35.15625, 35.071426, 34.580357, 34.258926, 33.964287, 33.888889, -10, -10, -10, -10, -10, -10, -10, -10, -10, -10, -10, -10, -10, -10, -10, -10, -10, -10, -10, -10, -10, -10, -10, -10, -10, -10, -10, -10, -10, -10, -10, -10, -10, -10, -10, -10, -10, -10, -10, -10, -10, -10, -10, -10, -10, -10, -10, -10, -10, -10, -10, 27.666668, 27.625, 27.625, 27.767857, 28.433334, 28.126984, 27.875, 27.396427, 27.25, 27.1875, 27.3125, 27.4375, 27.5, 27.375, 27.25, 27.125, 27.0625, 27.0625, 27.258928, 27.4625, 27.294643, 27.175594, 27.053572, 26.90625, 26.870537, 26.879463, 26.90625, 27.0625, 27.0625, 27.125, 27, 26.8125, 26.75, 26.633928, 26.770834, 26.866072, 26.8125, 26.875, 26.875, 26.883928, 27.0625, 27.071428, 27.675594, 28.145834, 28.401787, 28.392857, 28.25, 28.15625, 28.352678, 28.775892, 28.90625, 29.1875, 29.526787, 29.732143, 29.9375, 30, 30, 30, 30.25, 30.410713, 30.446428, 30.410713, 30.214287, 30.392857, 31.041668, 31.482143, 31.9375, 32.508926, 33.380951, 33.732143, 34, 34, 34, 34.125, 34.375, 34.6875, 34.9375, 35.0625, 35.0625, 35, 34.9375, 34.875, 34.8125, 34.5625, 34.125, 33.348213, 32.75, 32.375, 32.1875, 32.09375, 31.71875, 31.221725, 31.022322, 30.78125, 30.674107, 30.46875, 29.96875, 29.5, 29.151787, 28.78125, 28.59375, 28.34375, 27.96875, 27.580357, 27.3125, 27.0625, 26.6875, 26.4375, 26.1875, 25.9375, 25.866072, 25.389881, 24.693451, 24.214287, 24, 23.9375, 23.6875, 23.541666, 23.25, 23, 8.916667, 9.020833, 9.145833, 9.25, 9.25, 9.25, 9.0625, 9, 9.0625, 9.25, 9.4375, 9.5625, 9.5625, 9.4375, 9.375, 9.25, 9.1875, 9.0625, 9, 9, 9.0625, 9, 9, 9.0625, 9.1696434, 9.25, 9.25, 9.1875, 9.1875, 9.3125, 9.5, 9.75, 9.75, 9.8125, 9.7321434, 9.5267859, 9.5625, 9.5625, 9.75, 9.8125, 9.625, 9.3392859, 9.125, 9.0625, 9.3303566, 9.708333, 9.7946434, 9.75, 9.5625, 9.375, 9.25, 9.3125, 9.4375, 9.375, 9.5625, 9.375, 9.1875, 9.125, 9, 9.0625, 9.125, 9.3125, 9.3571434, 9.4375, 9.375, 9.25, 9.25, 9.1875, 9.25, 9.375, 9.4375, 9.5, 9.625, 9.5446434, 9.2166672, 9.1875, 9.0625, 9.2232141, 9.2142859, 9.375, 9.375, 9.4375, 9.375, 9.375, 9.4375, 9.4375, 9.5, 9.5625, 9.5625, 9.5, 9.5625, 9.5625, 9.5625, 9.625, 9.5625, 9.5, 9.5, 9.4375, 9.4375, 9.375, 9.25, 9.25, 9.25, 9.3125, 9.3125, 9.25, 9.125, 9.125, 9.25, 9.4375, 9.5625, 9.5, 9.489583, -10, -10, -10, -10, -10, -10, -10, -10, 23, 23, 23.333334, 23.5, 23.526787, 23.732143, 23.866072, 24, 24.25, 24.4375, 24.5625, 24.875, 25.125, 25.553572, 25.910713, 26, 26.125, 26.1875, 26.3125, 26.5, 26.6875, 26.8125, 27.0625, 27.375, 27.625, 27.9375, 28.125, 28.3125, 28.5625, 28.6875, 28.8125, 28.875, 29.053572, 29.357143, 29.6875, 30.107143
-10, -10, -10, -10, -10, -10, -10, -10, -10, -10, -10, -10, -10, -10, -10, -10, -10, -10, -10, -10, -10, -10, -10, -10, -10, -10, -10, -10, -10, -10, -10, -10, -10, -10, -10, -10, -10, -10, -10, -10, -10, 27.25, 27.527779, 27.5, 27.5, 27.595238, 28.075001, 27.845238, 27.479166, 27.071428, 26.8125, 26.8125, 26.9375, 27.0625, 27.125, 26.9375, 26.75, 26.625, 26.5625, 26.6875, 27.071428, 27.471428, 27.388393, 27.269344, 27.084822, 26.90625, 26.870537, 26.816963, 26.71875, 26.8125, 26.75, 26.8125, 26.875, 26.8125, 26.875, 26.75, 26.5625, 26.5, 26.3125, 26.375, 26.4375, 26.571428, 26.875, 27.008928, 27.613094, 28.083334, 28.339287, 28.330357, 28.25, 28.1875, 28.446428, 28.994642, 29.1875, 29.4375, 29.669643, 29.794643, 29.9375, 30, 30, 30.0625, 30.3125, 30.535713, 30.758928, 30.744047, 30.360121, 30.5, 30.833334, 31.303572, 31.866072, 32.729168, 33.476189, 33.741074, 33.875, 33.875, 33.875, 34.125, 34.4375, 34.75, 35, 35.0625, 35.0625, 35, 35, 35, 34.9375, 34.6875, 34.25, 33.473213, 32.848213, 32.392857, 32.1875, 32.03125, 31.78125, 31.382441, 31.084822, 30.552084, 30.3125, 30.125, 29.75, 29.34375, 29.053574, 28.71875, 28.53125, 28.334822, 27.822916, 27.508928, 27.1875, 27.0625, 26.75, 26.5, 26.3125, 26, 25.803572, 25.282738, 24.675594, 24.339287, 24.098213, 23.892857, 23.633928, 23.375, 23.1875, 22.9375, 22.75, 8.7777777, 8.958333, 9.145833, 9.1875, 9.1875, 9.0625, 8.9375, 8.9375, 9.125, 9.25, 9.3125, 9.3125, 9.1875, 9.125, 9.0625, 9.0625, 9, 9, 9, 9.0625, 9.0625, 9.0625, 9.0625, 9.0625, 9.0625, 9, 9, 9.0625, 9.1875, 9.3125, 9.5, 9.4375, 9.5625, 9.6071434, 9.4642859, 9.5, 9.4375, 9.5625, 9.5625, 9.4375, 9.2142859, 9, 8.9375, 9.1428566, 9.458333, 9.5446434, 9.5, 9.375, 9.1875, 9.125, 9.1875, 9.25, 9.25, 9.375, 9.25, 9.125, 9.125, 9.1875, 9.3125, 9.375, 9.4375, 9.25, 9.25, 9.25, 9.1875, 9.1875, 9.125, 9.0625, 9.125, 9.1875, 9.25, 9.375, 9.3660717, 9.3000002, 9.2946434, 9.25, 9.2589283, 8.9821434, 9.0803566, 8.9375, 9, 8.9375, 8.875, 9, 9.0625, 9.1875, 9.3125, 9.3125, 9.25, 9.3125, 9.3125, 9.3125, 9.375, 9.3125, 9.25, 9.3125, 9.3125, 9.375, 9.3125, 9.1875, 9.1875, 9.1875, 9.3125, 9.3125, 9.25, 9.125, 9.0625, 9.125, 9.25, 9.3125, 9.375, 9.416666, -10, -10, -10, -10, -10, -10, -10, 22.5, 22.75, 22.833334, 23.1875, 23.3125, 23.401787, 23.669643, 23.866072, 23.9375, 24.125, 24.3125, 24.5, 24.875, 25.1875, 25.616072, 25.910713, 26, 26.125, 26.25, 26.4375, 26.6875, 26.875, 26.9375, 27.125, 27.375, 27.625, 27.875, 28.0625, 28.25, 28.4375, 28.5625, 28.6875, 28.75, 28.928572, 29.294643, 29.6875, 30.214287, 30.5625, 30.8125, 31.125, 31.4375, 31.625, 31.9375, 32.0625, 32.1875, 32.375, 32.571426, 33.020832, 33.348213, 33.625, 33.8125, 33.9375, 34, 34, 34.1875, 34.4375, 34.6875, 34.9375, 35.25, 35.5, 35.75, 35.866074, 35.532738, 35.095238, 34.955357, 35.25, 35.333332, 35.455357, 35.580357, 35.625, 35.6875, 35.625, 35.375, 35.25, 35.1875, 35.125, 35.125, 35.0625, 35.09375, 35.15625, 35.098213, 34.8125, 34.5625, 34.3125, 34.25, -10, -10, -10, -10, -10, -10, -10, -10, -10, -10, -10, -10, -10, -10, -10, -10, -10, -10, -10, -10, -10, -10, -10, -10, -10, -10, -10, -10, -10, -10, -10, -10, -10, -10, -10, -10, -10, -10, -10, -10, -10, -10, -10, -10, -10, -10, -10, -10, 27, 27, 27.166666, 27.395834, 27.375, 27.375, 27.446428, 27.575001, 27.428572, 27.104166, 26.821428, 26.625, 26.625, 26.75, 26.875, 26.9375, 26.8125, 26.6875, 26.5, 26.4375, 26.5625, 26.785713, 26.964285, 27.198978, 26.940475, 26.688776, 26.3125, 26.339287, 26.410713, 26.5, 26.598213, 26.464287, 26.5625, 26.625, 26.75, 26.875, 26.875, 26.625, 26.4375, 26.125, 26, 26.0625, 26.196428, 26.625, 26.8125, 27.133928, 27.645834, 27.964287, 28.125, 28.1875, 28.125, 28.3125, 28.794643, 29.151787, 29.375, 29.6875, 29.794643, 29.9375, 30, 30, 30.125, 30.375, 30.75, 31.169643, 31.119047, 30.860121, 30.866072, 30.9375, 31.375, 31.928572, 32.845238, 33.5, 33.75, 33.875, 33.875, 33.875, 34.1875, 34.5, 34.8125, 35.0625, 35.0625, 35.0625, 35, 35, 34.9375, 34.8125, 34.5625, 34.125, 33.526787, 33.017857, 32.549107, 32.34375, 32.03125, 31.71875, 31.580357, 31.3125, 30.779762, 30.1875, 29.928572, 29.5625, 29.1875, 28.955357, 28.6875, 28.5625, 28.482143, 27.833332, 27.517857, 27.1875, 27.0625, 26.8125, 26.5625, 26.3125, 25.892857, 25.616072, 25.041666, 24.633928, 24.330357, 24.035713, 23.767857, 23.508928, 23.178572, 22.875, 22.6875, 22.416666, 22.166668, 9.1944437, 9.270833, 9.25, 9.1875, 9.125, 8.9375, 8.9375, 9.0625, 9.0625, 9.125, 9.125, 9, 9, 9, 9, 9, 9, 9, 9.0625, 9, 9, 9, 8.9375, 8.9375, 8.8125, 8.8125, 8.9375, 9.0982141, 9.1875, 9.25, 9.125, 9.25, 9.2946434, 9.2142859, 9.25, 9.1875, 9.3125, 9.375, 9.375, 9.25, 9.0625, 8.9375, 9.0178566, 9.270833, 9.2946434, 9.25, 9.125, 8.9375, 8.9375, 9, 9.0625, 9.125, 9.1875, 9.125, 9.0625, 9.0625, 9.125, 9.1875, 9.1875, 9.1875, 9.0625, 9.0625, 9.125, 9.125, 9.125, 9.0625, 9, 9, 9, 9.0625, 9.125, 9.1875, 9.25, 9.1875, 9.25, 9.1339283, 8.8571434, 8.8928566, 8.75, 8.8125, 8.75, 8.6875, 8.75, 8.8125, 8.9375, 9.0625, 9.0625, 9.0625, 9.125, 9.125, 9.125, 9.125, 9.0625, 9, 9.125, 9.1875, 9.3125, 9.3125, 9.1875, 9.1875, 9.125, 9.25, 9.25, 9.1875, 9.125, 9, 9, 9.125, 9.145833, 9.25, 9.333333, -10, -10, -10, -10, -10, -10, 22, 22.333334, 22.625, 22.75, 22.875, 23.0625, 23.245537, 23.575893, 23.834822, 23.96875, 24.0625, 24.3125, 24.5625, 24.9375, 25.25, 25.4375, 25.6875, 25.8125, 26, 26.25, 26.5, 26.75, 26.9375, 27, 27.1875, 27.4375, 27.75, 28.0625, 28.25, 28.5, 28.6875, 28.9375, 29.125, 29.125, 29.1875, 29.375, 29.75, 30.339287
-10, -10, -10, -10, -10, -10, -10, -10, -10, -10, -10, -10, -10, -10, -10, -10, -10, -10, -10, -10, -10, -10, -10, -10, -10, -10, -10, -10, -10, -10, -10, -10, -10, -10, -10, -10, -10, 27, 27, 27, 27, 27.125, 27.145834, 27.125, 27.125, 27.133928, 27.200001, 27.071428, 26.9375, 26.75, 26.5625, 26.5, 26.5625, 26.625, 26.75, 26.6875, 26.625, 26.4375, 26.3125, 26.375, 26.410713, 26.464285, 25.979166, 25.815475, 25.670918, 25.8125, 25.964287, 26.098213, 26.3125, 26.383928, 26.178572, 26.3125, 26.375, 26.625, 26.75, 26.8125, 26.5625, 26.375, 26.071428, 25.666666, 25.696428, 25.866072, 26.3125, 26.625, 26.9375, 27.3125, 27.660713, 27.875, 28.0625, 27.9375, 28.0625, 28.4375, 28.901787, 29.375, 29.75, 29.875, 30, 30, 30, 30.1875, 30.4375, 30.875, 31.294643, 31.270834, 31.145834, 31.116072, 31.1875, 31.5, 31.991072, 32.782738, 33.33036, 33.5625, 33.6875, 33.8125, 33.910713, 34.1875, 34.5, 34.75, 35, 35.0625, 35.0625, 35, 35, 34.866074, 34.5625, 34.3125, 33.875, 33.446426, 33.017857, 32.60268, 32.21875, 31.9375, 31.5625, 31.53125, 31.28125, 30.717262, 30.0625, 29.696428, 29.375, 29.125, 28.955357, 28.78125, 28.65625, 28.513393, 27.802082, 27.455357, 27.125, 26.9375, 26.75, 26.5, 26.1875, 25.767857, 25.428572, 24.782738, 24.321428, 24.1875, 23.879463, 23.674107, 23.415178, 23.084822, 22.78125, 22.59375, 22.40625, 22.152779, 21.875, 9.2777777, 9.1875, 9.1875, 9.125, 8.9375, 8.9375, 9, 9, 9.0625, 9.0625, 9, 9, 9, 9, 9, 9, 9, 9, 8.875, 8.875, 8.875, 8.875, 8.9375, 8.75, 8.6875, 8.75, 8.8482141, 8.9375, 9, 8.9375, 9.0625, 9.1875, 9.25, 9.25, 9.1875, 9.1875, 9.125, 9.125, 9.0625, 9, 9.0625, 9.125, 9.1875, 9.1875, 9.125, 9, 8.875, 8.875, 8.875, 8.9375, 9, 9, 9, 9, 9, 9.0625, 9.0625, 9.0625, 9.0625, 9, 9, 9.0625, 9.0625, 9.0625, 9.0625, 9, 9, 9, 9, 9, 9, 9, 9, 9.125, 9.0714283, 8.8571434, 8.8928566, 8.75, 8.8125, 8.6875, 8.625, 8.6875, 8.75, 8.9375, 9, 9, 9, 9, 9, 9, 9, 9, 9, 9.0625, 9.125, 9.1875, 9.25, 9.25, 9.1875, 9.125, 9.125, 9.0625, 9.0625, 9.0625, 9, 9.0625, 9.145833, 9.1111107, -10, -10, -10, -10, -10, -10, 22, 22, 22, 22.3125, 22.5, 22.75, 22.9375, 23.1875, 23.375, 23.5625, 23.8125, 23.9375, 24.0625, 24.3125, 24.5625, 24.875, 25.15625, 25.34375, 25.59375, 25.78125, 26, 26.1875, 26.375, 26.625, 26.875, 27.107143, 27.3125, 27.5625, 27.875, 28.1875, 28.4375, 28.625, 28.6875, 28.875, 29.0625, 29.232143, 29.375, 29.5625, 29.9375, 30.464287, 30.75, 31.125, 31.3125, 31.5625, 31.8125, 31.875, 31.9375, 32.0625, 32.294643, 32.508926, 32.958332, 33.116074, 33.3125, 33.571426, 33.875, 34, 34.125, 34.3125, 34.5625, 34.8125, 35, 35.25, 35.5, 35.75, 35.834824, 35.376488, 34.894344, 34.736607, 34.6875, 34.8125, 35, 35.125, 35.25, 35.15625, 35.120537, 35.160713, 35.303574, 35.4375, 35.366074, 35.041668, 34.883926, 34.875, 35, 34.949406, 34.4375, 34.211311, 34.217262, 34.400002, -10, -10, -10, -10, -10, -10, -10, -10, -10, -10, -10, -10, -10, -10, -10, -10, -10, -10, -10, -10, -10, -10, -10, -10, -10, -10, -10, -10, -10, -10, -10, -10, -10, -10, -10, -10, -10, -10, -10, -10, -10, 25.416668, 25.583332, 25.875, 26.375, 26.625, 26.916666, 27, 27, 27, 27, 27.0625, 27.0625, 27.0625, 27.0625, 26.928572, 26.799999, 26.866072, 26.732143, 26.6875, 26.5625, 26.5, 26.5, 26.5, 26.5, 26.5, 26.375, 26.1875, 26.125, 25.973213, 25.910713, 25.720917, 25.420918, 25.385204, 25.6875, 25.875, 26, 26.25, 26.196428, 25.991072, 26.0625, 26.125, 26.375, 26.5, 26.5625, 26.3125, 26.1875, 25.946428, 25.604166, 25.758928, 25.919643, 26.1875, 26.5625, 26.75, 27.125, 27.5, 27.75, 28, 27.9375, 28.0625, 28.375, 28.776787, 29.25, 29.625, 29.8125, 30, 30, 30, 30.25, 30.5, 31, 31.5625, 31.708334, 31.645834, 31.616072, 31.5625, 31.75, 32.11607, 32.729168, 33.160713, 33.375, 33.5, 33.625, 33.80357, 34.267857, 34.625, 34.875, 35.0625, 35.09375, 35.0625, 35, 35, 34.794643, 34.229168, 33.946426, 33.5625, 33.375, 33.125, 32.71875, 32.21875, 31.96875, 31.53125, 31.5, 31.25, 30.654762, 30.044643, 29.696428, 29.4375, 29.25, 29.116074, 28.9375, 28.75, 28.544643, 27.770832, 27.455357, 27.107143, 26.767857, 26.633928, 26.375, 26.0625, 25.642857, 25.3125, 24.803572, 24.375, 24.21875, 23.816963, 23.549107, 23.290178, 22.991072, 22.647322, 22.34375, 22.15625, 22.052084, 21.833334, 21.583332, 9.083333, 9.0625, 9.0625, 8.9375, 8.9375, 8.9375, 8.9375, 9, 9, 9, 9, 9, 9, 9, 9, 9, 9, 8.875, 8.875, 8.875, 8.875, 8.9375, 8.75, 8.6875, 8.75, 8.8482141, 8.9375, 8.9375, 8.875, 8.9375, 9, 9.0625, 9.0625, 9, 8.9375, 8.8125, 8.8125, 8.8125, 8.875, 9, 9, 9, 9, 8.9375, 8.8125, 8.75, 8.75, 8.8125, 8.9375, 9, 9, 8.9375, 8.9375, 8.9375, 9, 9.0625, 9.0625, 9.0625, 9, 9, 9.0625, 9.0625, 9.0625, 9.0625, 9, 9, 9, 9, 9, 9, 8.9375, 8.9375, 9, 8.9732141, 8.8928566, 8.8928566, 8.8125, 8.75, 8.5625, 8.5, 8.5, 8.625, 8.875, 8.9375, 9, 9, 9, 9, 9, 9, 9, 9, 9, 9, 9, 9.0625, 9.125, 9.125, 9.125, 9, 8.875, 8.875, 8.875, 8.9375, 9.0625, 9.1944437, -10, -10, -10, -10, -10, -10, 22, 22, 22, 22.0625, 22.1875, 22.4375, 22.75, 22.9375, 23.125, 23.25, 23.4375, 23.6875, 23.875, 24, 24.25, 24.5, 24.75, 25.09375, 25.28125, 25.53125, 25.78125, 25.9375, 26.0625, 26.1875, 26.40625, 26.71875, 27.044643, 27.3125, 27.59375, 27.90625, 28.1875, 28.5, 28.6875, 28.6875, 28.875, 29, 29.232143, 29.5, 29.6875, 30.0625, 30.482143
-10, -10, -10, -10, -10, -10, -10, -10, -10, -10, -10, -10, -10, -10, -10, -10, -10, -10, -10, -10, -10, -10, -10, -10, -10, -10, -10, -10, -10, -10, -10, 25, 25.277779, 25.472221, 25.75, 26.166666, 26.416666, 26.75, 26.875, 26.9375, 27, 27, 27, 27, 27, 26.9375, 26.803572, 26.674999, 26.803572, 26.794643, 26.875, 26.6875, 26.5, 26.5, 26.4375, 26.5, 26.5625, 26.375, 26.1875, 26.0625, 25.785713, 25.589285, 25.583927, 25.321428, 25.321428, 25.4375, 25.625, 25.8125, 26.125, 26.133928, 25.964287, 25.892857, 25.821428, 26, 26.0625, 26.125, 26, 26, 25.883928, 25.604166, 25.821428, 25.982143, 26.25, 26.625, 26.75, 27.125, 27.5, 27.75, 28, 27.84375, 27.933037, 28.263393, 28.611609, 29.0625, 29.40625, 29.625, 29.875, 29.9375, 29.96875, 30.25, 30.5, 30.9375, 31.4375, 31.625, 31.875, 31.9375, 31.9375, 32.0625, 32.375, 32.794643, 33.169643, 33.4375, 33.625, 33.75, 33.99107, 34.392857, 34.75, 35.0625, 35.1875, 35.21875, 35.125, 35, 34.9375, 34.669643, 34.104168, 33.821426, 33.4375, 33.3125, 33.125, 32.763393, 32.28125, 32.09375, 31.59375, 31.5, 31.3125, 30.883928, 30.3125, 29.883928, 29.5, 29.3125, 29.151787, 28.984375, 28.75, 28.491072, 27.854166, 27.524553, 27.232143, 26.767857, 26.571428, 26.3125, 25.875, 25.517857, 25.25, 24.741072, 24.375, 24.15625, 23.709822, 23.40625, 23.21875, 22.928572, 22.584822, 22.28125, 22.09375, 21.96875, 21.875, 21.722221, 21.666668, 9.25, 9.166667, 9.0625, 9, 8.9375, 8.9375, 9, 9, 9, 9, 9, 9, 9, 9, 9, 9, 8.875, 8.875, 8.875, 8.875, 9, 8.875, 8.8125, 8.875, 8.9107141, 9, 9, 8.9375, 8.9375, 8.9375, 9, 9, 9, 8.9375, 8.8125, 8.8125, 8.8125, 8.875, 9, 9, 9, 9, 8.875, 8.625, 8.5625, 8.5625, 8.6875, 8.9375, 9, 9, 8.875, 8.8125, 8.75, 8.75, 8.875, 8.9375, 9, 8.9375, 8.9375, 8.9375, 8.9375, 9, 9, 9, 9, 9, 9, 9, 9, 8.9375, 8.9375, 8.9375, 8.9375, 9, 8.9375, 8.9375, 8.875, 8.6875, 8.75, 8.625, 8.6875, 8.875, 8.875, 9, 9, 9, 9, 9, 9, 9, 9, 9, 9, 8.9375, 9, 9.0625, 9.0625, 9.125, 8.9375, 8.75, 8.6875, 8.6875, 8.770833, 9.083333, -10, -10, -10, -10, -10, -10, -10, 21.666666, 21.75, 21.8125, 22, 22.294643, 22.5625, 22.875, 23, 23.0625, 23.125, 23.25, 23.4375, 23.6875, 23.875, 24.1875, 24.5, 24.75, 25.15625, 25.34375, 25.53125, 25.75, 25.84375, 25.90625, 26.03125, 26.21875, 26.53125, 26.919643, 27.3125, 27.65625, 27.96875, 28.25, 28.5, 28.6875, 28.6875, 28.875, 29, 29.294643, 29.625, 29.8125, 30.1875, 30.5, 30.6875, 31.0625, 31.25, 31.5, 31.857143, 31.875, 31.9375, 32, 32.3125, 32.783333, 32.970238, 33.303574, 33.232143, 33.473213, 33.785713, 33.875, 34.125, 34.330357, 34.895832, 35.044643, 35.1875, 35.3125, 35.5, 35.75, 35.78125, 35.53125, 35.28125, 35.03125, 34.9375, 34.9375, 34.9375, 35, 35.1875, 35.09375, 35.120537, 35.348213, 35.428574, 35.5625, 35.553574, 35.095238, 34.675594, 34.550598, 34.379166, 34.065475, 33.419643, 33.443451, 34.00893, 34.450001, -10, -10, -10, -10, -10, -10, -10, -10, -10, -10, -10, -10, -10, -10, -10, -10, -10, -10, -10, -10, -10, -10, -10, -10, -10, -10, -10, -10, -10, -10, -10, -10, -10, -10, -10, -10, -10, 24.75, 24.875, 25, 25, 25.208334, 25.416666, 25.6875, 26.0625, 26.3125, 26.5, 26.625, 26.75, 26.875, 26.9375, 27, 27, 27, 26.9375, 26.803572, 26.674999, 26.803572, 26.794643, 26.875, 26.625, 26.375, 26.3125, 26.1875, 26.25, 26.3125, 26.1875, 26.0625, 25.9375, 25.75, 25.696428, 25.762501, 25.571428, 25.571428, 25.625, 25.75, 25.875, 26, 25.973213, 25.8125, 25.642857, 25.571428, 25.625, 25.625, 25.625, 25.633928, 25.875, 25.883928, 25.791666, 25.946428, 26.169643, 26.375, 26.6875, 26.8125, 27.125, 27.5625, 27.848213, 28.0625, 27.96875, 27.995537, 28.263393, 28.566965, 28.96875, 29.28125, 29.5625, 29.8125, 29.90625, 29.96875, 30.25, 30.5, 30.875, 31.3125, 31.5625, 31.8125, 31.9375, 31.9375, 31.9375, 32.241074, 32.857143, 33.205357, 33.5, 33.625, 33.75, 33.99107, 34.392857, 34.75, 35.0625, 35.1875, 35.21875, 35.125, 35, 34.875, 34.607143, 34.041668, 33.758926, 33.4375, 33.3125, 33.125, 32.732143, 32.25, 32.09375, 31.59375, 31.46875, 31.21875, 30.8125, 30.5, 30.017857, 29.580357, 29.375, 29.1875, 29.046875, 28.78125, 28.46875, 27.96875, 27.609375, 27.294643, 26.705357, 26.446428, 26.25, 25.8125, 25.475, 25.366072, 24.741072, 24.392857, 24.15625, 23.709822, 23.40625, 23.21875, 22.928572, 22.634821, 22.459822, 22.239584, 21.96875, 21.875, 21.729166, 21.777779, 9.333333, 9.041667, 9.041667, 9, 9, 9, 9, 9, 9, 9, 9, 9, 9, 9, 9, 9, 8.9375, 8.9375, 8.9375, 8.9375, 9, 8.9375, 8.875, 8.875, 8.875, 8.9375, 9, 9, 9, 9, 9, 9, 9, 8.9375, 8.8125, 8.8125, 8.8125, 8.875, 9, 9, 9, 8.9375, 8.8125, 8.5625, 8.5625, 8.625, 8.75, 9, 9, 9, 8.875, 8.8125, 8.75, 8.6875, 8.8125, 8.875, 8.9375, 8.875, 8.875, 8.875, 8.875, 9, 9, 9, 9, 9, 9, 9, 9, 8.9375, 8.9375, 8.9375, 8.9375, 8.9375, 8.8125, 8.75, 8.6875, 8.5625, 8.625, 8.5, 8.5625, 8.75, 8.8125, 9, 9, 9, 9, 9, 9, 9, 9, 9, 9, 8.875, 8.875, 8.9375, 8.9375, 9.0625, 8.9375, 8.75, 8.6875, 8.583333, 8.6944437, -10, -10, -10, -10, -10, -10, -10, 21, 21.5, 21.5625, 21.6875, 21.9375, 22.366072, 22.75, 23, 23.125, 23.0625, 23.09375, 23.15625, 23.28125, 23.53125, 23.8125, 24.232143, 24.5625, 24.8125, 25.15625, 25.34375, 25.46875, 25.625, 25.71875, 25.78125, 25.90625, 26.15625, 26.46875, 26.919643, 27.375, 27.71875, 27.96875, 28.1875, 28.4375, 28.625, 28.75, 28.9375, 29, 29.357143, 29.625, 29.8125, 30.25, 30.5
-10, -10, -10, -10, -10, -10, -10, -10, -10, -10, -10, -10, -10, -10, -10, -10, -10, -10, -10, -10, -10, -10, -10, -10, -10, -10, 24, 24.166668, 24.541666, 24.708334, 24.875, 24.96875, 25.083334, 25.321428, 25.6875, 25.9375, 26.1875, 26.25, 26.375, 26.5625, 26.6875, 26.8125, 26.9375, 26.9375, 27, 26.9375, 26.803572, 26.674999, 26.803572, 26.794643, 26.9375, 26.6875, 26.4375, 26.3125, 26.0625, 26.0625, 26.0625, 26, 25.9375, 25.875, 25.8125, 25.821428, 25.950001, 25.821428, 25.821428, 25.8125, 25.875, 25.875, 25.8125, 25.75, 25.598213, 25.392857, 25.258928, 25.125, 25.125, 25.0625, 25.258928, 25.833334, 25.919643, 26.0625, 26.017857, 26.1875, 26.375, 26.625, 26.651787, 26.946428, 27.5625, 27.910713, 28.125, 28.09375, 28.058037, 28.263393, 28.522322, 28.90625, 29.263393, 29.5625, 29.8125, 29.90625, 29.96875, 30.25, 30.5, 30.8125, 31.1875, 31.4375, 31.6875, 31.875, 32, 32.0625, 32.428574, 33.107143, 33.455357, 33.75, 33.8125, 33.8125, 33.955357, 34.392857, 34.75, 35.1875, 35.3125, 35.28125, 35.1875, 35, 34.8125, 34.553574, 34.104168, 33.821426, 33.625, 33.4375, 33.3125, 32.910713, 32.392857, 32.196426, 31.678572, 31.291666, 31.008928, 30.625, 30.5, 30.25, 29.892857, 29.633928, 29.083334, 28.837053, 28.5625, 28.375, 28, 27.671875, 27.357143, 26.767857, 26.446428, 26.3125, 25.9375, 25.6625, 25.616072, 24.955357, 24.476191, 24.227678, 23.803572, 23.321428, 23.125, 22.772322, 22.478571, 22.366072, 22.083334, 21.8125, 21.8125, 21.625, 21.708334, 21.75, 9.0555563, 8.916667, 8.916667, 8.9375, 9, 9, 9, 9, 9, 9, 8.9375, 8.9375, 8.875, 8.8125, 8.875, 8.875, 8.9375, 9, 9, 9, 9, 8.9375, 8.875, 8.8125, 8.75, 8.75, 8.75, 8.8125, 8.875, 8.9375, 9, 9, 8.9375, 8.875, 8.8125, 8.75, 8.75, 8.8125, 8.875, 8.9375, 8.875, 8.75, 8.5625, 8.5625, 8.6875, 8.8125, 8.9375, 8.875, 8.875, 8.75, 8.75, 8.75, 8.625, 8.6875, 8.75, 8.875, 8.875, 8.7678566, 8.6964283, 8.6875, 8.875, 8.9375, 8.9375, 8.9375, 8.9375, 8.9375, 9, 8.9375, 8.875, 8.875, 8.875, 8.875, 8.8125, 8.625, 8.5, 8.4375, 8.4375, 8.5625, 8.5, 8.5625, 8.6875, 8.75, 8.875, 8.9375, 8.9375, 8.9375, 9, 9, 9, 9, 9, 9, 8.875, 8.8125, 8.8125, 8.75, 8.8125, 8.75, 8.6875, 8.7375002, -10, -10, -10, -10, -10, -10, -10, 21, 21, 21.083334, 21.375, 21.5, 21.6875, 22, 22.428572, 22.8125, 23, 23.125, 23.0625, 23.125, 23.3125, 23.375, 23.526787, 23.875, 24.276787, 24.625, 24.875, 25.125, 25.25, 25.3125, 25.40625, 25.53125, 25.65625, 25.90625, 26.21875, 26.46875, 26.875, 27.3125, 27.65625, 27.90625, 28.125, 28.375, 28.625, 28.875, 29.125, 29.1875, 29.4375, 29.6875, 29.875, 30.3125, 30.5625, 30.75, 31, 31.1875, 31.4375, 31.794643, 31.9375, 32, 32.0625, 32.330357, 32.845833, 33.095238, 33.428574, 33.294643, 33.401787, 33.535713, 33.6875, 34.0625, 34.392857, 35.020832, 35.307144, 35.258926, 35.392857, 35.5, 35.75, 35.75, 35.5, 35.25, 35.0625, 35.125, 35.125, 35.125, 35.1875, 35.3125, 35.3125, 35.375, 35.46875, 35.46875, 35.53125, 35.59375, 35.428574, 34.916668, 34.675598, 34.155952, 33.741074, 33.513393, 33.638393, 34.135418, 34.341667, -10, -10, -10, -10, -10, -10, -10, -10, -10, -10, -10, -10, -10, -10, -10, -10, -10, -10, -10, -10, -10, -10, -10, -10, -10, -10, -10, -10, -10, -10, -10, -10, -10, 24, 24, 24, 24.111113, 24.40625, 24.53125, 24.65625, 24.71875, 24.75, 24.946428, 25.3125, 25.5, 25.8125, 25.9375, 26.0625, 26.3125, 26.5, 26.6875, 26.875, 26.9375, 27, 26.9375, 26.875, 26.875, 26.875, 26.9375, 27, 26.8125, 26.5625, 26.375, 26.125, 26.0625, 26.0625, 26, 26, 26, 26, 26, 26, 26, 25.9375, 25.875, 25.8125, 25.6875, 25.5625, 25.4375, 25.223213, 25.035713, 24.958929, 24.696428, 24.767857, 24.75, 25.071428, 25.708334, 25.857143, 25.9375, 25.767857, 25.875, 26.0625, 26.3125, 26.401787, 26.767857, 27.604166, 27.973213, 28.1875, 28.125, 27.964287, 28.107143, 28.303572, 28.665178, 29.221727, 29.553572, 29.8125, 29.90625, 29.96875, 30.25, 30.5, 30.75, 31.125, 31.375, 31.625, 31.9375, 32.125, 32.25, 32.616074, 33.294643, 33.642857, 33.9375, 34.0625, 34.125, 34.25, 34.5, 34.8125, 35.1875, 35.3125, 35.3125, 35.1875, 35, 34.8125, 34.5625, 34.3125, 34.0625, 33.803574, 33.4375, 33.375, 32.982143, 32.535713, 32.339287, 31.803572, 31.125, 30.803572, 30.4375, 30.375, 30.25, 29.955357, 29.696428, 28.916668, 28.627232, 28.40625, 28.28125, 27.96875, 27.698662, 27.535713, 27.053572, 26.583334, 26.383928, 25.928572, 25.5375, 25.553572, 24.892857, 24.476191, 24.321428, 23.901785, 23.339285, 23.205357, 22.776787, 22.371429, 22.294643, 21.895834, 21.6875, 21.75, 21.65625, 21.78125, 21.625, 21.229168, 8.8888893, 8.666667, 8.6875, 8.8125, 8.8125, 8.8125, 8.8125, 8.8125, 8.8125, 8.75, 8.75, 8.625, 8.625, 8.75, 8.8125, 8.875, 8.875, 8.8125, 8.75, 8.75, 8.6875, 8.625, 8.5625, 8.5, 8.5, 8.5, 8.625, 8.6875, 8.75, 8.8125, 8.75, 8.75, 8.75, 8.6875, 8.625, 8.5625, 8.5625, 8.625, 8.6875, 8.625, 8.5625, 8.5, 8.5625, 8.6875, 8.75, 8.8125, 8.6875, 8.75, 8.75, 8.75, 8.8125, 8.625, 8.5625, 8.625, 8.75, 8.8125, 8.7053566, 8.5714283, 8.5, 8.6875, 8.8125, 8.8125, 8.875, 8.875, 8.875, 9, 8.875, 8.8125, 8.75, 8.6875, 8.6875, 8.5625, 8.4375, 8.3125, 8.3303566, 8.5357141, 8.5625, 8.5178566, 8.5, 8.5, 8.5625, 8.625, 8.75, 8.75, 8.8125, 8.9375, 8.9375, 9, 9, 9, 9, 8.875, 8.8125, 8.8125, 8.6875, 8.6875, 8.7053566, 8.8125, 8.8166666, -10, -10, -10, -10, -10, -10, 21, 21, 21, 21.125, 21.25, 21.4375, 21.6875, 22, 22.428572, 22.8125, 22.9375, 23.089287, 23.098213, 23.1875, 23.5, 23.607143, 23.714287, 24.0625, 24.401787, 24.6875, 24.9375, 25.0625, 25.1875, 25.1875, 25.28125, 25.53125, 25.763393, 26.09375, 26.5, 26.75, 27.0625, 27.4375, 27.6875, 27.875, 28.1875, 28.4375, 28.6875, 29, 29.1875, 29.3125, 29.5625, 29.75, 30, 30.375, 30.625
-10, -10, -10, -10, -10, -10, -10, -10, -10, -10, -10, -10, -10, -10, -10, -10, -10, -10, -10, -10, -10, 22.708332, 23.174999, 23.232143, 23.75, 23.714285, 23.714287, 23.833334, 23.90625, 24.15625, 24.34375, 24.46875, 24.5, 24.633928, 25, 25.1875, 25.5, 25.6875, 25.8125, 26.0625, 26.25, 26.5, 26.75, 26.875, 27, 27, 26.9375, 26.875, 26.875, 26.875, 26.875, 26.75, 26.5, 26.25, 26.0625, 26, 26, 26, 26, 26, 26, 26, 26, 25.9375, 25.8125, 25.6875, 25.5625, 25.4375, 25.3125, 25.125, 24.9375, 24.830357, 24.825001, 24.633928, 24.705357, 24.75, 25.008928, 25.583334, 25.669643, 25.6875, 25.455357, 25.4375, 25.5, 25.625, 25.723215, 26.372023, 27.372023, 27.892857, 28.125, 28.1875, 27.9375, 27.9375, 28.125, 28.706844, 29.369049, 29.741072, 29.9375, 29.96875, 30, 30.25, 30.4375, 30.6875, 31.0625, 31.357143, 31.625, 32, 32.25, 32.375, 32.678574, 33.25, 33.580357, 33.875, 34.0625, 34.1875, 34.3125, 34.5625, 34.8125, 35.125, 35.25, 35.25, 35.1875, 35, 34.8125, 34.5625, 34.3125, 34.0625, 33.803574, 33.4375, 33.375, 32.982143, 32.535713, 32.241074, 31.449406, 30.75, 30.491072, 30.285713, 30.214287, 30.25, 30.080357, 29.946428, 29.166668, 28.714285, 28.361607, 28.21875, 27.90625, 27.745537, 27.660713, 27.303572, 26.886906, 26.488094, 25.991072, 25.4125, 25.491072, 24.830357, 24.476191, 24.321428, 23.910713, 23.464285, 23.330357, 22.875, 22.326786, 22.241072, 21.833334, 21.6875, 21.75, 21.59375, 21.65625, 21.53125, 21.152779, 20.875, 8.4722223, 8.4375, 8.5625, 8.5625, 8.5625, 8.5625, 8.5625, 8.5625, 8.5, 8.5, 8.375, 8.375, 8.5625, 8.625, 8.6875, 8.6875, 8.625, 8.5625, 8.5625, 8.5, 8.375, 8.3125, 8.25, 8.25, 8.3125, 8.4375, 8.5, 8.5625, 8.5625, 8.5, 8.5, 8.5, 8.4375, 8.375, 8.3125, 8.3125, 8.375, 8.4375, 8.375, 8.375, 8.375, 8.4375, 8.5625, 8.5625, 8.5625, 8.4375, 8.5, 8.625, 8.75, 8.9375, 8.8125, 8.6875, 8.6875, 8.75, 8.875, 8.7678566, 8.5714283, 8.5, 8.625, 8.75, 8.75, 8.75, 8.75, 8.75, 8.9375, 8.8125, 8.75, 8.625, 8.5625, 8.5625, 8.375, 8.3125, 8.125, 8.1428566, 8.3482141, 8.3125, 8.3303566, 8.3125, 8.3125, 8.375, 8.375, 8.5, 8.5, 8.5625, 8.6875, 8.6875, 8.75, 8.75, 8.75, 8.8125, 8.75, 8.75, 8.8125, 8.6875, 8.75, 8.8511906, 8.916667, -10, -10, -10, -10, -10, -10, 20.625, 20.833334, 20.9375, 21, 21.125, 21.3125, 21.5625, 21.8125, 22.125, 22.446428, 22.8125, 22.9375, 23.089287, 23.160713, 23.3125, 23.6875, 23.919643, 23.964287, 24.3125, 24.589287, 24.6875, 24.875, 24.892857, 25.145834, 25.169643, 25.3125, 25.625, 25.964287, 26.3125, 26.8125, 27.0625, 27.3125, 27.625, 27.75, 27.875, 28.1875, 28.375, 28.5625, 28.875, 29.0625, 29.3125, 29.625, 29.8125, 30.0625, 30.375, 30.625, 30.875, 31.0625, 31.1875, 31.4375, 31.6875, 32, 32.1875, 32.3125, 32.5625, 32.6875, 33, 33.25, 33.375, 33.5625, 33.6875, 33.8125, 34.125, 34.5, 34.883926, 35.231251, 35.165176, 35.361607, 35.5, 35.75, 35.8125, 35.625, 35.4375, 35.375, 35.5, 35.5, 35.5, 35.4375, 35.375, 35.375, 35.3125, 35.40625, 35.53125, 35.46875, 35.59375, 35.5625, 35.375, 35.375, 35.151787, 35.061226, 34.672619, 34.32589, 34.174107, 34.14167, -10, -10, -10, -10, -10, -10, -10, -10, -10, -10, -10, -10, -10, -10, -10, -10, -10, -10, -10, -10, -10, -10, -10, -10, -10, -10, -10, -10, 23, 22.833332, 22.805555, 23.033333, 23.071428, 23.4375, 23.348213, 23.276787, 23.3125, 23.40625, 23.65625, 23.84375, 23.90625, 23.9375, 24.071428, 24.482143, 24.75, 25.125, 25.4375, 25.6875, 25.9375, 26.125, 26.3125, 26.5, 26.6875, 26.875, 26.875, 26.8125, 26.75, 26.6875, 26.6875, 26.6875, 26.5625, 26.375, 26.1875, 26.0625, 26, 26, 26, 26, 26, 26, 26, 26, 25.875, 25.6875, 25.5, 25.3125, 25.1875, 25.125, 25, 24.875, 24.830357, 24.825001, 24.633928, 24.705357, 24.75, 24.9375, 25.333334, 25.419643, 25.375, 25.205357, 25.0625, 25, 25.0625, 25.160715, 25.988094, 27.113094, 27.714287, 28, 28.125, 27.9375, 28.008928, 28.395834, 28.979166, 29.619049, 29.866072, 30.0625, 30.125, 30.1875, 30.4375, 30.5, 30.6875, 31.03125, 31.325893, 31.71875, 32.15625, 32.5, 32.75, 33, 33.3125, 33.5625, 33.8125, 34.0625, 34.25, 34.4375, 34.6875, 34.9375, 35.1875, 35.25, 35.25, 35.1875, 35, 34.8125, 34.5625, 34.3125, 34.0625, 33.803574, 33.4375, 33.3125, 32.919643, 32.473213, 32.178574, 31.449406, 30.75, 30.491072, 30.223213, 30.151787, 30.1875, 30, 29.776787, 29.041668, 28.526785, 28.205357, 28.125, 27.8125, 27.714287, 27.660713, 27.366072, 27.011906, 26.550594, 26.116072, 25.5625, 25.4375, 24.892857, 24.520834, 24.446428, 24.098213, 23.714285, 23.580357, 23.133926, 22.589285, 22.276785, 21.875, 21.75, 21.8125, 21.59375, 21.53125, 21.34375, 21.114584, 20.833334, 20.583332, 8.25, 8.3125, 8.3125, 8.3125, 8.3125, 8.3125, 8.3125, 8.25, 8.25, 8.125, 8.125, 8.3125, 8.375, 8.4375, 8.5, 8.4375, 8.375, 8.375, 8.25, 8.125, 8.0625, 8, 8, 8.0625, 8.1875, 8.25, 8.3125, 8.3125, 8.25, 8.25, 8.25, 8.1875, 8.125, 8.0625, 8.0625, 8.125, 8.1875, 8.1875, 8.1875, 8.25, 8.3125, 8.375, 8.375, 8.3125, 8.1875, 8.25, 8.4375, 8.5625, 8.75, 8.6875, 8.5, 8.5, 8.5625, 8.6875, 8.5803566, 8.3839283, 8.3125, 8.4375, 8.625, 8.625, 8.625, 8.5625, 8.5625, 8.8125, 8.6875, 8.625, 8.4375, 8.3125, 8.3125, 8.1875, 8.1875, 8.0625, 8.1428566, 8.3482141, 8.3125, 8.3303566, 8.25, 8.1875, 8.1875, 8.125, 8.25, 8.3125, 8.4375, 8.625, 8.625, 8.625, 8.5625, 8.5, 8.5625, 8.5625, 8.625, 8.75, 8.6875, 8.729167, 8.8015871, -10, -10, -10, -10, -10, 20, 20, 20.416666, 20.6875, 20.8125, 21, 21.160713, 21.276787, 21.5625, 21.794643, 22.1875, 22.5, 22.75, 22.9375, 23.026787, 23.223213, 23.4375, 23.875, 24.169643, 24.151787, 24.4375, 24.607143, 24.6875, 24.875, 24.955357, 25.270834, 25.357143, 25.5625, 25.875, 26.151787, 26.4375, 26.875, 27.125, 27.419643, 27.6875, 27.8125, 27.875, 28.1875, 28.375, 28.5625, 28.8125, 28.9375, 29.25, 29.5625, 29.875, 30.25, 30.5, 30.75
-10, -10, -10, -10, -10, -10, -10, -10, -10, -10, -10, -10, -10, -10, -10, -10, 22.25, 22.333332, 22.375, 22.583334, 22.472221, 22.541666, 22.65, 22.678572, 22.8125, 22.785713, 22.88393, 23, 23.125, 23.3125, 23.4375, 23.375, 23.3125, 23.375, 23.607143, 24.017857, 24.854166, 25.366072, 25.71875, 25.9375, 26.0625, 26.1875, 26.3125, 26.5625, 26.75, 26.75, 26.6875, 26.5625, 26.4375, 26.4375, 26.4375, 26.375, 26.25, 26.125, 26.0625, 26, 26, 26, 26, 26, 26, 26, 26, 25.8125, 25.5625, 25.3125, 25.0625, 25, 25, 24.9375, 24.875, 24.830357, 24.887501, 24.758928, 24.830357, 24.8125, 24.8125, 24.8125, 24.8125, 24.883928, 25.012501, 24.758928, 24.633928, 24.625, 24.883928, 25.845238, 26.916666, 27.57143, 27.875, 28.0625, 28, 28.196428, 28.619047, 29.104166, 29.636906, 29.803572, 30.0625, 30.25, 30.375, 30.625, 30.625, 30.75, 31.09375, 31.388393, 31.78125, 32.28125, 32.5625, 32.8125, 33, 33.1875, 33.446426, 33.895832, 34.241074, 34.5, 34.6875, 34.875, 35.0625, 35.1875, 35.1875, 35.1875, 35.125, 35, 34.803574, 34.4375, 34.25, 33.9375, 33.678574, 33.3125, 33.125, 32.75, 32.455357, 32.169643, 31.583334, 31.208334, 31.026785, 30.556549, 30.267857, 30.026787, 29.458334, 29.205357, 28.833334, 28.580357, 28.330357, 28.25, 27.8125, 27.651787, 27.598213, 27.366072, 27.136906, 26.613094, 26.116072, 25.392857, 25.1875, 24.6875, 24.625, 24.5625, 24.254463, 24.049107, 23.924107, 23.602676, 23.0625, 22.607143, 22.1875, 22, 22, 21.71875, 21.53125, 21.28125, 20.96875, 20.75, 20.472221, 20.166668, 8.0625, 8.0625, 8.0625, 8.0625, 8.0625, 8.0625, 8.0625, 8.0625, 8, 8.0625, 8.1875, 8.25, 8.25, 8.25, 8.1875, 8.125, 8.125, 8.0625, 8, 8, 8, 8, 8.0625, 8.125, 8.125, 8.125, 8.0625, 8, 8, 8, 8, 8, 8, 8, 8, 8, 8, 8, 8.0625, 8.125, 8.125, 8.125, 8.125, 8.0625, 8.125, 8.3125, 8.375, 8.5, 8.5, 8.375, 8.375, 8.375, 8.4375, 8.4375, 8.3125, 8.25, 8.3125, 8.4375, 8.4375, 8.4375, 8.375, 8.4375, 8.6875, 8.625, 8.5625, 8.3125, 8.125, 8.125, 8.0625, 8.1875, 8.125, 8.2053566, 8.3482141, 8.1875, 8.1428566, 8.0625, 8, 8, 8, 8.0625, 8.125, 8.25, 8.375, 8.375, 8.375, 8.3125, 8.25, 8.3125, 8.3125, 8.375, 8.5625, 8.583333, 8.8055563, -10, -10, -10, -10, -10, 20, 20, 20, 20.375, 20.5625, 20.75, 21.0625, 21.133928, 21.116072, 21.4375, 21.723213, 22.232143, 22.5625, 22.8125, 22.9375, 22.964287, 23.160713, 23.375, 23.75, 24.169643, 24.25, 24.5, 24.6875, 24.625, 24.75, 24.830357, 25.145834, 25.357143, 25.895834, 26.241072, 26.464287, 26.5625, 26.875, 27.125, 27.464287, 27.75, 27.875, 27.875, 28.1875, 28.375, 28.5625, 28.8125, 28.875, 29.1875, 29.5, 29.875, 30.3125, 30.5625, 30.8125, 31, 31.125, 31.125, 31.375, 31.5625, 32, 32.375, 32.5625, 32.8125, 32.8125, 33, 33.1875, 33.3125, 33.5625, 33.875, 34.214287, 34.4375, 34.75, 35.017857, 35.231251, 35.165176, 35.361607, 35.5, 35.75, 35.8125, 35.75, 35.6875, 35.6875, 35.875, 35.875, 35.875, 35.8125, 35.75, 35.75, 35.6875, 35.75, 35.6875, 35.5, 35.4375, 35.375, 35.40625, 35.53125, 35.53125, 35.334824, 34.970238, 34.63839, 34.377232, 34.245834, -10, -10, -10, -10, -10, -10, -10, -10, -10, -10, -10, -10, -10, -10, -10, -10, -10, -10, -10, -10, -10, -10, -10, 22, 22, 22.166666, 22.222221, 22.25, 22.5, 22.416666, 22.4375, 22.3125, 22.25, 22.3125, 22.285713, 22.44643, 22.625, 22.75, 22.9375, 23, 22.875, 22.8125, 22.875, 23.044643, 23.535713, 24.854166, 25.419643, 25.84375, 26, 26, 26.0625, 26.125, 26.375, 26.625, 26.625, 26.5625, 26.375, 26.1875, 26.1875, 26.1875, 26.125, 26.0625, 26, 26, 26, 26, 26, 26, 26, 26, 26, 25.9375, 25.6875, 25.4375, 25.1875, 25, 25, 25, 25, 25, 24.9375, 24.9375, 24.875, 24.8125, 24.75, 24.625, 24.5, 24.4375, 24.571428, 24.799999, 24.446428, 24.392857, 24.285713, 24.589285, 25.702379, 26.642857, 27.428572, 27.75, 28, 28.0625, 28.321428, 28.806547, 29.345238, 29.678572, 29.8125, 30.125, 30.375, 30.5625, 30.8125, 30.75, 30.875, 31.15625, 31.450893, 31.84375, 32.21875, 32.5, 32.75, 32.9375, 33.196426, 33.571426, 33.958332, 34.303574, 34.4375, 34.625, 34.8125, 34.9375, 35.0625, 35.0625, 35.0625, 35.0625, 34.9375, 34.616074, 34.142857, 33.9375, 33.625, 33.5, 33.3125, 33.0625, 32.6875, 32.4375, 32.089287, 31.645834, 31.7551, 31.5, 30.806549, 30.339287, 29.755953, 29.083334, 28.62755, 28.642857, 28.696428, 28.580357, 28.4375, 27.9375, 27.580357, 27.375, 27.1875, 27.178572, 26.729166, 26.25, 25.535713, 25.25, 24.75, 24.6875, 24.625, 24.375, 24.3125, 24.125, 23.785713, 23.30357, 22.821428, 22.4375, 22.1875, 22.0625, 21.6875, 21.375, 21.0625, 20.75, 20.5, 20.354166, 20.111113, 8, 8, 8, 8, 8, 8, 8, 8, 8, 8, 8.0625, 8.0625, 8.0625, 8.125, 8.125, 8.125, 8.125, 8.0625, 8, 8, 8, 8, 8.0625, 8.0625, 8.0625, 8.0625, 8, 8, 8, 8, 8, 8, 8, 8, 8, 8, 8, 8, 8, 8, 8, 8, 8, 8, 8, 8.125, 8.1875, 8.25, 8.3125, 8.25, 8.25, 8.25, 8.25, 8.25, 8.1875, 8.1875, 8.25, 8.3125, 8.3125, 8.25, 8.1875, 8.25, 8.4375, 8.4375, 8.4375, 8.25, 8.125, 8.125, 8.0625, 8.125, 8.0625, 8.0625, 8.0625, 8, 8, 8, 8, 8, 8, 8, 8.0625, 8.125, 8.1875, 8.1875, 8.125, 8.0625, 8, 8.0625, 8.0625, 8.1875, 8.395833, 8.5277777, -10, -10, -10, -10, -10, -10, 20, 20, 20, 20.1875, 20.4375, 20.6875, 21.0625, 21.008928, 20.928572, 21.25, 21.651785, 22.276787, 22.625, 22.875, 23, 23, 23.125, 23.375, 23.625, 24.0625, 24.1875, 24.4375, 24.6875, 24.625, 24.75, 24.830357, 25.083334, 25.357143, 25.958334, 26.276787, 26.419643, 26.4375, 26.625, 26.9375, 27.446428, 27.75, 27.9375, 27.9375, 28.125, 28.3125, 28.5, 28.75, 28.9375, 29.25, 29.5625, 29.9375, 30.25, 30.4375, 30.6875
-10, -10, -10, -10, -10, -10, -10, -10, -10, -10, -10, -10, 22, 22, 22, 22, 22.0625, 21.979166, 21.901787, 21.9375, 21.9375, 22.0625, 22, 22, 22, 22, 22.232143, 22.375, 22.5, 22.625, 22.625, 22.4375, 22.375, 22.375, 22.482143, 22.973213, 24.583332, 25.183674, 25.678572, 25.75, 25.857143, 25.9375, 26, 26.1875, 26.375, 26.375, 26.375, 26.3125, 26.1875, 26.1875, 26.1875, 26.0625, 26, 26, 26, 26, 26, 26, 26, 26, 25.9375, 25.875, 25.75, 25.5, 25.3125, 25.125, 25, 25, 25, 25, 25, 25, 24.9375, 24.8125, 24.6875, 24.5, 24.375, 24.25, 24.125, 24.133928, 24.299999, 24.116072, 24.196428, 24.223213, 24.517857, 25.714285, 26.666666, 27.428572, 27.8125, 28, 28.1875, 28.508928, 28.994047, 29.303572, 29.53125, 29.65625, 30.09375, 30.46875, 30.8125, 31.0625, 31, 31.125, 31.28125, 31.53125, 31.90625, 32.15625, 32.446426, 32.8125, 33, 33.383926, 33.732143, 34.083332, 34.366074, 34.375, 34.5625, 34.75, 34.875, 35, 35, 35, 35, 34.9375, 34.616074, 34.080357, 33.767857, 33.4375, 33.3125, 33.1875, 32.9375, 32.625, 32.375, 32.1875, 32.25, 32.244045, 31.770834, 31.127977, 30.517857, 29.589287, 28.833334, 28.455357, 28.5625, 28.5625, 28.625, 28.5625, 28.125, 27.705357, 27.330357, 27.0625, 27, 26.75, 26.3125, 25.67857, 25.3125, 24.875, 24.8125, 24.75, 24.5625, 24.5, 24.25, 23.9375, 23.473213, 22.892857, 22.5, 22.1875, 22, 21.59375, 21.21875, 20.84375, 20.53125, 20.28125, 20.09375, 19.927084, 19.5625, 8, 8, 8, 8, 8, 8, 8, 8, 8, 8, 8, 8, 8.0625, 8.0625, 8.0625, 8.0625, 8, 8, 8, 8, 8, 8, 8, 8, 8, 8, 8, 8, 8, 8, 8, 8, 8, 8, 7.9375, 7.9375, 8, 8.0357141, 8.0625, 8.0625, 8, 8, 8, 8, 8.0625, 8.0625, 8.0625, 8.0625, 8, 8, 8, 8, 8, 8, 8, 8.0625, 8.125, 8.125, 8.125, 8.0625, 8.125, 8.25, 8.25, 8.25, 8.125, 8, 8, 8, 8.0625, 8.0625, 8.0625, 8.0625, 8, 8, 8, 8, 8, 8, 8, 8.0625, 8.125, 8.1875, 8.1875, 8.125, 8.0625, 8, 8, 8.0625, 8.25, 8.5083332, -10, -10, -10, -10, -10, -10, 19.5, 19.75, 19.8125, 19.875, 20.0625, 20.375, 20.625, 21, 21.008928, 20.928572, 21.25, 21.714285, 22.339287, 22.6875, 22.9375, 23, 23, 23.0625, 23.25, 23.5, 23.875, 24.0625, 24.375, 24.625, 24.6875, 24.875, 24.9375, 25, 25.321428, 26.104168, 26.38393, 26.5, 26.4375, 26.5, 26.875, 27.446428, 27.75, 27.9375, 27.9375, 28.125, 28.604166, 28.928572, 29.125, 29.25, 29.4375, 29.625, 30, 30.25, 30.4375, 30.6875, 30.875, 31.0625, 31.1875, 31.4375, 31.625, 31.9375, 32.125, 32.25, 32.4375, 32.5625, 32.8125, 32.9375, 33, 33.25, 33.625, 34.151787, 34.5625, 34.875, 35.321426, 35.650002, 35.285713, 35.49107, 35.5, 35.75, 35.8125, 35.75, 35.75, 35.75, 35.9375, 36, 36, 36, 35.9375, 35.9375, 35.9375, 35.928574, 35.541668, 35.029762, 34.866074, 34.8125, 34.96875, 35.15625, 35.066963, 34.870537, 34.678574, 34.40625, 34.484375, 34.395832, -10, -10, -10, -10, -10, -10, -10, -10, -10, -10, -10, -10, -10, -10, -10, -10, -10, -10, -10, -10, -10, 21.866667, 21.904762, 22, 21.9375, 21.8125, 21.5625, 21.339287, 21.3125, 21.3125, 21.5, 21.5625, 21.5625, 21.625, 21.6875, 21.982143, 22.1875, 22.25, 22.34375, 22.28125, 22.15625, 22.15625, 22.125, 22.125, 22.535713, 23.444443, 23.964287, 24.479166, 25.25, 25.464287, 25.6875, 25.875, 26.0625, 26.25, 26.25, 26.25, 26.25, 26.25, 26.25, 26.25, 26.125, 26, 26, 26, 26, 26, 26, 26, 26, 25.875, 25.75, 25.5625, 25.3125, 25.1875, 25.0625, 25, 25, 25, 25, 25, 24.9375, 24.8125, 24.625, 24.4375, 24.25, 24.125, 24, 23.8125, 23.821428, 23.924999, 23.741072, 23.946428, 23.973213, 24.247023, -10, -10, -10, 28.125, 28.166666, 28.375, 28.625, 28.848213, 29.15625, 29.375, 29.625, 30.125, 30.53125, 30.875, 31.0625, 31.0625, 31.25, 31.4375, 31.6875, 31.9375, 32.0625, 32.321426, 32.6875, 32.9375, 33.321426, 33.669643, 34.020832, 34.303574, 34.3125, 34.5, 34.6875, 34.8125, 35, 35, 35, 35, 34.9375, 34.607143, 33.872025, 33.526787, 33.25, 33.1875, 33.0625, 32.830357, 32.5, 32.25, 32.125, 32.25, 32.306545, 31.833334, 31.252977, 30.571428, 29.589287, 28.958334, 28.625, 28.75, 28.75, 28.78125, 28.65625, 28.21875, 27.736607, 27.267857, 26.9375, 26.8125, 26.5625, 26.1875, 25.61607, 25.3125, 24.9375, 24.8125, 24.6875, 24.4375, 24.25, 24, 23.75, 23.348213, 22.86607, 22.5, 22.1875, 22, 21.625, 21.25, 20.875, 20.5625, 20.28125, 20.03125, 19.736607, 19.458334, 19, 8, 8, 8, 8, 8, 8, 8, 8, 8, 8, 8, 8, 8, 8, 8, 8, 8, 8, 8, 8, 7.9375, 7.875, 7.875, 7.875, 7.9375, 8, 8, 8, 8, 8, 8, 8, 7.9375, 7.875, 7.875, 7.9375, 8.0357141, 8.0625, 8.0625, 8, 8, 8, 8, 8, 8, 8, 8, 8, 8, 8, 8, 8, 8, 8, 8, 7.9375, 7.875, 7.875, 7.875, 8, 8.125, 8.125, 8.125, 8.0625, 7.9375, 7.9375, 7.9375, 8, 8.0625, 8.0625, 8.0625, 8, 8, 8, 8, 8, 8, 8, 8, 8, 8, 8, 8, 8, 8, 8, 8.125, 8.333333, 8.5944443, -10, -10, -10, -10, -10, 19, 19.333334, 19.571428, 19.8125, 19.875, 20.125, 20.3125, 20.5625, 20.875, 20.910713, 21.026787, 21.3125, 21.857143, 22.464287, 22.75, 23, 23, 23, 23, 23.125, 23.375, 23.75, 24, 24.375, 24.625, 24.75, 24.910713, 24.839287, 24.875, 25.133928, 25.979168, 26.25893, 26.5, 26.5, 26.5625, 27, 27.464287, 27.75, 27.875, 27.875, 28.0625, 28.770832, 29.169643, 29.3125, 29.4375, 29.5625, 29.6875, 30, 30.125, 30.3125, 30.5625
-10, -10, -10, -10, -10, -10, -10, -10, -10, -10, -10, 20, 21.52857, 21.428572, 21.625, 21.625, 21.625, 21.375, 21.151787, 21.1875, 21.125, 21.3125, 21.375, 21.375, 21.4375, 21.4375, 21.6875, 21.8125, 21.8125, 21.90625, 21.84375, 21.84375, 21.96875, 22, 22, 22.267857, 22.785715, 23.153061, 23.535715, 23.892857, 24.607143, 25.354166, 25.732143, 26, 26.125, 26.125, 26.125, 26.25, 26.3125, 26.3125, 26.3125, 26.125, 26, 26, 26, 26, 26, 26, 26, 25.9375, 25.75, 25.5625, 25.3125, 25.125, 25.0625, 25, 25, 25, 25, 25, 25, 24.875, 24.6875, 24.4375, 24.1875, 24.0625, 24, 23.875, 23.6875, 23.5625, 23.475, 23.419643, 23.625, 23.723213, 23.892857, -10, -10, -10, 28.4375, 28.416666, 28.5625, 28.6875, 28.875, 29.21875, 29.4375, 29.8125, 30.25, 30.59375, 30.9375, 31.0625, 31.125, 31.375, 31.5625, 31.8125, 32, 32.0625, 32.258926, 32.5625, 32.8125, 33.196426, 33.535713, 33.75, 34, 34.0625, 34.375, 34.625, 34.8125, 35.0625, 35.0625, 35.0625, 35.0625, 34.9375, 34.616074, 33.934525, 33.419643, 33.1875, 33.03125, 32.90625, 32.674107, 32.34375, 32.125, 32.0625, 32.116074, 31.931545, 31.476191, 31.044643, 30.517857, 29.75, 29.410713, 29.017857, 29.071428, 28.875, 28.90625, 28.71875, 28.28125, 27.683035, 27.169643, 26.875, 26.75, 26.5625, 26.1875, 25.61607, 25.3125, 24.9375, 24.75, 24.5625, 24.21875, 23.96875, 23.71875, 23.40625, 23.0625, 22.723213, 22.5, 22.25, 22, 21.508928, 21.089287, 20.75, 20.482143, 20.15625, 19.90625, 19.549107, 19.40625, 19, 19, 8, 8, 8, 8, 8, 8, 8, 8, 8, 8, 8, 8, 8, 8, 8, 8, 8, 8, 7.9375, 7.8125, 7.6875, 7.625, 7.6875, 7.8125, 7.9375, 8, 8, 8, 8, 8, 7.9375, 7.8125, 7.6875, 7.6875, 7.75, 7.9107141, 8, 8, 8, 8, 8, 8, 8, 8, 8, 8, 7.9375, 7.9375, 7.9375, 7.9375, 8, 8, 8, 8, 7.875, 7.75, 7.75, 7.75, 7.875, 8, 8, 8, 7.9375, 7.8125, 7.8125, 7.8125, 7.875, 8, 8, 8, 8, 8, 8, 8, 8, 8, 8, 8, 8, 8, 8, 7.9375, 7.875, 7.8928571, 8, 8.166667, 8.4444437, -10, -10, -10, -10, -10, 19, 19, 19.25, 19.321428, 19.625, 19.75, 20, 20.1875, 20.375, 20.5625, 20.6875, 21, 21.357143, 21.928572, 22.482143, 22.75, 23, 23, 23, 23, 23.133928, 23.5, 23.75, 24, 24.3125, 24.5625, 24.8125, 25.035713, 24.964287, 25.0625, 25.258928, 25.833334, 26.080357, 26.3125, 26.4375, 26.5625, 27, 27.419643, 27.6875, 27.8125, 27.875, 28.0625, 28.770832, 29.169643, 29.375, 29.5625, 29.6875, 29.8125, 30, 30, 30.1875, 30.4375, 30.6875, 30.9375, 31.0625, 31.3125, 31.5625, 31.8125, 31.9375, 31.9375, 32.125, 32.375, 32.75, 33.125, 33.3125, 33.5625, 33.75, 34, 34.3125, 34.705357, 35.607143, 36.015476, 35.714287, 35.67857, 35.625, 35.75, 35.9375, 35.875, 35.875, 35.875, 36, 36.0625, 36.0625, 36.0625, 35.9375, 35.875, 35.8125, 35.678574, 35.291668, 34.842262, 34.741074, 34.75, 34.875, 35.125, 35.098213, 34.964287, 34.75, 34.321426, 34.205357, 34.083332, -10, -10, -10, -10, -10, -10, -10, -10, -10, -10, -10, -10, -10, -10, -10, -10, -10, -10, -10, 19, 19.666666, 20.183332, 20.632654, 21.0625, 21.125, 21.15625, 20.96875, 20.808037, 20.84375, 20.8125, 21, 21, 21, 21, 20.9375, 21.1875, 21.28125, 21.28125, 21.375, 21.3125, 21.40625, 21.504463, 21.693878, 21.714285, 21.857143, 22, 22.401787, 22.642857, 23.035715, 23.561224, 24.711309, 25.482143, 25.830357, 26, 26, 26, 26.1875, 26.3125, 26.3125, 26.25, 26.0625, 25.9375, 25.9375, 26, 26, 26, 26, 26, 25.875, 25.625, 25.4375, 25.1875, 25.0625, 25.0625, 25, 25, 25, 25, 25, 24.9375, 24.75, 24.5, 24.25, 24.0625, 24, 24, 23.9375, 23.6875, 23.4375, 23.1875, 23.169643, 23.303572, 23.5, 23.583334, -10, -10, -10, 28.75, 28.666666, 28.75, 28.8125, 28.9375, 29.1875, 29.40625, 29.84375, 30.1875, 30.433037, 30.8125, 30.919643, 31.0625, 31.375, 31.5625, 31.8125, 32, 32.0625, 32.196426, 32.5, 32.75, 33.0625, 33.348213, 33.625, 33.8125, 34.0625, 34.375, 34.625, 34.875, 35.125, 35.125, 35.125, 35.125, 34.9375, 34.678574, 34.104168, 33.544643, 33.3125, 33.03125, 32.78125, 32.486607, 32.15625, 32, 31.96875, 31.959822, 31.739582, 31.302084, 30.919643, 30.508928, 30.020834, 29.758928, 29.214285, 29.175594, 28.9375, 28.727678, 28.602678, 28.21875, 27.790178, 27.294643, 27, 26.75, 26.5, 26.125, 25.566963, 25.21875, 24.84375, 24.59375, 24.375, 24.0625, 23.741072, 23.375, 23.1875, 22.9375, 22.830357, 22.616072, 22.166666, 21.883928, 21.383928, 21.026787, 20.75, 20.419643, 20.03125, 19.75, 19.392857, 19.25, 19.09375, 19, 8, 8, 8, 8, 8, 8, 8, 8, 8, 8, 8, 8, 8, 8, 8, 8, 8, 8, 7.875, 7.6875, 7.5, 7.375, 7.5, 7.6875, 7.875, 8, 8, 8, 7.9375, 7.9375, 7.875, 7.75, 7.625, 7.5625, 7.5625, 7.7232141, 7.875, 7.875, 7.875, 7.875, 7.875, 7.9375, 8, 7.9375, 7.875, 7.8125, 7.6875, 7.75, 7.8125, 7.8125, 7.9375, 7.9375, 7.9375, 7.9375, 7.75, 7.5625, 7.5, 7.5625, 7.75, 7.875, 7.875, 7.8125, 7.6875, 7.625, 7.6875, 7.75, 7.875, 7.9375, 7.9375, 7.9375, 7.9375, 8, 8, 8, 8, 8, 8, 8, 8, 8, 7.9375, 7.8125, 7.7083335, 7.8571429, 8, -10, -10, -10, -10, -10, -10, 19, 19, 19, 19, 19.071428, 19.375, 19.5, 19.75, 19.9375, 20.125, 20.3125, 20.5625, 21, 21.464287, 22, 22.5, 22.75, 23, 23, 23, 23.0625, 23.196428, 23.5625, 23.75, 23.9375, 24.25, 24.5, 24.8125, 25.035713, 24.964287, 25.125, 25.321428, 25.833334, 26.044643, 26.3125, 26.5, 26.6875, 27.0625, 27.375, 27.625, 27.75, 27.875, 28.125, 28.833332, 29.232143, 29.4375, 29.5625, 29.6875, 29.8125, 30, 30, 30.25, 30.5
