-10, -10, -10, -10, -10, -10, -10, -10, -10, -10, -10, 58, 57.833336, 57.75, 57.625, 57.375, 57.125, 56.830357, 56.75, 56.75, 56.9375, 57.0625, 57.0625, 56.803574, 56.25, 56.125, 55.75, 55.8125, 55.6875, 55.428574, 55.041668, 54.625, 54.330357, 54.196426, 54.125, 54.125, 53.9375, 53.875, 53.75, 53.5, 53.375, 53, 52.625, 52.375, 52.125, 52, 52, 51.9375, 51.9375, 51.8125, 51.5625, 51.375, 51.125, 51, 50.875, 50.75, 50.5625, 50.375, 50.3125, 50.25, 50.1875, 50.0625, 49.830357, 49.678574, 49.220238, 48.738094, 48.642857, 48.5625, 48.5, 48.366074, 47.809525, 47.508926, 47.5, 47.5, 47.4375, 47.3125, 47.026787, 46.732143, 46.330357, 46.080357, 45.705357, 45.625, 45.5625, 45.5625, 45.5625, 45.5625, 45.4375, 45.125, 44.830357, 44.5, 44.25, 44.125, 44, 43.9375, 43.875, 43.6875, 43.4375, 43.25, 43, 42.875, 42.6875, 42.4375, 42.25, 42.0625, 41.8125, 41.5625, 41.3125, 41.0625, 41, 40.9375, 40.875, 40.75, 40.5, 40.375, 40.1875, 39.9375, 39.705357, 39.4375, 39.1875, 39.0625, 39, 38.9375, 38.6875, 38.4375, 38.1875, 38, 37.9375, 37.6875, 37.4375, 37.25, 36.910713, 36.642857, 36.508926, 36.3125, 36.25, 36.0625, 35.705357, 35.401787, 35.041668, 34.9375, 34.9375, 34.9375, 34.875, 34.8125, 34.5625, 34.375, 34.0625, 33.678574, 33.375, 33.25, 33.125, 33.125, 33, 32.875, 32.9375, 32.910713, 32.875, 32.708336, 32.55357, 32.133926, 31.830357, 31.5, 31.1875, 31.125, 30.875, 30.75, 30.625, 30.375, 30.25, 30.125, 29.75, 29.5625, 29.5, 29.25, 29.25, 29.1875, 29, 28.875, 28.616072, 28.1875, 27.964287, 27.875, 27.875, 27.6875, 27.4375, 27.1875, 27, 26.9375, 26.875, 26.6875, 26.4375, 26.25, 26.0625, 25.9375, 25.6875, 25.4375, 25.1875, 25, 25, 24.8125, 24.5625, 24.3125, 24.0625, 23.8125, 23.5625, 23.3125, 23.0625, 23.0625, 22.9375, 22.9375, 22.875, 22.6875, 22.5625, 22.3125, 22.125, 21.75, 21.5625, 21.4375, 21.4375, 21.6875, 21.875, 22, 22, 22.1875, 22.4375, 22.6875, 22.9375, 23, 23.125, 23.3125, 23.5, 23.8125, 24, 24.0625, 24.3125, 24.5, 24.6875, 24.9375, 25, 25.0625, 25.3125, 25.5625, 25.8125, 26, 26, 26.0625, 26.1875, 26.375, 26.625, 26.8125, 26.9375, 27, 27.125, 27.375, 27.625, 27.875, 28.1875, 28.4375, 28.6875, 28.9375, 29.0625, 29.25, 29.5, 29.75, 29.9375, 30, 30, 30, 30.0625, 30.3125, 30.5625, 30.8125, 31.125, 31.098213, 31.026787, 31.0625, 31.0625, 31.375, 31.8125, 32.339287, 32.5625, 32.8125, 32.875, 33.0625, 33.3125, 33.5, 33.6875, 33.8125, 33.875, 33.9375, 34.0625, 34.3125, 34.5625, 34.8125, 35.0625, 35.125, 35.375, 35.625, 35.8125, 36.0625, 36.25, 36.5, 36.75, 36.875, 36.9375, 36.9375, 37.0625, 37.375, 37.625, 37.875, 38.0625, 38.1875, 38.3125, 38.4375, 38.714287, 38.973213, 39.0625, 39.3125, 39.3125, 39.4375, 39.625, 39.75, 40, 40.232143, 40.5, 40.75, 40.875, 41, 41, 41.125, 41.375, 41.625, 41.875, 42.0625, 42.3125, 42.5625, 42.8125, 43, 43, 43, 43.125, 43.375, 43.625, 43.875, 44.0625, 44.125, 44.125, 44.375, 44.5625, 44.666668, -10, -10, -10, -10, -10, -10, -10, -10, -10, -10, -10, -10, -10, -10, -10, -10, -10, -10, -10, -10, -10, -10, -10, -10, -10, -10, -10, -10, -10, -10, -10, -10, -10, -10, -10, -10, -10, 58.125, 58.083336, 58, 57.9375, 57.6875, 57.3125, 57.017857, 56.875, 56.8125, 56.9375, 56.9375, 56.9375, 56.741074, 56.375, 56.25, 55.875, 55.75, 55.625, 55.303574, 54.791668, 54.401787, 54.125, 54.0625, 54.0625, 54.0625, 53.875, 53.75, 53.625, 53.375, 53.3125, 53, 52.625, 52.4375, 52.25, 52.125, 52.125, 52, 51.9375, 51.8125, 51.5625, 51.375, 51.125, 51, 50.866074, 50.541668, 50.392857, 50.25, 50.25, 50.25, 50.1875, 50.0625, 49.767857, 49.625, 49.366074, 48.916668, 48.830357, 48.625, 48.5, 48.366074, 47.916668, 47.696426, 47.6875, 47.625, 47.5, 47.375, 47.125, 46.8125, 46.5625, 46.25, 45.830357, 45.6875, 45.5, 45.5625, 45.5625, 45.5625, 45.5, 45.0625, 44.705357, 44.375, 44.125, 44.0625, 44, 44, 43.9375, 43.75, 43.5, 43.25, 43, 42.9375, 42.75, 42.5, 42.25, 41.9375, 41.625, 41.375, 41.1875, 41, 41, 41, 41, 40.9375, 40.6875, 40.5, 40.1875, 39.9375, 39.642857, 39.375, 39.1875, 39, 39, 38.9375, 38.6875, 38.4375, 38.1875, 38, 38, 37.75, 37.5, 37.3125, 36.973213, 36.767857, 36.696426, 36.5, 36.375, 36.1875, 35.67857, 35.366074, 35.1875, 35, 35.125, 34.973213, 34.767857, 34.633926, 34.375, 34.25, 34.0625, 33.803574, 33.5625, 33.4375, 33.25, 33.25, 33.0625, 33, 33, 32.973213, 32.875, 32.583336, 32.42857, 31.946428, 31.642857, 31.375, 31.125, 31.0625, 30.9375, 30.8125, 30.6875, 30.4375, 30.25, 30.125, 29.8125, 29.6875, 29.625, 29.375, 29.3125, 29.1875, 29, 28.875, 28.678572, 28.303572, 27.916666, 27.830357, 27.8125, 27.625, 27.4375, 27.1875, 27, 27, 26.9375, 26.75, 26.5, 26.25, 26.0625, 25.9375, 25.6875, 25.4375, 25.25, 25.125, 25.125, 25, 24.75, 24.4375, 24.125, 23.839287, 23.625, 23.5, 23.3125, 23.25, 23.125, 23, 23, 22.8125, 22.625, 22.375, 22.125, 21.8125, 21.625, 21.5, 21.5, 21.6875, 21.875, 22, 22, 22.125, 22.3125, 22.5625, 22.8125, 22.9375, 23.1875, 23.375, 23.625, 23.9375, 24.0625, 24.125, 24.375, 24.5625, 24.75, 25, 25, 25.125, 25.375, 25.625, 25.875, 26, 26, 26.0625, 26.1875, 26.375, 26.625, 26.8125, 26.9375, 27, 27.1875, 27.4375, 27.6875, 27.9375, 28.125, 28.375, 28.625, 28.90625, 29.15625, 29.34375, 29.59375, 29.8125, 29.9375, 30, 30, 30, 30.125, 30.375, 30.625, 30.875, 31.1875, 31.223213, 31.214287, 31.25, 31.1875, 31.4375, 31.875, 32.464287, 32.75, 33, 33, 33.0625, 33.1875, 33.375, 33.5, 33.705357, 33.982143, 34.116074, 34.3125, 34.4375, 34.625, 34.8125, 35.0625, 35.25, 35.5, 35.75, 35.9375, 36.125, 36.3125, 36.5625, 36.75, 36.875, 36.9375, 36.9375, 37.0625, 37.375, 37.625, 37.875, 38, 38.0625, 38.1875, 38.3125, 38.589287, 38.848213, 38.9375, 39.1875, 39.3125, 39.5, 39.6875, 39.8125, 39.9375, 40.107143, 40.375, 40.625, 40.8125
-10, -10, -10, -10, -10, -10, -10, -10, -10, -10, -10, 58.25, 58.25, 58.25, 58.3125, 58.0625, 57.6875, 57.285713, 57.0625, 56.9375, 56.9375, 56.8125, 56.75, 56.5625, 56.375, 56.25, 55.875, 55.625, 55.4375, 55.1875, 54.9375, 54.642857, 54.4375, 54.25, 54.1875, 54.125, 53.8125, 53.625, 53.5, 53.25, 53.1875, 52.9375, 52.5625, 52.4375, 52.3125, 52.1875, 52.1875, 52, 51.875, 51.6875, 51.4375, 51.25, 51.0625, 51, 50.794643, 50.354168, 50.267857, 50.125, 50.25, 50.25, 50.1875, 50, 49.642857, 49.4375, 49.1875, 49, 48.875, 48.625, 48.3125, 48.0625, 47.875, 47.75, 47.75, 47.625, 47.4375, 47.25, 47.0625, 46.8125, 46.5625, 46.25, 45.830357, 45.75, 45.5625, 45.625, 45.625, 45.5, 45.3125, 44.839287, 44.4375, 44.125, 44.107143, 44, 44.125, 44.0625, 43.9375, 43.642857, 43.375, 43.125, 42.866074, 42.604168, 42.455357, 42.3125, 42.1875, 41.830357, 41.508926, 41.25, 41.125, 41, 41, 41, 41, 40.9375, 40.6875, 40.4375, 40.0625, 39.8125, 39.5625, 39.3125, 39.1875, 39, 39, 38.9375, 38.75, 38.5625, 38.3125, 38.125, 38.0625, 37.75, 37.5, 37.25, 36.9375, 36.875, 36.875, 36.6875, 36.5, 36.25, 35.74107, 35.464287, 35.25, 35.0625, 35.125, 34.973213, 34.705357, 34.508926, 34.25, 34.0625, 33.9375, 33.803574, 33.5625, 33.5, 33.3125, 33.25, 33.125, 33.125, 33.125, 33.098213, 32.875, 32.395836, 32.205357, 31.875, 31.580357, 31.375, 31.125, 31, 30.9375, 30.875, 30.8125, 30.5625, 30.375, 30.1875, 29.875, 29.8125, 29.75, 29.5, 29.3125, 29.017857, 28.8125, 28.75, 28.678572, 28.348213, 27.833332, 27.651787, 27.5625, 27.4375, 27.3125, 27.125, 27, 27, 26.9375, 26.75, 26.5, 26.25, 26.0625, 25.875, 25.625, 25.375, 25.1875, 25.125, 25.0625, 24.9375, 24.6875, 24.375, 24.0625, 23.776787, 23.625, 23.5625, 23.4375, 23.375, 23.25, 23.0625, 23.0625, 22.9375, 22.6875, 22.4375, 22.1875, 21.875, 21.6875, 21.5625, 21.53125, 21.65625, 21.84375, 21.96875, 22, 22.0625, 22.1875, 22.375, 22.625, 22.8125, 23.125, 23.3125, 23.571428, 23.9375, 23.9375, 24.0625, 24.1875, 24.4375, 24.6875, 24.9375, 25, 25.125, 25.3125, 25.5625, 25.8125, 25.9375, 26, 26.0625, 26.25, 26.5, 26.75, 26.9375, 27, 27, 27.25, 27.5, 27.75, 28, 28.0625, 28.3125, 28.5625, 28.84375, 29.15625, 29.34375, 29.59375, 29.8125, 29.9375, 30, 30, 30, 30.1875, 30.4375, 30.6875, 30.9375, 31.25, 31.348213, 31.401787, 31.4375, 31.3125, 31.5, 31.8125, 32.401787, 32.6875, 32.9375, 33, 33, 33.0625, 33.1875, 33.3125, 33.580357, 33.919643, 34.178574, 34.375, 34.4375, 34.625, 34.75, 35.0625, 35.375, 35.625, 35.875, 36, 36.125, 36.25, 36.5, 36.6875, 36.8125, 36.9375, 36.9375, 37, 37.3125, 37.5625, 37.8125, 38, 38, 38.125, 38.3125, 38.5625, 38.8125, 38.9375, 39.125, 39.375, 39.625, 39.875, 40, 40, 40.0625, 40.3125, 40.5625, 40.8125, 41, 41.0625, 41.3125, 41.5625, 41.8125, 42, 42.0625, 42.25, 42.4375, 42.6875, 42.875, 42.9375, 43, 43.125, 43.375, 43.625, 43.9375, 44.1875, 44.1875, 44.25, 44.4375, 44.5625, 44.750004, -10, -10, -10, -10, -10, -10, -10, -10, -10, -10, -10, -10, -10, -10, -10, -10, -10, -10, -10, -10, -10, -10, -10, -10, -10, -10, -10, -10, -10, -10, -10, -10, -10, -10, -10, -10, -10, 58.25, 58.166668, 58.214287, 58.419643, 58.232143, 58, 57.642857, 57.3125, 57.1875, 57.035713, 56.633926, 56.5, 56.3125, 56.1875, 56.1875, 55.9375, 55.625, 55.375, 55.1875, 55, 54.875, 54.75, 54.4375, 54.25, 54.1875, 53.848213, 53.580357, 53.446426, 53.125, 53, 52.75, 52.375, 52.375, 52.3125, 52.25, 52.25, 51.9375, 51.75, 51.5, 51.25, 51.125, 51, 51, 50.857143, 50.416668, 50.267857, 50.125, 50.1875, 50.1875, 50.125, 49.9375, 49.642857, 49.5, 49.375, 49.25, 49.125, 48.794643, 48.258926, 47.866074, 47.625, 47.5625, 47.5625, 47.5, 47.303574, 46.9375, 46.8125, 46.5625, 46.4375, 46.1875, 45.892857, 45.875, 45.75, 45.8125, 45.75, 45.5, 45.25, 44.839287, 44.544643, 44.25, 44.232143, 44.0625, 44.125, 44.0625, 43.866074, 43.455357, 43.25, 43, 42.928574, 42.604168, 42.392857, 42.3125, 42.125, 41.830357, 41.633926, 41.3125, 41.125, 40.964287, 40.9375, 40.9375, 40.9375, 40.8125, 40.625, 40.375, 40, 39.776787, 39.5, 39.25, 39.1875, 39, 39, 38.9375, 38.8125, 38.6875, 38.4375, 38.25, 38.125, 37.75, 37.5, 37.25, 37, 37, 37, 36.75, 36.5, 36.25, 35.848213, 35.589287, 35.4375, 35.1875, 35.1875, 35.035713, 34.642857, 34.383926, 34.0625, 33.84375, 33.78125, 33.78125, 33.71875, 33.625, 33.4375, 33.25, 33.1875, 33.1875, 33.0625, 32.9375, 32.6875, 32.4375, 32.3125, 32.0625, 31.767857, 31.5, 31.25, 31.0625, 30.875, 30.875, 30.8125, 30.5625, 30.4375, 30.1875, 29.9375, 29.875, 29.8125, 29.5625, 29.25, 28.848213, 28.6875, 28.6875, 28.678572, 28.410713, 27.895832, 27.651787, 27.5, 27.375, 27.25, 27.0625, 27, 27, 26.9375, 26.75, 26.5, 26.25, 26, 25.75, 25.5, 25.25, 25.125, 25.125, 25, 24.875, 24.625, 24.3125, 24.0625, 23.839287, 23.75, 23.6875, 23.5625, 23.4375, 23.3125, 23.125, 23.125, 22.9375, 22.625, 22.375, 22.125, 21.9375, 21.71875, 21.5625, 21.53125, 21.59375, 21.8125, 21.96875, 22, 22, 22.0625, 22.1875, 22.4375, 22.6875, 23, 23.25, 23.517857, 24, 24, 24.1875, 24.25, 24.5, 24.75, 24.9375, 25, 25.125, 25.3125, 25.5625, 25.8125, 25.9375, 26, 26.0625, 26.25, 26.4375, 26.6875, 26.875, 26.9375, 27, 27.25, 27.5, 27.75, 28.0625, 28.125, 28.375, 28.625, 28.84375, 29.15625, 29.28125, 29.53125, 29.75, 29.875, 30, 30, 30, 30.25, 30.5, 30.75, 31, 31.25, 31.410713, 31.526787, 31.625, 31.5625, 31.6875, 31.9375, 32.419643, 32.6875, 32.9375, 33, 33, 33.03125, 33.21875, 33.40625, 33.674107, 34.044643, 34.241074, 34.4375, 34.5, 34.6875, 34.8125, 35.125, 35.5, 35.75, 36, 36.0625, 36.125, 36.1875, 36.375, 36.5625, 36.75, 36.9375, 37, 37, 37.1875, 37.4375, 37.6875, 37.9375, 38, 38.1875, 38.4375, 38.6875, 38.9375, 39, 39.0625, 39.25, 39.5, 39.75, 39.9375, 40, 40.0625, 40.25, 40.5, 40.75
-10, -10, -10, -10, -10, -10, -10, -10, -10, -10, -10, 58.25, 58.25, 58.339287, 58.607143, 58.482143, 58.1875, 57.660713, 57.3125, 57.125, 56.973213, 56.571426, 56.375, 56.1875, 56.0625, 56.125, 56, 55.6875, 55.4375, 55.25, 55.0625, 55, 54.875, 54.625, 54.4375, 54.303574, 53.827381, 53.464287, 53.321426, 53.035713, 52.767857, 52.508926, 52.1875, 52.25, 52.25, 52.3125, 52.285713, 51.964287, 51.741074, 51.339287, 51.1875, 51, 51, 50.9375, 50.732143, 50.291668, 50.142857, 50, 50.0625, 50, 49.9375, 49.875, 49.6875, 49.5, 49.3125, 49.125, 49.125, 48.919643, 48.267853, 47.794647, 47.5, 47.375, 47.375, 47.375, 47.178574, 46.875, 46.75, 46.4375, 46.3125, 46.125, 46, 46, 45.9375, 45.9375, 45.8125, 45.5625, 45.3125, 44.964287, 44.732143, 44.4375, 44.357143, 44.125, 44.125, 44, 43.741074, 43.330357, 43.125, 43, 42.991074, 42.604168, 42.348213, 42.3125, 42.1875, 41.955357, 41.821426, 41.4375, 41.1875, 41.026787, 40.9375, 40.9375, 40.875, 40.6875, 40.5, 40.25, 39.875, 39.651787, 39.375, 39.125, 39.125, 39, 39, 38.9375, 38.8125, 38.6875, 38.4375, 38.25, 38.125, 37.8125, 37.5625, 37.3125, 37.0625, 37, 37, 36.75, 36.5, 36.25, 35.910713, 35.714287, 35.625, 35.4375, 35.375, 35.223213, 34.767857, 34.446426, 34.125, 33.84375, 33.78125, 33.78125, 33.71875, 33.625, 33.5, 33.3125, 33.1875, 33.125, 32.875, 32.6875, 32.4375, 32.1875, 32.125, 32, 31.8125, 31.5625, 31.3125, 31.0625, 30.8125, 30.8125, 30.75, 30.5, 30.4375, 30.1875, 30, 30, 29.9375, 29.6875, 29.25, 28.723213, 28.5625, 28.5625, 28.6875, 28.589285, 27.895832, 27.714287, 27.4375, 27.4375, 27.3125, 27.125, 27.0625, 27, 26.9375, 26.6875, 26.4375, 26.1875, 25.9375, 25.75, 25.5, 25.25, 25.125, 25.125, 25, 24.875, 24.625, 24.3125, 24.0625, 23.839287, 23.75, 23.625, 23.5, 23.3125, 23.125, 23, 22.9375, 22.75, 22.5, 22.25, 22.0625, 22, 21.75, 21.5625, 21.53125, 21.53125, 21.78125, 21.96875, 22, 22, 22, 22.0625, 22.3125, 22.5625, 22.9375, 23.25, 23.517857, 24, 24, 24.25, 24.3125, 24.5625, 24.8125, 24.9375, 25, 25.125, 25.3125, 25.5625, 25.8125, 25.9375, 26, 26.0625, 26.25, 26.375, 26.5625, 26.75, 26.8125, 26.9375, 27.1875, 27.375, 27.633928, 28.145834, 28.232143, 28.5, 28.6875, 28.84375, 29.09375, 29.21875, 29.46875, 29.6875, 29.875, 30, 30, 30, 30.1875, 30.4375, 30.6875, 30.9375, 31.1875, 31.375, 31.625, 31.75, 31.8125, 31.875, 32.0625, 32.4375, 32.6875, 32.9375, 33, 33, 33.03125, 33.15625, 33.34375, 33.611607, 33.982143, 34.241074, 34.4375, 34.5, 34.6875, 34.8125, 35.0625, 35.375, 35.5625, 35.8125, 35.9375, 36, 36.0625, 36.1875, 36.375, 36.625, 36.875, 37, 37, 37.1875, 37.4375, 37.6875, 38, 38.125, 38.375, 38.625, 38.8125, 39, 39, 39, 39.125, 39.3125, 39.5625, 39.8125, 39.9375, 40.0625, 40.1875, 40.4375, 40.6875, 40.875, 41.125, 41.25, 41.5, 41.75, 41.875, 42, 42.0625, 42.125, 42.375, 42.625, 42.8125, 43.125, 43.375, 43.625, 43.875, 44.0625, 44.125, 44.1875, 44.375, 44.5625, 44.75, 44.916668, -10, -10, -10, -10, -10, -10, -10, -10, -10, -10, -10, -10, -10, -10, -10, -10, -10, -10, -10, -10, -10, -10, -10, -10, -10, -10, -10, -10, -10, -10, -10, -10, -10, -10, -10, -10, -10, 58, 58.083332, 58.25, 58.544643, 58.419643, 57.916668, 57.42857, 57.125, 57.0625, 56.973213, 56.571426, 56.3125, 56.0625, 55.9375, 56, 55.9375, 55.6875, 55.4375, 55.3125, 55.1875, 55.1875, 55.125, 54.8125, 54.625, 54.401787, 53.782738, 53.410713, 53.196426, 52.910713, 52.580357, 52.383926, 52.1875, 52.3125, 52.3125, 52.25, 52.089287, 51.808037, 51.5625, 51.151787, 51.0625, 50.8125, 50.9375, 50.875, 50.678574, 50.5625, 50.4375, 50.25, 50.25, 50.0625, 49.9375, 49.8125, 49.625, 49.4375, 49.25, 49.125, 49.0625, 48.857143, 48.142853, 47.607147, 47.3125, 47.125, 47.125, 47.125, 46.928574, 46.625, 46.5625, 46.3125, 46.25, 46.125, 46, 46, 46, 46, 45.875, 45.625, 45.25, 44.901787, 44.732143, 44.4375, 44.419643, 44.1875, 44.125, 43.9375, 43.678574, 43.267857, 43.0625, 43, 42.991074, 42.541668, 42.285713, 42.3125, 42.3125, 42.1875, 41.925594, 41.508926, 41.1875, 41.026787, 40.875, 40.8125, 40.6875, 40.4375, 40.25, 40.0625, 39.8125, 39.589287, 39.3125, 38.955357, 38.9375, 38.875, 38.9375, 38.875, 38.75, 38.625, 38.375, 38.1875, 38, 37.6875, 37.4375, 37.25, 37.0625, 37, 37, 36.75, 36.5, 36.1875, 35.875, 35.75, 35.6875, 35.5625, 35.375, 35.25, 34.875, 34.625, 34.375, 34.03125, 33.90625, 33.84375, 33.71875, 33.6875, 33.625, 33.375, 33.25, 33.0625, 32.75, 32.5625, 32.3125, 32.125, 32, 31.875, 31.6875, 31.4375, 31.25, 31.125, 30.848213, 30.776787, 30.8125, 30.482143, 30.375, 30.1875, 29.9375, 30, 29.875, 29.625, 29.1875, 28.660713, 28.5, 28.4375, 28.5, 28.410715, 27.916666, 27.696428, 27.375, 27.375, 27.25, 27.125, 27.125, 27, 26.9375, 26.6875, 26.4375, 26.1875, 25.9375, 25.75, 25.5, 25.25, 25.0625, 25, 24.875, 24.75, 24.5625, 24.3125, 24.125, 23.9375, 23.75, 23.5625, 23.375, 23.1875, 23.0625, 23, 22.9375, 22.75, 22.5, 22.25, 22.0625, 22, 21.75, 21.59375, 21.5625, 21.5625, 21.8125, 21.96875, 22, 22, 22.0625, 22.125, 22.375, 22.625, 22.9375, 23.25, 23.517857, 24, 24, 24.25, 24.3125, 24.5625, 24.8125, 24.9375, 25, 25.125, 25.3125, 25.5625, 25.8125, 25.9375, 26, 26.0625, 26.25, 26.375, 26.5625, 26.75, 26.8125, 26.9375, 27.125, 27.25, 27.508928, 28.020834, 28.169643, 28.5, 28.6875, 28.8125, 29, 29.125, 29.375, 29.625, 29.875, 30, 30, 30, 30.125, 30.3125, 30.5625, 30.8125, 31.0625, 31.3125, 31.5625, 31.75, 31.875, 31.9375, 32.0625, 32.375, 32.625, 32.875, 33, 33.0625, 33.09375, 33.15625, 33.40625, 33.59375, 33.8125, 34.0625, 34.1875, 34.375, 34.625, 34.8125, 35.0625, 35.25, 35.375, 35.625, 35.75, 35.875, 36, 36.125, 36.375, 36.625, 36.875, 37, 37.0625, 37.25, 37.5, 37.75, 38, 38.1875, 38.4375, 38.6875, 38.875, 39, 39, 39, 39.0625, 39.25, 39.5, 39.75, 39.9375, 40.0625, 40.125, 40.375, 40.625
-10, -10, -10, -10, -10, -10, -10, -10, -10, -10, -10, 57.833332, 58, 58.125, 58.357143, 58.294643, 57.782738, 57.285713, 57.0625, 57, 56.973213, 56.571426, 56.3125, 56.0625, 55.875, 55.875, 55.8125, 55.5625, 55.375, 55.25, 55.125, 55.125, 55, 54.75, 54.5625, 54.339287, 53.845238, 53.473213, 53.258926, 52.910713, 52.517857, 52.321426, 52.1875, 52.3125, 52.3125, 52.25, 52.089287, 51.870537, 51.6875, 51.276787, 51.0625, 50.705357, 50.75, 50.6875, 50.5625, 50.625, 50.5, 50.3125, 50.25, 50.0625, 49.9375, 49.8125, 49.625, 49.4375, 49.25, 49.125, 49.0625, 48.857143, 48.205353, 47.669647, 47.3125, 47.0625, 47, 47, 46.803574, 46.5, 46.375, 46.125, 46.1875, 46.125, 46.0625, 46.0625, 45.9375, 45.875, 45.6875, 45.4375, 45.125, 44.875, 44.8125, 44.5625, 44.4375, 44.25, 44, 43.8125, 43.553574, 43.1875, 43, 43, 43.0625, 42.8125, 42.517857, 42.4375, 42.3125, 42.294643, 42.104168, 41.696426, 41.3125, 41.026787, 40.75, 40.625, 40.4375, 40.25, 40.125, 40.0625, 39.9375, 39.714287, 39.291668, 38.955357, 38.8125, 38.8125, 38.8125, 38.6875, 38.5625, 38.375, 38.1875, 38, 37.875, 37.6875, 37.4375, 37.3125, 37.125, 37, 36.9375, 36.6875, 36.4375, 36.1875, 36, 35.9375, 35.9375, 35.75, 35.5, 35.3125, 34.9375, 34.75, 34.5, 34.21875, 34.09375, 33.96875, 33.90625, 33.8125, 33.6875, 33.4375, 33.25, 33.0625, 32.6875, 32.5, 32.232143, 31.964287, 31.875, 31.6875, 31.5625, 31.3125, 31.1875, 31.125, 30.848213, 30.776787, 30.8125, 30.464287, 30.25, 30.125, 29.875, 30, 29.8125, 29.5625, 29.1875, 28.767857, 28.625, 28.5, 28.4375, 28.303572, 28, 27.875, 27.5625, 27.5, 27.3125, 27.125, 27.125, 27, 26.875, 26.6875, 26.4375, 26.1875, 26, 25.8125, 25.553572, 25.1875, 25.0625, 24.9375, 24.9375, 24.875, 24.75, 24.5, 24.3125, 24.125, 23.8125, 23.5625, 23.3125, 23.0625, 23, 23, 22.9375, 22.6875, 22.4375, 22.1875, 22, 22, 21.75, 21.5625, 21.5625, 21.5625, 21.8125, 22, 22, 22, 22.125, 22.25, 22.5, 22.75, 23, 23.3125, 23.571428, 23.9375, 24, 24.25, 24.4375, 24.6875, 24.9375, 25, 25.0625, 25.25, 25.5, 25.75, 25.9375, 25.9375, 25.9375, 26, 26.125, 26.3125, 26.5, 26.6875, 26.8125, 26.9375, 27.0625, 27.1875, 27.446428, 27.958334, 28.169643, 28.5, 28.6875, 28.8125, 29, 29.1875, 29.4375, 29.6875, 29.9375, 30, 30, 30.0625, 30.125, 30.25, 30.5, 30.75, 31.107143, 31.375, 31.625, 31.8125, 31.9375, 32, 32.125, 32.3125, 32.5625, 32.875, 33.107143, 33.25, 33.34375, 33.40625, 33.59375, 33.71875, 33.875, 34, 34.125, 34.375, 34.625, 34.875, 35.125, 35.1875, 35.25, 35.4375, 35.5625, 35.75, 35.9375, 36.133926, 36.5, 36.6875, 36.9375, 37, 37.125, 37.3125, 37.5625, 37.8125, 38, 38.1875, 38.375, 38.625, 38.8125, 38.9375, 39, 39, 39.0625, 39.25, 39.4375, 39.625, 39.8125, 39.875, 39.9375, 40.25, 40.5, 40.75, 41.125, 41.125, 41.25, 41.5, 41.625, 41.875, 42.0625, 42.1875, 42.4375, 42.6875, 42.875, 43.1875, 43.4375, 43.6875, 43.9375, 44, 44.125, 44.3125, 44.5625, 44.8125, 44.9375, 45, -10, -10, -10, -10, -10, -10, -10, -10, -10, -10, -10, -10, -10, -10, -10, -10, -10, -10, -10, -10, -10, -10, -10, -10, -10, -10, -10, -10, -10, -10, -10, -10, -10, -10, -10, -10, -10, -10, 58.083332, 58.160713, 58.25, 58.1875, 57.657738, 57.285713, 57.1875, 57.053574, 56.9375, 56.75, 56.4375, 56.1875, 55.830357, 55.6875, 55.5625, 55.375, 55.25, 55.125, 55, 54.9375, 54.75, 54.5625, 54.4375, 54.151787, 53.684525, 53.392853, 53.1875, 52.910713, 52.517857, 52.258926, 52.125, 52.125, 52.125, 52.125, 51.964287, 51.933037, 51.8125, 51.39286, 50.979168, 50.526787, 50.5, 50.5, 50.375, 50.4375, 50.375, 50.1875, 50.1875, 50.0625, 49.9375, 49.75, 49.5625, 49.285713, 48.892857, 48.758926, 48.625, 48.5, 48.133926, 47.678574, 47.375, 47.125, 47, 47, 46.8125, 46.625, 46.4375, 46.25, 46.3125, 46.25, 46.1875, 46.125, 45.9375, 45.875, 45.6875, 45.4375, 45.125, 44.8125, 44.6875, 44.4375, 44.3125, 44.1875, 44, 43.8125, 43.5625, 43.3125, 43.0625, 43.0625, 43.0625, 42.8125, 42.580357, 42.4375, 42.3125, 42.294643, 42.041668, 41.696426, 41.375, 41.125, 40.8125, 40.625, 40.375, 40.1875, 40, 40, 39.9375, 39.75, 39.416668, 39.142857, 38.9375, 38.875, 38.633926, 38.401787, 38.25, 38.0625, 38, 37.875, 37.8125, 37.75, 37.5625, 37.4375, 37.25, 37, 36.875, 36.625, 36.375, 36.1875, 35.9375, 35.875, 35.8125, 35.625, 35.4375, 35.25, 35, 34.875, 34.6875, 34.4375, 34.25, 34.0625, 34, 33.875, 33.75, 33.5, 33.25, 33, 32.625, 32.4375, 32.169643, 31.964287, 31.8125, 31.5625, 31.375, 31.125, 31.0625, 31.0625, 30.910713, 30.776787, 30.75, 30.401787, 30.125, 30.0625, 29.875, 30, 29.75, 29.5, 29.1875, 28.875, 28.75, 28.5625, 28.4375, 28.241072, 27.9375, 27.875, 27.5625, 27.5, 27.3125, 27.0625, 27.0625, 26.9375, 26.75, 26.6875, 26.5, 26.25, 26.1875, 26, 25.678572, 25.3125, 25.1875, 25, 25.0625, 25.0625, 24.9375, 24.6875, 24.4375, 24.1875, 23.8125, 23.5625, 23.3125, 23.0625, 23, 23, 22.9375, 22.6875, 22.4375, 22.1875, 22, 21.9375, 21.6875, 21.5, 21.5, 21.5625, 21.75, 21.9375, 21.9375, 21.9375, 22.1875, 22.375, 22.625, 22.875, 23.0625, 23.375, 23.625, 23.875, 24, 24.125, 24.375, 24.625, 24.8125, 24.875, 24.9375, 25.125, 25.375, 25.625, 25.78125, 25.78125, 25.84375, 25.96875, 26.125, 26.3125, 26.4375, 26.625, 26.75, 26.90625, 27.09375, 27.21875, 27.477678, 27.895834, 28.107143, 28.4375, 28.5625, 28.75, 28.9375, 29.125, 29.4375, 29.6875, 29.9375, 30, 30, 30.0625, 30.0625, 30.1875, 30.5, 30.857143, 31.232143, 31.4375, 31.625, 31.75, 31.875, 32, 32.0625, 32.1875, 32.375, 32.6875, 32.982143, 33.1875, 33.375, 33.4375, 33.625, 33.75, 33.875, 34, 34.125, 34.375, 34.625, 34.875, 35.125, 35.125, 35.125, 35.3125, 35.4375, 35.6875, 35.9375, 36.133926, 36.5, 36.6875, 36.9375, 37, 37.1875, 37.4375, 37.6875, 37.9375, 38.0625, 38.1875, 38.3125, 38.5625, 38.75, 38.875, 39, 39, 39.125, 39.3125, 39.5, 39.6875, 39.8125, 39.9375, 40, 40.3125, 40.5625
-10, -10, -10, -10, -10, -10, -10, -10, -10, -10, -10, -10, 58, 58.035713, 58.0625, 57.9375, 57.470238, 57.205357, 57.1875, 57.089287, 56.901787, 56.75, 56.375, 56.1875, 55.767857, 55.5625, 55.375, 55.1875, 55.125, 55, 54.9375, 54.875, 54.625, 54.4375, 54.25, 53.973213, 53.736607, 53.477676, 53.21875, 52.90625, 52.553574, 52.104168, 51.946426, 51.875, 51.9375, 51.9375, 51.803574, 51.90625, 51.821426, 51.535717, 50.8125, 50.26786, 50.125, 50.1875, 50.1875, 50.3125, 50.3125, 50.125, 50.125, 50.0625, 49.875, 49.6875, 49.5625, 49.267857, 48.892857, 48.821426, 48.5625, 48.4375, 48.1875, 47.8125, 47.5625, 47.375, 47.25, 47.1875, 46.9375, 46.625, 46.375, 46.1875, 46.3125, 46.375, 46.3125, 46.1875, 45.830357, 45.75, 45.625, 45.4375, 45.1875, 44.8125, 44.5625, 44.3125, 44.1875, 44.125, 44, 43.8125, 43.5625, 43.375, 43.1875, 43.125, 43.125, 42.8125, 42.625, 42.4375, 42.3125, 42.294643, 41.979168, 41.758926, 41.5, 41.25, 40.9375, 40.6875, 40.375, 40.25, 40.0625, 40.0625, 40.0625, 39.875, 39.541668, 39.267857, 39, 38.8125, 38.571426, 38.339287, 38.1875, 38, 37.875, 37.75, 37.625, 37.5625, 37.4375, 37.25, 37.0625, 36.875, 36.75, 36.625, 36.5, 36.303574, 35.9375, 35.875, 35.6875, 35.5, 35.3125, 35.125, 35, 35, 34.8125, 34.5625, 34.375, 34.125, 34.0625, 33.9375, 33.6875, 33.4375, 33.1875, 32.9375, 32.625, 32.4375, 32.169643, 31.964287, 31.8125, 31.5, 31.3125, 31.0625, 31, 31.125, 31.035713, 30.901787, 30.8125, 30.401787, 30.0625, 30, 29.875, 29.9375, 29.6875, 29.4375, 29.1875, 29, 28.875, 28.625, 28.375, 28.125, 27.9375, 27.875, 27.625, 27.4375, 27.25, 27, 27, 26.875, 26.625, 26.5625, 26.375, 26.1875, 26.125, 25.9375, 25.616072, 25.25, 25.25, 25.035713, 24.955357, 24.955357, 24.875, 24.6875, 24.5, 24.25, 23.875, 23.6875, 23.4375, 23.1875, 23.0625, 23, 23, 22.75, 22.5, 22.25, 22, 21.875, 21.625, 21.4375, 21.4375, 21.5625, 21.75, 21.9375, 21.9375, 21.9375, 22.1875, 22.4375, 22.6875, 22.9375, 23.0625, 23.3125, 23.5625, 23.8125, 24, 24.0625, 24.3125, 24.5625, 24.75, 24.875, 24.9375, 25.0625, 25.25, 25.4375, 25.53125, 25.53125, 25.59375, 25.71875, 25.875, 26.1875, 26.553572, 26.785713, 26.9375, 27.0625, 27.1875, 27.375, 27.625, 27.875, 28.125, 28.357143, 28.375, 28.625, 28.794643, 29.0625, 29.4375, 29.6875, 29.9375, 30, 30, 30.0625, 30.0625, 30.1875, 30.410713, 30.669643, 31.160715, 31.366072, 31.625, 31.75, 31.875, 32, 32, 32.0625, 32.25, 32.5625, 32.919643, 33.1875, 33.4375, 33.5, 33.6875, 33.8125, 33.875, 34, 34.0625, 34.3125, 34.5, 34.75, 35.0625, 35.0625, 35.196426, 35.5, 35.5625, 35.8125, 36, 36.258926, 36.625, 36.8125, 37, 37.0625, 37.3125, 37.5625, 37.8125, 38, 38, 38.0625, 38.125, 38.375, 38.625, 38.8125, 39, 39, 39.125, 39.3125, 39.5, 39.75, 39.982143, 40.125, 40.1875, 40.4375, 40.625, 40.75, 41.1875, 41.3125, 41.4375, 41.6875, 41.75, 42, 42.3125, 42.5625, 42.8125, 42.9375, 43, 43.0625, 43.3125, 43.5625, 43.8125, 44, 44.1875, 44.375, 44.625, 44.875, 44.9375, 45, -10, -10, -10, -10, -10, -10, -10, -10, -10, -10, -10, -10, -10, -10, -10, -10, -10, -10, -10, -10, -10, -10, -10, -10, -10, -10, -10, -10, -10, -10, -10, -10, -10, -10, -10, -10, -10, -10, 58, 58, 58, 57.9375, 57.803574, 57.5, 57.4375, 57.29464, 57.151787, 56.991074, 56.458332, 56.196426, 55.705357, 55.4375, 55.1875, 55.0625, 55.125, 55.044643, 54.854168, 54.767857, 54.5625, 54.4375, 54.25, 54, 53.84375, 53.59375, 53.3125, 52.9375, 52.522324, 51.947918, 51.696426, 51.5, 51.5, 51.625, 51.625, 51.8125, 51.875, 51.660717, 50.9375, 50.45536, 50.125, 50.125, 50.125, 50.125, 50.125, 49.9375, 49.875, 49.8125, 49.625, 49.5625, 49.5625, 49.3125, 48.809525, 48.642857, 48.4375, 48.375, 48.25, 48, 47.75, 47.625, 47.5, 47.4375, 47.1875, 46.875, 46.5, 46.25, 46.375, 46.4375, 46.4375, 46.25, 45.723213, 45.625, 45.5625, 45.4375, 45.3125, 45, 44.625, 44.375, 44.1875, 44.0625, 43.9375, 43.75, 43.5, 43.3125, 43.25, 43.25, 43.232143, 42.791668, 42.642857, 42.4375, 42.375, 42.375, 42.1875, 42, 41.75, 41.4375, 41.125, 40.875, 40.5625, 40.5, 40.3125, 40.3125, 40.25, 40.0625, 39.791668, 39.5625, 39.25, 39, 38.633926, 38.339287, 38.1875, 38, 37.8125, 37.75, 37.6875, 37.625, 37.5625, 37.3125, 37.0625, 36.875, 36.75, 36.625, 36.5, 36.241074, 35.8125, 35.6875, 35.4375, 35.3125, 35.1875, 35, 34.9375, 34.9375, 34.6875, 34.5, 34.3125, 34.0625, 34.0625, 33.9375, 33.625, 33.375, 33.125, 32.9375, 32.6875, 32.5, 32.232143, 31.964287, 31.875, 31.625, 31.5, 31.25, 31.125, 31.125, 31, 30.9375, 30.75, 30.419643, 30.125, 30, 29.9375, 29.9375, 29.6875, 29.375, 29.017857, 28.875, 28.8125, 28.625, 28.4375, 28.1875, 28, 28, 27.8125, 27.5625, 27.3125, 27, 26.9375, 26.8125, 26.5625, 26.5, 26.3125, 26.1875, 26.0625, 25.875, 25.616072, 25.25, 25.3125, 25.098213, 24.955357, 24.955357, 24.875, 24.6875, 24.5, 24.25, 23.9375, 23.8125, 23.5625, 23.3125, 23.125, 23, 23, 22.75, 22.5, 22.25, 22, 21.8125, 21.5625, 21.3125, 21.25, 21.4375, 21.625, 21.875, 22, 22.0625, 22.3125, 22.5625, 22.8125, 23.0625, 23.1875, 23.4375, 23.625, 23.8125, 24, 24.0625, 24.3125, 24.5625, 24.75, 24.875, 24.9375, 25, 25.125, 25.3125, 25.34375, 25.28125, 25.308037, 25.40625, 25.678572, 26.107143, 26.553572, 26.910713, 27.0625, 27.1875, 27.28125, 27.46875, 27.71875, 27.96875, 28.25, 28.419643, 28.4375, 28.625, 28.75893, 29.107143, 29.491072, 29.75, 29.9375, 30, 30, 30.0625, 30.0625, 30.25, 30.410713, 30.669643, 31.160715, 31.303572, 31.625, 31.75, 31.875, 32, 32, 32.0625, 32.25, 32.5625, 32.919643, 33.125, 33.375, 33.4375, 33.625, 33.8125, 33.875, 34, 34.125, 34.375, 34.5625, 34.8125, 35.0625, 35.0625, 35.258926, 35.5625, 35.625, 35.875, 36.0625, 36.321426, 36.6875, 36.875, 37, 37.125, 37.375, 37.625, 37.875, 38, 38, 38, 38.0625, 38.3125, 38.5625, 38.8125, 39, 39, 39.125, 39.25, 39.446426, 39.895832, 40.160713, 40.3125, 40.3125, 40.5, 40.625
-10, -10, -10, -10, -10, -10, -10, -10, -10, -10, -10, -10, 57.916668, 57.9375, 58, 57.9375, 57.875, 57.6875, 57.5625, 57.35714, 57.178574, 57.116074, 56.467262, 56.267857, 55.767857, 55.5625, 55.375, 55.3125, 55.375, 55.223213, 54.770836, 54.589287, 54.375, 54.375, 54.25, 54.0625, 53.84375, 53.53125, 53.1875, 52.8125, 52.522324, 52.010418, 51.741074, 51.354168, 51.258926, 51.375, 51.5, 51.928574, 52.020832, 51.619045, 50.982143, 50.5625, 50.3125, 50.25, 50.1875, 50.125, 50.125, 50, 49.875, 49.705357, 49.4375, 49.375, 49.5, 49.285713, 48.702381, 48.392857, 48.1875, 48.1875, 48.125, 48.0625, 47.875, 47.8125, 47.75, 47.625, 47.375, 47.0625, 46.625, 46.375, 46.4375, 46.4375, 46.4375, 46.25, 45.785713, 45.75, 45.75, 45.6875, 45.5625, 45.1875, 44.6875, 44.375, 44.125, 44, 43.9375, 43.75, 43.5, 43.3125, 43.25, 43.25, 43.169643, 42.729168, 42.580357, 42.375, 42.375, 42.375, 42.1875, 42, 41.75, 41.5, 41.25, 41.0625, 40.8125, 40.75, 40.5625, 40.4375, 40.3125, 40.125, 39.9375, 39.6875, 39.4375, 39, 38.696426, 38.401787, 38.1875, 38.0625, 37.75, 37.75, 37.625, 37.5, 37.5, 37.1875, 37, 36.875, 36.75, 36.625, 36.5, 36.178574, 35.75, 35.625, 35.3125, 35.25, 35.125, 34.9375, 34.875, 34.875, 34.6875, 34.5, 34.375, 34.125, 34.0625, 34, 33.6875, 33.5, 33.25, 33, 32.75, 32.4375, 32.1875, 32, 31.9375, 31.8125, 31.6875, 31.5, 31.3125, 31.25, 31.125, 31, 30.75, 30.4375, 30.1875, 30, 30, 29.9375, 29.6875, 29.375, 29.080357, 28.9375, 28.9375, 28.75, 28.5, 28.25, 28, 28, 27.875, 27.6875, 27.5, 27.1875, 27, 26.776787, 26.5, 26.375, 26.25, 26.125, 26, 25.875, 25.6875, 25.4375, 25.4375, 25.223213, 24.955357, 24.955357, 24.8125, 24.625, 24.4375, 24.1875, 24, 23.9375, 23.6875, 23.4375, 23.1875, 23, 23, 22.8125, 22.5625, 22.3125, 22.0625, 21.8125, 21.5625, 21.3125, 21.1875, 21.375, 21.5625, 21.875, 22.125, 22.1875, 22.375, 22.4375, 22.589287, 22.991072, 23.258928, 23.5625, 23.75, 23.875, 24, 24, 24.25, 24.5, 24.6875, 24.875, 24.875, 24.9375, 25.0625, 25.25, 25.34375, 25.34375, 25.370537, 25.53125, 25.803572, 26.107143, 26.553572, 26.848213, 27.0625, 27.3125, 27.53125, 27.71875, 27.90625, 28.15625, 28.375, 28.544643, 28.5625, 28.625, 28.723215, 29.151787, 29.544643, 29.8125, 29.9375, 30, 30, 30, 30.0625, 30.3125, 30.473213, 30.732143, 31.053572, 31.116072, 31.4375, 31.625, 31.8125, 32.0625, 32.125, 32.25, 32.375, 32.5, 32.6875, 32.8125, 33.0625, 33.1875, 33.4375, 33.6875, 33.8125, 34, 34.1875, 34.4375, 34.625, 34.875, 35, 35.0625, 35.321426, 35.6875, 35.8125, 36, 36.125, 36.25, 36.4375, 36.6875, 36.8125, 37.0625, 37.3125, 37.5625, 37.8125, 37.9375, 38, 38, 38.125, 38.375, 38.625, 38.875, 39, 39, 39.0625, 39.1875, 39.446426, 39.958332, 40.285713, 40.4375, 40.4375, 40.5625, 40.6875, 40.8125, 41.1875, 41.3125, 41.5625, 41.8125, 41.875, 42.1875, 42.4375, 42.6875, 42.9375, 43, 43, 43.0625, 43.3125, 43.5625, 43.8125, 44, 44.0625, 44.1875, 44.4375, 44.6875, 44.875, 45, -10, -10, -10, -10, -10, -10, -10, -10, -10, -10, -10, -10, -10, -10, -10, -10, -10, -10, -10, -10, -10, -10, -10, -10, -10, -10, -10, -10, -10, -10, -10, -10, -10, -10, -10, -10, -10, 57.75, 57.916668, 57.9375, 57.9375, 57.8125, 57.6875, 57.4375, 57.375, 57.214283, 57.07143, 56.9375, 56.342262, 56.142857, 55.6875, 55.392857, 55.267857, 55.3125, 55.375, 55.223213, 54.645836, 54.464287, 54.25, 54.375, 54.3125, 54.1875, 53.96875, 53.65625, 53.375, 52.982143, 52.697319, 52.438992, 52.136902, 51.5625, 51.3125, 51.25, 51.383926, 51.828571, 51.840137, 51.297619, 50.815475, 50.428574, 50.25, 50.125, 50.0625, 50.0625, 50, 49.875, 49.75, 49.517857, 49.3125, 49.3125, 49.375, 49.25, 48.809525, 48.571426, 48.4375, 48.375, 48.25, 48.1875, 48, 48, 47.9375, 47.75, 47.5, 47.1875, 46.8125, 46.5, 46.4375, 46.375, 46.3125, 46.1875, 45.785713, 45.75, 45.75, 45.75, 45.625, 45.3125, 44.875, 44.5, 44.25, 44, 43.8125, 43.5625, 43.3125, 43.25, 43.25, 43.25, 43.13393, 42.648811, 42.357143, 42.25, 42.25, 42.3125, 42.1875, 42, 41.75, 41.5, 41.25, 41.0625, 40.8125, 40.75, 40.5625, 40.4375, 40.3125, 40.125, 39.9375, 39.625, 39.375, 39, 38.8125, 38.5625, 38.3125, 38.125, 37.75, 37.75, 37.5625, 37.375, 37.3125, 37, 36.875, 36.8125, 36.6875, 36.625, 36.5625, 36.241074, 35.9375, 35.8125, 35.5, 35.4375, 35.25, 35, 34.875, 34.875, 34.6875, 34.5, 34.375, 34.125, 34, 33.9375, 33.6875, 33.5, 33.3125, 33.0625, 32.75, 32.4375, 32.1875, 32, 32, 31.9375, 31.875, 31.6875, 31.4375, 31.3125, 31.125, 31.0625, 30.8125, 30.5, 30.25, 30, 29.9375, 29.8125, 29.5625, 29.25, 29.017857, 28.9375, 28.9375, 28.75, 28.5, 28.25, 28, 28, 27.9375, 27.8125, 27.6875, 27.5, 27.25, 26.964287, 26.6875, 26.4375, 26.25, 26.125, 25.875, 25.6875, 25.5625, 25.3125, 25.3125, 25.160713, 24.892857, 24.892857, 24.75, 24.5625, 24.375, 24.125, 24, 23.9375, 23.6875, 23.4375, 23.1875, 23, 23, 22.875, 22.625, 22.375, 22.125, 21.875, 21.625, 21.375, 21.1875, 21.3125, 21.5625, 21.9375, 22.3125, 22.4375, 22.491072, 22.3125, 22.464287, 22.848215, 23.258928, 23.625, 23.8125, 23.9375, 24, 24.0625, 24.3125, 24.5625, 24.8125, 25, 25, 25.0625, 25.1875, 25.375, 25.5, 25.4375, 25.339287, 25.455357, 25.886906, 26.285715, 26.803572, 27.035713, 27.1875, 27.40625, 27.5625, 27.75, 27.9375, 28.21875, 28.4375, 28.607143, 28.6875, 28.6875, 28.848215, 29.339287, 29.669643, 29.9375, 30, 30, 30, 30, 30.125, 30.375, 30.473213, 30.625, 30.866072, 30.928572, 31.3125, 31.5625, 31.8125, 32.125, 32.25, 32.4375, 32.625, 32.6875, 32.8125, 32.875, 33, 33.125, 33.375, 33.625, 33.8125, 34, 34.1875, 34.4375, 34.625, 34.875, 34.9375, 35, 35.258926, 35.625, 35.8125, 36, 36.125, 36.25, 36.4375, 36.6875, 36.8125, 37.0625, 37.25, 37.4375, 37.6875, 37.8125, 37.9375, 38, 38.125, 38.375, 38.625, 38.875, 39, 39, 39.0625, 39.1875, 39.446426, 39.958332, 40.285713, 40.375, 40.4375, 40.5625, 40.6875
-10, -10, -10, -10, -10, -10, -10, -10, -10, -10, -10, 58, 58, 58, 57.9375, 57.75, 57.625, 57.375, 57.375, 57.17857, 56.898811, 56.75, 56.217262, 56.017857, 55.625, 55.330357, 55.205357, 55.3125, 55.375, 55.223213, 54.645836, 54.464287, 54.3125, 54.5, 54.5, 54.375, 54.0625, 53.714287, 53.46875, 53.075893, 52.956249, 53.022324, 52.773808, 52.020832, 51.535713, 51.25, 51.321426, 51.641071, 51.287415, 51.159225, 50.950893, 50.642857, 50.375, 50.25, 50.0625, 50.0625, 50, 49.875, 49.75, 49.455357, 49.25, 49.1875, 49.1875, 49.142857, 48.809525, 48.508926, 48.375, 48.3125, 48.1875, 48.1875, 48.0625, 48, 47.9375, 47.8125, 47.5625, 47.3125, 47, 46.6875, 46.5625, 46.375, 46.25, 46.125, 45.892857, 45.875, 45.875, 45.8125, 45.625, 45.3125, 44.84375, 44.40625, 44.15625, 43.90625, 43.6875, 43.4375, 43.1875, 43.160713, 43.125, 43.125, 42.88393, 42.461311, 42.169643, 42.125, 42.125, 42.1875, 42.0625, 41.8125, 41.5625, 41.3125, 41.125, 40.9375, 40.75, 40.625, 40.4375, 40.375, 40.25, 40.125, 40, 39.6875, 39.375, 38.955357, 38.6875, 38.4375, 38.25, 38.125, 37.875, 37.8125, 37.6875, 37.4375, 37.3125, 37.125, 36.9375, 36.8125, 36.625, 36.5, 36.375, 36.125, 36, 35.8125, 35.625, 35.5, 35.3125, 35.0625, 34.875, 34.8125, 34.625, 34.4375, 34.25, 34.0625, 33.9375, 33.875, 33.6875, 33.5, 33.3125, 33, 32.6875, 32.375, 32.125, 32.0625, 32.0625, 32, 31.964287, 31.8125, 31.625, 31.5, 31.25, 31.125, 30.875, 30.5625, 30.3125, 30.0625, 29.9375, 29.875, 29.625, 29.3125, 29.080357, 28.9375, 28.9375, 28.75, 28.5, 28.25, 28, 28, 28, 27.9375, 27.875, 27.6875, 27.375, 27.089287, 26.8125, 26.625, 26.5, 26.303572, 25.854166, 25.633928, 25.5, 25.3125, 25.25, 25.125, 25, 25, 24.8125, 24.5625, 24.3125, 24.0625, 24, 23.875, 23.625, 23.375, 23.125, 23, 23, 22.9375, 22.6875, 22.4375, 22.1875, 21.9375, 21.6875, 21.4375, 21.1875, 21.25, 21.4375, 21.75, 22.125, 22.258928, 22.657738, 22.5, 22.651787, 22.973215, 23.321428, 23.6875, 23.875, 24, 24, 24.0625, 24.3125, 24.5625, 24.8125, 25, 25, 25.0625, 25.1875, 25.4375, 25.625, 25.625, 25.589287, 25.767857, 26.199406, 26.535715, 26.875, 27, 27.1875, 27.4375, 27.65625, 27.84375, 27.96875, 28.15625, 28.375, 28.625, 28.875, 28.875, 29.053572, 29.464287, 29.732143, 30, 30, 30, 30, 30, 30.1875, 30.4375, 30.625, 30.875, 30.9375, 31, 31.3125, 31.5625, 31.8125, 32.125, 32.25, 32.5, 32.6875, 32.75, 32.875, 32.875, 32.9375, 33.125, 33.375, 33.625, 33.875, 34, 34.25, 34.5, 34.75, 35, 35, 35.0625, 35.1875, 35.4375, 35.6875, 35.875, 36.0625, 36.1875, 36.375, 36.625, 36.8125, 37, 37.1875, 37.375, 37.625, 37.8125, 37.9375, 38, 38.1875, 38.4375, 38.6875, 38.9375, 39, 38.9375, 39.026787, 39.294643, 39.5625, 40.020832, 40.178574, 40.1875, 40.3125, 40.5, 40.6875, 41, 41.125, 41.125, 41.375, 41.5625, 41.75, 42.0625, 42.3125, 42.5625, 42.8125, 43, 43, 43.1875, 43.4375, 43.6875, 43.9375, 44, 44, 44.125, 44.375, 44.5625, 44.8125, 44.916668, -10, -10, -10, -10, -10, -10, -10, -10, -10, -10, -10, -10, -10, -10, -10, -10, -10, -10, -10, -10, -10, -10, -10, -10, -10, -10, -10, -10, -10, -10, -10, -10, -10, -10, -10, -10, -10, 58, 58.083332, 58.0625, 57.9375, 57.642857, 57.4375, 57.1875, 57.1875, 56.910713, 56.461311, 56.321426, 56.071426, 56.071426, 55.875, 55.63393, 55.309525, 55.321426, 55.3125, 55.151787, 54.693451, 54.571426, 54.3125, 54.5, 54.5, 54.348213, 53.955357, 53.598213, 53.375, 53.107143, 53.174999, 53.303574, 52.940475, 52.136902, 51.598213, 51.3125, 51.321426, 51.578571, 51.355652, 51.096725, 50.950893, 50.767857, 50.616074, 50.291668, 50.071426, 50.0625, 50, 49.9375, 49.875, 49.580357, 49.375, 49.1875, 49.0625, 49.035713, 48.830357, 48.5625, 48.375, 48.25, 48.125, 48.125, 48.0625, 48, 47.875, 47.6875, 47.4375, 47.1875, 47, 46.75, 46.5625, 46.3125, 46.125, 46.0625, 46.0625, 46.0625, 46.0625, 45.9375, 45.5625, 45.214287, 44.90625, 44.489582, 44.135418, 43.90625, 43.6875, 43.5625, 43.3125, 43.285713, 43.125, 43, 42.776787, 42.544643, 42.276787, 42.25, 42.125, 42.1875, 42.044643, 41.642857, 41.383926, 41.1875, 41.0625, 40.9375, 40.8125, 40.5625, 40.375, 40.25, 40.125, 40.0625, 39.9375, 39.6875, 39.3125, 38.785713, 38.5, 38.25, 38.125, 38.0625, 37.9375, 37.8125, 37.625, 37.375, 37.1875, 37.0625, 36.9375, 36.75, 36.5, 36.375, 36.25, 36.125, 36.125, 36, 35.875, 35.75, 35.5625, 35.3125, 35.0625, 34.9375, 34.75, 34.5, 34.3125, 34.125, 33.9375, 33.8125, 33.625, 33.4375, 33.25, 33.0625, 32.8125, 32.5, 32.205357, 32.1875, 32.1875, 32.107143, 31.964287, 31.875, 31.6875, 31.6875, 31.4375, 31.25, 31, 30.6875, 30.4375, 30.1875, 30, 29.875, 29.6875, 29.4375, 29.3125, 29.125, 29.0625, 28.8125, 28.5, 28.25, 28, 27.9375, 27.9375, 27.875, 27.8125, 27.6875, 27.375, 27.151787, 26.9375, 26.8125, 26.75, 26.491072, 25.979166, 25.589285, 25.375, 25.1875, 25.125, 25.0625, 25, 25, 24.8125, 24.5625, 24.3125, 24.0625, 24, 23.8125, 23.5625, 23.3125, 23.0625, 23, 23, 23, 22.75, 22.5, 22.25, 22, 21.75, 21.5, 21.25, 21.1875, 21.3125, 21.5625, 21.875, 21.946428, 22.363094, 22.357143, 22.517857, 22.848215, 23.196428, 23.5625, 23.8125, 24, 24, 24.0625, 24.25, 24.4375, 24.625, 24.821428, 25.083334, 25.241072, 25.4375, 25.625, 25.8125, 25.875, 25.875, 26.080357, 26.395834, 26.553572, 26.8125, 26.8125, 27, 27.375, 27.6875, 27.9375, 28.0625, 28.1875, 28.375, 28.625, 28.875, 28.9375, 29.151787, 29.419643, 29.678572, 29.9375, 29.9375, 30, 30, 30, 30.25, 30.5, 30.75, 31, 31.0625, 31.0625, 31.3125, 31.5625, 31.75, 32.125, 32.25, 32.5, 32.6875, 32.75, 32.875, 32.875, 33, 33.25, 33.5, 33.75, 33.9375, 34, 34.25, 34.4375, 34.6875, 34.9375, 34.9375, 35.0625, 35.1875, 35.4375, 35.6875, 35.875, 36, 36.0625, 36.25, 36.5, 36.75, 36.9375, 37.0625, 37.25, 37.5, 37.75, 37.9375, 38, 38.1875, 38.4375, 38.6875, 38.9375, 39, 38.9375, 39.026787, 39.357143, 39.616074, 39.875, 40, 40, 40.25, 40.5, 40.75
-10, -10, -10, -10, -10, -10, -10, -10, -10, -10, -10, 58.125, 58.166664, 58.1875, 57.973213, 57.535713, 57.258926, 56.9375, 56.9375, 56.723213, 56.247025, 56.071426, 56, 56, 55.9375, 55.857143, 55.309525, 55.285713, 55.169643, 54.866074, 54.669643, 54.625, 54.4375, 54.5625, 54.5, 54.223213, 53.830357, 53.535713, 53.4375, 53.294643, 53.299999, 53.321426, 52.895832, 52.220238, 51.776787, 51.428574, 51.050598, 50.971428, 50.647324, 50.638393, 50.665176, 50.798981, 50.377552, 50.032738, 49.821426, 50, 50, 50, 50.0625, 49.794643, 49.479168, 49.258926, 49, 49, 48.875, 48.6875, 48.5, 48.3125, 48.1875, 48.125, 48.0625, 48, 47.875, 47.6875, 47.4375, 47.1875, 47.0625, 46.875, 46.625, 46.375, 46.125, 46.0625, 46.1875, 46.169643, 45.979168, 45.758926, 45.375, 45.089287, 44.96875, 44.650299, 44.215775, 43.977676, 43.6875, 43.625, 43.375, 43.348213, 43.1875, 42.9375, 42.776787, 42.607143, 42.401787, 42.5, 42.375, 42.4375, 42.232143, 41.830357, 41.508926, 41.25, 41.125, 40.875, 40.6875, 40.375, 40.125, 40, 39.9375, 39.9375, 39.9375, 39.8125, 39.5, 39.026787, 38.479168, 38.160713, 37.96875, 37.90625, 37.84375, 37.6875, 37.5625, 37.3125, 37.125, 37.0625, 36.9375, 36.6875, 36.4375, 36.3125, 36.1875, 36.1875, 36.1875, 36.0625, 36, 35.8125, 35.625, 35.375, 35.125, 34.9375, 34.6875, 34.4375, 34.1875, 34.0625, 33.9375, 33.75, 33.5625, 33.3125, 33.125, 33, 32.75, 32.5, 32.205357, 32.1875, 32.1875, 32.044643, 31.839287, 31.75, 31.5625, 31.5625, 31.339287, 31.125, 30.875, 30.6875, 30.4375, 30.25, 30.0625, 29.875, 29.75, 29.5, 29.3125, 29.125, 29, 28.8125, 28.5625, 28.3125, 28.0625, 27.9375, 27.9375, 27.875, 27.75, 27.625, 27.375, 27.1875, 27.0625, 26.9375, 26.8125, 26.491072, 25.854166, 25.401785, 25.125, 25, 25, 25, 25, 25, 24.875, 24.625, 24.375, 24.125, 24, 23.75, 23.5, 23.25, 23, 23, 23, 23, 22.75, 22.5, 22.25, 22, 21.75, 21.5, 21.25, 21.0625, 21.0625, 21.205357, 21.666666, 21.892857, 22.425594, 22.607143, 22.803572, 22.982143, 23.25, 23.5625, 23.8125, 24, 24, 24.0625, 24.1875, 24.375, 24.5625, 24.821428, 25.208334, 25.366072, 25.5625, 25.6875, 25.8125, 25.875, 25.8125, 25.892857, 26.226191, 26.574406, 26.866072, 26.9375, 27, 27.3125, 27.5625, 27.8125, 28, 28.0625, 28.3125, 28.5625, 28.8125, 29, 29.1875, 29.3125, 29.5, 29.75, 29.8125, 29.9375, 30, 30, 30.25, 30.5, 30.75, 31, 31.125, 31.1875, 31.375, 31.625, 31.75, 32, 32.1875, 32.4375, 32.6875, 32.875, 33, 33, 33.0625, 33.3125, 33.5625, 33.8125, 34, 34, 34.1875, 34.3125, 34.5625, 34.8125, 34.875, 35, 35.125, 35.375, 35.625, 35.875, 36, 36.125, 36.375, 36.625, 36.875, 37, 37.0625, 37.25, 37.5, 37.75, 37.9375, 38.0625, 38.25, 38.5, 38.75, 38.9375, 39, 38.9375, 39.026787, 39.357143, 39.616074, 39.875, 40, 40, 40.25, 40.5, 40.75, 41.0625, 41.0625, 41.1875, 41.4375, 41.625, 41.875, 42.0625, 42.3125, 42.5625, 42.8125, 43, 43.0625, 43.3125, 43.5625, 43.8125, 44, 44, 44, 44.125, 44.375, 44.5625, 44.8125, 44.916668, -10, -10, -10, -10, -10, -10, -10, -10, -10, -10, -10, -10, -10, -10, -10, -10, -10, -10, -10, -10, -10, -10, -10, -10, -10, -10, -10, -10, -10, -10, -10, -10, -10, -10, -10, -10, -10, 58.125, 58.166664, 58.1875, 58.035713, 57.660713, 57.383926, 57.0625, 56.9375, 56.625, 56.229168, 56.0625, 56, 56.0625, 56.0625, 55.928574, 55.541668, 55.410713, 55.294643, 54.928574, 54.75893, 54.669643, 54.401787, 54.5, 54.375, 54.223213, 53.86607, 53.491074, 53.321426, 53.1875, 53.25, 53.080357, 52.6875, 52.136906, 51.785713, 51.473213, 50.872025, 50.642857, 50.46875, 50.53125, 50.736607, 50.880356, 50.163265, 50.095238, 49.821426, 50, 50.0625, 50.1875, 50.3125, 50.089287, 49.583336, 49.267857, 49, 49, 48.875, 48.6875, 48.5, 48.3125, 48.1875, 48.125, 48.0625, 48, 47.9375, 47.8125, 47.5625, 47.3125, 47.0625, 46.8125, 46.5625, 46.3125, 46.125, 46.125, 46.223213, 46.0625, 45.800598, 45.508926, 45.1875, 44.964287, 44.96875, 44.748512, 44.233631, 44.049107, 43.8125, 43.8125, 43.6875, 43.571426, 43.267857, 43.008926, 42.75, 42.6875, 42.625, 42.6875, 42.616074, 42.4375, 42.232143, 41.830357, 41.633926, 41.4375, 41.303574, 40.854168, 40.633926, 40.3125, 40.125, 40, 39.9375, 39.9375, 39.9375, 39.875, 39.5625, 39.089287, 38.604168, 38.285713, 38.084824, 37.90625, 37.84375, 37.5625, 37.5, 37.1875, 37, 37, 36.875, 36.6875, 36.4375, 36.25, 36.0625, 36.0625, 36.0625, 36, 36, 35.8125, 35.625, 35.375, 35.125, 34.9375, 34.75, 34.5, 34.1875, 34.026787, 33.9375, 33.8125, 33.6875, 33.4375, 33.1875, 33.0625, 32.8125, 32.5625, 32.267857, 32.1875, 32.1875, 32.044643, 31.839287, 31.8125, 31.625, 31.625, 31.401787, 31.0625, 30.8125, 30.625, 30.375, 30.25, 30.125, 30, 29.9375, 29.6875, 29.4375, 29.1875, 29, 28.8125, 28.5625, 28.3125, 28.0625, 27.9375, 27.9375, 27.875, 27.6875, 27.5, 27.25, 27, 26.875, 26.75, 26.625, 26.303572, 25.729166, 25.401785, 25.125, 25.0625, 25.0625, 25, 24.9375, 24.9375, 24.8125, 24.5625, 24.375, 24.125, 24, 23.75, 23.5, 23.25, 23, 23, 23, 22.9375, 22.6875, 22.4375, 22.1875, 22, 21.75, 21.5, 21.25, 20.9375, 20.8125, 20.830357, 21.229166, 21.5625, 22.247023, 22.732143, 22.928572, 23.125, 23.25, 23.5, 23.75, 23.9375, 24, 24, 24.0625, 24.25, 24.4375, 24.758928, 25.208334, 25.428572, 25.625, 25.75, 25.875, 25.9375, 25.9375, 26, 26.205357, 26.520834, 26.803572, 26.9375, 27, 27.25, 27.5, 27.75, 27.9375, 28, 28.25, 28.5, 28.75, 29, 29.125, 29.1875, 29.3125, 29.5625, 29.6875, 29.875, 30, 30, 30.1875, 30.375, 30.5625, 30.8125, 31.0625, 31.294643, 31.4375, 31.625, 31.6875, 31.8125, 32.0625, 32.375, 32.625, 32.875, 33, 33, 33.125, 33.375, 33.625, 33.875, 34, 34, 34.125, 34.25, 34.5, 34.75, 34.875, 35, 35.1875, 35.4375, 35.6875, 35.9375, 36.0625, 36.25, 36.5, 36.75, 36.9375, 37, 37.0625, 37.25, 37.5, 37.75, 37.9375, 38.0625, 38.3125, 38.5625, 38.8125, 39, 39, 39, 39.089287, 39.419643, 39.678574, 39.875, 40, 40.0625, 40.3125, 40.5625, 40.8125
-10, -10, -10, -10, -10, -10, -10, -10, -10, -10, -10, 57.875, 58, 58.0625, 57.973213, 57.660713, 57.383926, 57.0625, 56.875, 56.625, 56.4375, 56.25, 56.1875, 56.1875, 56.1875, 56.053574, 55.729168, 55.535713, 55.357143, 55.053574, 54.75893, 54.607143, 54.276787, 54.25, 54.125, 53.973213, 53.67857, 53.339287, 53.133926, 53.0625, 53.0625, 52.830357, 52.407738, 51.845242, 51.5, 51.098213, 50.559525, 50.330357, 50.25, 50.3125, 50.580357, 50.773212, 50.357143, 50.202381, 49.883926, 50.0625, 50.09375, 50.28125, 50.40625, 50.183037, 49.601192, 49.267857, 49, 49, 48.875, 48.75, 48.5625, 48.3125, 48.1875, 48.0625, 48, 47.9375, 47.8125, 47.625, 47.375, 47.1875, 47, 46.8125, 46.625, 46.4375, 46.3125, 46.3125, 46.348213, 46.0625, 45.675598, 45.383926, 45.0625, 44.964287, 45.1875, 45.065475, 44.470238, 44.214287, 44, 44.0625, 43.9375, 43.67857, 43.330357, 43.008926, 42.803574, 42.541668, 42.517857, 42.625, 42.723217, 42.625, 42.473213, 41.872025, 41.642857, 41.330357, 41.108845, 40.488098, 40.425594, 40.400002, 40.196426, 40.071426, 39.9375, 39.9375, 39.875, 39.875, 39.625, 39.25893, 38.854168, 38.535713, 38.397324, 38.191963, 37.986607, 37.625, 37.375, 37.0625, 37.044643, 37.044643, 37.0625, 36.875, 36.5625, 36.3125, 36.0625, 36, 36, 36, 35.9375, 35.75, 35.5625, 35.3125, 35.125, 35, 34.8125, 34.5625, 34.25, 34.026787, 33.9375, 33.8125, 33.75, 33.5, 33.25, 33.125, 32.8125, 32.625, 32.392857, 32.25, 32.25, 32.107143, 31.875, 31.8125, 31.5625, 31.4375, 31.214287, 30.875, 30.6875, 30.5625, 30.3125, 30.25, 30.125, 30, 29.928572, 29.5625, 29.375, 29.125, 28.9375, 28.75, 28.5, 28.25, 28.0625, 27.9375, 27.875, 27.75, 27.5, 27.3125, 27.125, 26.9375, 26.8125, 26.625, 26.4375, 26.125, 25.8125, 25.517857, 25.3125, 25.25, 25.25, 25.1875, 25.0625, 25, 24.875, 24.625, 24.4375, 24.1875, 24, 23.8125, 23.5625, 23.3125, 23.0625, 23, 23, 22.875, 22.625, 22.375, 22.125, 22, 21.75, 21.5, 21.1875, 20.75, 20.642857, 20.851191, 21.345238, 21.741072, 22.080357, 22.482143, 22.678572, 22.9375, 23.1875, 23.5, 23.75, 23.9375, 24, 24, 24.0625, 24.25, 24.4375, 24.758928, 25.208334, 25.491072, 25.75, 25.875, 26, 26, 25.9375, 26, 26.205357, 26.520834, 26.803572, 26.9375, 26.9375, 27.125, 27.375, 27.625, 27.875, 28, 28.25, 28.5, 28.75, 29, 29.0625, 29.0625, 29.125, 29.375, 29.5625, 29.8125, 30, 30, 30.125, 30.25, 30.375, 30.625, 31, 31.401787, 31.5, 31.625, 31.625, 31.6875, 32.0625, 32.4375, 32.6875, 32.9375, 33, 33, 33.1875, 33.4375, 33.6875, 33.9375, 34.0625, 34.0625, 34.1875, 34.3125, 34.5, 34.75, 34.875, 35.0625, 35.3125, 35.5625, 35.8125, 36, 36.125, 36.3125, 36.5625, 36.8125, 36.9375, 37, 37, 37.1875, 37.375, 37.625, 37.875, 38, 38.25, 38.4375, 38.625, 38.8125, 38.875, 39.0625, 39.25, 39.5, 39.75, 39.875, 40, 40.125, 40.375, 40.625, 40.875, 41, 41, 41.25, 41.5, 41.75, 42, 42.125, 42.375, 42.625, 42.875, 43, 43.0625, 43.25, 43.4375, 43.5625, 43.75, 43.8125, 43.875, 44.1875, 44.4375, 44.6875, 44.9375, 45, -10, -10, -10, -10, -10, -10, -10, -10, -10, -10, -10, -10, -10, -10, -10, -10, -10, -10, -10, -10, -10, -10, -10, -10, -10, -10, -10, -10, -10, -10, -10, -10, -10, -10, -10, -10, -10, 57.75, 57.833336, 57.9375, 57.910713, 57.642857, 57.446426, 57.1875, 57.0625, 56.875, 56.6875, 56.5, 56.3125, 56.1875, 56.0625, 55.875, 55.8125, 55.651787, 55.419643, 55.080357, 54.732143, 54.482143, 54.276787, 54.160713, 54, 54.020832, 53.607143, 53.339287, 53.133926, 53.125, 53.035713, 52.723213, 52.366074, 51.791668, 51.5625, 51.07143, 50.452381, 50.151787, 50, 50, 50.142857, 50.299995, 50.035713, 50.214287, 50.0625, 50.25, 50.28125, 50.46875, 50.53125, 50.370537, 49.726192, 49.330357, 49.0625, 49, 48.9375, 48.875, 48.75, 48.5625, 48.375, 48.1875, 48.0625, 47.875, 47.75, 47.5625, 47.3125, 47.1875, 47, 46.875, 46.6875, 46.5, 46.375, 46.3125, 46.285713, 45.9375, 45.488098, 45.196426, 45, 45, 45.1875, 45.10714, 44.74107, 44.589287, 44.4375, 44.383926, 43.958332, 43.55357, 43.205357, 42.946426, 42.678574, 42.416668, 42.330357, 42.375, 42.598213, 42.5625, 42.473213, 41.895836, 41.642857, 41.267857, 40.625851, 40.300598, 40.238094, 40.275002, 40.133926, 40.008926, 39.737499, 39.866074, 39.803574, 39.875, 39.6875, 39.428574, 39.104168, 38.848213, 38.647324, 38.33482, 38.049107, 37.6875, 37.5, 37.25, 37.294643, 37.294643, 37.25, 37.0625, 36.6875, 36.375, 36.125, 36, 36, 36, 35.875, 35.625, 35.375, 35.125, 35, 34.9375, 34.75, 34.5, 34.1875, 33.964287, 33.9375, 33.875, 33.875, 33.625, 33.375, 33.0625, 32.625, 32.4375, 32.25, 32.125, 32.125, 32, 31.875, 31.75, 31.5, 31.25, 31.026787, 30.75, 30.5625, 30.4375, 30.1875, 30.125, 30.0625, 30, 29.866072, 29.5, 29.3125, 29.0625, 28.9375, 28.75, 28.5, 28.25, 28.0625, 28, 27.9375, 27.8125, 27.5625, 27.3125, 27.125, 26.9375, 26.8125, 26.5625, 26.3125, 26, 25.75, 25.625, 25.5, 25.5, 25.4375, 25.3125, 25.125, 25, 24.875, 24.625, 24.4375, 24.1875, 24, 23.8125, 23.5625, 23.3125, 23.0625, 23, 23, 22.8125, 22.5625, 22.3125, 22.0625, 21.9375, 21.6875, 21.4375, 21.0625, 20.714287, 20.75, 21.029762, 21.532738, 21.928572, 22.1875, 22.4375, 22.6875, 23.044643, 23.3125, 23.625, 23.8125, 23.9375, 24, 24, 24.125, 24.375, 24.625, 24.9375, 25.125, 25.3125, 25.5, 25.6875, 25.875, 26, 26.0625, 26.125, 26.330357, 26.645834, 26.866072, 27, 27, 27.0625, 27.3125, 27.5625, 27.8125, 28, 28.25, 28.5, 28.75, 29, 29.0625, 29.125, 29.1875, 29.4375, 29.625, 29.8125, 30, 30, 30.0625, 30.125, 30.1875, 30.375, 30.75, 31.214287, 31.3125, 31.5, 31.5625, 31.625, 32.125, 32.5, 32.75, 33, 33, 33, 33.0625, 33.276787, 33.607143, 33.866074, 34.125, 34.1875, 34.3125, 34.5, 34.625, 34.8125, 35, 35.1875, 35.4375, 35.6875, 35.875, 36, 36.1875, 36.4375, 36.6875, 36.9375, 37, 37, 37.0625, 37.25, 37.375, 37.5625, 37.767857, 38, 38.1875, 38.375, 38.4375, 38.633926, 38.958332, 39.241074, 39.5, 39.6875, 39.875, 39.9375, 40, 40.1875, 40.4375, 40.6875, 40.9375
-10, -10, -10, -10, -10, -10, -10, -10, -10, -10, -10, 57.625, 57.666668, 57.6875, 57.625, 57.5, 57.375, 57.25, 57.1875, 57, 56.8125, 56.5625, 56.3125, 56.1875, 56, 55.8125, 55.8125, 55.6875, 55.5625, 55.366074, 54.755955, 54.42857, 54.151787, 53.973213, 53.901787, 54.083332, 53.55357, 53.348213, 53.133926, 53.1875, 53.142857, 52.747025, 52.375, 51.791668, 51.5625, 51.080357, 50.598213, 50.223213, 50.125, 50.125, 50.178574, 50.150002, 50.169643, 50.392857, 50.375, 50.5, 50.46875, 50.522324, 50.34375, 50.263393, 49.684525, 49.383926, 49.125, 49, 49, 48.9375, 48.8125, 48.6875, 48.4375, 48.25, 48.125, 47.8125, 47.625, 47.4375, 47.1875, 47.125, 46.9375, 46.75, 46.5625, 46.375, 46.3125, 46.25, 46.160713, 45.767857, 45.446426, 45.1875, 45, 45, 45.125, 45.071426, 44.785713, 44.642853, 44.5, 44.383926, 43.958332, 43.55357, 43.142857, 42.946426, 42.598213, 42.193455, 42.142857, 42.0625, 42.348213, 42.375, 42.348213, 41.770836, 41.535713, 41.205357, 40.636906, 40.238098, 40.238094, 40.275002, 40.196426, 40.071426, 39.549999, 39.678574, 39.553574, 39.625, 39.4375, 39.25, 39.25, 39.125, 38.991074, 38.57143, 38.267857, 37.875, 37.6875, 37.5, 37.544643, 37.482143, 37.375, 37.1875, 36.75, 36.5, 36.25, 36.0625, 36.0625, 36, 35.8125, 35.5625, 35.3125, 35.0625, 35, 34.9375, 34.75, 34.5625, 34.25, 33.964287, 33.830357, 33.8125, 33.875, 33.6875, 33.5, 33.0625, 32.5625, 32.375, 32.1875, 32.125, 32.125, 32.0625, 31.9375, 31.75, 31.5, 31.1875, 31, 30.75, 30.5625, 30.375, 30.125, 30.0625, 30, 29.9375, 29.741072, 29.375, 29.1875, 29, 28.9375, 28.6875, 28.4375, 28.1875, 28, 28, 27.875, 27.6875, 27.5, 27.3125, 27.1875, 27.0625, 26.875, 26.5625, 26.3125, 26.0625, 25.875, 25.8125, 25.6875, 25.625, 25.5, 25.3125, 25.125, 25, 24.875, 24.625, 24.4375, 24.1875, 24, 23.8125, 23.5625, 23.3125, 23.0625, 23, 23, 22.75, 22.5, 22.25, 22, 21.875, 21.625, 21.375, 21.03125, 20.870537, 21.03125, 21.355656, 21.616072, 21.857143, 22.0625, 22.3125, 22.625, 23.044643, 23.3125, 23.625, 23.8125, 23.9375, 24, 24.0625, 24.25, 24.5, 24.75, 24.9375, 25, 25.125, 25.25, 25.4375, 25.6875, 25.9375, 26.232143, 26.4375, 26.6875, 26.8125, 26.9375, 27, 27, 27, 27.25, 27.5, 27.75, 28, 28.1875, 28.4375, 28.6875, 28.9375, 29.125, 29.1875, 29.25, 29.4375, 29.5, 29.6875, 29.875, 29.9375, 30, 30, 30, 30.125, 30.5, 31.026787, 31.294643, 31.5, 31.625, 31.6875, 32.125, 32.5, 32.75, 33, 33, 33, 33.0625, 33.276787, 33.607143, 33.866074, 34.125, 34.25, 34.4375, 34.6875, 34.8125, 34.9375, 35.0625, 35.1875, 35.4375, 35.6875, 35.8125, 35.9375, 36.125, 36.3125, 36.625, 36.875, 36.9375, 37, 37.0625, 37.1875, 37.25, 37.446426, 37.767857, 37.9375, 38.125, 38.1875, 38.1875, 38.446426, 38.833332, 39.241074, 39.625, 39.8125, 40, 40, 40, 40.1875, 40.4375, 40.6875, 40.9375, 41, 41, 41.25, 41.5, 41.75, 42, 42.0625, 42.3125, 42.5625, 42.8125, 43, 43, 43.0625, 43.125, 43.25, 43.5, 43.6875, 43.875, 44.125, 44.25, 44.4375, 44.625, 44.666668, -10, -10, -10, -10, -10, -10, -10, -10, -10, -10, -10, -10, -10, -10, -10, -10, -10, -10, -10, -10, -10, -10, -10, -10, -10, -10, -10, -10, -10, -10, -10, -10, -10, -10, -10, -10, -10, 57.75, 57.666668, 57.537498, 57.553574, 57.25, 57.25, 57.125, 57.125, 57.0625, 56.875, 56.625, 56.375, 56.1875, 56.0625, 55.875, 55.875, 55.75, 55.625, 55.491074, 54.854168, 54.464287, 54.25, 53.973213, 53.901787, 53.895832, 53.330357, 53.205357, 53.0625, 53.125, 53.017857, 52.622025, 52.25, 51.791668, 51.5625, 51.098213, 50.767857, 50.401787, 50.375, 50.375, 50.357143, 50.1875, 50.294643, 50.517857, 50.625, 50.785713, 50.78125, 50.709824, 50.28125, 50.120537, 49.642857, 49.375, 49.1875, 49, 48.9375, 48.8125, 48.625, 48.4375, 48.25, 48.125, 48.0625, 47.75, 47.5, 47.25, 47, 47, 46.866074, 46.625, 46.5, 46.3125, 46.3125, 46.125, 46.0625, 45.75, 45.4375, 45.25, 45, 45, 45, 44.910713, 44.705357, 44.633926, 44.625, 44.49107, 43.8125, 43.339283, 42.9375, 42.839287, 42.660713, 42.077381, 42.026787, 41.875, 42.169643, 42.375, 42.348213, 41.770836, 41.410713, 41.017857, 40.458332, 40.258926, 40.291668, 40.275002, 40.071426, 39.883926, 39.362499, 39.491074, 39.366074, 39.4375, 39.25, 39.125, 39.1875, 39.125, 39, 38.69643, 38.330357, 38, 37.8125, 37.75, 37.794643, 37.669643, 37.5, 37.25, 36.875, 36.6875, 36.4375, 36.1875, 36.125, 36, 35.8125, 35.625, 35.375, 35.125, 35.0625, 34.9375, 34.75, 34.625, 34.4375, 34.178574, 33.809525, 33.696426, 33.625, 33.5, 33.375, 32.9375, 32.5, 32.3125, 32.0625, 32.0625, 32.125, 32.0625, 31.830357, 31.571428, 31.3125, 31.0625, 30.875, 30.6875, 30.5, 30.3125, 30.1875, 30.125, 30.0625, 30, 29.678572, 29.3125, 29.125, 28.9375, 28.9375, 28.6875, 28.4375, 28.1875, 28, 28, 27.875, 27.625, 27.4375, 27.25, 27.125, 27.125, 27, 26.6875, 26.4375, 26.1875, 26, 25.9375, 25.8125, 25.6875, 25.5, 25.3125, 25.1875, 25.0625, 25, 24.75, 24.5, 24.25, 24, 23.875, 23.625, 23.375, 23.125, 23, 23, 22.8125, 22.5625, 22.3125, 22.0625, 21.875, 21.625, 21.375, 21.09375, 21.058037, 21.34375, 21.730656, 21.928572, 22, 22.125, 22.3125, 22.625, 23.107143, 23.4375, 23.6875, 23.875, 23.9375, 24, 24.125, 24.375, 24.625, 24.8125, 25, 25.0625, 25.125, 25.1875, 25.375, 25.5625, 25.875, 26.232143, 26.4375, 26.6875, 26.8125, 26.9375, 27, 27.0625, 27.125, 27.375, 27.625, 27.8125, 28.0625, 28.1875, 28.375, 28.625, 28.8125, 29.125, 29.3125, 29.375, 29.5, 29.4375, 29.5625, 29.75, 29.875, 30, 30.0625, 30.125, 30.25, 30.625, 31.044643, 31.357143, 31.625, 31.75, 31.8125, 32.125, 32.4375, 32.6875, 32.9375, 33, 33, 33, 33.214287, 33.544643, 33.803574, 34.125, 34.3125, 34.5625, 34.8125, 34.9375, 35, 35.125, 35.3125, 35.5625, 35.8125, 35.875, 35.9375, 36.0625, 36.25, 36.5, 36.75, 36.875, 36.9375, 37.0625, 37.1875, 37.1875, 37.383926, 37.705357, 37.875, 38.0625, 38.0625, 38.0625, 38.321426, 38.770832, 39.178574, 39.5625, 39.75, 39.9375, 40, 40, 40.125, 40.375, 40.625, 40.875
-10, -10, -10, -10, -10, -10, -10, -10, -10, -10, -10, 58, 57.75, 57.449997, 57.544647, 57.125, 57.3125, 57.25, 57.3125, 57.25, 57, 56.75, 56.5, 56.3125, 56.1875, 56, 55.9375, 55.875, 55.8125, 55.616074, 55.041668, 54.651787, 54.375, 54.098213, 53.964287, 53.958332, 53.392857, 53.330357, 53.1875, 53.1875, 53.080357, 52.622025, 52.258926, 51.9375, 51.705357, 51.410713, 51.017857, 50.714287, 50.5625, 50.5625, 50.482143, 50.339287, 50.544643, 50.660713, 50.875, 50.973213, 51, 50.803574, 50.3125, 50.089287, 49.625, 49.375, 49.25, 49.0625, 49, 48.875, 48.625, 48.4375, 48.25, 48.125, 48.0625, 47.75, 47.5, 47.25, 47, 47, 46.803574, 46.5, 46.3125, 46.0625, 46.0625, 45.875, 45.875, 45.625, 45.375, 45.25, 45, 45, 44.875, 44.75, 44.625, 44.625, 44.6875, 44.535713, 43.729168, 43.267853, 42.875, 42.776787, 42.607143, 42.223213, 42.133926, 41.9375, 42.0625, 42.1875, 42.107143, 41.729168, 41.401787, 41.0625, 40.75, 40.5, 40.375, 40.0625, 39.875, 39.625, 39.112499, 39.241074, 39.178574, 39.25, 39.125, 39.0625, 39.125, 39.125, 38.9375, 38.598213, 38.3125, 38.0625, 38, 38, 37.9375, 37.75, 37.5, 37.25, 36.9375, 36.75, 36.5, 36.25, 36.125, 36, 35.875, 35.75, 35.5, 35.25, 35.125, 34.9375, 34.75, 34.6875, 34.5, 34.241074, 33.809525, 33.496429, 33.482143, 33.3125, 33.3125, 32.875, 32.5, 32.25, 31.875, 31.875, 32, 31.958334, 31.622023, 31.383928, 31.125, 31, 30.875, 30.75, 30.5625, 30.375, 30.25, 30.125, 30.0625, 30, 29.75, 29.5625, 29.3125, 29.125, 29.0625, 28.75, 28.5625, 28.3125, 28.125, 28.1875, 28.0625, 27.8125, 27.517857, 27.3125, 27.125, 27.125, 27.0625, 26.75, 26.5, 26.25, 26, 25.9375, 25.75, 25.5625, 25.3125, 25.125, 25.0625, 25, 25, 24.75, 24.5, 24.25, 24, 23.875, 23.625, 23.375, 23.125, 23, 23, 22.8125, 22.5625, 22.3125, 22.0625, 21.875, 21.625, 21.375, 21.15625, 21.245537, 21.575893, 21.834822, 22, 22, 22.1875, 22.4375, 22.75, 23.232143, 23.4375, 23.5625, 23.75, 23.8125, 24, 24.1875, 24.375, 24.625, 24.75, 24.9375, 25.0625, 25.0625, 25.0625, 25.1875, 25.375, 25.75, 26.169643, 26.4375, 26.625, 26.75, 26.875, 26.9375, 27.125, 27.25, 27.5, 27.75, 27.875, 28.125, 28.25, 28.4375, 28.6875, 28.8125, 29.125, 29.375, 29.5, 29.5625, 29.4375, 29.4375, 29.5625, 29.75, 29.9375, 30.125, 30.25, 30.375, 30.75, 31, 31.357143, 31.6875, 31.8125, 31.9375, 32.125, 32.3125, 32.5, 32.75, 32.875, 32.9375, 33, 33.214287, 33.544643, 33.803574, 34.0625, 34.25, 34.4375, 34.6875, 34.875, 34.9375, 35.125, 35.3125, 35.5625, 35.8125, 35.875, 35.9375, 36.0625, 36.25, 36.4375, 36.714287, 36.910713, 36.9375, 37.125, 37.125, 37.1875, 37.383926, 37.705357, 37.9375, 38.0625, 38.0625, 38.125, 38.383926, 38.833332, 39.178574, 39.5, 39.6875, 39.875, 40, 40, 40.125, 40.375, 40.625, 40.875, 41, 41, 41.125, 41.25, 41.5, 41.75, 41.875, 42.1875, 42.4375, 42.6875, 42.9375, 43.0625, 43.0625, 43.0625, 43.3125, 43.5, 43.75, 44, 44.03125, 44.125, 44.3125, 44.375, 44.458336, -10, -10, -10, -10, -10, -10, -10, -10, -10, -10, -10, -10, -10, -10, -10, -10, -10, -10, -10, -10, -10, -10, -10, -10, -10, -10, -10, -10, -10, -10, -10, -10, -10, -10, -10, -10, -10, 58.125, 57.75, 57.449997, 57.482147, 57.125, 57.375, 57.25, 57.3125, 57.1875, 56.9375, 56.75, 56.5, 56.3125, 56.1875, 56, 55.9375, 55.9375, 55.9375, 55.741074, 55.229168, 54.839287, 54.4375, 54.1875, 54.026787, 53.875, 53.508926, 53.446426, 53.375, 53.25, 53.169643, 52.791668, 52.446426, 52.1875, 51.830357, 51.5, 51.1875, 50.892857, 50.8125, 50.8125, 50.794643, 50.625, 50.6875, 50.732143, 50.875, 51.035713, 51.0625, 50.803574, 50.3125, 49.964287, 49.5, 49.3125, 49.1875, 49.0625, 49, 48.875, 48.5625, 48.3125, 48.125, 48, 48, 47.8125, 47.5625, 47.3125, 47.0625, 47, 46.741074, 46.375, 46.1875, 46, 46.0625, 45.9375, 45.9375, 45.6875, 45.5, 45.4375, 45.1875, 45.125, 44.875, 44.625, 44.375, 44.25, 44.3125, 44.151787, 43.645836, 43.330353, 42.9375, 42.776787, 42.607143, 42.160713, 42.071426, 41.9375, 42, 42.0625, 41.9375, 41.6875, 41.330357, 40.9375, 40.625, 40.375, 40.1875, 39.875, 39.6875, 39.5, 39.25, 39.25, 39.125, 39.125, 39, 38.9375, 38.9375, 38.9375, 38.8125, 38.580357, 38.375, 38.125, 38, 38, 37.9375, 37.6875, 37.4375, 37.1875, 36.9375, 36.8125, 36.5625, 36.3125, 36.125, 36, 35.875, 35.75, 35.5, 35.1875, 35, 34.75, 34.5625, 34.5625, 34.4375, 34.241074, 33.809525, 33.496429, 33.419643, 33.25, 33.25, 32.8125, 32.5, 32.25, 31.9375, 32, 32.125, 32.020832, 31.514879, 31.321428, 31.125, 31.0625, 31, 30.8125, 30.5625, 30.375, 30.25, 30.125, 30.0625, 30, 29.8125, 29.6875, 29.5, 29.3125, 29.125, 28.705357, 28.5, 28.3125, 28.25, 28.375, 28.3125, 28.053572, 27.559523, 27.321428, 27.125, 27.125, 27, 26.6875, 26.4375, 26.1875, 26, 25.9375, 25.6875, 25.4375, 25.1875, 25, 25, 25, 24.9375, 24.6875, 24.4375, 24.1875, 24, 23.9375, 23.6875, 23.4375, 23.1875, 23, 22.9375, 22.75, 22.5, 22.25, 22.0625, 21.9375, 21.6875, 21.4375, 21.28125, 21.34375, 21.59375, 21.84375, 22, 22, 22.1875, 22.375, 22.5625, 22.9375, 23.125, 23.3125, 23.625, 23.75, 24.0625, 24.3125, 24.4375, 24.6875, 24.75, 24.875, 25.0625, 25.0625, 25.125, 25.25, 25.4375, 25.75, 26.107143, 26.375, 26.5, 26.6875, 26.8125, 26.875, 27.1875, 27.375, 27.5625, 27.8125, 27.9375, 28.232143, 28.375, 28.5625, 28.75, 28.8125, 29.0625, 29.3125, 29.375, 29.375, 29.25, 29.25, 29.4375, 29.6875, 30, 30.25, 30.4375, 30.625, 31, 31.25, 31.607143, 31.875, 31.9375, 32, 32.125, 32.3125, 32.5, 32.75, 32.875, 33, 33.1875, 33.375, 33.625, 33.8125, 33.9375, 34.125, 34.25, 34.5, 34.75, 34.875, 35.0625, 35.25, 35.5, 35.75, 35.875, 36, 36.125, 36.3125, 36.4375, 36.589287, 36.785713, 36.8125, 37, 37.0625, 37.1875, 37.446426, 37.8125, 37.9375, 38.0625, 38.0625, 38.25, 38.5, 38.75, 39, 39.25, 39.5, 39.75, 39.9375, 40, 40.125, 40.3125, 40.5625, 40.8125
-10, -10, -10, -10, -10, -10, -10, -10, -10, -10, -10, 58.25, 57.916668, 57.637497, 57.669647, 57.25, 57.4375, 57.25, 57.3125, 57.25, 57.0625, 56.9375, 56.6875, 56.4375, 56.25, 55.9375, 55.8125, 55.75, 55.6875, 55.5625, 55.3125, 54.955357, 54.5625, 54.3125, 54.0625, 53.875, 53.6875, 53.625, 53.5625, 53.3125, 53.1875, 52.9375, 52.5625, 52.3125, 51.955357, 51.598213, 51.267857, 51.071426, 51, 51.125, 51.1875, 51.017857, 50.946426, 50.875, 50.9375, 51.035713, 51, 50.75, 50.375, 49.901787, 49.5, 49.25, 49.125, 49.125, 49.0625, 49, 48.75, 48.375, 48.1875, 48, 47.9375, 47.8125, 47.5625, 47.3125, 47.0625, 47, 46.803574, 46.5, 46.375, 46.1875, 46.1875, 46, 45.9375, 45.75, 45.625, 45.553574, 45.1875, 45.125, 44.75, 44.5, 44.25, 44.125, 44.25, 44.089287, 43.645836, 43.392853, 43.125, 43.026787, 42.8125, 42.267857, 42.035713, 41.9375, 42, 42.0625, 41.875, 41.580357, 41.3125, 41, 40.875, 40.678574, 40.145832, 39.8125, 39.5625, 39.4375, 39.5, 39.4375, 39.3125, 39.1875, 39, 38.875, 38.8125, 38.8125, 38.669643, 38.354168, 38.205357, 38, 37.875, 37.9375, 37.8125, 37.5625, 37.375, 37.125, 37, 36.8125, 36.5625, 36.3125, 36, 35.9375, 35.8125, 35.6875, 35.5, 35.125, 34.875, 34.625, 34.4375, 34.4375, 34.3125, 34.178574, 33.854168, 33.496429, 33.419643, 33.1875, 33.1875, 32.848213, 32.517857, 32.258926, 32, 32.0625, 32.1875, 32.145832, 31.613094, 31.339285, 31.133928, 31.125, 31, 30.875, 30.625, 30.375, 30.25, 30.0625, 30, 30, 29.9375, 29.8125, 29.625, 29.375, 29.0625, 28.642857, 28.4375, 28.25, 28.25, 28.4375, 28.4375, 28.178572, 27.577381, 27.258928, 27, 27, 26.875, 26.625, 26.375, 26.125, 26, 25.9375, 25.75, 25.5625, 25.3125, 25.125, 25.0625, 24.9375, 24.8125, 24.5625, 24.3125, 24.125, 23.9375, 23.875, 23.625, 23.375, 23.1875, 23, 22.9375, 22.8125, 22.5625, 22.3125, 22.125, 22, 21.8125, 21.625, 21.5, 21.5, 21.6875, 21.875, 22, 22, 22.1875, 22.375, 22.5625, 22.875, 23, 23.125, 23.4375, 23.625, 24, 24.25, 24.3125, 24.5625, 24.625, 24.8125, 25.0625, 25.0625, 25.125, 25.3125, 25.5, 25.75, 26.0625, 26.3125, 26.4375, 26.6875, 26.8125, 26.875, 27.1875, 27.375, 27.5625, 27.8125, 28, 28.357143, 28.5625, 28.75, 28.875, 28.875, 29, 29.3125, 29.375, 29.375, 29.25, 29.151787, 29.419643, 29.678572, 30.0625, 30.375, 30.625, 30.875, 31.1875, 31.375, 31.625, 31.875, 31.9375, 32, 32.125, 32.3125, 32.5, 32.75, 32.875, 33.0625, 33.3125, 33.4375, 33.6875, 33.8125, 33.875, 34.125, 34.1875, 34.4375, 34.6875, 34.8125, 35.0625, 35.3125, 35.5625, 35.8125, 35.9375, 36.026787, 36.294643, 36.553574, 36.625, 36.714287, 36.848213, 36.8125, 37, 37.125, 37.3125, 37.5625, 37.8125, 37.9375, 38, 38.125, 38.375, 38.625, 38.875, 39.0625, 39.25, 39.5, 39.75, 39.9375, 40, 40.1875, 40.3125, 40.5625, 40.8125, 40.875, 41.0625, 41.125, 41.1875, 41.5, 41.75, 41.9375, 42.1875, 42.3125, 42.5, 42.75, 43, 43.1875, 43.25, 43.5, 43.6875, 43.8125, 44, 44.09375, 44.25, 44.5, 44.625, 44.708336, -10, -10, -10, -10, -10, -10, -10, -10, -10, -10, -10, -10, -10, -10, -10, -10, -10, -10, -10, -10, -10, -10, -10, -10, -10, -10, -10, -10, -10, -10, -10, -10, -10, -10, -10, -10, -10, 58.125, 57.916668, 57.787498, 57.678574, 57.375, 57.4375, 57.25, 57.3125, 57.25, 57.125, 57.0625, 56.8125, 56.5625, 56.25, 55.9375, 55.75, 55.625, 55.5625, 55.375, 55.25, 55, 54.625, 54.375, 54.125, 54, 53.875, 53.875, 53.75, 53.5, 53.375, 53.125, 52.8125, 52.5625, 52.267857, 51.910713, 51.517857, 51.214287, 51.0625, 51.196426, 51.387501, 51.151787, 51.142857, 51, 51, 51, 50.875, 50.6875, 50.4375, 49.9375, 49.517857, 49.25, 49.0625, 49.125, 49.125, 49.1875, 48.973213, 48.580357, 48.321426, 48.0625, 48, 47.8125, 47.5625, 47.375, 47.1875, 47.125, 47, 46.8125, 46.625, 46.4375, 46.3125, 46.125, 46.0625, 45.910713, 45.705357, 45.5625, 45.1875, 45.0625, 44.6875, 44.4375, 44.1875, 44.0625, 44.1875, 44.017857, 43.693455, 43.571426, 43.3125, 43.1875, 42.8125, 42.321426, 42.026787, 41.9375, 42.0625, 42.125, 41.875, 41.434525, 41.25, 41.044643, 40.982143, 40.657738, 40.020832, 39.75, 39.625, 39.5625, 39.6875, 39.5625, 39.375, 39.1875, 39, 38.8125, 38.75, 38.75, 38.589287, 38.145836, 37.964287, 37.75, 37.625, 37.6875, 37.625, 37.4375, 37.3125, 37.125, 36.9375, 36.6875, 36.4375, 36.1875, 35.9375, 35.875, 35.6875, 35.5, 35.3125, 35, 34.75, 34.5625, 34.375, 34.294643, 33.979168, 33.892857, 33.8125, 33.674999, 33.732143, 33.4375, 33.258926, 32.80357, 32.455357, 32.196426, 32.0625, 32.1875, 32.25, 32.270832, 31.827379, 31.410713, 31.205357, 31.125, 31.0625, 31, 30.8125, 30.553572, 30.1875, 30, 29.875, 29.9375, 30, 29.875, 29.6875, 29.4375, 29, 28.580357, 28.375, 28.1875, 28.25, 28.4375, 28.375, 28.116072, 27.514881, 27.196428, 27, 27, 26.8125, 26.625, 26.375, 26.125, 26.0625, 25.9375, 25.75, 25.5625, 25.3125, 25.125, 25.0625, 24.9375, 24.75, 24.5, 24.25, 24.0625, 23.9375, 23.8125, 23.5625, 23.3125, 23.125, 23, 22.9375, 22.75, 22.5, 22.25, 22.0625, 22, 21.875, 21.75, 21.625, 21.625, 21.75, 21.875, 22, 22.0625, 22.25, 22.4375, 22.625, 22.875, 23, 23.1875, 23.5, 23.6875, 24, 24.1875, 24.1875, 24.4375, 24.5625, 24.75, 25, 25, 25.0625, 25.25, 25.5, 25.75, 26.0625, 26.375, 26.5, 26.75, 26.875, 26.875, 27.125, 27.3125, 27.5, 27.75, 28, 28.357143, 28.625, 28.875, 29, 29, 29, 29.25, 29.375, 29.375, 29.3125, 29.214287, 29.419643, 29.678572, 30.125, 30.4375, 30.6875, 30.9375, 31.125, 31.3125, 31.5625, 31.8125, 31.9375, 32, 32.1875, 32.375, 32.5625, 32.8125, 32.875, 33.0625, 33.3125, 33.375, 33.625, 33.75, 33.8125, 34.125, 34.1875, 34.4375, 34.6875, 34.8125, 35, 35.25, 35.5, 35.75, 35.9375, 36.089287, 36.419643, 36.678574, 36.8125, 36.839287, 36.910713, 36.875, 37, 37.1875, 37.4375, 37.6875, 37.9375, 38, 38, 38.125, 38.375, 38.625, 38.875, 39.125, 39.3125, 39.5625, 39.8125, 39.9375, 40, 40.25, 40.3125, 40.5625, 40.8125
-10, -10, -10, -10, -10, -10, -10, -10, -10, -10, -10, 58, 57.916668, 57.9375, 57.6875, 57.5, 57.375, 57.125, 57.125, 57.0625, 57, 56.9375, 56.6875, 56.4375, 56.0625, 55.839287, 55.785713, 55.5625, 55.455357, 55.1875, 54.924999, 54.866074, 54.520832, 54.166668, 53.955357, 53.875, 53.875, 53.9375, 53.875, 53.625, 53.4375, 53.1875, 52.875, 52.6875, 52.5, 52.160713, 51.767857, 51.464287, 51.3125, 51.383926, 51.512501, 51.214287, 51.142857, 51, 51, 51, 50.875, 50.6875, 50.4375, 49.9375, 49.517857, 49.25, 49, 49, 49.026787, 49.232143, 49.119045, 48.622025, 48.401783, 48.125, 48.0625, 47.875, 47.4375, 47.3125, 47.125, 47.125, 47.0625, 46.9375, 46.8125, 46.625, 46.4375, 46.25, 46.0625, 45.910713, 45.705357, 45.5, 45.25, 45.098213, 44.642857, 44.383926, 44.125, 44, 44.0625, 43.848213, 43.714287, 43.625, 43.375, 43.3125, 42.875, 42.383926, 42.026787, 41.8125, 41.9375, 42, 41.794643, 41.309525, 41.1875, 40.982143, 40.982143, 40.657738, 40.020832, 39.8125, 39.75, 39.75, 39.875, 39.6875, 39.4375, 39.1875, 39, 38.75, 38.625, 38.5625, 38.276787, 37.770836, 37.55357, 37.375, 37.3125, 37.4375, 37.375, 37.25, 37.1875, 37.0625, 36.875, 36.625, 36.375, 36.125, 35.875, 35.75, 35.5, 35.25, 35.125, 34.875, 34.625, 34.5, 34.3125, 34.169643, 33.916668, 33.830357, 33.8125, 33.803574, 33.625, 33.5, 33.196426, 32.830357, 32.580357, 32.258926, 32.3125, 32.4375, 32.375, 32.4375, 32.098213, 31.660713, 31.517857, 31.375, 31.25, 31.125, 30.875, 30.544643, 30.0625, 29.9375, 29.8125, 29.9375, 30, 29.875, 29.6875, 29.375, 28.830357, 28.517857, 28.25, 28.125, 28.1875, 28.25, 28.25, 28.053572, 27.559525, 27.258928, 27.0625, 27, 26.75, 26.625, 26.4375, 26.1875, 26.1875, 26, 25.75, 25.5625, 25.3125, 25.125, 25.0625, 24.9375, 24.6875, 24.4375, 24.1875, 24, 23.9375, 23.75, 23.5, 23.25, 23.0625, 22.9375, 22.8125, 22.625, 22.375, 22.1875, 22.0625, 22, 21.9375, 21.875, 21.8125, 21.8125, 21.875, 21.9375, 22, 22.125, 22.3125, 22.5, 22.75, 23, 23.1875, 23.4375, 23.6875, 23.8125, 24, 24.125, 24.125, 24.3125, 24.5, 24.6875, 24.9375, 25, 25.0625, 25.3125, 25.5625, 25.8125, 26.125, 26.375, 26.5625, 26.8125, 26.9375, 26.9375, 27.125, 27.3125, 27.5, 27.75, 28.0625, 28.419643, 28.625, 28.8125, 28.875, 28.875, 29, 29.25, 29.3125, 29.3125, 29.1875, 29.214287, 29.482143, 29.741072, 30.1875, 30.375, 30.625, 30.875, 31, 31.3125, 31.5625, 31.8125, 32, 32, 32.25, 32.5, 32.75, 33, 33, 33.1875, 33.375, 33.4375, 33.6875, 33.75, 33.8125, 34.1875, 34.3125, 34.5625, 34.8125, 34.875, 35, 35.25, 35.4375, 35.625, 35.8125, 35.964287, 36.294643, 36.616074, 36.8125, 36.8125, 36.875, 36.875, 37, 37.3125, 37.5625, 37.8125, 38, 38, 38, 38.1875, 38.4375, 38.6875, 38.9375, 39.125, 39.3125, 39.5625, 39.8125, 39.9375, 40.0625, 40.25, 40.25, 40.5, 40.6875, 40.8125, 41.1875, 41.375, 41.5625, 41.8125, 42, 42.0625, 42.125, 42.1875, 42.375, 42.625, 42.875, 43.25, 43.4375, 43.6875, 43.9375, 43.9375, 44, 44.125, 44.25, 44.5, 44.6875, 44.750004, -10, -10, -10, -10, -10, -10, -10, -10, -10, -10, -10, -10, -10, -10, -10, -10, -10, -10, -10, -10, -10, -10, -10, -10, -10, -10, -10, -10, -10, -10, -10, -10, -10, -10, -10, -10, -10, 58.125, 58.083332, 58.0625, 57.8125, 57.5, 57.25, 57, 57, 57.0625, 57, 56.729168, 56.5, 56.25, 55.9375, 55.714287, 55.598213, 55.3125, 55.205357, 54.9375, 54.737499, 54.741074, 54.458332, 54.166668, 53.955357, 53.875, 53.9375, 54, 53.9375, 53.6875, 53.4375, 53.1875, 53, 52.848213, 52.642857, 52.357143, 51.892857, 51.651787, 51.4375, 51.446426, 51.575001, 51.214287, 51.142857, 51, 51, 51, 50.875, 50.75, 50.491074, 49.854168, 49.464287, 49.1875, 48.9375, 48.875, 48.901787, 49.107143, 49.056545, 48.622025, 48.401783, 48.125, 48.0625, 47.875, 47.4375, 47.3125, 47.125, 47.125, 47.125, 47.0625, 47, 46.75, 46.5, 46.25, 45.9375, 45.785713, 45.517857, 45.25, 45.125, 45.008926, 44.535713, 44.330353, 44.0625, 44, 44, 43.785713, 43.714287, 43.625, 43.4375, 43.5, 43.035713, 42.392857, 42.026787, 41.6875, 41.8125, 41.875, 41.607143, 41.077381, 41.0625, 40.919643, 40.982143, 40.720238, 40.083332, 39.9375, 39.875, 39.875, 39.875, 39.625, 39.375, 39.0625, 38.875, 38.625, 38.5625, 38.5, 38.151787, 37.495834, 37.285713, 37.125, 37.169643, 37.151787, 37.125, 37, 37.0625, 36.9375, 36.75, 36.5, 36.25, 36.0625, 35.8125, 35.5625, 35.205357, 35, 34.9375, 34.875, 34.6875, 34.5625, 34.375, 34.107143, 33.854168, 33.767857, 33.75, 33.732143, 33.4375, 33.375, 32.991074, 32.642857, 32.455357, 32.133926, 32.25, 32.375, 32.375, 32.5, 32.330357, 31.848213, 31.580357, 31.375, 31.1875, 31.0625, 30.9375, 30.732143, 30.285713, 30.080357, 29.8125, 29.8125, 29.875, 29.75, 29.5625, 29.25, 28.660713, 28.517857, 28.4375, 28.3125, 28.3125, 28.1875, 28, 27.8125, 27.517857, 27.3125, 27.3125, 27.25, 26.955357, 26.821428, 26.5625, 26.3125, 26.25, 26, 25.8125, 25.625, 25.375, 25.1875, 25.0625, 24.9375, 24.75, 24.5, 24.25, 24.0625, 23.9375, 23.75, 23.5, 23.25, 23.0625, 22.875, 22.75, 22.5625, 22.3125, 22.1875, 22.0625, 22, 21.9375, 21.875, 21.875, 21.875, 21.9375, 22, 22, 22.1875, 22.4375, 22.6875, 23, 23.25, 23.4375, 23.625, 23.8125, 23.875, 23.9375, 24, 24, 24.125, 24.375, 24.625, 24.90625, 25.09375, 25.15625, 25.40625, 25.625, 25.8125, 26.0625, 26.25, 26.5, 26.6875, 26.8125, 26.875, 27, 27.294643, 27.5625, 27.8125, 28.0625, 28.3125, 28.5, 28.6875, 28.8125, 28.875, 29, 29.1875, 29.25, 29.25, 29.125, 29.151787, 29.357143, 29.660713, 30.333334, 30.535713, 30.78125, 30.90625, 30.9375, 31.1875, 31.375, 31.625, 31.875, 31.9375, 32.1875, 32.375, 32.625, 32.875, 32.9375, 33.125, 33.25, 33.375, 33.625, 33.8125, 33.9375, 34.3125, 34.5, 34.6875, 34.9375, 34.9375, 35.0625, 35.3125, 35.4375, 35.5625, 35.65625, 35.745537, 36.075893, 36.459824, 36.75, 36.875, 37, 37.0625, 37.1875, 37.4375, 37.6875, 37.875, 38, 38, 38, 38.1875, 38.4375, 38.6875, 38.9375, 39.125, 39.375, 39.625, 39.875, 40, 40.0625, 40.1875, 40.1875, 40.4375, 40.6875
-10, -10, -10, -10, -10, -10, -10, -10, -10, -10, -10, 58.041668, 58.233334, 58.241074, 58.053574, 57.458332, 57.1875, 57, 57.035713, 57.1875, 57.071426, 56.4375, 56.241074, 56.0625, 55.875, 55.669643, 55.54464, 55.25, 55.205357, 54.875, 54.549999, 54.51786, 54.270832, 54.104168, 54.080357, 54, 54, 53.964287, 53.875, 53.6875, 53.5, 53.3125, 53.25, 53.080357, 52.684525, 52.321426, 51.875, 51.642857, 51.375, 51.258926, 51.325001, 51.071426, 51.071426, 51, 51, 51, 50.9375, 50.875, 50.678574, 50.095238, 49.505951, 49.196426, 48.90625, 48.75, 48.714287, 48.857143, 48.775295, 48.434525, 48.276783, 48.0625, 48.0625, 47.875, 47.4375, 47.3125, 47.125, 47.0625, 47, 46.955357, 46.900002, 46.5625, 46.375, 46.125, 45.9375, 45.785713, 45.517857, 45.258926, 45.1875, 44.901787, 44.473213, 44.267853, 44.0625, 44, 43.892857, 43.660713, 43.526787, 43.4375, 43.25, 43.3125, 42.910713, 42.508926, 42.1875, 41.75, 41.705357, 41.625, 41.357143, 40.934525, 40.875, 40.732143, 40.732143, 40.416668, 40.125, 40, 39.9375, 39.9375, 39.803574, 39.487499, 39.428574, 39.083332, 38.875, 38.6875, 38.5625, 38.5625, 38.232143, 37.641666, 37.285713, 37.0625, 37.044643, 36.964287, 37.0625, 37, 37.0625, 36.9375, 36.625, 36.375, 36.125, 36, 35.875, 35.6875, 35.330357, 34.979168, 34.875, 34.875, 34.75, 34.6875, 34.5, 34.169643, 33.979168, 33.830357, 33.8125, 33.794643, 33.4375, 33.375, 32.866074, 32.482143, 32.4375, 32.1875, 32.375, 32.5625, 32.5, 32.5, 32.294643, 31.892857, 31.696428, 31.53125, 31.40625, 31.15625, 30.96875, 30.732143, 30.285713, 30.142857, 29.8125, 29.75, 29.6875, 29.625, 29.5, 29.1875, 28.61607, 28.455357, 28.375, 28.3125, 28.3125, 28.125, 27.875, 27.6875, 27.5, 27.375, 27.5, 27.4375, 27.142857, 27.008928, 26.6875, 26.4375, 26.3125, 26, 25.8125, 25.5625, 25.3125, 25.125, 25, 25, 24.875, 24.6875, 24.5, 24.25, 24.125, 23.9375, 23.625, 23.375, 23.125, 22.875, 22.6875, 22.4375, 22.1875, 22.0625, 22, 22, 21.9375, 21.875, 21.875, 21.875, 21.9375, 22, 22.0625, 22.3125, 22.5625, 22.8125, 23.0625, 23.25, 23.5, 23.75, 23.9375, 24, 24, 24, 24, 24.0625, 24.3125, 24.5625, 24.875, 25.1875, 25.25, 25.5, 25.6875, 25.8125, 26, 26.1875, 26.375, 26.5, 26.625, 26.6875, 26.9375, 27.401787, 27.6875, 27.9375, 28.0625, 28.25, 28.4375, 28.625, 28.8125, 28.875, 29, 29.125, 29.1875, 29.1875, 29.1875, 29.3125, 29.4375, 29.803572, 30.520834, 30.660713, 30.90625, 30.90625, 30.9375, 31.125, 31.25, 31.5, 31.75, 31.875, 32.125, 32.25, 32.5, 32.75, 32.9375, 33.125, 33.1875, 33.375, 33.5625, 33.8125, 34, 34.3125, 34.5625, 34.75, 35, 35, 35.09375, 35.34375, 35.46875, 35.53125, 35.65625, 35.71875, 35.96875, 36.40625, 36.6875, 36.875, 37, 37.0625, 37.1875, 37.4375, 37.6875, 37.875, 38.0625, 38.125, 38.1875, 38.375, 38.5625, 38.75, 38.9375, 39.0625, 39.25, 39.4375, 39.6875, 39.875, 40.0625, 40.25, 40.3125, 40.5625, 40.75, 41.044643, 41.3125, 41.5625, 41.75, 41.875, 42, 42, 42, 42.1875, 42.4375, 42.6875, 43, 43.25, 43.4375, 43.6875, 43.875, 43.9375, 44, 44.125, 44.3125, 44.5625, 44.75, 44.833336, -10, -10, -10, -10, -10, -10, -10, -10, -10, -10, -10, -10, -10, -10, -10, -10, -10, -10, -10, -10, -10, -10, -10, -10, -10, -10, -10, -10, -10, -10, -10, -10, -10, -10, -10, -10, -10, 58.041668, 58.233334, 58.241074, 58.116074, 57.583332, 57.3125, 57.125, 57.098213, 57.1875, 57.071426, 56.366074, 56.053574, 55.9375, 55.75, 55.544643, 55.383926, 55.125, 55.080357, 54.8125, 54.362499, 54.223213, 54.020832, 53.979168, 54.1875, 54.125, 54.1875, 54.07143, 53.830357, 53.705357, 53.5, 53.375, 53.3125, 53.017857, 52.559525, 52.133926, 51.479168, 51.392857, 51.1875, 51.1875, 51.1875, 51.0625, 51.0625, 51, 51.0625, 51.0625, 51.0625, 50.9375, 50.616074, 49.988094, 49.425594, 49.196426, 49.03125, 48.9375, 48.89286, 48.711311, 48.561008, 48.291668, 48.205357, 48.0625, 47.991074, 47.6875, 47.3125, 47.1875, 47.0625, 47, 46.875, 46.767857, 46.712502, 46.375, 46.1875, 45.9375, 45.75, 45.625, 45.5, 45.3125, 45.1875, 44.901787, 44.473213, 44.330353, 44.1875, 44.0625, 43.830357, 43.5, 43.375, 43.1875, 43.1875, 43.25, 42.973213, 42.696426, 42.3125, 41.90625, 41.799107, 41.65625, 41.450893, 41.142857, 40.9375, 40.6875, 40.625, 40.4375, 40.25, 40.1875, 40.035713, 39.892857, 39.69643, 39.424999, 39.491074, 39.199402, 38.791668, 38.642857, 38.5, 38.5625, 38.303574, 37.641666, 37.285713, 37.0625, 37.044643, 36.964287, 37.0625, 37, 37.0625, 36.875, 36.625, 36.375, 36.125, 36.0625, 35.8125, 35.6875, 35.330357, 34.979168, 35, 34.9375, 34.875, 34.8125, 34.5625, 34.25, 34.1875, 34, 33.9375, 33.794643, 33.3125, 33.25, 32.857143, 32.526787, 32.5625, 32.375, 32.5, 32.625, 32.5, 32.375, 32.125, 31.9375, 31.8125, 31.71875, 31.59375, 31.21875, 30.861607, 30.616072, 30.285713, 30.142857, 29.8125, 29.625, 29.5, 29.4375, 29.375, 29.125, 28.67857, 28.580357, 28.5, 28.4375, 28.375, 28.125, 27.9375, 27.75, 27.5625, 27.5, 27.5625, 27.4375, 27.098213, 26.946428, 26.625, 26.4375, 26.3125, 26, 25.803572, 25.4375, 25.25, 25.0625, 25, 25, 24.9375, 24.8125, 24.6875, 24.4375, 24.25, 24.0625, 23.6875, 23.4375, 23.1875, 22.875, 22.625, 22.375, 22.125, 22.0625, 22.0625, 22.0625, 22, 21.875, 21.875, 21.875, 21.9375, 22, 22.0625, 22.25, 22.5, 22.75, 23, 23.1875, 23.375, 23.625, 23.75, 23.892857, 24.035713, 24, 24.0625, 24, 24.25, 24.5, 24.8125, 25.25, 25.375, 25.625, 25.8125, 25.875, 26, 26.1875, 26.375, 26.5, 26.625, 26.6875, 26.9375, 27.401787, 27.6875, 27.9375, 28.0625, 28.25, 28.4375, 28.625, 28.8125, 28.875, 29, 29.125, 29.1875, 29.1875, 29.1875, 29.3125, 29.4375, 29.866072, 30.583334, 30.723213, 30.96875, 30.96875, 31, 31.125, 31.25, 31.4375, 31.6875, 31.875, 32.125, 32.25, 32.5, 32.75, 33, 33.25, 33.3125, 33.5625, 33.625, 33.8125, 34.0625, 34.357143, 34.625, 34.8125, 35, 35, 35.09375, 35.21875, 35.308037, 35.450893, 35.584824, 35.65625, 35.84375, 36.28125, 36.5625, 36.8125, 37, 37, 37.125, 37.375, 37.669643, 37.875, 38.0625, 38.1875, 38.3125, 38.5625, 38.75, 38.875, 39, 39, 39.125, 39.1875, 39.375, 39.625, 39.991074, 40.294643, 40.4375, 40.6875, 40.8125
-10, -10, -10, -10, -10, -10, -10, -10, -10, -10, -10, 58.041668, 58.233334, 58.241074, 58.116074, 57.583332, 57.3125, 57.125, 57.098213, 57.1875, 57.071426, 56.366074, 56.053574, 55.9375, 55.8125, 55.580357, 55.285713, 55.0625, 55, 54.8125, 54.5625, 54.232143, 54.0625, 54.1875, 54.419643, 54.375, 54.4375, 54.25893, 53.955357, 53.892857, 53.625, 53.5, 53.4375, 53.142857, 52.684525, 52.142853, 51.270836, 51.142857, 50.9375, 51.0625, 51.125, 51.0625, 51.0625, 51, 51.0625, 51, 50.9375, 50.8125, 50.491074, 49.925594, 49.425594, 49.196426, 49.03125, 49, 48.928574, 48.541668, 48.352676, 48.25, 48.125, 48, 47.720242, 47.4375, 47.25, 47.25, 47.1875, 47, 46.767857, 46.580357, 46.462502, 46.1875, 46.0625, 45.875, 45.8125, 45.75, 45.6875, 45.5, 45.25, 44.928574, 44.580357, 44.508926, 44.375, 44.1875, 43.892857, 43.5, 43.3125, 43.125, 43.1875, 43.25, 43.098213, 42.883926, 42.5625, 42.21875, 42.049107, 41.84375, 41.53125, 41.267857, 41, 40.8125, 40.6875, 40.5, 40.3125, 40.25, 40.071426, 39.785713, 39.651787, 39.424999, 39.616074, 39.449402, 39.041668, 38.892857, 38.75, 38.75, 38.282738, 37.650597, 37.383926, 37.25, 37.232143, 37.089287, 37.125, 37, 37.0625, 36.875, 36.6875, 36.5, 36.25, 36.1875, 35.875, 35.6875, 35.330357, 34.979168, 35, 34.9375, 34.9375, 34.875, 34.6875, 34.375, 34.25, 34.0625, 33.9375, 33.866074, 33.5, 33.3125, 32.919643, 32.5625, 32.5, 32.375, 32.375, 32.4375, 32.375, 32.25, 32.0625, 31.9375, 31.75, 31.59375, 31.40625, 30.84375, 30.611607, 30.544643, 30.410713, 30.267857, 29.9375, 29.5625, 29.375, 29.25, 29.1875, 29.0625, 28.785713, 28.705357, 28.6875, 28.5625, 28.4375, 28.1875, 27.9375, 27.6875, 27.5, 27.4375, 27.5, 27.375, 27.098213, 26.883928, 26.5, 26.375, 26.1875, 26, 25.866072, 25.5, 25.3125, 25.0625, 25, 25, 25, 24.875, 24.75, 24.5, 24.25, 24.125, 23.75, 23.5, 23.25, 22.9375, 22.75, 22.5, 22.25, 22.125, 22.0625, 22.0625, 22, 21.875, 21.875, 21.875, 21.9375, 22, 22.0625, 22.21875, 22.4375, 22.6875, 22.875, 23.03125, 23.25, 23.5, 23.6875, 23.955357, 24.160713, 24.125, 24.1875, 24.125, 24.3125, 24.5625, 24.875, 25.3125, 25.5, 25.75, 25.9375, 25.9375, 26, 26.1875, 26.375, 26.5, 26.625, 26.75, 26.9375, 27.401787, 27.6875, 27.875, 28, 28.125, 28.3125, 28.5, 28.75, 28.875, 28.9375, 29.0625, 29.1875, 29.1875, 29.25, 29.375, 29.4375, 29.866072, 30.645834, 30.848213, 31.09375, 31.15625, 31.1875, 31.25, 31.375, 31.5, 31.6875, 31.875, 32.0625, 32.1875, 32.4375, 32.6875, 33, 33.1875, 33.25, 33.5, 33.5625, 33.8125, 34.0625, 34.357143, 34.625, 34.8125, 35, 35, 35.15625, 35.21875, 35.370537, 35.575893, 35.647324, 35.78125, 35.96875, 36.34375, 36.625, 36.875, 37, 37, 37.125, 37.375, 37.669643, 37.875, 38.0625, 38.25, 38.4375, 38.6875, 38.8125, 38.875, 38.9375, 38.9375, 39.0625, 39.125, 39.3125, 39.5625, 39.928574, 40.232143, 40.4375, 40.6875, 40.875, 41.107143, 41.25, 41.5, 41.6875, 41.875, 42, 42.0625, 42.125, 42.375, 42.625, 42.8125, 43.0625, 43.125, 43.1875, 43.4375, 43.625, 43.8125, 44, 44.0625, 44.25, 44.5, 44.75, 44.916668, -10, -10, -10, -10, -10, -10, -10, -10, -10, -10, -10, -10, -10, -10, -10, -10, -10, -10, -10, -10, -10, -10, -10, -10, -10, -10, -10, -10, -10, -10, -10, -10, -10, -10, -10, -10, -10, 57.916668, 58.150002, 58.178574, 58.116074, 57.708332, 57.4375, 57.25, 57.160713, 57.125, 57.008926, 56.449402, 56.116074, 56, 55.8125, 55.580357, 55.285713, 55.0625, 55, 54.9375, 54.660713, 54.1875, 54.008926, 54.0625, 54.357143, 54.3125, 54.375, 54.19643, 53.892857, 53.892857, 53.625, 53.5, 53.375, 53.107143, 52.791668, 52.25, 51.250004, 51.026787, 50.8125, 51, 51.0625, 51, 50.9375, 50.8125, 50.8125, 50.75, 50.625, 50.4375, 50.125, 49.75893, 49.354168, 49.196426, 49.09375, 49.125, 49.116074, 48.702381, 48.370537, 48.196426, 48.125, 48.0625, 47.782742, 47.5, 47.3125, 47.303574, 47.125, 47, 46.642857, 46.517857, 46.337502, 46.0625, 46, 45.75, 45.8125, 45.8125, 45.8125, 45.6875, 45.3125, 44.955357, 44.6875, 44.6875, 44.5625, 44.3125, 43.955357, 43.5625, 43.375, 43.1875, 43.3125, 43.25, 43.125, 43.125, 42.75, 42.46875, 42.236607, 41.96875, 41.71875, 41.5, 41.1875, 41, 40.875, 40.6875, 40.5625, 40.4375, 40.133926, 39.67857, 39.589287, 39.424999, 39.741074, 39.699402, 39.291668, 39.142857, 39, 38.9375, 38.24107, 37.657738, 37.276787, 37.1875, 37.125, 37.125, 37.125, 37.0625, 37.0625, 36.9375, 36.75, 36.5625, 36.3125, 36.1875, 35.875, 35.75, 35.5, 35.104168, 35.125, 35, 35, 35, 34.875, 34.625, 34.4375, 34.1875, 34, 33.875, 33.625, 33.375, 33.0625, 32.8125, 32.6875, 32.5625, 32.4375, 32.375, 32.25, 32.125, 31.875, 31.75, 31.625, 31.46875, 31.28125, 30.71875, 30.424107, 30.232143, 30.0625, 30.0625, 29.875, 29.5625, 29.375, 29.1875, 29.0625, 29, 28.892857, 28.8125, 28.625, 28.4375, 28.25, 28.0625, 27.9375, 27.6875, 27.5, 27.375, 27.25, 27.125, 26.955357, 26.8125, 26.5, 26.375, 26.1875, 25.9375, 25.741072, 25.375, 25.1875, 25, 25, 25, 24.9375, 24.8125, 24.625, 24.375, 24.1875, 24.0625, 23.75, 23.5, 23.25, 23, 22.875, 22.625, 22.375, 22.1875, 22.0625, 22.0625, 22.0625, 22, 22, 22, 22, 22, 22.0625, 22.21875, 22.4375, 22.6875, 22.875, 22.96875, 23.1875, 23.4375, 23.625, 23.955357, 24.223213, 24.25, 24.375, 24.3125, 24.375, 24.5, 24.727678, 25.302084, 25.522322, 25.78125, 25.9375, 25.9375, 26, 26.1875, 26.3125, 26.5, 26.6875, 26.875, 27.125, 27.482143, 27.75, 27.875, 28, 28.125, 28.25, 28.375, 28.625, 28.75, 28.875, 29.0625, 29.25, 29.3125, 29.4375, 29.625, 29.6875, 29.946428, 30.401787, 30.669643, 30.928572, 31.1875, 31.3125, 31.4375, 31.625, 31.6875, 31.8125, 31.9375, 32.125, 32.25, 32.5, 32.75, 33, 33.25, 33.375, 33.625, 33.6875, 33.8125, 34, 34.232143, 34.5, 34.75, 34.9375, 35, 35.09375, 35.15625, 35.370537, 35.638393, 35.803574, 35.9375, 36.125, 36.4375, 36.6875, 36.9375, 37, 36.9375, 37.0625, 37.3125, 37.607143, 37.875, 38.0625, 38.25, 38.375, 38.589287, 38.723213, 38.75, 38.875, 38.875, 39.0625, 39.125, 39.3125, 39.5625, 39.928574, 40.232143, 40.5, 40.75, 40.875
-10, -10, -10, -10, -10, -10, -10, -10, -10, -10, -10, 58, 58, 58, 57.9375, 57.8125, 57.5625, 57.3125, 57.125, 57, 56.875, 56.616074, 56.1875, 56, 55.6875, 55.5, 55.276787, 55.0625, 55, 55, 54.785713, 54.348213, 54.133926, 54.0625, 54.232143, 54.1875, 54.3125, 54.232143, 53.955357, 53.892857, 53.5625, 53.375, 53.1875, 53, 52.803574, 52.166664, 51.19643, 50.964287, 50.741074, 50.75, 50.875, 50.857143, 50.8125, 50.6875, 50.625, 50.5, 50.446426, 50.337502, 49.803574, 49.4375, 49.1875, 49.125, 49.1875, 49.1875, 48.949402, 48.568455, 48.214287, 48.071426, 48.089287, 48.0625, 47.675594, 47.5625, 47.375, 47.491074, 47.3125, 47.1875, 46.830357, 46.5625, 46.3125, 46.125, 46, 45.8125, 45.8125, 45.8125, 45.8125, 45.6875, 45.3125, 45.026787, 44.8125, 44.8125, 44.6875, 44.4375, 44.0625, 43.6875, 43.5625, 43.3125, 43.375, 43.214287, 43.125, 43.125, 42.8125, 42.59375, 42.40625, 42.15625, 41.96875, 41.6875, 41.375, 41.125, 40.9375, 40.8125, 40.625, 40.5, 40.196426, 39.74107, 39.723213, 39.6875, 39.875, 39.803574, 39.416668, 39.205357, 39, 38.8125, 38.05357, 37.470238, 37.196426, 37.125, 37.125, 37.125, 37.0625, 37, 37, 36.866074, 36.541668, 36.392857, 36.1875, 36.0625, 35.75, 35.5, 35.25, 35.0625, 35.125, 35.0625, 35.0625, 35, 34.875, 34.625, 34.375, 34.1875, 34, 33.875, 33.625, 33.375, 33.125, 32.875, 32.6875, 32.5, 32.25, 32.125, 32.0625, 32, 31.875, 31.75, 31.5625, 31.375, 31.0625, 30.5625, 30.330357, 30.169643, 30.0625, 30.0625, 29.9375, 29.625, 29.4375, 29.1875, 29, 29, 29, 29, 28.875, 28.625, 28.375, 28.125, 28, 27.75, 27.5625, 27.4375, 27.1875, 27, 26.794643, 26.6875, 26.4375, 26.375, 26.1875, 25.875, 25.616072, 25.25, 25.0625, 24.9375, 25, 24.9375, 24.8125, 24.625, 24.375, 24.1875, 24.0625, 24, 23.8125, 23.5625, 23.3125, 23.0625, 22.9375, 22.6875, 22.5, 22.3125, 22.125, 22.125, 22.0625, 22, 22, 22, 22, 22, 22, 22.15625, 22.375, 22.625, 22.875, 23.03125, 23.25, 23.5, 23.6875, 23.955357, 24.223213, 24.25, 24.4375, 24.375, 24.4375, 24.5625, 24.696428, 25.208334, 25.428572, 25.6875, 25.875, 25.9375, 26, 26.125, 26.25, 26.5, 26.75, 27.0625, 27.3125, 27.5625, 27.8125, 27.875, 28.0625, 28.125, 28.1875, 28.3125, 28.5, 28.6875, 28.875, 29.0625, 29.25, 29.375, 29.5, 29.6875, 29.75, 29.9375, 30.276787, 30.607143, 30.866072, 31.1875, 31.375, 31.5625, 31.8125, 31.875, 31.9375, 32, 32.1875, 32.3125, 32.5625, 32.8125, 32.9375, 33.1875, 33.375, 33.625, 33.75, 33.875, 34, 34.169643, 34.4375, 34.6875, 34.875, 35, 35.0625, 35.125, 35.339287, 35.669643, 35.866074, 36, 36.1875, 36.375, 36.625, 36.875, 36.9375, 36.9375, 37.125, 37.375, 37.669643, 37.9375, 38, 38.1875, 38.223213, 38.303574, 38.473213, 38.5, 38.75, 38.875, 39.1875, 39.3125, 39.5, 39.6875, 39.991074, 40.232143, 40.5, 40.75, 40.9375, 41.0625, 41.125, 41.3125, 41.5, 41.8125, 42.035713, 42.125, 42.1875, 42.375, 42.625, 42.8125, 43, 43.0625, 43.1875, 43.4375, 43.6875, 43.875, 44, 44, 44.0625, 44.3125, 44.5625, 44.750004, -10, -10, -10, -10, -10, -10, -10, -10, -10, -10, -10, -10, -10, -10, -10, -10, -10, -10, -10, -10, -10, -10, -10, -10, -10, -10, -10, -10, -10, -10, -10, -10, -10, -10, -10, -10, -10, 58, 57.916668, 57.9375, 57.794643, 57.5625, 57.482143, 57.1875, 57.125, 57, 56.8125, 56.5625, 56.1875, 55.875, 55.625, 55.4375, 55.3125, 55.125, 55.0625, 55, 54.785713, 54.455357, 54.294643, 54.125, 54.125, 54, 54.0625, 54.0625, 54.0625, 53.9375, 53.625, 53.375, 53.0625, 52.9375, 52.678574, 52.041664, 51.342262, 51.071426, 50.866074, 50.75, 50.8125, 50.794643, 50.6875, 50.5625, 50.4375, 50.3125, 50.321426, 50.266071, 49.657738, 49.366074, 49.125, 49.0625, 49.0625, 48.9375, 48.583332, 48.294643, 48.017857, 48.008926, 48.089287, 47.955357, 47.568455, 47.625, 47.5, 47.598213, 47.25, 47.1875, 46.86607, 46.6875, 46.392857, 46.25, 46.125, 46, 46, 45.9375, 45.875, 45.6875, 45.3125, 44.964287, 44.75, 44.6875, 44.5, 44.3125, 43.9375, 43.625, 43.625, 43.375, 43.375, 43.214287, 43.0625, 43.0625, 42.8125, 42.5625, 42.3125, 42.0625, 41.875, 41.625, 41.375, 41.125, 40.9375, 40.875, 40.6875, 40.5625, 40.285713, 39.910713, 39.892857, 39.8125, 39.9375, 39.875, 39.6875, 39.4375, 39.1875, 38.8125, 38, 37.616074, 37.3125, 37.25, 37.25, 37.1875, 37.125, 37.0625, 37, 36.866074, 36.479168, 36.330357, 36.125, 36, 35.75, 35.4375, 35.1875, 35, 35.0625, 35.0625, 35.0625, 35, 34.875, 34.625, 34.375, 34.1875, 34, 33.875, 33.625, 33.375, 33.125, 32.866074, 32.416664, 32.205357, 31.9375, 31.8125, 31.875, 31.875, 31.8125, 31.6875, 31.4375, 31.1875, 30.875, 30.4375, 30.3125, 30.232143, 30.125, 30.0625, 29.964287, 29.625, 29.4375, 29.25, 29, 29, 29, 29, 28.9375, 28.6875, 28.4375, 28.1875, 28, 27.741072, 27.4375, 27.383928, 27.225, 26.928572, 26.758928, 26.5625, 26.375, 26.3125, 26.125, 25.875, 25.6875, 25.5, 25.25, 25.125, 25, 24.8125, 24.625, 24.4375, 24.25, 24.125, 24.0625, 24, 23.8125, 23.5625, 23.3125, 23.0625, 23, 22.75, 22.5625, 22.3125, 22.0625, 22.0625, 22, 22, 22, 22, 22, 22, 22, 22.21875, 22.4375, 22.6875, 22.9375, 23.09375, 23.375, 23.625, 23.875, 24.0625, 24.1875, 24.25, 24.4375, 24.5, 24.5625, 24.6875, 24.758928, 25.145834, 25.366072, 25.625, 25.8125, 25.9375, 26, 26.0625, 26.1875, 26.4375, 26.6875, 27.125, 27.4375, 27.6875, 27.9375, 27.9375, 28.125, 28.125, 28.125, 28.25, 28.375, 28.625, 28.875, 28.9375, 29, 29.0625, 29.196428, 29.645834, 29.803572, 29.9375, 30.214287, 30.544643, 30.803572, 31.125, 31.3125, 31.5625, 31.8125, 31.9375, 32, 32, 32.125, 32.1875, 32.4375, 32.6875, 32.8125, 33.0625, 33.3125, 33.5625, 33.8125, 34, 34, 34.0625, 34.3125, 34.5625, 34.8125, 35, 35.0625, 35.25, 35.5, 35.75, 35.9375, 36, 36.25, 36.4375, 36.6875, 36.9375, 36.9375, 37.0625, 37.3125, 37.5625, 37.8125, 38, 38, 38.125, 38.098213, 38.178574, 38.348213, 38.4375, 38.8125, 39, 39.375, 39.625, 39.8125, 39.9375, 40.125, 40.25, 40.5, 40.75, 41
