-10, -10, -10, -10, -10, -10, -10, -10, -10, -10, -10, -10, -10, -10, -10, -10, -10, -10, -10, -10, -10, -10, -10, -10, -10, -10, -10, -10, -10, -10, -10, -10, -10, -10, -10, -10, -10, 78, -10, -10, -10, -10, -10, -10, 74.5625, 74.264587, 73.96875, 73.580353, 72.867348, 71.595238, 71.151787, 70.84375, 70.267853, 69.627777, 69.313492, 68.723213, 68.8125, 68.895836, -10, -10, -10, 66.25, 65.934525, 65.714287, 64.79464, 63.705353, 63.13393, 62.591835, 61.877552, 61.596943, 61.352043, 61.32143, 61.375, 61.5, 61.5625, 61.5625, 61.4375, 61.5, 61.666668, 61.25, 61.25, 61.3125, 61.375, 61.57143, 61.607143, 61.642857, 61.729591, 61.642857, 61.67857, 61.464287, 61.357143, 61.267857, 61.607143, 61.714287, 61.714287, 61.57143, 61.5, 61.42857, 61.5, 61.535713, 61.57143, 61.607143, 61.57143, 61.42857, 61.357143, 61.285713, 61.458332, 61.583332, 61.42857, 61.418369, 60.785713, 60.857143, 60.75, 60.9375, 60.9949, 61, 61.122448, 61.25, 61.357143, 61.125, 61, 61.107143, 61.07143, 61.107143, 61.285713, 61.32143, 61.1875, 61.1875, 61.1875, 61.25, 61.541668, 61.416668, 61.25, 61, 60.698978, 60.836735, 60.918369, 61.132656, 61.375, 61.291668, 61.208332, 61.041668, 60.607143, 60.370537, 60.473213, 60.5625, 60.857143, 60.875, 60.9375, 60.9375, 60.875, 60.875, 61.142857, 61.17857, 61.2449, 61.242859, 61.17347, 61.214287, 61, 60.9375, 61, 60.875, 60.8125, 60.8125, 60.75, 60.901787, 61.071426, 61.03125, 61.03125, 60.84375, 60.75, 60.75, 60.919643, 61.142857, 61.214287, 61.25, 61.142857, 60.982143, 60.928574, 60.75, 60.553574, 60.349998, 60.5, 60.723213, 60.90625, 60.84375, 60.808037, 61.051022, 60.989799, 61.208332, 60.964287, 60.964287, 61.035713, 61, 61.142857, 61.214287, 60.916668, 60.916668, 61.214287, 61.285713, 61.42857, 61.607143, 61.520409, 61.331631, 60.9375, 60.75, 60.625, 60.857143, 61.07143, 61.214287, 61.214287, 61.285713, 61.17857, 60.9375, 61, 61, 61.214287, 61.5, 61.583332, 61.625, 61.666668, 61.25, 61.1875, 61.0625, 61, 61.0625, 61.25, 61.473213, 61.4375, 61.1875, 60.875, 61.035713, 61.142857, 61.392857, 61.57143, 61.3125, 61.3125, 61.07143, 61.25, 61.125, 61.026787, 61, 61.214287, 61.125, 61.125, 61.0625, 61.1875, 61.25, 61.214287, 61.17857, 60.92857, 60.92857, 60.964287, 61.07143, 61.458332, 61.357143, 61.42857, 61.392857, 61.32143, 61.17857, 61.07143, 61.07143, 61.107143, 61.25, 61.42857, 61.535713, 61.535713, 61.57143, 61.125, 60.916668, 60.875, 61.107143, 61.147957, 61.177082, 61.177082, 60.979168, 60.790176, 60.964287, 60.78125, 60.78125, 60.78125, 61, 60.92857, 61, 61.107143, 61.142857, 61.285713, 61.044643, 60.67347, 61, 60.910713, 61.035713, 60.92857, 60.785713, 60.785713, 61.083332, 61.07143, 61.214287, 61.125, 61.0625, 60.90625, 60.78125, 60.454082, 60.946426, 61.275513, 61.392857, 61.392857, 61.357143, 61.392857, 61.42857, 61.392857, 61.42857, 61.464287, 61.464287, 61.57143, 61.708332, 61.726192, 61.815475, 61.815475, 61.622448, 61.489799, 61.163265, 60.875, 60.919643, 61, 61.03125, 60.75, 60.704082, 61.008926, 61.229591, 61.17857, 60.875, 60.9375, 61.0625, 61.1875, 61.375, 61.612244, 61.642857, 61.714287, 61.375, 61.34375, 61.21875, 61.03125, 61.002552, 60.857143, 60.625, 60.583332, -10, -10, -10, -10, -10, -10, -10, -10, -10, -10, -10, -10, -10, -10, -10, -10, -10, -10, -10, -10, -10, -10, -10, -10, -10, -10, -10, -10, -10, -10, -10, -10, -10, -10, -10, -10, -10, -10, -10, -10, -10, -10, -10, -10, -10, -10, -10, -10, -10, -10, -10, -10, -10, -10, -10, -10, -10, -10, -10, -10, -10, -10, -10, -10, -10, -10, 78.85714, -10, -10, -10, -10, -10, -10, 74.833336, 74.561119, 74.3125, 74.261902, 73.831627, 72.738091, 72.223213, 71.71875, 70.904762, 70.52449, 70.309525, 69.959183, 70.023811, 69.5, -10, -10, -10, 67, 66.709526, 66.428574, 65.5625, 64.101189, 63.598217, 63.080357, 62.5, 62.530613, 62.352043, 62.392857, 62.5, 62.5, 62.535713, 62.535713, 62.5, 62.464287, 62.357143, 62.32143, 62.285713, 62.32143, 62.1875, 62.32143, 62.392857, 62.42857, 62.419643, 62.375, 62.4375, 62.3125, 62.392857, 62.556122, 62.67857, 62.642857, 62.607143, 62.42857, 62.357143, 62.285713, 62.1875, 62.25, 62.3125, 62.642857, 62.642857, 62.607143, 62.57143, 62.535713, 62.5, 62.57143, 62.535713, 62.489799, 62.541668, 62.5, 62.17857, 61.875, 61.776787, 61.875, 62.229591, 62.32143, 62.285713, 62.17857, 62.107143, 62.142857, 62.0625, 61.857143, 62, 62, 61.964287, 62.125, 62.357143, 62.464287, 62.357143, 62.285713, 62.107143, 61.857143, 61.795918, 61.92857, 62, 62.25, 62.32143, 62.214287, 62.107143, 61.892857, 61.642857, 61.370537, 61.612244, 61.642857, 61.908165, 61.857143, 61.6875, 61.6875, 61.5625, 61.625, 61.75, 62, 62.25, 62.357143, 62.125, 62.125, 62.25, 62.142857, 62.142857, 62.107143, 62.107143, 61.875, 61.964287, 62.030613, 62.081631, 62, 62, 61.82143, 61.785713, 61.857143, 62.015308, 62.035713, 62.07143, 62.107143, 62.035713, 61.875, 61.75, 61.5, 61.366074, 61.224998, 61.4375, 61.660713, 61.90625, 61.84375, 61.9949, 62.086735, 61.918369, 61.92857, 61.892857, 61.964287, 62.17857, 62.17857, 62.25, 62.214287, 62.291668, 62.291668, 62.214287, 62.285713, 62.392857, 62.57143, 62.438774, 62.2551, 62.142857, 61.92857, 61.857143, 61.92857, 62.107143, 62.285713, 62.125, 62.25, 62.0625, 62, 62, 62, 62.32143, 62.357143, 62.357143, 62.357143, 62.42857, 62.464287, 62.357143, 62.0625, 62.0625, 62.125, 62.3125, 62.57143, 62.25, 62, 61.8125, 61.875, 62.214287, 62.392857, 62.42857, 62.285713, 62.214287, 62.333332, 61.9375, 61.875, 61.8125, 61.875, 62.285713, 62.392857, 62.352043, 62.285713, 62.214287, 62.17857, 62.107143, 62.17857, 62.07143, 62.142857, 62.142857, 62.142857, 62.214287, 62.17857, 62.214287, 61.9375, 61.8125, 61.65625, 61.785713, 61.892857, 62, 62.142857, 62.0625, 62.1875, 62.464287, 62.642857, 62.833332, 62.666668, 62.5, 62.125, 62.125, 61.96875, 62.03125, 61.785713, 61.67857, 61.96875, 62.19643, 62.160713, 62.107143, 62.107143, 62.107143, 61.96875, 61.857143, 62.0625, 62.285713, 62.158165, 62.226192, 62.25, 62.362244, 62.367344, 62.132656, 61.903057, 61.82143, 61.892857, 62, 62.07143, 62.142857, 62.142857, 62.07143, 61.964287, 62.119049, 62.188774, 62.311226, 62.464287, 62.535713, 62.464287, 62.5, 62.28125, 62.28125, 62.34375, 62.40625, 62.607143, 62.642857, 62.5, 62.408165, 62.377552, 62.392857, 62.5, 62.418369, 62.017857, 61.9375, 61.919643, 62.142857, 62.07143, 62.1875, 62.202381, 62.081631, 61.919643, 61.875, 61.75, 61.92857, 62, 62.142857, 62.392857, 62.469387, 62.57143, 62.67857, 62.535713, 62.57143, 62.25, 62, 61.767857, 61.491074, 61.104168, 61.016666, -10, -10, -10
-10, -10, -10, -10, -10, -10, -10, -10, -10, -10, -10, -10, -10, -10, -10, -10, -10, -10, -10, -10, -10, -10, -10, -10, -10, -10, -10, -10, -10, -10, -10, -10, -10, -10, -10, -10, 84.5, 82.200005, -10, -10, -10, -10, -10, -10, -10, -10, 74.583336, 74.479164, 74.414963, 73.904762, 73.510201, 72.89286, 71.869049, 71.446426, 71.071426, 70.791664, 70.770836, -10, -10, -10, -10, 67.583336, 67.379173, 66.96875, 66.214279, 64.672615, 64.066963, 63.5625, 63.3125, 63.125, 63.089287, 63.392857, 63.535713, 63.375, 63.375, 63.375, 63.4375, 63.214287, 63.132656, 63.166664, 63.080357, 63.0625, 63.0625, 63.0625, 63.0625, 63.0625, 63.1875, 63.1875, 63.3125, 63.535713, 63.42857, 63.510204, 63.5, 63.1875, 63.25, 63.1875, 63.1875, 63.1875, 63.25, 63.25, 63.3125, 63.4375, 63.4375, 63.57143, 63.57143, 63.57143, 63.57143, 63.714287, 63.4375, 63.602043, 63.5, 63.42857, 63.32143, 63.142857, 62.9949, 63.07143, 62.982143, 63.0625, 63.0625, 62.9375, 63.214287, 63.25, 63.357143, 63.791668, 63.833332, 63.708332, 63.541668, 63.214287, 63.214287, 63.32143, 63.125, 63.09375, 62.96875, 62.78125, 62.65625, 62.6875, 63, 63.25, 63.169643, 63, 62.90625, 62.71875, 62.53125, 62.691326, 62.7551, 62.67857, 62.669643, 62.5625, 62.5625, 62.4375, 62.330357, 62.5, 62.517857, 62.6875, 62.8125, 63.17857, 63.214287, 63.285713, 63.357143, 63.357143, 63.357143, 63.357143, 63.285713, 63.142857, 63.035713, 63.015308, 62.852676, 62.875, 62.9375, 63.05357, 62.964287, 62.92857, 62.732143, 62.75, 62.75, 62.75, 62.92857, 62.785713, 62.642857, 62.484692, 62.620754, 62.639797, 62.5, 62.897957, 63.035713, 62.92857, 62.943878, 62.857143, 62.803574, 62.607143, 62.834824, 62.71875, 63.107143, 63.07143, 63.17857, 63.107143, 63.07143, 63.040813, 63.066326, 63, 63.107143, 63.3125, 63.25, 63.0625, 63.214287, 62.964287, 62.92857, 63.035713, 62.9375, 63.0625, 63.25, 63.285713, 63.035713, 63, 63.035713, 63.07143, 63.17857, 63.0625, 63.0625, 63.0625, 63.125, 63.392857, 63.357143, 63.32143, 63.357143, 63.392857, 63.57143, 63.607143, 63.1875, 62.9375, 62.964287, 62.964287, 63.07143, 63.0625, 63.125, 63, 62.9375, 63, 62.785713, 62.5, 62.5, 62.6875, 63.265308, 63.464287, 63.4949, 63.42857, 63.125, 63.125, 63, 63, 62.955357, 63.32143, 63.32143, 63.1875, 63.116074, 62.875, 62.9375, 62.857143, 62.535713, 62.464287, 62.464287, 62.607143, 62.67857, 62.785713, 63.0625, 63.0625, 63.125, 63.464287, 63.5, 63.464287, 63.32143, 63.17857, 63, 63.142857, 63.214287, 63.458332, 63.416668, 63.285713, 63.285713, 63.214287, 63.107143, 63.07143, 63.035713, 63.07143, 63.333332, 63.107143, 62.9375, 62.857143, 63.051022, 63.214287, 63.413265, 63.474487, 63.311226, 63.117344, 62.75, 62.75, 62.75, 62.75, 62.8125, 62.8125, 62.78125, 62.982143, 63.030613, 63.2551, 63.178574, 63.375, 63.4375, 63.607143, 63.607143, 63.57143, 63.535713, 63.5, 63.57143, 63.607143, 63.357143, 63.287498, 63.183674, 63.095238, 63.229164, 63.196426, 63.053574, 63.081635, 63.17857, 63.158165, 63.25, 62.90625, 63.05357, 63.030613, 62.821426, 62.857143, 62.875, 62.57143, 63.07143, 63.142857, 63, 63.125, 63.223213, 63.1875, 63.214287, 63.362244, 63.42857, 63.42857, 63.214287, 62.830357, 62.311226, 61.869049, 61.745239, -10, -10, -10, -10, -10, -10, -10, -10, -10, -10, -10, -10, -10, -10, -10, -10, -10, -10, -10, -10, -10, -10, -10, -10, -10, -10, -10, -10, -10, -10, -10, -10, -10, -10, -10, -10, -10, -10, -10, -10, -10, -10, -10, -10, -10, -10, -10, -10, -10, -10, -10, -10, -10, -10, -10, -10, -10, -10, -10, -10, -10, -10, -10, -10, -10, 84.5, 83.314285, 83.309525, 82.900002, -10, -10, -10, -10, -10, -10, -10, 74.722221, 74.650787, 74.30555, 74.164284, 73.738098, 72.740128, 72.306114, 71.758926, 71.05555, 71.027779, -10, -10, -10, 68.5, 68.208336, 68.045837, 67.611603, 66.642853, 65.321426, 64.745537, 64.25, 64, 63.9375, 64, 64.125, 64.3125, 64.5, 64.428574, 64.428574, 64.5, 64.75, 64.76786, 64.229164, 64.142853, 64.125, 64.125, 64.0625, 64.0625, 64, 64.0625, 64.178574, 64.25, 64.39286, 64.39286, 64.3125, 64.25, 64.125, 64.125, 64.0625, 64.25, 64.214287, 64.214287, 64.285713, 64.39286, 64.571426, 64.571426, 64.464287, 64.39286, 64.321426, 64.39286, 64.571426, 64.571426, 64.64286, 64.571426, 64.428574, 64.321426, 64.178574, 64.122452, 64.214287, 64.04464, 64.0625, 64.0625, 64, 64.178574, 64.214287, 64.321426, 64.428574, 64.428574, 64.35714, 64.321426, 64, 64, 64.0625, 63.9375, 63.84375, 64, 63.964287, 63.964287, 63.75, 64.14286, 64.25, 64.044647, 63.875, 63.875, 63.75, 63.892857, 63.765308, 63.663265, 63.57143, 63.4375, 63.375, 63.4375, 63.375, 63.330357, 63.642857, 63.392857, 63.5625, 63.6875, 63.875, 63.9375, 64, 64.321426, 64.428574, 64.428574, 64.464287, 64.321426, 64.10714, 63.8125, 63.84375, 63.90625, 64.03125, 64.321426, 64.285713, 64.132652, 63.737499, 63.803574, 63.803574, 63.803574, 63.604164, 63.604164, 63.5625, 63.4375, 63.392857, 63.697285, 63.761227, 63.958332, 63.806122, 63.71875, 63.71875, 63.84375, 63.875, 64.035713, 64.208336, 63.954082, 63.71875, 63.816963, 63.745537, 63.8125, 63.6875, 63.6875, 63.660713, 63.714287, 63.8125, 63.919643, 64.0625, 64, 63.9375, 64.214287, 64.10714, 64.178574, 64.178574, 64.14286, 64.14286, 64.10714, 63.9375, 63.75, 63.75, 63.75, 63.75, 63.8125, 63.875, 63.9375, 63.919643, 63.791664, 63.892857, 63.875, 64.14286, 64.285713, 64.285713, 64.39286, 64.35714, 64.178574, 64, 63.892857, 63.6875, 63.8125, 64, 64.125, 64.125, 64.09375, 63.90625, 63.65625, 63.46875, 63.17857, 63.6875, 64.044647, 64.464287, 64.494896, 64.428574, 64.35714, 64.39286, 64.25, 64.25, 64.306122, 64.428574, 64.35714, 64.39286, 64.204086, 63.8125, 63.875, 63.943878, 64.083336, 64.0625, 64.104164, 64.1875, 64.229164, 64.25, 64, 64, 64, 64.1875, 64.3125, 64.3125, 64.125, 64, 64.214287, 64.25, 64.35714, 64.428574, 64.35714, 64.39286, 64.428574, 64.125, 63.82143, 63.96875, 63.84375, 63.78125, 64, 63.8125, 63.875, 63.9375, 64, 64.03125, 64.15625, 64.133926, 64.204086, 64.045914, 63.857143, 63.785713, 63.5625, 63.625, 63.6875, 63.8125, 63.875, 63.875, 63.9375, 64, 64.178574, 64.321426, 64.464287, 64.535713, 64.64286, 64.589287, 64.589287, 64.51786, 64.34375, 64.375, 64.232147, 64.162498, 64.803566, 64.888885, 64.291664, 63.938774, 63.811226, 64.285713, 64.39286, 64.346939, 64.321426, 63.9375, 63.705357, 63.6875, 63.625, 63.92857, 64.035713, 64.291664, 64.071426, 64.10714, 64.0625, 64.125, 64.1875, 63.857143, 64.089287, 64.098213, 64.1875, 64.290817, 63.984692, 63.734692, 63.672619, 63.916668, 63.983334, 65, -10, -10
-10, -10, -10, -10, -10, -10, -10, -10, -10, -10, -10, -10, -10, -10, -10, -10, -10, -10, -10, -10, -10, -10, -10, -10, -10, -10, -10, -10, -10, -10, -10, -10, -10, -10, -10, -10, 84.75, 84.483337, 83.825401, 83.183334, -10, -10, -10, -10, -10, -10, -10, -10, -10, -10, -10, 74.270836, 73.451187, 73.336731, 72.986389, -10, -10, -10, -10, -10, 68.833336, 68.666672, 68.525002, 68.004463, 67.007141, 66.208336, 65.638397, 65.464287, 65.14286, 65, 65, 65, 65.39286, 65.5, 65.5, 65.5, 65.571426, 65.64286, 65.658165, 65.511902, 65.484695, 65.39286, 65.321426, 65.214287, 65.14286, 65.14286, 65.25, 65.25, 65, 65.125, 65.125, 65.1875, 65.125, 65.178574, 65.214287, 65.178574, 65.321426, 65.25, 65, 65.0625, 65.285713, 65.464287, 65.464287, 65.25, 65.25, 64.928574, 65.1875, 65.3125, 65.535713, 65.60714, 65.60714, 65.5, 65.1875, 65.321426, 65.25, 65.214287, 65.14286, 65.071426, 65.035713, 65, 65.035713, 64.875, 65, 65.125, 65.125, 65.0625, 65, 64.9375, 64.9375, 65, 65, 64.678574, 65.214287, 65.178574, 65.10714, 65.375, 65.214287, 65.0625, 65.107147, 65.14286, 65.10714, 65.071426, 65.071426, 64.928574, 64.321426, 64.285713, 64.285713, 64.285713, 64.583336, 64.775513, 64.460884, 64.474487, 64.341835, 64.535713, 64.375, 64.589287, 64.857147, 64.991074, 65.125, 65.1875, 65.1875, 65.25, 65.1875, 64.785713, 64.866074, 64.914284, 65.168373, 65.229591, 65.39286, 65.285713, 65.132652, 64.98571, 65.132652, 65.132652, 65.061226, 64.479164, 64.416664, 64.64286, 64.5, 64.556122, 64.702385, 64.811226, 64.89286, 64.6875, 64.464287, 64.78125, 65.071426, 65.071426, 65.071426, 65.10714, 65.114799, 65.089287, 64.879463, 64.683037, 64.625, 64.4375, 64.5, 64.290817, 64.408165, 64.5, 64.883926, 65, 64.9375, 65.25, 65.35714, 65.321426, 65.39286, 65.39286, 65.321426, 65.0625, 64.785713, 64.785713, 64.64286, 64.875, 64.8125, 64.75, 64.6875, 64.6875, 64.89286, 64.790817, 64.291664, 64.455353, 64.544647, 64.75, 65, 65.0625, 65.125, 65.0625, 64.875, 64.625, 64.5625, 64.5625, 64.625, 65, 65.14286, 65.25, 65.285713, 65.14286, 64.964287, 64.821426, 65.125, 65.10714, 65.169647, 65.25, 65.214287, 65.125, 65.25, 65.321426, 65.214287, 65.178574, 65.234695, 65.39286, 65.1875, 65.5, 65.382652, 65.14286, 65.214287, 65.158165, 65.14286, 64.895836, 64.895836, 65.160713, 65.125, 65.14286, 65.071426, 64.875, 65, 65.0625, 65.125, 65.25, 65.071426, 65.035713, 65.10714, 65.14286, 65.25, 65.1875, 65.1875, 65.25, 65.3125, 65.321426, 65.416664, 65.14286, 65.071426, 64.9375, 64.9375, 64.875, 65, 64.964287, 65.035713, 64.90625, 65.09375, 64.938774, 64.846939, 64.724487, 65.071426, 65, 64.85714, 64.785713, 64.714287, 64.744896, 64.979591, 65.096939, 65.25, 65.0625, 64.785713, 65.15625, 65.28125, 65.34375, 65.46875, 65.4375, 65.375, 65.25, 65.25, 65.25, 65.372452, 65.400002, 65.688774, 65.761902, 65.690475, 65.803566, 65.619049, 65.39286, 65.321426, 65.35714, 65.321426, 65.071426, 64.580353, 64.285713, 64.5, 64.928574, 65.14286, 65.214287, 65.214287, 65.285713, 65.285713, 65.25, 65.25, 65.25, 64.994896, 64.910713, 65.0625, 65.098213, 64.645409, 64.456627, 64.26786, 65.035713, 65.080948, -10, -10, -10, -10, -10, -10, -10, -10, -10, -10, -10, -10, -10, -10, -10, -10, -10, -10, -10, -10, -10, -10, -10, -10, -10, -10, -10, -10, -10, -10, -10, -10, -10, -10, -10, -10, -10, -10, -10, -10, -10, -10, -10, -10, -10, -10, -10, -10, -10, -10, -10, -10, -10, -10, -10, -10, -10, -10, -10, -10, -10, -10, -10, -10, -10, 85.125, 84.900002, 84.244049, 83.804169, -10, -10, -10, -10, -10, -10, -10, -10, -10, -10, -10, 74.708336, 74.284523, 74.102676, 74.040817, -10, -10, -10, -10, -10, 69.214287, 69.416672, 69.083336, 68.504463, 67.289284, 67.035713, 66.424103, 66.464287, 66.10714, 66, 65.8125, 66, 66.1875, 66.25, 66.428574, 66.428574, 66.375, 66.5, 66.544647, 66.666664, 66.653061, 66.571426, 66.428574, 66.0625, 66.25, 66.25, 66.35714, 66.321426, 66.0625, 66.125, 66.125, 66.428574, 66.321426, 66.285713, 66.321426, 66.285713, 66.464287, 66.1875, 66.125, 66.1875, 66.1875, 66.3125, 66.3125, 66.464287, 66.39286, 66.458336, 66.25, 66.25, 66.410713, 66.5, 66.714287, 66.571426, 66.428574, 66.125, 66.0625, 65.9375, 65.875, 65.8125, 65.75, 65.75, 65.8125, 65.875, 65.875, 65.9375, 65.9375, 65.875, 65.64286, 66.25, 66.285713, 66.35714, 66.39286, 66.5625, 66.410713, 66.410713, 66.375, 66.35714, 66.25, 66.214287, 66.204086, 66.14286, 66.14286, 66.071426, 66.035713, 65.89286, 65.958336, 66.035713, 66.226189, 66.226189, 66.291664, 65.846939, 65.343529, 64.964287, 64.848213, 65.291664, 65.383926, 65.651787, 66.158165, 66.204086, 66.25, 66.0625, 66, 66, 66.178574, 66.416664, 66.168373, 66.074997, 66.257652, 66.075897, 66.15625, 66.0625, 65.928574, 66.021431, 66.239799, 66.275513, 66.204086, 65.761902, 65.654762, 65.714287, 65.678574, 65.831627, 65.434525, 65.794647, 65.6875, 65.85714, 66, 65.964287, 66.035713, 66, 65.84375, 65.875, 65.866074, 66.14286, 66.112244, 65.903061, 65.619041, 65.448982, 65.571426, 66.065475, 66.357147, 66.375, 66.163269, 66.10714, 66.035713, 66.14286, 66.214287, 66.25, 66.321426, 66.285713, 66.214287, 66.14286, 66.25, 66.208336, 66.25, 66.071426, 66, 66, 65.928574, 66, 65.833336, 65.469383, 65.047615, 65.163261, 65.265305, 65.5, 66.0625, 66.125, 66.0625, 65.9375, 65.642853, 65.455353, 65.583336, 65.616074, 65.428574, 65.64286, 66.03125, 66.15625, 66.428574, 66.285713, 66.178574, 66, 65.964287, 66.10714, 66.204086, 66.178574, 66, 66, 66.0625, 66.125, 66.0625, 65.9375, 65.892853, 66, 66.0625, 66.1875, 66.31633, 66.214287, 66.25, 66.275513, 66.321426, 66.666664, 66.583336, 66.0625, 66, 66, 66, 66.214287, 66.25, 66.214287, 66.14286, 66.10714, 65.964287, 65.75, 65.8125, 65.8125, 65.9375, 66.0625, 66.125, 66.464287, 66.5, 66.321426, 66.214287, 66.14286, 66.14286, 66.214287, 66.214287, 66.214287, 66.14286, 66.071426, 66.071426, 66.071426, 66.178574, 66.5, 66.541664, 66.458336, 66.071426, 65.964287, 65.85714, 65.785713, 65.714287, 65.589287, 66.122452, 66.275513, 66.464287, 66.428574, 66.625, 66.464287, 66.535713, 66.60714, 66.678574, 66.64286, 66.375, 66.25, 66.1875, 66.1875, 66.418373, 66.48571, 66.571426, 66.666664, 66.880951, 66.795914, 66.602043, 66.535713, 66.1875, 66.428574, 66.125, 66.071426, 65.770409, 66.041664, 65.821426, 65.875, 66.0625, 66.0625, 66.178574, 66.25, 66.321426, 66.35714, 65.964287, 66.023811, 66.071426, 66.030617, 66.035713, 66.07653, 66.095238, 65.719383, 65.57653, 65.769341, 66.020836, -10, -10, -10
-10, -10, -10, -10, -10, -10, -10, -10, -10, -10, -10, -10, -10, -10, -10, -10, -10, -10, -10, -10, -10, -10, -10, -10, -10, -10, -10, -10, -10, -10, -10, -10, -10, -10, -10, -10, 85.375, 85.25, 85.071426, 84.661903, -10, -10, -10, -10, -10, -10, -10, -10, -10, -10, -10, 74.958336, 74.683334, 74.913261, 75.095238, -10, -10, -10, -10, -10, 71.154762, 70.666672, 69.71769, 69.077377, 67.967857, 67.821426, 67.330353, 67.21875, 66.875, 66.75, 66.928574, 67.14286, 67.25, 67.0625, 67.285713, 67.285713, 67.428574, 67.571426, 67.678574, 67.64286, 67.571426, 67.428574, 67.125, 67.0625, 67.125, 67.1875, 67.5, 67.39286, 67.285713, 67.321426, 67.35714, 67.535713, 67.464287, 67.535713, 67.535713, 67.5, 67.64286, 67.39286, 67.35714, 67.39286, 67.285713, 67.39286, 67.321426, 67.35714, 67.39286, 67.35714, 67.321426, 67.428574, 67.57653, 67.64286, 67.75, 67.64286, 67.464287, 67.25, 67.14286, 66.8125, 66.8125, 66.8125, 66.75, 66.8125, 67.035713, 67.035713, 66.964287, 67, 67.071426, 67.071426, 67.375, 67.306122, 67.442856, 67.367348, 67.403061, 67.285713, 67.321426, 67.285713, 67.321426, 67.1875, 67.0625, 67.214287, 66.9375, 66.875, 66.875, 66.8125, 66.75, 66.85714, 66.85714, 67.030617, 67.193878, 67.229591, 67.214287, 66.989799, 66.047615, 65.780617, 65.770409, 66.416664, 66.724487, 66.887756, 67.193878, 67.275513, 67.321426, 67, 66.875, 66.8125, 67.035713, 67.14286, 67.204086, 67.164284, 67.346939, 67.169647, 67.1875, 67.125, 67.053574, 67.242859, 67.209824, 67.241074, 67.116074, 66.880951, 66.661568, 66.75, 66.790817, 67, 67.333336, 67.061226, 66.708336, 66.791664, 66.75, 67.10714, 66.84375, 66.71875, 66.71875, 66.6875, 66.75, 66.9375, 67.163261, 67.030617, 66.479164, 66.663261, 66.5, 67.10714, 67.32653, 67.285713, 67.244896, 67.14286, 67.071426, 66.875, 66.9375, 67.0625, 67.125, 67.0625, 66.9375, 66.8125, 67.071426, 67.040817, 67.030617, 67, 66.85714, 66.928574, 66.85714, 66.964287, 67.25, 67.190483, 67.027779, 67.136902, 67.154762, 67.333336, 67.285713, 67.35714, 67.285713, 67.071426, 66.517853, 66.330353, 66.738098, 66.846939, 67.25, 67.416664, 67.285713, 67.21875, 67.1875, 67.0625, 67.196426, 67.089287, 66.8125, 66.875, 66.875, 66.8125, 66.8125, 66.875, 67, 67.125, 67.125, 67.0625, 66.714287, 66.714287, 67.0625, 67.125, 67.1875, 67.1875, 67.1875, 67.35714, 67.321426, 67.428574, 67.285713, 67.214287, 67.214287, 67.214287, 67.35714, 67.428574, 67.39286, 67.0625, 67, 66.9375, 66.875, 66.571426, 66.571426, 66.64286, 67, 67.0625, 67.285713, 67.35714, 67.321426, 67, 66.9375, 66.875, 67.071426, 67.178574, 67.214287, 67.178574, 67.14286, 66.9375, 67, 67, 67.25, 67.285713, 67.214287, 67.14286, 67.071426, 67.071426, 67, 66.85714, 66.714287, 66.903061, 67.255104, 67.418373, 67.571426, 67.464287, 67.35714, 67.446426, 67.553574, 67.783165, 67.818878, 67.583328, 67.403061, 67.25, 67.25, 67.25, 67.39286, 67.535713, 67.64286, 67.625, 67.75, 67.723213, 67.589287, 67.714287, 67.5, 67.25, 67.125, 67.178574, 66.938774, 67, 66.928574, 67, 67.178574, 67.178574, 67.25, 67.321426, 67.35714, 67.39286, 67.708336, 67.714287, 67.080353, 66.946426, 66.875, 66.785713, 66.831627, 66.719383, 66.010201, 66.450676, 67, -10, -10, -10, -10, -10, -10, -10, -10, -10, -10, -10, -10, -10, -10, -10, -10, -10, -10, -10, -10, -10, -10, -10, -10, -10, -10, -10, -10, -10, -10, -10, -10, -10, -10, -10, -10, -10, -10, -10, -10, -10, -10, -10, -10, -10, -10, -10, -10, -10, -10, -10, -10, -10, -10, -10, -10, -10, -10, -10, -10, -10, -10, -10, -10, -10, 85.666664, 86, 85.693451, 85.291664, 85.309525, -10, -10, -10, -10, -10, -10, -10, -10, -10, -10, 75.375, 75.395828, 75.513397, 75.833336, 76.982147, 76.803574, 75.708328, 74.738098, 73.5, 72.061226, 71.833336, 71.46627, 69.892853, 69.074997, 68.901787, 68.392853, 68.174103, 67.8125, 67.6875, 68, 68.321426, 67.928574, 67.964287, 68.035713, 68, 68.375, 68.375, 68.64286, 68.375, 68.3125, 68.25, 68.125, 68.321426, 68.321426, 68.35714, 68.39286, 68.178574, 68.17347, 68.336739, 68.418373, 68.64286, 68.571426, 68.64286, 68.64286, 68.64286, 68.75, 68.571426, 68.571426, 68.5, 68.321426, 68.285713, 67.9375, 68, 68.0625, 68.125, 68.321426, 68.464287, 68.647957, 68.678574, 68.785713, 68.64286, 68.1875, 67.830353, 67.625, 67.4375, 67.714287, 67.979591, 68, 68.071426, 68.071426, 68.071426, 68.071426, 68.214287, 68.285713, 68.214287, 68.285713, 68.341835, 68.51429, 68.196426, 68.196426, 68.0625, 68, 68, 68.0625, 68.35714, 68.285713, 68.14286, 67.8125, 67.857147, 67.866074, 67.571426, 67.571426, 67.571426, 67.875, 68.026787, 68.107147, 68.044647, 68, 67.803574, 67.902779, 67.809517, 67.803566, 67.761902, 67.938774, 68.051018, 68.044647, 68.053574, 68.178574, 68.071426, 67.928574, 67.6875, 67.75, 67.875, 67.928574, 68.171432, 68.31633, 68.418373, 68.428574, 68.321426, 68.321426, 68.35714, 68.35714, 68.39286, 68.214287, 67.89286, 67.558037, 67.89286, 67.969383, 68.14286, 68.214287, 68.096939, 68.208336, 68.25, 68.166664, 67.84375, 67.78125, 67.71875, 67.71875, 67.741074, 67.604164, 67.705353, 67.75, 67.732147, 67.797615, 67.877548, 68.3125, 68.35714, 68.254463, 68.15625, 68.026787, 67.8125, 67.776787, 67.919647, 67.991074, 68.125, 68.125, 68.053574, 67.8125, 67.8125, 67.919647, 67.892853, 67.693451, 67.571426, 67.446426, 67.770836, 67.803574, 67.916664, 68, 68.17347, 68.071426, 68.10714, 68.132652, 68.321426, 68.464287, 68.571426, 68.428574, 68.14286, 67.698982, 67.484695, 67.702385, 67.811226, 68.035713, 68.214287, 68.303574, 68.339287, 68.09375, 68, 67.9375, 67.9375, 67.90625, 67.90625, 67.875, 67.75, 67.71875, 67.964287, 68.071426, 68.14286, 68.14286, 68.14286, 68.333336, 68.375, 68.285713, 68.25, 68.285713, 68.321426, 68.39286, 68.464287, 68.25, 68.375, 68.25, 68.125, 68.387756, 68.428574, 68.367348, 68.403061, 68.0625, 68, 67.9375, 68.214287, 68.321426, 68.5, 68.35714, 68.25, 68.14286, 68.25, 68.285713, 68.125, 68.0625, 67.9375, 67.875, 67.64286, 67.714287, 67.85714, 67.928574, 68.0625, 68.178574, 68.071426, 68.035713, 68.071426, 68, 68.125, 68.125, 68.0625, 67.9375, 67.875, 68, 67.89286, 67.785713, 67.959183, 68.122452, 68.244896, 68.1875, 68.125, 68.125, 68.25, 68.375, 68.836739, 68.836739, 68.416664, 68.258926, 67.85714, 68.125, 68.125, 68.1875, 68.3125, 68.375, 68.64286, 68.821426, 68.806122, 68.765305, 68.75, 68.60714, 68.5, 68.35714, 68.285713, 68.14286, 68.14286, 68.178574, 67.875, 67.9375, 68.214287, 68.178574, 68.0625, 68.25, 68.214287, 68.39286, 68.469383, 68.377548, 68.331627, 68.214287, 67.9375, 67.71875, 67.486603, 67.520409, 67.943451, 67.533333, -10, -10, -10
-10, -10, -10, -10, -10, -10, -10, -10, -10, -10, -10, -10, -10, -10, -10, -10, -10, -10, -10, -10, -10, -10, -10, -10, -10, -10, -10, -10, -10, -10, -10, -10, -10, -10, -10, -10, -10, 86.541664, 86.3125, 86.104164, 85.623016, 85.583328, 86.440475, 87.142853, 87.8125, 88.1875, 88.4375, 88.25, 87.75, 87.300003, 76, 75.625, 75.708328, 76.040176, 76.791672, 77.559532, 77.39286, 76.10952, 74.936516, 73.933334, 72.488098, 72.5, 71.909523, 70.599998, 70.242859, 69.853745, 69.581627, 69.049103, 68.964287, 68.89286, 69, 69.321426, 69.75, 69.875, 69.875, 69.791664, 69.60714, 69.375, 69.4375, 69.375, 69.3125, 69.5, 69.464287, 69.5, 69.5, 69.571426, 69.071426, 68.85714, 68.887756, 69.294647, 69.303574, 69.64286, 69.535713, 69.535713, 69.464287, 69.464287, 69.5, 69.35714, 69.35714, 69.1875, 69.125, 69.125, 68.785713, 68.785713, 69, 69.0625, 69.35714, 69.464287, 69.410713, 69.4375, 69.4375, 69.25, 69.0625, 68.767853, 68.39286, 68.244896, 68.550003, 69.147957, 69.204086, 69.285713, 69.178574, 68.9375, 69.14286, 69.321426, 69.39286, 69.0625, 69.0625, 69.017853, 69.137497, 69.008926, 69.008926, 68.9375, 68.9375, 69, 69.0625, 69.25, 69.214287, 68.9375, 68.75, 69.015305, 69.025513, 69.166664, 69.166664, 69.25, 69.035713, 69.122452, 69.132652, 68.794647, 68.6875, 68.785713, 68.821426, 68.918365, 69.010201, 69.095238, 69.112244, 68.9375, 69.0625, 69.0625, 68.785713, 68.714287, 69.071426, 68.928574, 68.625, 68.625, 68.75, 68.875, 69.14286, 69.285713, 69.39286, 69.39286, 69.464287, 69.464287, 69.339287, 69.214287, 68.8125, 68.5625, 68.69133, 68.875, 68.95153, 68.90625, 68.96875, 68.928574, 69.14286, 69.214287, 68.875, 69.071426, 69, 69, 69.071426, 69.061226, 68.541664, 68.517853, 68.669647, 68.785713, 69.023811, 69.081627, 69.23214, 69.375, 69.375, 69.15625, 69, 68.75, 68.714287, 69.051018, 69.204086, 69.428574, 69.428574, 69.275513, 68.928574, 68.85714, 68.908165, 68.877556, 68.505951, 68.224487, 68.188774, 68.958336, 69.053574, 69.541664, 69.5, 69.0625, 69.0625, 69.125, 69.1875, 69.3125, 69.3125, 69.5, 69.321426, 69.035713, 68.724487, 68.653061, 68.645836, 68.525513, 68.785713, 69.125, 69.125, 69.0625, 68.9375, 68.78125, 68.6875, 68.89286, 68.89286, 68.89286, 68.85714, 68.785713, 68.89286, 68.8125, 69, 68.85714, 69.0625, 69.25, 69.214287, 69.214287, 69.321426, 69.321426, 69.35714, 69.35714, 69.35714, 69.39286, 69.39286, 69.428574, 69.321426, 69.285713, 69.387756, 69.5, 69.258926, 69.258926, 68.785713, 69.25, 69.285713, 69.428574, 69.571426, 69.571426, 69.448982, 69.35714, 69.321426, 69.35714, 69.0625, 69, 68.9375, 69.071426, 69.10714, 69.375, 69.333336, 69.291664, 69.333336, 68.9375, 68.9375, 68.9375, 68.875, 68.875, 68.875, 68.9375, 69.178574, 69.214287, 69.321426, 68.958336, 69, 68.916664, 68.791664, 68.976189, 68.775513, 68.85714, 69.116074, 68.875, 68.875, 69, 69.25, 69.693878, 69.693878, 69.476189, 69.367348, 69.5, 69.39286, 69.321426, 69.321426, 69.464287, 69.25, 69.3125, 69.571426, 69.5, 69.5, 69.5, 69.428574, 69.39286, 69.35714, 69.321426, 69.285713, 69.25, 69.285713, 69.0625, 69.0625, 69.35714, 69.25, 69.178574, 69, 69, 69.1875, 69.285713, 69.367348, 69.32653, 69.285713, 69.214287, 69.035713, 68.523811, 68.440475, 68.945572, -10, -10, -10, -10, -10, -10, -10, -10, -10, -10, -10, -10, -10, -10, -10, -10, -10, -10, -10, -10, -10, -10, -10, -10, -10, -10, -10, -10, -10, -10, -10, -10, -10, -10, -10, -10, -10, -10, -10, -10, -10, -10, -10, -10, -10, -10, -10, -10, -10, -10, -10, -10, -10, -10, -10, -10, -10, -10, -10, -10, -10, -10, -10, -10, -10, -10, -10, 86.833336, 86.583336, 86.25, 85.623016, 85.722221, 86.293648, 86.904762, 87.875, 88.315468, 88.625, 88.404762, 87.722221, 87.333336, 76, 75.8125, 75.979164, 76.446426, 77.952377, 78.255104, 77.866074, 77.013603, 75.077385, 74.150002, -10, -10, -10, -10, 71, 70.547615, 70.882652, 70.459183, 70.056122, 70, 70.071426, 70.39286, 70.678574, 70.821426, 70.821426, 70.75, 70.64286, 70.535713, 70.571426, 70.464287, 70.428574, 70.39286, 70.39286, 70.5, 70.535713, 70.64286, 70.875, 70.75, 70.684525, 70.515305, 70.525513, 70.375, 70.375, 70.375, 70.071426, 70.071426, 70.071426, 70.125, 70.0625, 70, 70.071426, 70.14286, 70.375, 70.458336, 70.285713, 70.39286, 70.464287, 70.535713, 70.60714, 70.60714, 70.375, 70.1875, 70, 69.877548, 70, 69.946434, 69.699997, 70.07653, 70.132652, 70.178574, 69.875, 70, 70.035713, 70.178574, 70.214287, 70.071426, 69.8125, 69.767853, 69.887497, 69.821426, 69.883926, 70.071426, 70.071426, 70.071426, 70.035713, 69.875, 69.875, 70, 69.89286, 69.979591, 69.989799, 70.071426, 70.14286, 70.285713, 70.321426, 70.125, 70.0625, 69.64286, 69.741074, 69.395836, 69.366074, 69.535721, 70.10714, 70.234695, 70.25, 70.14286, 70.10714, 70.14286, 70.458336, 70.458336, 70.214287, 70.035713, 69.785713, 69.591835, 69.4375, 69.5625, 69.75, 69.9375, 70.0625, 70.0625, 70.1875, 70.25, 70.1875, 69.85714, 69.60714, 69.39286, 69.352043, 70.071426, 69.612244, 69.714287, 69.714287, 69.928574, 69.875, 70, 70.434525, 70.214287, 70.25, 70.285713, 70.285713, 70.204086, 69.869041, 69.580353, 69.872452, 70.025513, 70.10714, 70.071426, 70, 70.125, 70.35714, 70.35714, 70.25, 70.035713, 70.06633, 70.265305, 70.454086, 70.64286, 70.64286, 70.489799, 70.178574, 70.14286, 69.622452, 69.591843, 69.955788, 70.172615, 70.214287, 70.345238, 70.454086, 70.5, 70.35714, 70.214287, 70.178574, 70.214287, 70.35714, 70.535713, 70.535713, 70.3125, 70.125, 69.8125, 69.5625, 69.836739, 69.908165, 70.208336, 70.291664, 70.071426, 69.9375, 69.803574, 69.550003, 69.513397, 69.5, 69.64286, 69.678574, 69.75, 69.85714, 69.928574, 70, 70.071426, 70.10714, 70.416664, 70.0625, 70.125, 70.125, 70.0625, 70.125, 70.125, 70.15625, 70.15625, 70.09375, 70.03125, 70.285713, 70.35714, 70.39286, 70.35714, 70.151787, 70.39286, 70.224487, 70.224487, 70.291664, 70.14286, 70.214287, 70.35714, 70.464287, 70.5, 70.448982, 70.5, 70.375, 70.60714, 70.166664, 70, 70.285713, 70.285713, 70.35714, 70.428574, 70.35714, 70, 70, 69.916664, 70.178574, 70.14286, 69.955353, 70.0625, 70, 70, 70.285713, 70.285713, 70.39286, 70.541664, 70.708336, 70.666664, 70.458336, 70.529762, 70.452385, 70.541664, 70.116074, 69.571426, 69.571426, 69.9375, 70.125, 70.357147, 70.357147, 70.229164, 70.397957, 70.35714, 70.464287, 70.39286, 70.428574, 70.535713, 70.25, 70.3125, 70.375, 70.071426, 70.071426, 70.071426, 70, 70.25, 70.25, 70.25, 70.428574, 70.35714, 70.39286, 70.285713, 70.321426, 70.428574, 70.321426, 70.125, 70.125, 70.125, 69.928574, 70.071426, 70.071426, 70.25, 70.428574, 70.39286, 70.285713, 70.470238, 70.303566, 70.166664, -10, -10, -10, -10
-10, -10, -10, -10, -10, -10, -10, -10, -10, -10, -10, -10, -10, -10, -10, -10, -10, -10, -10, -10, -10, -10, -10, -10, -10, -10, -10, -10, -10, -10, -10, -10, -10, -10, -10, -10, -10, -10, -10, -10, -10, 85.722221, 86.293648, 86.845245, 87.856247, 88.272324, 88.625, 88.410713, 87.625, 87.321426, 76, 77.119057, 77.193886, 77.494896, 78.972221, 79.403061, 79.010201, 77.751701, 75.202385, 74.525002, -10, -10, -10, -10, 71.979591, 72.769447, 72.073128, 71.591835, 71.127548, 71.10714, 71.14286, 71.25, 71.5625, 71.6875, 71.6875, 71.625, 71.5, 71.60714, 71.60714, 71.3125, 71.3125, 71.3125, 71.3125, 71.375, 71.60714, 71.714287, 71.75, 71.678574, 71.622452, 71.561226, 71.459183, 71.1875, 71.35714, 71.285713, 71.5, 71.583336, 71.583336, 71.1875, 71.125, 71.0625, 70.714287, 71.321426, 71.428574, 71.428574, 71.35714, 71.321426, 71.35714, 71.535713, 71.68367, 71.714287, 71.64286, 71.321426, 71.25, 70.948975, 70.583328, 70.60714, 70.572449, 70.723213, 70.803574, 70.875, 70.8125, 70.875, 70.714287, 70.85714, 70.85714, 70.714287, 70.875, 70.75, 70.75, 70.75, 71, 71.035713, 71, 70.994896, 70.857147, 70.928574, 70.714287, 70.64286, 71.071426, 70.857147, 70.866074, 70.9375, 71.0625, 71.25, 71.464287, 71.464287, 71.428574, 71.541664, 71.168373, 70.238098, 70.132652, 70.255104, 70.714287, 71.413261, 71.35714, 71.214287, 70.875, 71.035713, 71.14286, 71.14286, 71.14286, 71.071426, 70.928574, 70.517853, 70.214287, 70.4375, 70.4375, 70.580353, 70.895836, 70.991074, 71.125, 71.125, 71.285713, 71.416664, 71.333336, 71.375, 71.416664, 71.214287, 71.416664, 71.333336, 71.208336, 71.061226, 71, 71.214287, 71.408165, 71.428574, 71.39286, 71.428574, 71.39286, 71.116074, 71.166664, 71.081627, 71.122452, 71.168373, 71.178574, 70.8125, 70.875, 71, 71, 71.214287, 71.214287, 71.071426, 71.158165, 71.382652, 71.459183, 71.571426, 71.5, 71.31633, 71.14286, 71.10714, 71.238098, 71.238098, 71.095238, 71.18367, 71.32653, 71.547623, 71.530617, 71.428574, 71.0625, 70.875, 71.030617, 71.229591, 71.454086, 71.64286, 71.60714, 71.5, 71.25, 70.8125, 70.85714, 70.954086, 70.658165, 70.702385, 70.880959, 70.678574, 70.8125, 70.741074, 70.261223, 70.450897, 70.089287, 70.4375, 70.321426, 70.428574, 70.84375, 71.178574, 71.150513, 70.904762, 70.877548, 70.928574, 71, 71.10714, 71.071426, 71, 71.071426, 71.10714, 71.14286, 71.178574, 70.96875, 71.03125, 71.1875, 71.21875, 71.21875, 71.25, 70.901787, 70.928574, 70.892853, 71, 71, 71, 71.0625, 71.1875, 71.25, 71.3125, 71.267853, 71.60714, 71.678574, 71.714287, 71.833336, 71.625, 71.35714, 71.285713, 71.321426, 71.428574, 71.428574, 71.666664, 71.583336, 71.458336, 71.14286, 71.10714, 71.163261, 71.35714, 71.321426, 71.541664, 71.25, 71.0625, 71.428574, 71.464287, 71.678574, 71.678574, 71.535713, 71.535713, 71.428574, 71.5, 71.489799, 71.416664, 71.375, 71.14286, 71.0625, 71.1875, 71.25, 71.3125, 71.3125, 71.3125, 71.375, 71.3125, 71.535713, 71.535713, 71.464287, 71.464287, 71.428574, 71.666664, 71.666664, 71.583336, 71.5, 71.285713, 71.25, 71.321426, 71.39286, 71.35714, 71.39286, 71.285713, 71.25, 71.285713, 71.10714, 71.137756, 71.301018, 71.418373, 71.791664, 71.833336, 71.833336, 71.5, 71.3125, 71.535713, 71.535713, 71.438774, 71.153061, 71.038094, -10, -10, -10, -10, -10, -10, -10, -10, -10, -10, -10, -10, -10, -10, -10, -10, -10, -10, -10, -10, -10, -10, -10, -10, -10, -10, -10, -10, -10, -10, -10, -10, -10, -10, -10, -10, -10, -10, -10, -10, -10, -10, -10, -10, -10, -10, -10, -10, -10, -10, -10, -10, -10, -10, -10, -10, -10, -10, -10, -10, -10, -10, -10, -10, -10, -10, -10, -10, -10, -10, -10, -10, -10, 86.797623, 87.931252, 88.352676, 88.765625, 88.613838, 87.921875, 87.683929, 86.880951, 81.722221, 81.130951, 80.64286, 80.873016, 80.346939, 79.741074, 78.761909, 76.226196, 75.599998, -10, -10, -10, -10, 74.25, 73.776871, 73.154762, 72.602036, 72.127548, 72.10714, 72.178574, 72.428574, 72.678574, 72.64286, 72.571426, 72.5, 72.428574, 72.5, 72.571426, 72.571426, 72.571426, 72.5, 72.5, 72.571426, 72.64286, 72.5625, 72.625, 72.625, 72.5625, 72.4375, 72.3125, 72.1875, 72.1875, 72.321426, 72.285713, 72.285713, 72.285713, 72.35714, 72.35714, 72.39286, 72.5, 72.321426, 72.35714, 72.1875, 72.1875, 72.125, 72.125, 72.464287, 72.57653, 72.678574, 72.714287, 72.39286, 72.35714, 71.946426, 71.369041, 71.39286, 71.251022, 71.741074, 71.741074, 71.8125, 72.071426, 72.14286, 72.5, 72.625, 72.625, 72.583336, 72.25, 72.14286, 71.989799, 71.785713, 71.6875, 71.6875, 71.75, 71.714287, 71.732147, 71.954086, 72.208336, 72.25, 72, 71.928574, 71.89286, 71.928574, 72.071426, 72.25, 72.321426, 72.321426, 72.39286, 72.428574, 72.382652, 72.347221, 72.285713, 72.357147, 72.625, 72.556122, 72.428574, 72.285713, 71.9375, 71.857147, 71.925003, 71.982147, 71.875, 71.875, 71.89286, 71.734695, 72, 71.64286, 71.375, 71.455353, 71.845238, 71.989799, 72.178574, 72, 72.285713, 72.35714, 72.321426, 72.464287, 72.39286, 72.285713, 72.214287, 72.071426, 72, 72.096939, 72.071426, 72.25, 72.408165, 72.39286, 72.214287, 72.214287, 72.071426, 72, 72.10714, 72.14286, 72.275513, 72.116074, 72.125, 71.9375, 71.875, 71.9375, 71.9375, 71.9375, 72.03125, 71.96875, 72.321426, 72.464287, 72.1875, 72.1875, 72.0625, 71.9375, 71.875, 71.875, 72.040817, 71.877548, 72.011902, 72.309525, 72.525513, 72.375, 72.25, 72.0625, 71.8125, 71.6875, 71.776787, 72.044647, 72.303574, 72.64286, 72.535713, 72.35714, 72.178574, 72.071426, 72.071426, 72.239799, 71.408165, 71.452385, 71.595238, 71.525513, 71.8125, 71.882652, 71.842857, 71.622452, 71.875, 71.714287, 72.125, 72.166664, 72.035713, 72.14286, 72.096939, 71.729164, 71.767853, 71.794647, 71.666664, 71.705353, 71.625, 71.625, 71.71875, 71.71875, 71.772324, 71.915176, 72.186226, 72.26786, 72.428574, 72.464287, 72.464287, 72.125, 71.64286, 71.632652, 72.071426, 72.178574, 72.666664, 72.1875, 72.125, 72.125, 72.0625, 72.35714, 72.5, 72.64286, 72.75, 72.678574, 72.571426, 72.39286, 72.35714, 72.125, 72.125, 72.35714, 72.321426, 72.285713, 72.285713, 72.285713, 72.25, 72.0625, 72.377548, 72.571426, 72.535713, 72.535713, 72.125, 72.0625, 72.1875, 72.25, 72.4375, 72.5, 72.4375, 72.4375, 72.5, 72.5, 72.459183, 72.214287, 72.214287, 72.214287, 72.285713, 72.428574, 72.5, 72.64286, 72.714287, 72.714287, 72.75, 72.64286, 72.64286, 72.535713, 72.428574, 72.428574, 72.39286, 72.5, 72.5, 72.428574, 72.35714, 72.321426, 72.0625, 72.0625, 72.125, 72.0625, 72.0625, 72, 71.9375, 71.9375, 71.875, 71.964287, 72.169647, 72.632652, 72.785713, 72.785713, 72.75, 72.535713, 72.428574, 72.39286, 72.35714, 72.25, 72.0625, 71.949997, -10, -10, -10, -10
-10, -10, -10, -10, -10, -10, -10, -10, -10, -10, -10, -10, -10, -10, -10, -10, -10, -10, -10, -10, -10, -10, -10, -10, -10, -10, -10, -10, -10, -10, -10, -10, -10, -10, -10, -10, -10, -10, -10, -10, -10, -10, -10, 86.565475, 87.650002, 88.089279, 88.578125, 88.520088, 87.953125, 87.698219, 86.587303, 84.865082, 83.964287, 82.214287, 81.982994, 81.178574, 80.498215, 80, 78.734131, 78.395233, 79.410713, 78.142853, 77.5, 76.875, 75.35714, 74.967346, 73.979164, 73.35714, 72.892853, 72.8125, 73.14286, 73.39286, 73.64286, 73.4375, 73.375, 73.3125, 73.25, 73.3125, 73.60714, 73.64286, 73.64286, 73.535713, 73.464287, 73.428574, 73.39286, 73.5, 73.5, 73.5, 73.464287, 73.321426, 73.25, 73.178574, 73.295914, 73.25, 73.25, 73.035713, 73.25, 73.3125, 73.64286, 73.678574, 73.571426, 73.535713, 73.1875, 73.1875, 73.25, 73.1875, 73.125, 73.1875, 73.285713, 73.375, 73.714287, 73.535713, 73.5, 73.331627, 73.277779, 73.297615, 73.154762, 72.928574, 72.85714, 72.928574, 73.14286, 73.214287, 73.35714, 73.428574, 73.428574, 73.428574, 73.35714, 73.214287, 72.989799, 72.5625, 72.625, 72.59375, 72.65625, 72.683037, 73.086739, 72.904762, 73, 73, 72.916664, 72.833336, 72.833336, 72.64286, 73, 73.0625, 73.125, 73.125, 73.25, 73.375, 73.602043, 73.40477, 73.244896, 73.17347, 73.285713, 73.367348, 73.178574, 73.102043, 73.158165, 73.07653, 72.925003, 72.982147, 72.875, 72.875, 72.85714, 72.653061, 72.734695, 72.714287, 72.535713, 72.663261, 72.931976, 73.013611, 73.092857, 72.991074, 73.044647, 73.1875, 73.39286, 73.535713, 73.535713, 73.25, 73.1875, 73, 72.9375, 72.991074, 73.214287, 73.39286, 73.408165, 73, 72.9375, 72.910713, 72.8125, 72.6875, 72.6875, 72.6875, 72.938774, 73.238098, 73.382652, 73.35714, 73.285713, 73.321426, 73.214287, 72.830353, 72.677086, 72.677086, 73.208328, 73.200897, 73.125, 73, 72.875, 72.875, 72.9375, 73.0625, 73.035713, 72.591835, 72.690475, 73.145836, 73.241074, 73.1875, 72.9375, 72.75, 72.580353, 72.645836, 72.83036, 73.336739, 73.525513, 73.375, 73.25, 73.125, 73, 73.178574, 73.214287, 73.214287, 73.071434, 73.138893, 73.263893, 73.285713, 73.214287, 73.17347, 72.97245, 72.882652, 72.85714, 72.85714, 73.035713, 73.14286, 73.25, 72.85714, 72.775513, 72.854164, 72.984695, 72.872452, 72.541664, 72.517853, 72.4375, 72.375, 72.415176, 72.614586, 72.448982, 73.008926, 73.382652, 73.5, 73.535713, 73.464287, 73.35714, 73.25, 73.375, 73.410713, 73.367348, 73.489799, 73.535713, 73.39286, 73.25, 73.25, 73.214287, 73.39286, 73.5, 73.3125, 73.375, 73.3125, 73.3125, 73.169647, 73, 73, 72.9375, 72.9375, 72.9375, 72.9375, 72.9375, 73, 73.178574, 73.285713, 73.438774, 73.571426, 73.571426, 73.375, 73.39286, 73.35714, 73.285713, 73.285713, 73.125, 73.321426, 73.35714, 73.428574, 73.35714, 73.125, 73.1875, 73.0625, 73.125, 73.1875, 73.428574, 73.571426, 73.64286, 73.75, 73.821426, 73.821426, 73.821426, 73.75, 73.714287, 73.3125, 73.1875, 73.125, 73.125, 73.3125, 73.375, 73.34375, 73.21875, 73.15625, 73.03125, 73, 73, 72.9375, 73, 72.9375, 72.866074, 72.6875, 72.6875, 72.776787, 73.044647, 73.241074, 73.375, 73.375, 73.375, 73.25, 73.1875, 73.125, 73.125, 73.166664, 72.5, 72.519997, -10, -10, -10, -10, -10, -10, -10, -10, -10, -10, -10, -10, -10, -10, -10, -10, -10, -10, -10, -10, -10, -10, -10, -10, -10, -10, -10, -10, -10, -10, -10, -10, -10, -10, -10, -10, -10, -10, -10, -10, -10, -10, -10, -10, -10, -10, -10, -10, -10, -10, -10, -10, -10, -10, -10, -10, -10, -10, -10, -10, -10, -10, -10, -10, -10, -10, -10, -10, -10, -10, -10, -10, -10, 86.611107, 87.525002, 87.904755, 88.359375, 88.497772, 88.223961, 88.004463, 86.809525, 85.252975, 84.330353, 83.617348, 82.989799, 82.160713, 81.489288, 81.2687, 79.843544, 79.489799, 79.60714, 78.514282, 77.914284, 77.25, 76.223213, 75.596428, 74.800591, 74.223213, 73.9375, 73.8125, 74, 74.1875, 74.375, 74.64286, 74.571426, 74.5, 74.5, 74.571426, 74.64286, 74.714287, 74.714287, 74.4375, 74.375, 74.3125, 74, 74.3125, 74.3125, 74.3125, 74.3125, 73.928574, 73.85714, 73.785713, 74.403061, 74.535713, 74.5, 74.75, 74.464287, 74.571426, 74.714287, 74.785713, 74.714287, 74.64286, 74.428574, 74.39286, 74.428574, 74.39286, 74.39286, 74.1875, 74.285713, 74.375, 74.5, 74.60714, 74.60714, 74.469383, 74.238091, 74.18367, 73.989799, 74.035713, 74, 74.035713, 74.214287, 74.0625, 74.1875, 74.3125, 74.3125, 74.25, 74.0625, 73.875, 73.616074, 73.5, 73.571426, 73.60714, 73.908165, 74.086739, 74.311226, 74.619049, 74.583336, 74.583336, 74.541664, 74.5, 74.5, 74.416664, 74.178574, 73.9375, 73.9375, 73.9375, 74, 74.285713, 74.35714, 74.1875, 74.125, 74.0625, 74, 74, 73.8125, 73.776787, 74.086739, 74.040817, 74.057144, 74.122452, 73.928574, 74.035713, 73.75, 73.39286, 73.520401, 74, 73.541664, 73.938774, 74.09864, 74.011909, 74.050003, 74.346939, 74.107147, 74.35714, 74.125, 74.1875, 74.125, 74.321426, 74.285713, 74.178574, 74.214287, 74.25, 74.285713, 74.39286, 74.116074, 73.875, 73.8125, 73.723213, 73.6875, 73.625, 73.625, 73.428574, 73.545914, 74.145836, 74.489799, 74.535713, 74.464287, 74.39286, 74.285713, 74.091835, 73.380959, 73.416672, 74.104164, 74.169647, 74.14286, 73.571426, 73.535713, 73.693886, 73.846939, 74.071426, 74.040817, 74.095238, 74.152779, 74.023811, 73.866074, 73.8125, 73.5625, 73.4375, 73.424103, 73.880959, 74.147957, 74.454086, 74.530617, 74.25, 74.125, 74, 74.214287, 74.285713, 74.214287, 73.776787, 73.714287, 73.761909, 74.047623, 74.17347, 74.25, 74.214287, 74.096939, 74.005104, 73.859688, 73.760201, 73.696426, 73.9375, 74.03125, 74.583336, 74.535713, 74.238091, 74.153061, 74.051025, 73.695572, 73.223213, 73.071426, 73, 73.102676, 73.559525, 73.940483, 74.117348, 74.275513, 74.39286, 74.1875, 74.15625, 74.03125, 74.178574, 74.178574, 74.17347, 74.397957, 74.530617, 74.40625, 74.34375, 74.21875, 74.21875, 74.125, 74.25, 74.25, 74.1875, 74.1875, 74.125, 74.15625, 74.013397, 73.90625, 73.84375, 73.75, 73.8125, 73.8125, 73.60714, 73.64286, 73.714287, 74.25, 74.321426, 74.428574, 74.464287, 74.535713, 74.571426, 74.535713, 74.535713, 74.428574, 74.125, 74.125, 74.0625, 74.125, 74.25, 74.125, 74.125, 74.125, 74, 74.285713, 74.35714, 74.35714, 74.39286, 74.428574, 74.571426, 74.714287, 74.785713, 74.85714, 74.785713, 74.714287, 74.535713, 74.1875, 74.125, 74.125, 74.3125, 74.375, 74.571426, 74.39286, 74.285713, 74.178574, 74.10714, 74, 73.9375, 74.214287, 74.25, 74.132652, 73.666664, 73.964287, 73.651787, 73.857147, 73.991074, 74.0625, 74.125, 74.1875, 74.125, 74.125, 74.020836, 73.583336, 73.55555, -10, -10, -10, -10, -10, -10
-10, -10, -10, -10, -10, -10, -10, -10, -10, -10, -10, -10, -10, -10, -10, -10, -10, -10, -10, -10, -10, -10, -10, -10, -10, -10, -10, -10, -10, -10, -10, -10, -10, -10, -10, -10, -10, -10, -10, -10, -10, -10, -10, -10, 87.728569, 88.119049, 88.345978, 88.453125, 88.390625, 88.183037, 87.510201, 85.894638, 84.866074, 84.053574, 83.522324, 83.321426, 82.82959, 82.578232, 80.891159, 80.470238, 79.8125, 79.224487, 78.880951, 77.4375, 76.83036, 76.133926, 75.508926, 75.316322, 75.178574, 75.10714, 75.35714, 75.464287, 75.375, 75.678574, 75.64286, 75.60714, 75.60714, 75.64286, 75.678574, 75.714287, 75.64286, 75.571426, 75.5, 75.428574, 75.666664, 75.5, 75.5, 75.5, 75.5, 75.666664, 75.666664, 75.666664, 75.510201, 75.678574, 75.714287, 75.821426, 75.729599, 75.547615, 75.627548, 75.571426, 75.535713, 75.5, 75.25, 75.25, 75.285713, 75.35714, 75.35714, 75.285713, 75.285713, 75.321426, 75.5, 75.60714, 75.678574, 75.535713, 75.1875, 75.0625, 74.8125, 74.875, 75.10714, 75.25, 75.397957, 75.31633, 75.125, 75.125, 75.1875, 75.125, 75.0625, 74.714287, 74.489799, 74.178574, 74.214287, 74.714287, 75.015312, 75.25, 75.464287, 75.5, 75.428574, 75.35714, 75.285713, 75.285713, 75.285713, 75.214287, 75.14286, 75, 74.85714, 74.85714, 74.6875, 74.8125, 75, 75, 74.9375, 74.875, 74.75, 74.8125, 74.75, 74.758926, 74.844643, 74.964287, 74.978577, 75.044647, 75.14286, 75.14286, 74.964287, 75.125, 75.178566, 74.964287, 75.166664, 75.10714, 75.265312, 75.309525, 75.235718, 75.239799, 75.122452, 75.178574, 74.973213, 75, 75, 75, 75.321426, 75.35714, 75.428574, 75.464287, 75.428574, 75.428574, 75.053574, 75.035713, 75.10714, 75.07653, 75.071426, 75, 74.89286, 75.208336, 75.380951, 75.488098, 75.366074, 75.4375, 75.60714, 75.25, 75.35714, 75.127548, 74.972221, 75.055557, 75.154762, 75.158165, 74.8125, 74.508926, 74.14286, 74.372452, 74.525513, 74.875, 74.678574, 74.81633, 74.895241, 74.601189, 74.678574, 74.625, 74.5, 74.5, 74.841835, 75.130959, 75.418373, 75.535713, 75.39286, 74.892853, 74.948975, 75.035713, 75.10714, 75.214287, 74.9375, 74.830353, 74.5, 74.571426, 74.9375, 74.9375, 74.9375, 75.035713, 74.964287, 74.691963, 74.549103, 74.602676, 74.633926, 74.8125, 75.178574, 75.35714, 75.428574, 75.535713, 75.428574, 75.275513, 74.921768, 74.602043, 74.133926, 73.75, 73.867348, 74.364586, 74.806129, 74.821426, 74.866074, 74.875, 74.8125, 74.8125, 74.8125, 74.875, 74.9375, 74.9375, 75.0625, 75.125, 75.21875, 75.464287, 75.428574, 75.5, 75.35714, 75.35714, 75.0625, 74.9375, 75.14286, 75.178574, 75.321426, 75.301025, 75.25, 74.96875, 74.875, 75, 74.89286, 75.125, 75.166664, 75.25, 75.10714, 75, 75.0625, 75.0625, 75.125, 75.428574, 75.428574, 75.464287, 75.35714, 75.214287, 75.214287, 74.9375, 75, 75.125, 75, 75.214287, 75.25, 75.214287, 75.321426, 75.428574, 75.1875, 75.1875, 75.107147, 75.125, 75.357147, 75.3125, 75.4375, 75.375, 75.571426, 75.464287, 75.35714, 75.285713, 75.214287, 75.321426, 75.39286, 75.35714, 75.285713, 75.09375, 75.09375, 75.285713, 75.285713, 75.178574, 75.25, 75.321426, 75.346939, 75.5, 75.25, 75.071426, 74.9375, 74.9375, 74.875, 74.9375, 75, 74.958336, 74.699997, 74.583336, -10, -10, -10, -10, -10, -10, -10, -10, -10, -10, -10, -10, -10, -10, -10, -10, -10, -10, -10, -10, -10, -10, -10, -10, -10, -10, -10, -10, -10, -10, -10, -10, -10, -10, -10, -10, -10, -10, -10, -10, -10, -10, -10, -10, -10, -10, -10, -10, -10, -10, -10, -10, -10, -10, -10, -10, -10, -10, -10, -10, -10, -10, -10, -10, -10, -10, -10, -10, -10, -10, -10, -10, -10, -10, -10, -10, -10, -10, 89.083336, 88.551193, 88.330353, 88.3125, 88.21875, 88.120537, 87.39286, 86.161316, 85.194641, 84.598221, 84.200897, 83.995537, 83.526184, 83.207481, 82.174599, 80.970238, 80.4375, 80, 79.469383, 78.008926, 77.339287, 76.705353, 76.25, 76.017853, 76.25, 76.285713, 76.535713, 76.571426, 76.60714, 76.714287, 76.714287, 76.714287, 76.714287, 76.64286, 76.64286, 76.64286, 76.3125, 76.464287, 76.428574, 76.39286, 76.5, 76.60714, 76.60714, 76.60714, 76.60714, 76.571426, 76.571426, 76.571426, 76.612244, 76.714287, 76.785713, 76.89286, 76.836739, 76.416664, 76.455353, 76.375, 76.375, 76.375, 75.928574, 75.928574, 76.125, 76.1875, 76.1875, 76.125, 76.1875, 76.1875, 76.3125, 76.4375, 76.64286, 76.25, 76.0625, 75.875, 75.75, 75.875, 76.25, 76.464287, 76.469383, 76.31633, 76.14286, 75.8125, 76.071426, 76, 76, 76.166664, 76.083336, 75.958336, 76, 75.875, 75.950897, 76.15625, 76.21875, 76.080353, 76, 76, 76, 75.964287, 76, 75.875, 75.9375, 75.875, 75.535713, 75.535713, 75.535713, 75.60714, 76, 75.9375, 75.8125, 75.89286, 75.714287, 75.785713, 75.821426, 75.887756, 75.782143, 76.234695, 76.178574, 76.125, 76.25, 76.178574, 76.035713, 76.035713, 76.010201, 76.035713, 76.071426, 76.178574, 76.275513, 76.261902, 76.171432, 75.991074, 75.919647, 76, 76.035713, 75.9375, 75.9375, 75.9375, 76, 76.25, 76.321426, 76.39286, 76.39286, 76.25, 76.387756, 76.285713, 76.39286, 76.377556, 76.39286, 76.35714, 76.214287, 76.178574, 76.255104, 76.476189, 76.530617, 76.64286, 76.571426, 76.1875, 76.0625, 75.830353, 75.761902, 75.833328, 75.791664, 75.794647, 75.6875, 75.617348, 75.875, 76.071434, 76.119049, 75.71875, 75.549103, 75.549103, 75.699997, 75.642853, 75.625, 75.5625, 75.678574, 75.785713, 76.045914, 76.297615, 76.56633, 76.40625, 76.25, 75.663261, 75.556114, 75.875, 75.9375, 76, 75.9375, 76.056114, 76.25, 76.25, 75.84375, 75.78125, 75.71875, 75.625, 75.65625, 75.665176, 75.424103, 75.477036, 75.403061, 75.4375, 75.696426, 76.145836, 76.232147, 76.5, 76.321426, 76.214287, 76.005104, 75.770401, 75.510201, 75.577385, 75.815475, 75.541672, 75.616074, 75.75, 75.6875, 75.660713, 75.455353, 75.479164, 75.645836, 75.708336, 75.604164, 75.604164, 75.895836, 75.982147, 76.09375, 76.09375, 76.26786, 76.339287, 76.214287, 76, 75.875, 75.75, 75.78125, 76.071426, 76.214287, 76.204086, 76.25, 76.178574, 76.10714, 76.178574, 76.10714, 76.10714, 76.10714, 76.071426, 75.8125, 75.8125, 75.875, 75.9375, 76, 76.1875, 76.25, 76.3125, 76.25, 76.125, 76.39286, 76.285713, 76.285713, 76.39286, 76.321426, 76.39286, 76.428574, 76.35714, 76.125, 76.125, 76.0625, 76.0625, 76.044647, 75.785713, 76.232147, 76.125, 76.1875, 76.125, 76.125, 76, 76.14286, 76.10714, 76.035713, 76, 76.1875, 75.984688, 75.928574, 76.21875, 76.410713, 76.39286, 76.321426, 76.178574, 76.214287, 76.125, 76.387756, 76.428574, 76.285713, 76.10714, 76.14286, 76.14286, 76.14286, 75.5, 75.599998, 75.583336, -10, -10, -10, -10, -10, -10, -10, -10, -10, -10
-10, -10, -10, -10, -10, -10, -10, -10, -10, -10, -10, -10, -10, -10, -10, -10, -10, -10, -10, -10, -10, -10, -10, -10, -10, -10, -10, -10, -10, -10, -10, -10, -10, -10, -10, -10, -10, -10, -10, -10, -10, -10, -10, -10, 89.785713, 89.241676, 88.861603, 88.535713, 88.39286, 88.46875, 87.964287, 86.697021, 85.757141, 85.160721, 84.808037, 84.71875, 84.242554, 83.66964, 82.648811, 81.648811, 81.169647, 80.75, 79.940475, 78.75, 77.964287, 77.330353, 77.0625, 77, 77.0625, 77.35714, 77.464287, 77.39286, 77.39286, 77.428574, 77.428574, 77.428574, 77.428574, 77.1875, 77.25, 77.25, 77.1875, 77.25, 77.25, 77.25, 77.3125, 77.571426, 77.571426, 77.64286, 77.714287, 77.714287, 77.714287, 77.714287, 77.714287, 77.714287, 77.785713, 77.785713, 77.693886, 77.404762, 77.306114, 77.285713, 77.35714, 77.428574, 77.625, 77.625, 77.321426, 77.39286, 77.25, 77.25, 77.5, 77.5, 77.571426, 77.571426, 77.375, 77.125, 76.9375, 76.8125, 77, 77.25, 77.428574, 77.571426, 77.469383, 77.17347, 76.479164, 76.258926, 76.357147, 76.6875, 77.091835, 76.958336, 76.916664, 77.035713, 77, 76.964287, 77.061226, 77.178574, 77.03125, 76.924103, 76.660713, 76.696426, 76.9375, 76.776787, 76.642853, 76.517853, 76.75, 76.964287, 77.25, 77.25, 77.291664, 77.375, 77.285713, 77.285713, 77.214287, 77.14286, 76.928574, 76.928574, 77, 76.979599, 77.057144, 77.346939, 77.418373, 77.35714, 77.285713, 77.14286, 76.78125, 76.90625, 76.9375, 76.96875, 77.09375, 77.09375, 77.0625, 77, 76.875, 76.8125, 76.875, 77.178574, 77.32653, 77.321426, 77.214287, 77.035713, 76.75, 76.839287, 76.973213, 77, 77.285713, 77.285713, 77.39286, 77.464287, 77.571426, 77.60714, 77.60714, 77.60714, 77.464287, 77.35714, 77.1875, 77.25, 77.535713, 77.678574, 77.60714, 77.428574, 77, 76.875, 76.8125, 76.8125, 76.875, 76.75, 76.5625, 76.68367, 76.714287, 76.846939, 76.852043, 76.46875, 76.361603, 76.361603, 76.728569, 76.770401, 76.785713, 76.85714, 76.928574, 77.10714, 77.375, 77.48214, 77.589287, 77.48214, 77.25, 77.178566, 77.011902, 76.785713, 76.6875, 76.75, 77, 77.188774, 77.25, 77.285713, 77.178574, 76.75, 76.339287, 76.23214, 76.339287, 76.989799, 76.511902, 76.488091, 76.081627, 76.178574, 76.367348, 77.020836, 77.107147, 77.25, 77.125, 77, 77.020401, 76.938774, 76.82653, 76.81633, 77.015312, 76.952385, 76.821426, 76.85714, 76.85714, 76.755104, 76.392853, 76.416664, 76.845238, 76.845238, 76.270828, 76.25, 76.89286, 76.910713, 77.125, 77.116074, 76.854164, 76.821426, 76.6875, 76.6875, 76.6875, 76.75, 76.90625, 76.75, 76.85714, 76.85714, 77.21875, 77.339287, 77.25, 77.285713, 77.214287, 77.0625, 77.125, 77, 76.9375, 76.875, 76.875, 77.214287, 77.0625, 77.25, 77.5, 77.428574, 77.35714, 77.321426, 77.39286, 77.428574, 77.5, 77.464287, 77.428574, 77.464287, 77.464287, 77.464287, 77.1875, 77.125, 77.083336, 77.397957, 77.214287, 77.303566, 77.193886, 77.035713, 77, 76.9375, 77.017853, 76.785713, 76.8125, 76.741074, 76.625, 76.75, 77, 77.547615, 77.666664, 77.571426, 77.571426, 77.571426, 77.25, 77.125, 77.125, 77.125, 77.125, 77.25, 77.0625, 76.9375, 77.202385, 76.75, 76.75, -10, -10, -10, -10, -10, -10, -10, -10, -10, -10, -10, -10, -10, -10, -10, -10, -10, -10, -10, -10, -10, -10, -10, -10, -10, -10, -10, -10, -10, -10, -10, -10, -10, -10, -10, -10, -10, -10, -10, -10, -10, -10, -10, -10, -10, -10, -10, -10, -10, -10, -10, -10, -10, -10, -10, -10, -10, -10, -10, -10, -10, -10, -10, -10, -10, -10, -10, -10, -10, -10, -10, -10, -10, -10, -10, -10, -10, -10, -10, -10, -10, -10, -10, 90.4375, 90.095833, 89.642853, 89.5, 89.25, 88.875, 88.25, 87.235718, 86.671432, 86.244896, 85.510414, 85.415176, 84.867554, 84.330353, 83.711311, 82.720238, 82.323128, 81.714287, 80.380951, 79.357147, 78.571426, 78.080353, 78.14286, 78.214287, 78.35714, 78.25, 78.3125, 78, 78, 78, 78, 78, 78, 78.125, 78.125, 78.0625, 78, 78.321426, 78.39286, 78.39286, 78.1875, 78.1875, 78.1875, 78.3125, 78.64286, 78.714287, 78.64286, 78.571426, 78.5, 78.5, 78.4375, 78.5, 78.482147, 78.229164, 77.877548, 78.39286, 78.464287, 78.535713, 78.64286, 78.64286, 78.571426, 78.535713, 78.428574, 78.428574, 78.5, 78.571426, 78.60714, 78.5, 78.21875, 77.96875, 78, 78.035713, 78.071426, 78.25, 78.35714, 78.1875, 78.098213, 77.870537, 77.172615, 76.885201, 77.033165, 77.5, 78.080353, 78.666664, 78.666664, 78.321426, 78.285713, 78.25, 77.9375, 78, 77.96875, 77.861603, 78.10714, 78.333336, 78.10714, 77.92347, 77.341835, 77.306114, 77.571426, 77.64286, 78.321426, 78.321426, 78.39286, 78.464287, 78.535713, 78.535713, 78.39286, 78.25, 78.071426, 78.035713, 78.14286, 77.982147, 78.314285, 78.530617, 78.530617, 78.39286, 78, 77.78125, 77.65625, 77.790176, 78.053574, 78.178574, 78.214287, 78.214287, 78, 77.9375, 77.571426, 77.75, 78.10714, 78.214287, 78.377548, 78.39286, 78.285713, 78.178574, 77.8125, 77.776787, 77.848213, 77.9375, 78, 78, 78.125, 78.39286, 78.535713, 78.64286, 78.714287, 78.64286, 78.25, 78.0625, 78, 78, 78.1875, 78.5, 78.428574, 78.321426, 78.071426, 78.035713, 78.071426, 78.071426, 78.071426, 77.85714, 77.591835, 77.4375, 77.5, 77.625, 77.65625, 77.46875, 77.688774, 77.760201, 77.971428, 78.081627, 78.071426, 78.071426, 78.035713, 78.214287, 78.39286, 78.535713, 78.375, 78.25, 78.321426, 78.153061, 77.761902, 77.428574, 77.428574, 77.5, 77.678574, 78.21875, 78.464287, 78.428574, 78.214287, 78, 78.145836, 78.166664, 78.291664, 78.147957, 78.208336, 78.178566, 78.208336, 78.166664, 78.172615, 78.166672, 77.982147, 78.0625, 78.0625, 77.9375, 77.8125, 77.8125, 77.964287, 78.06633, 78.229599, 78.238098, 78.071426, 78.071426, 78.10714, 77.897957, 77.622444, 77.547615, 77.845238, 77.952385, 77.059517, 77.14286, 78.14286, 78.255104, 78.321426, 78.132652, 77.541664, 77.508926, 77.46875, 77.53125, 77.71875, 78.10714, 78.160713, 78.395836, 78.4375, 78.479164, 78.428574, 78.464287, 78.1875, 78.428574, 78.321426, 78.25, 78.285713, 78.14286, 78.14286, 78.214287, 78.214287, 78.35714, 78.35714, 78.39286, 78.39286, 78.25, 78.178574, 78.178574, 78.214287, 78.35714, 78.5, 78.428574, 78.5, 78.5, 78.5, 78.5, 78.35714, 78.321426, 78.5, 78.362244, 78.224487, 78.081627, 77.857147, 77.928574, 77.964287, 77.89286, 78.020401, 78.375, 77.75, 77.418373, 77.285713, 77.428574, 77.9375, 78.32653, 78.464287, 78.571426, 78.60714, 78.64286, 78.454086, 78.14286, 78.14286, 78.14286, 78.0625, 78.125, 78.041664, 77.416664, 77.527779, -10, -10, -10, -10, -10, -10, -10, -10, -10, -10, -10, -10, -10, -10, -10
-10, -10, -10, -10, -10, -10, -10, -10, -10, -10, -10, -10, -10, -10, -10, -10, -10, -10, -10, -10, -10, -10, -10, -10, -10, -10, -10, -10, -10, -10, -10, -10, -10, -10, -10, -10, -10, -10, -10, -10, -10, -10, 91.833328, 92.266663, 91.3125, 91.095833, 90.928574, 90.571426, 90.25, 89.85714, 88.946426, 88.383667, 87.799995, 87.204086, 86.238098, 85.901787, 85.503403, 84.908157, 84.520409, 83.918373, 83.050598, 82.285713, 80.916672, 80.107147, 79.339287, 78.955353, 79.035713, 79.10714, 79.214287, 79.25, 79.285713, 79.5, 79.583336, 79.666664, 79.666664, 79.666664, 79.666664, 79.25, 79.0625, 79.0625, 78.871422, 79.510201, 79.581627, 79.571426, 79.223213, 79.151787, 79.125, 79.125, 79.25, 79.5, 79.3125, 79.3125, 79.10714, 79.10714, 79.4375, 79.4375, 79.5, 79.35714, 79.523811, 79.5, 79.571426, 79.714287, 79.785713, 79.785713, 79.75, 79.678574, 79.28125, 79.21875, 79.21875, 79.28125, 79.34375, 79.28125, 79.21875, 79.03125, 78.64286, 79.214287, 79.178574, 78.9375, 78.9375, 78.9375, 78.919647, 78.84375, 79.069443, 79.047615, 79.071434, 79.291664, 79.234688, 79.285713, 79.35714, 79.35714, 79.39286, 79.428574, 79.25, 79.178574, 79.071426, 79.045914, 79.178574, 79.285713, 79.35714, 79.193886, 79.345238, 79.386902, 79.541664, 79.583336, 79.535713, 79.464287, 79.464287, 79.535713, 79.464287, 79.464287, 79.35714, 79.178574, 79, 78.85714, 78.948975, 79.202385, 79.418373, 79.535713, 79.25, 79.0625, 78.875, 78.75, 78.75, 79.188774, 79.303574, 79.410713, 79.09375, 79.23214, 79.10714, 79, 79.166664, 79.208336, 79, 78.8125, 78.9375, 78.9375, 79.071426, 79.10714, 78.928574, 78.887756, 78.969383, 78.964287, 78.8125, 78.875, 79, 79.0625, 79.25, 79.25, 79.571426, 79.375, 79.1875, 79, 78.875, 78.875, 79.0625, 79.25, 79.178574, 78.854164, 78.642853, 78.85714, 79, 79.14286, 79.14286, 78.928574, 78.517853, 78.214287, 78.25, 78.35714, 78.645836, 78.604164, 79.089287, 79.160713, 79.285713, 79.35714, 79.214287, 79.14286, 79.035713, 79.178574, 79.35714, 79.535713, 79.375, 79.25, 79.125, 79, 79.333336, 79.333336, 79.416664, 79.416664, 79.520836, 79.464287, 79.21875, 79.1875, 79.03125, 79.125, 79.196426, 79.321426, 79.306114, 78.877548, 78.704086, 78.545914, 78.714287, 78.821426, 78.862244, 79.047623, 78.857147, 78.875, 79.10714, 79.035713, 78.964287, 79.035713, 79.14286, 79.265312, 79.275513, 79.261909, 79.071426, 79.071426, 79.14286, 78.948975, 78.68367, 78.523804, 78.520836, 78.761909, 78.80555, 79.083336, 79.166672, 79.265312, 79.35714, 79.06633, 78.247025, 78.080353, 78.09375, 78.464287, 78.821426, 79.10714, 79.14286, 79.071426, 79.102043, 79.265312, 79.372452, 79.5, 79.428574, 79.372452, 79.083328, 79.020401, 79.14286, 79.147957, 79.178574, 79.321426, 79.321426, 79.428574, 79.5, 79.25, 79.25, 78.928574, 78.85714, 78.85714, 78.85714, 79.25, 79.375, 79.241074, 79.175003, 79.303574, 79.303574, 79.60714, 79.5, 79.464287, 79.464287, 79.223213, 79.142853, 78.795914, 78.714287, 78.64286, 78.64286, 78.571426, 78.98214, 79.464287, 79.25, 79.494049, 79.291664, 79.375, 79.25, 79.223213, 79.3125, 79.3125, 79.3125, 79.535713, 79.489799, 78.785713, 78.785713, 78.785713, 78.699997, 78.699997, 78.616661, -10, -10, -10, -10, -10, -10, -10, -10, -10, -10, -10, -10, -10, -10, -10, -10, -10, -10, -10, -10, -10, -10, -10, -10, -10, -10, -10, -10, -10, -10, -10, -10, -10, -10, -10, -10, -10, -10, -10, -10, -10, -10, -10, -10, -10, -10, -10, -10, -10, -10, -10, -10, -10, -10, -10, -10, -10, -10, -10, -10, -10, -10, -10, -10, -10, -10, -10, -10, -10, -10, -10, -10, -10, -10, -10, -10, -10, -10, -10, -10, -10, -10, -10, -10, -10, 92.688881, 92.939674, 92.35714, 92.261902, 91.964287, 91.571426, 91, 90.4375, 89.775505, 89.122444, 88.571426, 87.8125, 87.095238, 86.473213, 86.107147, 85.508926, 85.178574, 84.989799, 84.005951, 82.791664, 81.559525, 80.785713, 80.205353, 80, 79.9375, 79.785713, 79.89286, 79.89286, 80.166664, 80.5, 80.5, 80.571426, 80.571426, 80.571426, 80.571426, 80.428574, 80.464287, 80.464287, 80.908333, 80.688774, 80.617348, 80.60714, 80.469383, 80.31633, 80.35714, 80.0625, 80.1875, 80.25, 80.25, 80.3125, 80.791664, 80.791664, 80.64286, 80.678574, 80.571426, 80.464287, 80.448975, 80.60714, 80.64286, 80.75, 80.785713, 80.785713, 80.785713, 80.64286, 80.28125, 80.21875, 80.15625, 80.28125, 80.28125, 80.35714, 80.35714, 80.25, 80.416664, 80.178574, 79.767853, 79.5625, 79.4375, 79.4375, 79.857147, 80.331627, 80.324829, 80.124146, 80.035713, 80.14286, 80.017853, 80.125, 80.25, 80.3125, 80.5, 80.464287, 80.285713, 80.214287, 80.23214, 80.09375, 80.21875, 80.28125, 80.535713, 80.464287, 80.367348, 80.438774, 80.5, 80.5, 80.571426, 80.35714, 80.026787, 80.0625, 80.0625, 80.125, 80.125, 80, 79.84375, 79.51786, 79.609688, 80.380959, 80.561226, 80.535713, 80.125, 80, 79.8125, 80.035713, 80.214287, 80.403061, 80.5, 80.535713, 80.25, 80.15625, 80.0625, 79.714287, 80.214287, 80.178574, 79.84375, 79.51786, 79.794647, 79.699997, 79.821426, 79.741074, 79.887756, 79.908157, 79.989799, 80.071426, 80.10714, 80.10714, 80, 80, 80.125, 80.0625, 80.125, 80.1875, 80.321426, 80.285713, 80.214287, 80.14286, 80, 80.0625, 79.991074, 79.791664, 79.705353, 79.732147, 79.666664, 79.767853, 79.75, 79.89286, 79.877548, 80.166664, 80.25, 80.375, 80.416664, 80.333336, 80.25, 80.321426, 80.39286, 80.39286, 80.285713, 80.178574, 79.875, 80.0625, 80.25, 80.375, 80.535713, 80.35714, 80.25, 80.14286, 80.25, 80.285713, 80.35714, 80.35714, 80.339287, 80.410713, 80.09375, 80.09375, 80, 79.96875, 80.303574, 80.446426, 80.236603, 79.571426, 79.35714, 79.15625, 79.272324, 79.34375, 79.40625, 79.571426, 79.75, 79.6875, 79.776787, 79.6875, 79.821426, 79.964287, 80.071426, 80.25, 80.0625, 80.125, 79.785713, 80, 80, 79.75, 79.526787, 79.375, 79.5, 79.35714, 79.652779, 80.261902, 80.380959, 80.178574, 80.1875, 79.870537, 79.215775, 79.158157, 79.178574, 79.464287, 79.629463, 79.90625, 79.875, 79.5625, 79.589287, 79.732147, 79.919647, 80.25, 80.35714, 80.107147, 79.654762, 79.663261, 79.785713, 80.098213, 80.125, 80.25, 80.25, 80.25, 80.25, 80.1875, 80.125, 80.458336, 80.416664, 80.333336, 80.25, 80.178574, 80.285713, 79.991074, 79.925003, 80.053574, 80.116074, 80.428574, 80.35714, 80.35714, 80.125, 80.160713, 80.295914, 80.380951, 80.333336, 80.25, 80.208336, 80.208336, 80.386902, 80.35714, 80.285713, 80.31633, 80.14286, 80.214287, 80.214287, 80.285713, 80.39286, 80.1875, 80.3125, 80.375, 80.366074, 80.666664, 80, 79.9375, -10, -10, -10, -10, -10, -10, -10, -10, -10, -10, -10, -10, -10, -10, -10, -10, -10, -10, -10, -10
-10, -10, -10, -10, -10, -10, -10, -10, -10, -10, -10, -10, -10, -10, -10, -10, -10, -10, -10, -10, -10, -10, -10, -10, -10, -10, -10, -10, -10, -10, -10, -10, -10, -10, -10, -10, -10, -10, -10, -10, -10, 95.166672, 93.590469, 93.686394, 93.321426, 93.056114, 92.4375, 91.9375, 91.455353, 90.9375, 90.330353, 89.785713, 89.083336, 88.544647, 87.782738, 87.098213, 86.571426, 86.080353, 85.8125, 85.428574, 84.693451, 83.363091, 82.369049, 81.669647, 81.438774, 81.35714, 81.285713, 81.625, 81.75, 81.75, 81.791664, 81.64286, 81.561226, 81.428574, 81.428574, 81.428574, 81.571426, 81.535713, 81.64286, 81.678574, 81.849998, 81.795914, 81.688774, 81.678574, 81.612244, 81.42347, 81.39286, 81.214287, 81.178574, 81.125, 81.39286, 81.428574, 81.535713, 81.464287, 81.5, 81.60714, 81.571426, 81.571426, 81.663261, 81.785713, 81.785713, 81.85714, 81.5, 81.4375, 81.375, 81.25, 81.375, 81.375, 81.446426, 81.625, 81.40625, 81.035713, 81.553574, 81.446426, 81.35714, 81.178574, 80.705353, 80.14286, 80.035713, 80.14286, 81.265312, 81.599487, 81.747452, 81.443031, 80.877678, 80.875, 80.803574, 80.9375, 81.0625, 81.35714, 81.1875, 81.1875, 81.125, 81.125, 81.39286, 81.464287, 81.535713, 81.571426, 81.64286, 81.571426, 81.464287, 81.3125, 81.25, 81.3125, 81.3125, 81, 80.839287, 80.919647, 80.919647, 81.0625, 81.0625, 81.14286, 80.90625, 81.375, 81.188774, 81.302086, 81.632652, 81.3125, 81.125, 81.214287, 81.14286, 81.25, 81.428574, 81.469383, 81.428574, 81.5, 81.39286, 81.410713, 81.428574, 81.625, 81.1875, 81.15625, 80.96875, 81.291664, 80.794647, 80.637497, 80.883926, 80.561226, 80.602043, 80.64286, 80.973213, 81.285713, 81.321426, 81.321426, 81.39286, 81.321426, 81.35714, 81, 81, 81.0625, 81.285713, 81.39286, 81.428574, 81.35714, 81.321426, 81.321426, 80.704086, 81.011902, 81.020401, 81.015312, 80.369041, 80.556114, 80.535713, 80.8125, 81.153061, 81.14286, 81.14286, 81.178574, 81.214287, 81.14286, 81.178574, 81.214287, 81.0625, 81.0625, 81.0625, 81.214287, 81.178574, 81.35714, 81.5, 81.60714, 81.60714, 81.1875, 81.125, 81.0625, 81.1875, 81.3125, 81.3125, 81.3125, 81.25, 81.1875, 81.0625, 81.14286, 81.035713, 81.035713, 81.214287, 81.1875, 81.341835, 81.25, 80.934525, 79.64286, 79.811226, 80, 80.178574, 80.367348, 80.803574, 80.5, 80.589287, 80.5, 80.5625, 80.75, 80.8125, 80.9375, 81.14286, 81.10714, 81.291664, 81.035713, 80.875, 80.964287, 80.836739, 80.458336, 80.928574, 81.333336, 81.5, 81.5, 81.428574, 81.321426, 81.214287, 80.969383, 80.663261, 79.938774, 80, 80.25, 80.879463, 80.959824, 80.737503, 80.17347, 80.204086, 80.408165, 80.622452, 80.85714, 81.25, 81.169647, 81.402779, 81.428566, 81.375, 81.255104, 81.214287, 81.25, 81.25, 81.178574, 81, 81.214287, 81.178574, 81.214287, 81.285713, 81.214287, 81.14286, 80.883926, 80.724998, 80.696426, 80.518753, 80.709824, 80.772324, 80.9375, 81.044647, 81.044647, 80.8125, 81.10714, 81.10714, 81.071426, 81, 80.85714, 80.714287, 80.785713, 80.8125, 81.044647, 81.125, 81.1875, 81, 81, 80.9375, 81.14286, 81.214287, 81.214287, 81.39286, 81.476189, 81.042862, 81, -10, -10, -10, -10, -10, -10, -10, -10, -10, -10, -10, -10, -10, -10, -10, -10, -10, -10, -10, -10, -10, -10, -10, -10, -10, -10, -10, -10, -10, -10, -10, -10, -10, -10, -10, -10, -10, -10, -10, -10, -10, -10, -10, -10, -10, -10, -10, -10, -10, -10, -10, -10, -10, -10, -10, -10, -10, -10, -10, -10, -10, -10, -10, -10, -10, -10, -10, -10, -10, -10, -10, -10, -10, -10, -10, -10, -10, -10, -10, -10, -10, -10, -10, -10, -10, -10, -10, -10, -10, 95.277779, 94.590477, 94.371429, 94, 93.580353, 92.946426, 92.330353, 91.767853, 91.25, 90.883926, 90.455353, 89.770836, 89.199402, 88.407738, 87.714287, 87.133926, 86.526779, 86.214287, 85.875, 85.276779, 83.970238, 83.254471, 82.821426, 82.535713, 82.535713, 82.540817, 82.571426, 82.602043, 82.571426, 82.60714, 82.714287, 82.366074, 82, 82, 82, 82.375, 82.60714, 82.75, 82.785713, 82.712502, 82.633926, 82.508926, 82.5, 82.473213, 82.276787, 82.1875, 82.25, 82.178574, 82.321426, 82.5, 82.3125, 82.375, 82.3125, 82.3125, 82.375, 82.60714, 82.714287, 82.795914, 82.85714, 82.85714, 82.821426, 82.4375, 82.375, 82.25, 82.1875, 82.25, 82.622452, 82.75, 82.89286, 82.785713, 82.875, 82.571426, 82.428574, 82.125, 81.875, 81.806114, 81.833336, 81.916664, 82.083336, 82.275513, 82.617348, 82.693886, 82.247025, 81.610207, 81.571426, 81.489799, 82.14286, 82.25, 82.125, 82.125, 82.1875, 82.125, 82.285713, 82.321426, 82.39286, 82.5, 82.60714, 82.714287, 82.375, 82.1875, 82.1875, 82.125, 82.25, 82.25, 81.875, 81.651787, 81.669647, 81.943886, 82.178574, 82.321426, 82.35714, 82.35714, 82.39286, 82.403061, 82.511909, 82.530617, 82.321426, 82.14286, 82.10714, 82.10714, 82.214287, 82.321426, 82.125, 82.0625, 82.125, 82.125, 82.428574, 82.535713, 82.571426, 82.5, 82.464287, 82.285713, 82.25, 82.193886, 82.014282, 82.260201, 82.285713, 82.226189, 82.208336, 82.07653, 82.25, 82.321426, 82.321426, 82.39286, 82.25, 82.214287, 82.10714, 82.071426, 82.0625, 82.1875, 82.464287, 82.5, 82.428574, 82.35714, 82.39286, 82.619049, 82.309517, 82.367348, 82.336739, 82.319443, 82.386902, 82.375, 82.25, 82.428574, 82.346939, 81.9375, 82, 82.044647, 82, 82.03125, 82.03125, 81.946426, 81.875, 81.875, 82.071426, 82.25, 82.39286, 82.5, 82.464287, 82.35714, 82.25, 82.285713, 82.321426, 82.464287, 82.571426, 82.464287, 82.39286, 82.25, 82, 82.214287, 82, 81.714287, 81.714287, 82.0625, 82.125, 82.017853, 82, 81.693886, 81.416664, 81.535713, 81.666664, 81.916664, 82.130951, 82.096939, 81.6875, 81.459183, 81.35714, 81.6875, 81.8125, 81.8125, 81.75, 81.75, 81.6875, 81.928574, 82, 82, 82, 81.964287, 82.166664, 82.14286, 82.214287, 82.321426, 82.39286, 82.321426, 82.321426, 82.0625, 82.198975, 81.974487, 82.110115, 82.1875, 82.208336, 82.219383, 82.132652, 81.914291, 82.029762, 81.964287, 82.238098, 82.321434, 82.416664, 82.321426, 82.204086, 82.166664, 82.295914, 82.321426, 82.448975, 82.39286, 81.85714, 81.85714, 81.785713, 81.785713, 82.125, 82.125, 82.1875, 82.1875, 82.0625, 81.9375, 81.821426, 81.662498, 81.696426, 81.133667, 81.355652, 81.334824, 81.5, 81.794647, 81.919647, 81.875, 81.785713, 81.85714, 81.880943, 81.333336, 81.166664, 81, 81.083336, 81.333336, 81.559525, 81.583336, 81.583336, 81.333336, 81.333336, 81.333336, 81.416664, 81.5, 81.5, 81.900002, 81.96666, -10, -10, -10, -10, -10, -10, -10, -10, -10, -10, -10, -10, -10, -10, -10, -10, -10, -10, -10, -10, -10, -10, -10, -10
-10, -10, -10, -10, -10, -10, -10, -10, -10, -10, -10, -10, -10, -10, -10, -10, -10, -10, -10, -10, -10, -10, -10, -10, -10, -10, -10, -10, -10, -10, -10, -10, -10, -10, -10, -10, -10, -10, -10, -10, -10, 95.277779, 95.183334, 94.988091, 94.5625, 93.973206, 93.446426, 92.830353, 92.101196, 91.535713, 91.196426, 90.892853, 90.503403, 89.794647, 89.086304, 88.154762, 87.5, 86.839279, 86.464287, 86.125, 85.580353, 84.657738, 84.25, 83.821426, 83.571426, 83.60714, 83.647957, 83.64286, 83.526787, 83.5, 83.5, 83.5625, 83.632652, 83.666664, 83.666664, 83.583336, 83.428574, 83.428574, 83.375, 83.4375, 83.5, 83.5, 83.535713, 83.464287, 83.39286, 83.25, 83, 82.9375, 82.9375, 83.321426, 83.535713, 83.571426, 83.3125, 83.25, 83.25, 83.3125, 83.64286, 83.785713, 83.85714, 83.85714, 83.85714, 83.785713, 83.64286, 83.571426, 83.25, 83.464287, 83.60714, 83.801025, 83.964287, 83.928574, 83.75, 83.571426, 83.428574, 83.35714, 83.0625, 82.875, 83.010201, 82.928574, 82.964287, 83.071426, 83.080353, 83.396431, 83.303574, 83.350342, 83.314285, 83.416664, 83.494049, 83.35714, 83.321426, 83.125, 83.178574, 83.14286, 83.14286, 83.14286, 83.0625, 83.1875, 83.3125, 83.4375, 83.714287, 83.375, 83.1875, 83.1875, 83.125, 83.464287, 83.464287, 83.178574, 82.979599, 82.943886, 82.979599, 83.10714, 83.285713, 83.428574, 83.48214, 83.589287, 83.589287, 83.34375, 83.3125, 83, 82.8125, 82.8125, 82.729164, 82.982147, 82.9375, 82.9375, 82.8125, 82.875, 83, 83.1875, 83.375, 83.714287, 83.60714, 83.51786, 83.303574, 83.23214, 83.275513, 83.257141, 83.469383, 83.387756, 83.336739, 83, 82.973213, 83.0625, 83, 82.9375, 83.0625, 83.044647, 83.0625, 83.25, 83.214287, 83.321426, 83.428574, 83.464287, 83.25, 83.125, 83.214287, 83.321426, 83.428574, 83.535713, 83.64286, 83.561226, 83.309517, 83.224487, 83.214287, 83.35714, 83.5, 83.241074, 82.96875, 82.90625, 82.888397, 83.035713, 83.10714, 83.178574, 82.946426, 82.571426, 82.64286, 82.714287, 83.428574, 83.3125, 83.375, 83.25, 83.0625, 82.9375, 83.14286, 83.285713, 83.39286, 83.464287, 83.321426, 83.0625, 82.9375, 82.875, 83.214287, 83.14286, 83.333336, 83.375, 83.178574, 83.25, 83.09375, 82.85714, 82.591835, 82.5, 82.535713, 82.583336, 82.791664, 83.255104, 83.311226, 83.071426, 83.351189, 83.291664, 83.071426, 83.14286, 83, 82.5625, 82.59375, 82.5625, 82.625, 82.75, 82.8125, 83.10714, 83.14286, 83.214287, 83.25, 83.214287, 83.0625, 83.125, 83.125, 83.1875, 83.39286, 83.339287, 83.26786, 83.26786, 83.26786, 83.25, 83.306114, 83.096939, 82.914291, 82.989799, 82.989799, 83.214287, 83.285713, 83.297615, 82.849998, 82.5, 82.583336, 82.75, 82.75, 83, 82.900002, 83, 83, 82.9375, 82.875, 82.800003, 82.800003, 82.800003, 82.800003, 82.650002, 82.5, 82.314285, 82.059998, 82.228569, 82.174103, 81.56945, 81.541664, 81.666664, 82.059525, 82.226189, 82.400002, 82.8125, 83.0625, 83.145828, -10, -10, -10, -10, -10, -10, -10, -10, -10, -10, -10, -10, -10, -10, -10, -10, -10, -10, -10, -10, -10, -10, -10, -10, -10, -10, -10, -10, -10, -10, -10, -10, -10, -10, -10, -10, -10, -10, -10, -10, -10, -10, -10, -10, -10, -10, -10, -10, -10, -10, -10, -10, -10, -10, -10, -10, -10, -10, -10, -10, -10, -10, -10, -10, -10, -10, -10, -10, -10, -10, -10, -10, -10, -10, -10, -10, -10, -10, -10, -10, -10, -10, -10, -10, -10, -10, -10, -10, -10, -10, -10, -10, -10, -10, -10, -10, -10, -10, -10, -10, -10, -10, -10, -10, -10, -10, -10, -10, 95.708336, 95.5, 95.1875, 94.535706, 94.071426, 93.517853, 92.544228, 92.112244, 91.959183, 91.800003, 90.898811, 90.214294, 89.407738, 88.5, 87.821426, 87.151779, 86.714287, 86.205353, 85.6875, 85.116074, 84.674103, 84.40625, 84.28125, 84.4375, 84.369385, 84.508926, 84.755104, 84.64286, 84.64286, 84.714287, 84.67347, 84.571426, 84.571426, 84.5, 84.5, 84.25, 84.3125, 84.4375, 84.5, 84.5, 84.375, 84.25, 84.1875, 84.0625, 83.714287, 83.714287, 84.25, 84.35714, 84.535713, 84.571426, 84.5, 84.535713, 84.535713, 84.571426, 84.60714, 84.64286, 84.4375, 84.375, 84.4375, 84.4375, 84.60714, 84.64286, 84.535713, 84.60714, 84.714287, 84.801025, 84.821426, 84.5625, 84.348213, 84.080353, 83.955353, 83.875, 84.035713, 84.081627, 84.380959, 84.408165, 83.964287, 84, 84.267853, 84.387497, 84.133926, 84.31633, 84.157143, 84.285713, 84.387756, 84.39286, 84.39286, 84.229599, 83.913261, 83.729164, 83.895836, 83.991074, 84.125, 84.1875, 84.3125, 84.64286, 84.714287, 84.535713, 84.428574, 84.428574, 84.39286, 84.5, 84.428574, 84.214287, 84, 83.918373, 83.732147, 83.8125, 83.9375, 84.0625, 84.125, 84.1875, 84.1875, 84.1875, 84.1875, 84, 83.64286, 83.64286, 83.511902, 83.982147, 83.875, 83.8125, 83.6875, 83.6875, 83.75, 84, 84.25, 84.64286, 84.4375, 84.3125, 84.125, 84.0625, 84.125, 84.1875, 84.25, 84.428574, 84.35714, 84.5, 84.0625, 84.03125, 83.90625, 83.90625, 84.03125, 84.107147, 84.125, 84.25, 84.214287, 84.214287, 84.285713, 84.25, 83.928574, 83.787498, 83.946426, 84.142853, 84.3125, 84.375, 84.64286, 84.375, 84.3125, 84.25, 84.25, 84.25, 84.464287, 84.346939, 84.071426, 84.10714, 84.158165, 84.178574, 84.25, 84.321426, 84.295914, 84.5, 84.541664, 84.583336, 84.535713, 84.571426, 84.571426, 84.25, 84.125, 84.0625, 83.785713, 84.1875, 84.1875, 84.1875, 84, 83.875, 83.8125, 83.8125, 84.214287, 84.25, 84.35714, 84.321426, 84.285713, 84.321426, 84.321426, 84.583336, 84.5, 84.5, 84.541664, 84.583336, 84.583336, 84.35714, 84.280617, 84.10714, 84.178574, 84.214287, 84.25, 84.321426, 84.25, 83, 82.958336, 82.833336, 82.833336, 83.300003, 83.449997, 83.599998, 83.5, 83.583336, 83.583336, 83.5, 83.5, 83.5, 83.5, 83.800003, 83.949997, 83.949997, 83.900002, 83.949997, 83.75, 83.666664, 83.666664, 83.404762, 83.23333, 83.488098, 83.488098, 83.75, 83.75, 83.722221, -10, -10, -10, -10, -10, -10, -10, -10, -10, -10, -10, -10, -10, -10, -10, -10, -10, -10, -10, -10, -10, -10, -10, -10, -10, -10, -10, -10, -10, -10, -10, -10, -10, -10, -10, -10, -10, -10, -10, -10, -10, -10, -10, -10, -10, -10, -10, -10, -10, -10, -10, -10, -10, -10, -10, -10, -10, -10, -10, -10, -10, -10, -10, -10, -10, -10, -10, -10, -10, -10
-10, -10, -10, -10, -10, -10, -10, -10, -10, -10, -10, -10, -10, -10, -10, -10, -10, -10, -10, -10, -10, -10, -10, -10, -10, -10, -10, -10, -10, -10, -10, -10, -10, -10, -10, -10, -10, -10, -10, -10, -10, -10, 96.208336, 96.0625, 95.875, 95.330353, 95.18367, 94.724487, 94.388893, 94.083336, 93.636902, 92.466667, 91.273811, 90.5, 89.720238, 88.875, 88.3125, 87.580353, 87.044647, 86.517853, 86, 85.607147, 85.352676, 85.154762, 85.388397, 85.85714, 86.24881, 85.795914, 85.846939, 85.60714, 85.60714, 85.64286, 85.64286, 85.714287, 85.714287, 85.571426, 85.5, 85.428574, 85.5, 85.714287, 85.785713, 85.785713, 85.571426, 85.25, 85.1875, 85.321426, 85.583336, 85.583336, 85.428574, 85.464287, 85.375, 85.4375, 85.60714, 85.678574, 85.678574, 85.678574, 85.5, 85.285713, 85.214287, 85.14286, 85.178574, 85.375, 85.4375, 85.714287, 85.678574, 85.678574, 85.714287, 85.607147, 85.669647, 85.285713, 85.040817, 84.698975, 84.591835, 84.535713, 84.8125, 85.153061, 85.452385, 85.479599, 85.791664, 85.708336, 85.484688, 85.657143, 85.367348, 85.205353, 85.1875, 85.25, 85.3125, 85.1875, 85.321426, 84.982147, 84.767853, 84.583328, 85.020836, 85.204086, 85.25, 85.25, 85.35714, 85.464287, 85.5, 85.39286, 85.35714, 85.428574, 85.5, 85.535713, 85.25, 85.125, 84.9375, 84.833336, 84.8125, 84.8125, 84.9375, 85, 85, 85, 85, 85.0625, 85.35714, 85.321426, 85.5, 85.5, 85.361107, 85.336739, 85.14286, 85.071426, 84.928574, 84.85714, 84.75, 85, 85.25, 85.4375, 85.571426, 85.125, 85.06633, 84.964287, 85.10714, 85.25, 85.125, 85.428574, 85.321426, 85.285713, 85.214287, 85.14286, 85.071426, 85.14286, 85.285713, 85.408165, 85.428574, 85.321426, 85.0625, 84.982147, 84.830353, 84.696426, 84.5, 84.620834, 84.875, 85.142853, 85.25, 85.25, 85.25, 85.1875, 85.428574, 85.428574, 85.5, 85.3125, 85.241074, 85.091072, 85.321426, 85.275513, 85.260201, 85.178574, 85.160713, 85.23214, 85.255104, 85.35714, 85.428574, 85.5, 85.64286, 85.64286, 85.571426, 85.39286, 85.214287, 85.10714, 84.875, 84.849998, 84.666664, 84.583336, 84.416664, 84.25, 84.166664, 84.449997, 84.699997, 84.75, 84.900002, 84.708336, 84.800003, 84.849998, 84.900002, 85, 84.949997, 84.949997, 84.949997, 84.949997, 84.900002, 84.849998, 84.541664, 84.458336, 84.541664, 84.625, 84.625, 84.900002, 84.849998, -10, -10, -10, -10, -10, -10, -10, -10, -10, -10, -10, -10, -10, -10, -10, -10, -10, -10, -10, -10, -10, -10, -10, -10, -10, -10, -10, -10, -10, -10, -10, -10, -10, -10, -10, -10, -10, -10, -10, -10, -10, -10, -10, -10, -10, -10, -10, -10, -10, -10, -10, -10, -10, -10, -10, -10, -10, -10, -10, -10, -10, -10, -10, -10, -10, -10, -10, -10, -10, -10, -10, -10, -10, -10, -10, -10, -10, -10, -10, -10, -10, -10, -10, -10, -10, -10, -10, -10, -10, -10, -10, -10, -10, -10, -10, -10, -10, -10, -10, -10, -10, -10, -10, -10, -10, -10, -10, -10, -10, -10, -10, -10, -10, -10, -10, -10, -10, -10, -10, -10, -10, -10, -10, -10, -10, -10, -10, -10, -10, -10, -10, -10, -10, -10, -10, -10, -10, -10, -10, -10, -10, -10, -10, -10, -10, -10, -10, -10, -10, -10, -10, -10, -10, -10, -10, -10, -10, -10, -10, -10, -10, -10, -10, -10, -10, -10, -10, 96.75, 96.583336, 96.4375, 96.153061, 95.928574, 95.571426, 95.119057, 94.795914, 94.093544, 93.082741, 91.595245, 90.773804, 90.071426, 89.25, 88.741074, 87.925591, 87.401779, 86.830353, 86.4375, 86.1875, 86.133926, 86.986115, 86.872452, 87.178574, 87.264282, 86.974487, 86.938774, 86.375, 86.375, 86.375, 86.375, 86.714287, 86.714287, 86.535713, 86.5, 86.464287, 86.535713, 86.785713, 86.821426, 86.821426, 86.64286, 86.535713, 86.5, 86.5, 86.571426, 86.571426, 86.60714, 86.571426, 86.60714, 86.64286, 86.571426, 86.571426, 86.571426, 86.571426, 86.64286, 86.916664, 86.791664, 86.75, 86.708336, 86.5, 86.571426, 86.571426, 86.5, 86.25, 86.3125, 86.375, 86.658165, 86.875, 86.773804, 86.553566, 86.470238, 86.416664, 85.928574, 85.883926, 86.208336, 86.205353, 86.5, 86.387756, 86.367348, 86.512245, 86.32653, 86.367348, 86.214287, 86.321426, 86.25, 86.125, 86, 85.758926, 85.698975, 86.027771, 86.238098, 86.346939, 86.464287, 86.1875, 86.25, 86.25, 86.25, 86.1875, 86.125, 86.1875, 86.1875, 86.125, 86.125, 86.125, 86.25, 86.583336, 86.178574, 86.14286, 86.10714, 86.071426, 86.14286, 85.9375, 86, 86.0625, 86.39286, 86.39286, 86.35714, 86.35714, 86.166664, 86.275513, 86.071426, 85.964287, 85.85714, 85.85714, 86.035713, 86.285713, 86.464287, 86.5, 86.39286, 85.875, 85.714287, 85.625, 85.75, 85.9375, 86.0625, 86.25, 86.25, 86.25, 86.25, 86.39286, 86.39286, 86.5, 86.464287, 86.489799, 86.464287, 86.25, 86.178574, 85.919647, 85.705353, 85.403061, 85.285713, 85.143333, 85.599998, 85.878571, 85.900002, 85.666664, 85.666664, 85.583336, 85.900002, 85.949997, 86.050003, 86, 85.654762, 85.549995, 85.875, 85.810715, 85.803574, 85.458336, 85.416664, 85.5, 85.583336, 85.75, 85.833336, 85.916664, 86.199997, 86.199997, 85.916664, 85.75, 85.583336, 85.416664, -10, -10, -10, -10, -10, -10, -10, -10, -10, -10, -10, -10, -10, -10, -10, -10, -10, -10, -10, -10, -10, -10, -10, -10, -10, -10, -10, -10, -10, -10, -10, -10, -10, -10, -10, -10, -10, -10, -10, -10, -10, -10, -10, -10, -10, -10, -10, -10, -10, -10, -10, -10, -10, -10, -10, -10, -10, -10, -10, -10, -10, -10, -10, -10, -10, -10, -10, -10, -10, -10, -10, -10, -10, -10, -10, -10, -10, -10, -10, -10, -10, -10, -10, -10, -10, -10, -10, -10, -10, -10, -10, -10, -10, -10, -10, -10, -10, -10, -10, -10, -10, -10, -10, -10, -10, -10, -10, -10, -10, -10, -10, -10, -10, -10, -10, -10, -10, -10, -10, -10, -10, -10, -10, -10, -10, -10, -10, -10
-10, -10, -10, -10, -10, -10, -10, -10, -10, -10, -10, -10, -10, -10, -10, -10, -10, -10, -10, -10, -10, -10, -10, -10, -10, -10, -10, -10, -10, -10, -10, -10, -10, -10, -10, -10, -10, -10, -10, -10, -10, -10, 97, 96.888893, 96.875, 96.5625, 96.3125, 96, 95.6875, 95.321426, 94.279755, 93.430946, 91.925598, 91.178574, 90.404762, 89.845238, 89.3125, 88.497025, 87.919647, 87.392853, 87.125, 87.214287, 87.331627, 87.845238, 87.979599, 88.214287, 88.074997, 88.112244, 87.883926, 87.285713, 87.553574, 87.291664, 87.196426, 87.5, 87.5, 87.1875, 87.25, 87.25, 87.375, 87.625, 87.625, 87.625, 87.714287, 87.60714, 87.535713, 87.535713, 87.571426, 87.571426, 87.64286, 87.60714, 87.60714, 87.678574, 87.60714, 87.375, 87.375, 87.375, 87.678574, 87.714287, 87.637756, 87.68367, 87.60714, 87.64286, 87.535713, 87.25, 87.125, 86.9375, 87, 87.0625, 87.408165, 87.5, 87.448975, 87.295914, 87.224487, 87.071426, 86.882652, 86.625, 87.120834, 87.017853, 87.267853, 87.151787, 87.1875, 87.348213, 87.25, 87.428574, 87.321426, 87.39286, 87.35714, 87.214287, 86.9375, 86.696426, 86.795914, 86.952377, 87.190483, 87.244896, 87.285713, 87.214287, 87.214287, 87.0625, 87.0625, 87.178574, 86.9375, 86.9375, 86.9375, 86.9375, 87, 87.321426, 87.428574, 87.571426, 87.428574, 87.428574, 87.35714, 87.285713, 87.285713, 87.14286, 87.14286, 87.10714, 87.214287, 87.125, 87.1875, 87.25, 87.125, 87.0625, 86.895836, 86.25, 86.166664, 86.166664, 86.599998, 86.849998, 87, 86.75, 86.666664, 86.333336, 86.202385, 86.166664, 86.25, 86.416664, 86.699997, 86.900002, 86.900002, 86.900002, 87, 86.974998, 87.074997, 87.224998, 86.875, 86.833336, 86.75, 86.5, 86.650002, 86.571426, 86.228569, 86.446426, 86.5, -10, -10, -10, -10, -10, -10, -10, -10, -10, -10, -10, -10, -10, -10, -10, -10, -10, -10, -10, -10, -10, -10, -10, -10, -10, -10, -10, -10, -10, -10, -10, -10, -10, -10, -10, -10, -10, -10, -10, -10, -10, -10, -10, -10, -10, -10, -10, -10, -10, -10, -10, -10, -10, -10, -10, -10, -10, -10, -10, -10, -10, -10, -10, -10, -10, -10, -10, -10, -10, -10, -10, -10, -10, -10, -10, -10, -10, -10, -10, -10, -10, -10, -10, -10, -10, -10, -10, -10, -10, -10, -10, -10, -10, -10, -10, -10, -10, -10, -10, -10, -10, -10, -10, -10, -10, -10, -10, -10, -10, -10, -10, -10, -10, -10, -10, -10, -10, -10, -10, -10, -10, -10, -10, -10, -10, -10, -10, -10, -10, -10, -10, -10, -10, -10, -10, -10, -10, -10, -10, -10, -10, -10, -10, -10, -10, -10, -10, -10, -10, -10, -10, -10, -10, -10, -10, -10, -10, -10, -10, -10, -10, -10, -10, -10, -10, -10, -10, -10, -10, -10, -10, -10, -10, -10, -10, -10, -10, -10, -10, -10, -10, -10, -10, -10, -10, -10, -10, -10, -10, -10, -10, -10, -10, -10, -10, -10, -10, -10, -10, -10, -10, -10, -10, -10, -10, -10, -10, -10, -10, -10, -10, -10, -10, -10, -10, -10, -10, -10, -10, -10, -10, -10, -10, -10, -10, -10, -10, 97.083336, 97, 96.770836, 96.4375, 96.0625, 95.571426, 94.184525, 93.488091, 92.235115, 91.571426, 90.851189, 90.428574, 89.803574, 88.952377, 88.419647, 88, 87.9375, 88.25, 88.469383, 88.708336, 88.794647, 88.9375, 88.875, 89.035713, 89.035713, 89.083336, 88.811226, 88.229164, 88.071426, 88.125, 88.0625, 87.9375, 88, 88, 88.125, 88.3125, 88.375, 88.4375, 88.64286, 88.375, 88.3125, 88.3125, 88.3125, 88.375, 88.4375, 88.4375, 88.375, 88.571426, 88.428574, 88.285713, 88.35714, 88.428574, 88.4375, 88.5625, 88.526787, 88.535713, 88.375, 88.5, 88.125, 88, 87.875, 87.6875, 87.8125, 87.9375, 88.107147, 88.1875, 88.125, 88.0625, 88.0625, 88.03125, 87.650513, 87.543373, 88.131248, 87.647957, 88.080353, 88.026787, 88.321426, 88.469383, 88.5, 88.25, 88.1875, 88.25, 88.1875, 88.285713, 88.10714, 87.92347, 87.75, 87.857147, 87.875, 87.5, 87.5, 87.416664, 87.416664, 87.650002, 87.650002, 87.650002, 87.550003, 87.333336, 87.333336, 87.333336, 87.5, 87.849998, 88.050003, 88.199997, 88.050003, 88.050003, 87.949997, 87.900002, 87.900002, 87.75, 87.75, 87.416664, 87.5, 87.583336, 87.583336, 87.666664, 87.583336, 87.5, 87.277779, -10, -10, -10, -10, -10, -10, -10, -10, -10, -10, -10, -10, -10, -10, -10, -10, -10, -10, -10, -10, -10, -10, -10, -10, -10, -10, -10, -10, -10, -10, -10, -10, -10, -10, -10, -10, -10, -10, -10, -10, -10, -10, -10, -10, -10, -10, -10, -10, -10, -10, -10, -10, -10, -10, -10, -10, -10, -10, -10, -10, -10, -10, -10, -10, -10, -10, -10, -10, -10, -10, -10, -10, -10, -10, -10, -10, -10, -10, -10, -10, -10, -10, -10, -10, -10, -10, -10, -10, -10, -10, -10, -10, -10, -10, -10, -10, -10, -10, -10, -10, -10, -10, -10, -10, -10, -10, -10, -10, -10, -10, -10, -10, -10, -10, -10, -10, -10, -10, -10, -10, -10, -10, -10, -10, -10, -10, -10, -10, -10, -10, -10, -10, -10, -10, -10, -10, -10, -10, -10, -10, -10, -10, -10, -10, -10, -10, -10, -10, -10, -10, -10, -10, -10, -10, -10, -10, -10, -10, -10, -10, -10, -10, -10, -10, -10, -10, -10, -10, -10, -10, -10, -10, -10, -10, -10, -10, -10, -10, -10, -10, -10, -10, -10, -10, -10, -10, -10
-10, -10, -10, -10, -10, -10, -10, -10, -10, -10, -10, -10, -10, -10, -10, -10, -10, -10, -10, -10, -10, -10, -10, -10, -10, -10, -10, -10, -10, -10, -10, -10, -10, -10, -10, -10, -10, -10, -10, -10, -10, -10, -10, -10, -10, 97.083336, 96.861115, 96.6875, 96.125, 95.64286, 94.291664, 93.642853, 92.723206, 92.071426, 91.351189, 90.866074, 90.241074, 89.505951, 89.089287, 88.8125, 88.9375, 89.0625, 89.25, 89.4375, 89.5, 89.625, 89.625, 89.625, 89.5625, 89.678574, 89.668373, 89.369041, 89.071426, 89.125, 88.821426, 88.734695, 88.955353, 88.883926, 88.875, 89, 89.125, 89.25, 89.375, 89.3125, 89.25, 89.25, 89.1875, 89.428574, 89.428574, 89.428574, 89.25, 89.25, 89.0625, 88.839287, 88.9375, 89.452385, 89.60714, 89.714287, 89.56633, 89.57653, 89.1875, 89.1875, 89.0625, 88.916664, 88.166664, 88.199997, 88.349998, 88.25, 88.333336, 88.416664, 88.333336, 88.333336, 88.416664, 88.458336, 88.866074, 88.866074, 88.959999, 88.910713, 88.828568, 88.771431, 88.900002, 89.028572, 89.050003, 88.900002, 88.849998, 88.900002, 88.849998, 88.800003, 88.650002, 88.471428, 88.449997, 88.471428, 88.166664, -10, -10, -10, -10, -10, -10, -10, -10, -10, -10, -10, -10, -10, -10, -10, -10, -10, -10, -10, -10, -10, -10, -10, -10, -10, -10, -10, -10, -10, -10, -10, -10, -10, -10, -10, -10, -10, -10, -10, -10, -10, -10, -10, -10, -10, -10, -10, -10, -10, -10, -10, -10, -10, -10, -10, -10, -10, -10, -10, -10, -10, -10, -10, -10, -10, -10, -10, -10, -10, -10, -10, -10, -10, -10, -10, -10, -10, -10, -10, -10, -10, -10, -10, -10, -10, -10, -10, -10, -10, -10, -10, -10, -10, -10, -10, -10, -10, -10, -10, -10, -10, -10, -10, -10, -10, -10, -10, -10, -10, -10, -10, -10, -10, -10, -10, -10, -10, -10, -10, -10, -10, -10, -10, -10, -10, -10, -10, -10, -10, -10, -10, -10, -10, -10, -10, -10, -10, -10, -10, -10, -10, -10, -10, -10, -10, -10, -10, -10, -10, -10, -10, -10, -10, -10, -10, -10, -10, -10, -10, -10, -10, -10, -10, -10, -10, -10, -10, -10, -10, -10, -10, -10, -10, -10, -10, -10, -10, -10, -10, -10, -10, -10, -10, -10, -10, -10, -10, -10, -10, -10, -10, -10, -10, -10, -10, -10, -10, -10, -10, -10, -10, -10, -10, -10, -10, -10, -10, -10, -10, -10, -10, -10, -10, -10, -10, -10, -10, -10, -10, -10, -10, -10, -10, -10, -10, -10, -10, -10, -10, -10, -10, -10, -10, -10, -10, -10, -10, -10, -10, -10, -10, -10, -10, -10, -10, -10, -10, -10, -10, -10, -10, -10, -10, -10, -10, -10, -10, -10, -10, -10, -10, -10, -10, -10, -10, -10, -10, -10, -10, -10, -10, -10, -10, -10, -10, -10, -10, -10, -10, -10, -10, -10, -10, -10, -10, -10, -10, -10, -10, -10, 96.833336, 96.25, 95.761902, 94.333336, 93.589279, 92.985123, 92.526779, 91.895836, 91.366074, 90.705353, 90.151779, 89.830353, 89.964287, 90.178574, 90.285713, 90.0625, 90.026787, 90, 90.0625, 90.1875, 90.3125, 90.375, 90.4375, 90.491074, 90.166664, 90.255104, 90.178574, 90.291664, 89.883926, 89.528572, 89.261902, 89.25, 89.333336, 89.5, 89.666664, 89.833336, 89.949997, 89.900002, 89.900002, 89.800003, 89.900002, 89.666664, 89.666664, 89.666664, 89.666664, 89.5, 89.285713, 89.416664, 89.777779, 90.099998, 90.25, 89.869049, 89.880951, 89.666664, 89.666664, 89.650002, 89.566666, -10, -10, -10, -10, -10, -10, -10, -10, -10, -10, -10, -10, -10, -10, -10, -10, -10, -10, -10, -10, -10, -10, -10, -10, -10, -10, -10, -10, -10, -10, -10, -10, -10, -10, -10, -10, -10, -10, -10, -10, -10, -10, -10, -10, -10, -10, -10, -10, -10, -10, -10, -10, -10, -10, -10, -10, -10, -10, -10, -10, -10, -10, -10, -10, -10, -10, -10, -10, -10, -10, -10, -10, -10, -10, -10, -10, -10, -10, -10, -10, -10, -10, -10, -10, -10, -10, -10, -10, -10, -10, -10, -10, -10, -10, -10, -10, -10, -10, -10, -10, -10, -10, -10, -10, -10, -10, -10, -10, -10, -10, -10, -10, -10, -10, -10, -10, -10, -10, -10, -10, -10, -10, -10, -10, -10, -10, -10, -10, -10, -10, -10, -10, -10, -10, -10, -10, -10, -10, -10, -10, -10, -10, -10, -10, -10, -10, -10, -10, -10, -10, -10, -10, -10, -10, -10, -10, -10, -10, -10, -10, -10, -10, -10, -10, -10, -10, -10, -10, -10, -10, -10, -10, -10, -10, -10, -10, -10, -10, -10, -10, -10, -10, -10, -10, -10, -10, -10, -10, -10, -10, -10, -10, -10, -10, -10, -10, -10, -10, -10, -10, -10, -10, -10, -10, -10, -10, -10, -10, -10, -10, -10, -10, -10, -10, -10, -10, -10, -10, -10, -10, -10, -10, -10, -10, -10, -10, -10, -10, -10, -10, -10, -10, -10, -10, -10, -10, -10, -10, -10, -10, -10, -10, -10, -10, -10, -10
-10, -10, -10, -10, -10, -10, -10, -10, -10, -10, -10, -10, -10, -10, -10, -10, -10, -10, -10, -10, -10, -10, -10, -10, -10, -10, -10, -10, -10, -10, -10, -10, -10, -10, -10, -10, -10, -10, -10, -10, -10, -10, -10, -10, -10, -10, -10, -10, -10, -10, -10, 93.738098, 93.063484, 92.60714, 92.083336, 91.583336, 90.940468, 90.440468, 90.449997, 90.5, 90.75, 90.800003, 90.5, 90.369049, 90.333336, 90.416664, 90.5, 90.583336, 90.583336, 90.583336, 90.900002, 90.849998, 90.800003, 90.75, 90.699997, -10, -10, -10, -10, -10, -10, -10, -10, -10, -10, -10, -10, -10, -10, -10, -10, -10, -10, -10, -10, -10, -10, -10, -10, -10, -10, -10, -10, -10, -10, -10, -10, -10, -10, -10, -10, -10, -10, -10, -10, -10, -10, -10, -10, -10, -10, -10, -10, -10, -10, -10, -10, -10, -10, -10, -10, -10, -10, -10, -10, -10, -10, -10, -10, -10, -10, -10, -10, -10, -10, -10, -10, -10, -10, -10, -10, -10, -10, -10, -10, -10, -10, -10, -10, -10, -10, -10, -10, -10, -10, -10, -10, -10, -10, -10, -10, -10, -10, -10, -10, -10, -10, -10, -10, -10, -10, -10, -10, -10, -10, -10, -10, -10, -10, -10, -10, -10, -10, -10, -10, -10, -10, -10, -10, -10, -10, -10, -10, -10, -10, -10, -10, -10, -10, -10, -10, -10, -10, -10, -10, -10, -10, -10, -10, -10, -10, -10, -10, -10, -10, -10, -10, -10, -10, -10, -10, -10, -10, -10, -10, -10, -10, -10, -10, -10, -10, -10, -10, -10, -10, -10, -10, -10, -10, -10, -10, -10, -10, -10, -10, -10, -10, -10, -10, -10, -10, -10, -10, -10, -10, -10, -10, -10, -10, -10, -10, -10, -10, -10, -10, -10, -10, -10, -10, -10, -10, -10, -10, -10, -10, -10, -10, -10, -10, -10, -10, -10, -10, -10, -10, -10, -10, -10, -10, -10, -10, -10, -10, -10, -10, -10, -10, -10, -10, -10, -10, -10, -10, -10, -10, -10, -10, -10, -10, -10, -10, -10, -10, -10, -10, -10, -10, -10, -10, -10, -10, -10, -10, -10, -10, -10, -10, -10, -10, -10, -10, -10, -10, -10, -10, -10, -10, -10, -10, -10, -10, -10, -10, -10, -10, -10, -10, -10, -10, -10, -10, -10, -10, -10, -10, -10, -10, -10, -10, -10, -10, -10, -10, -10, -10, -10, -10, -10, -10, -10, -10, -10, -10, -10, -10, -10, -10, -10, -10, -10, -10, -10, -10, -10, -10, -10, -10, -10, -10, -10, -10, -10, -10, -10, -10, -10, -10, -10, -10, -10, -10, -10, -10, -10, -10, -10, -10, -10, -10, -10, -10, -10, -10, -10, -10, -10, -10, -10, -10, -10, -10, -10, -10, -10, -10, -10, -10, -10, -10, -10, -10, -10, -10, -10, -10, -10, -10, -10, -10, -10, -10, -10, -10, -10, -10, -10, -10, -10, -10, -10, -10, -10, -10, -10, -10, -10, -10, -10, -10, -10, -10, -10, -10, -10, -10, -10, -10, -10, -10, -10, -10, -10, -10, -10, -10, -10, -10, -10, -10, -10, -10, -10, -10, -10, -10, -10, -10, -10, -10, -10, -10, -10, -10, -10, -10, -10, -10, -10, -10, -10, -10, -10, -10, -10, -10, -10, -10, -10, -10, -10, -10, -10, -10, -10, -10, -10, -10, -10, -10, -10, -10, -10, -10, -10, -10, -10, -10, -10, -10, -10, -10, -10, -10, -10, -10, -10, -10, -10, -10, -10, -10, -10, -10, -10, -10, -10, -10, -10, -10, -10, -10, -10, -10, -10, -10, -10, -10, -10, -10, -10, -10, -10, -10, -10, -10, -10, -10, -10, -10, -10, -10, -10, -10, -10, -10, -10, -10, -10, -10, -10, -10, -10, -10, -10, -10, -10, -10, -10, -10, -10, -10, -10, -10, -10, -10, -10, -10, -10, -10, -10, -10, -10, -10, -10, -10, -10, -10, -10, -10, -10, -10, -10, -10, -10, -10, -10, -10, -10, -10, -10, -10, -10, -10, -10, -10, -10, -10, -10, -10, -10, -10, -10, -10, -10, -10, -10, -10, -10, -10, -10, -10, -10, -10, -10, -10, -10, -10, -10, -10, -10, -10, -10, -10, -10, -10, -10, -10, -10, -10, -10, -10, -10, -10, -10, -10, -10, -10, -10, -10, -10, -10, -10, -10, -10, -10, -10, -10, -10, -10, -10, -10, -10, -10, -10, -10, -10, -10, -10, -10, -10, -10, -10, -10, -10, -10, -10, -10, -10, -10, -10, -10, -10, -10, -10, -10, -10, -10, -10, -10, -10, -10, -10, -10, -10, -10, -10
