-10, -10, -10, -10, 71.583328, 71.60714, 71.714287, 71.714287, 71.64286, 71.64286, 71.5, 71.464287, 71.464287, 71.428574, 71.285713, 71.375, 71.375, 71.3125, 71, 71, 71.3125, 71.530617, 71.571426, 71.535713, 71.571426, 71.535713, 71.428574, 71.125, 71.125, 71.125, 71.1875, 71.39286, 71.428574, 71.39286, 71.35714, 71.35714, 71.321426, 71.428574, 71.25, 71.375, 71.60714, 71.571426, 71.60714, 71.60714, 71.64286, 71.632652, 71.64286, 71.678574, 71.67347, 71.544647, 71.5, 71.4375, 71.4375, 71.4375, 71.5, 71.625, 71.625, 71.6875, 71.625, 71.375, 71.241074, 70.85714, 71.0625, 71.489799, 71.39286, 71.39286, 71.39286, 71.464287, 71.5, 71.3125, 71.3125, 71.3125, 71.375, 71.375, 71.571426, 71.64286, 71.714287, 71.785713, 71.333336, 71.428574, 71.209183, 71.071426, 71.071426, 71.14286, 71.214287, 71.43367, 71.571426, 71.678574, 71.678574, 71.571426, 71.464287, 71.39286, 71.428574, 71.535713, 71.535713, 71.35714, 71.14286, 70.75, 70.75, 70.875, 70.875, 70.9375, 71.0625, 71.0625, 71.0625, 70.955353, 70.875, 71.14286, 71.285713, 71.35714, 71.239799, 70.951782, 71.116074, 71, 71.142853, 71.321426, 71.428574, 71.5, 71.571426, 71.505104, 71.306122, 71.224487, 70.9375, 71, 71, 71, 71.5, 71.416664, 71.35714, 71.464287, 71.428574, 71.5, 71.428574, 71.1875, 71.0625, 70.875, 71.035713, 71, 71.14286, 71.39286, 71.35714, 71.321426, 71.285713, 70.9375, 70.875, 70.9375, 71, 71.125, 71.125, 71.125, 71.39286, 71.464287, 71.60714, 71.60714, 71.60714, 71.571426, 71.5, 71.35714, 71.321426, 71.367348, 71.666672, 71.846939, 71.821426, 71.571426, 71.352043, 71.285713, 71.0625, 71.25, 71.3125, 71.375, 71.60714, 71.535713, 71.418373, 71.10714, 71.10714, 71.051018, 71.10714, 71.285713, 71.39286, 71.5, 71.571426, 71.571426, 71.5, 71.5, 71.25, 71.0625, 70.9375, 70.9375, 71.0625, 71.1875, 71.25, 71.428574, 71.583336, 71.25, 71.35714, 71.39286, 71.321426, 71.35714, 71.285713, 71.14286, 71.178574, 71.178574, 71.214287, 71.125, 70.785713, 71.0625, 71.178574, 71.035713, 70.8125, 70.75, 70.9375, 71.0625, 71.39286, 71.469383, 71.541664, 71.684525, 71.5, 71.5, 71, 70.875, 70.75, 70.6875, 70.625, 70.903061, 71.157143, 71.026779, 71.5, 71, 70.830353, 70.758926, 71.083336, 71.169647, 71.1875, 71.0625, 70.8125, 70.8125, 70.875, 71, 71.285713, 71.321426, 71.35714, 71.321426, 71.214287, 71.25, 71.214287, 71.178574, 71.285713, 71, 70.9375, 70.875, 70.8125, 70.875, 71.285713, 71.540817, 71.5, 71.369041, 71.1875, 71.169647, 71.25, 71, 70.918373, 70.714287, 70.75, 70.678574, 70.75, 70.75, 70.9375, 71, 71.125, 71.25, 71.419647, 71.571426, 71.64286, 71.535713, 71.25, 71.0625, 71, 71.0625, 71.125, 71.178574, 70.452385, 70.045921, 69.93367, 70.238098, 70.301018, 70.625, 70.6875, 70.75, 70.9375, 71.125, 71.3125, 71.5625, 71.8125, 72.125, 72.3125, 72.5625, 72.75, 72.9375, 73.375, 73.625, 73.875, 74.39286, 74.794647, 75.092262, 75.395836, 75.660713, 75.741074, 75.9375, 76.125, 76.4375, 76.8125, 77.1875, 77.5, 77.8125, 78, 78.125, 78.4375, 78.59375, 78.90625, 79.361603, 80.157738, 80.675003, -10, -10, -10, -10, -10, -10, -10, -10, -10, -10, -10, -10, -10, -10, -10, -10, -10, -10, -10, -10, -10, -10, -10, -10, -10, -10, -10, -10, -10, -10, -10, -10, -10, -10, -10, -10, -10, -10, -10, -10, -10, -10, -10, -10, -10, -10, -10, -10, -10, -10, -10, -10, -10, -10, -10, -10, -10, -10, 72.133331, 72.678574, 72.75, 72.75, 72.714287, 72.714287, 72.571426, 72.3125, 72.25, 72.125, 72.125, 72.1875, 72.25, 72.571426, 72.833336, 72.833336, 72.60714, 72.401787, 72.4375, 72.4375, 72.714287, 72.4375, 72.3125, 72.1875, 72.125, 72.0625, 72.0625, 72.125, 72.25, 72.348213, 72.375, 72.375, 72.25, 72.3125, 72.535713, 72.60714, 72.678574, 72.678574, 72.714287, 72.714287, 72.714287, 72.714287, 72.5625, 72.5625, 72.5, 72.375, 72.25, 72.1875, 72.25, 72.5, 72.571426, 72.64286, 72.64286, 72.5625, 72.5625, 72.375, 72.438774, 72.625, 72.1875, 72.366074, 72.3125, 72.3125, 72.25, 72.25, 72.25, 72.25, 72.428574, 72.428574, 72.5, 72.535713, 72.571426, 72.714287, 72.785713, 72.85714, 72.958336, 72.571426, 72.387756, 72.0625, 72.0625, 72.125, 72.1875, 72.540817, 72.571426, 72.64286, 72.64286, 72.60714, 72.64286, 72.60714, 72.535713, 72.5, 72.428574, 72.214287, 72.035713, 71.85714, 71.625, 71.75, 71.8125, 71.64286, 72, 72, 72.0625, 72.285713, 72.214287, 72.214287, 72.321426, 72.39286, 72.346939, 72.337753, 72.489799, 72.285713, 72.413261, 72.428574, 72.535713, 72.3125, 72.3125, 72.160713, 71.892853, 71.821426, 71.928574, 72, 72, 72.071426, 72.214287, 72.214287, 72.321426, 72.35714, 72.428574, 72.464287, 72.464287, 72.464287, 72.321426, 72.214287, 72, 72.25, 72.39286, 72.571426, 72.535713, 72.464287, 72.321426, 72.071426, 72, 71.78125, 71.875, 72, 72.178574, 72.214287, 72.25, 72.39286, 72.571426, 72.64286, 72.714287, 72.714287, 72.678574, 72.571426, 72.535713, 72.469383, 72.458336, 72.553574, 72.5, 72.3125, 72.026787, 71.9375, 71.9375, 72.125, 72.1875, 72.25, 72.3125, 72.28125, 72.507652, 72.303574, 72.09375, 72.044647, 71.785713, 72.1875, 72.428574, 72.1875, 72.1875, 72.125, 72.0625, 72.285713, 72.25, 72.14286, 72.035713, 72, 72.178574, 72.25, 72.285713, 72.321426, 72.214287, 72.14286, 72.25, 72.285713, 72.178574, 72, 72, 71.9375, 72, 72.25, 72.25, 72.285713, 72.5, 72.35714, 72.25, 72.071426, 72, 71.928574, 72.035713, 72.178574, 72.321426, 72.43367, 72.428574, 72.551018, 72.35714, 72.285713, 72.071426, 71.928574, 71.928574, 71.928574, 71.928574, 71.581627, 71.800003, 72.089279, 72.571426, 72.35714, 72.234695, 72.178574, 72.25, 72.25, 72.178574, 72.035713, 71.85714, 71.928574, 72.071426, 71.714287, 72.39286, 72.39286, 72.39286, 72.25, 72, 71.830353, 71.875, 71.8125, 71.9375, 71.8125, 71.8125, 71.8125, 71.75, 71.875, 72.0625, 72.223213, 72.125, 72.238091, 72.178574, 72.132652, 72.25, 72.5, 72.535713, 72.5, 72.583336, 72.541664, 72.583336, 72.625, 72.168373, 71.904762, 71.767853, 71.6875, 71.9375, 72.125, 72.294647, 72.3125, 72.25, 72.0625, 71.9375, 71.9375, 71.9375, 71.928574, 71.930557, 71.797615, 71.773804, 71.888893, 71.622452, 71.4375, 71.4375, 71.375, 71.4375, 71.580353, 71.8125, 72.125, 72.4375, 72.625, 72.75, 72.875, 73, 73.1875, 73.625, 73.875, 74.0625, 74.51786, 74.857147, 75.163689, 75.708336, 75.973213, 76.178574, 76.3125, 76.4375, 76.6875, 77, 77.375, 77.6875, 78.0625, 78.25, 78.375, 78.625, 78.71875, 78.90625, 79.236603, 79.916664, 80.425003, -10, -10, -10, -10, -10, -10, -10, -10, -10, -10, -10
-10, -10, -10, -10, -10, 73.714287, 73.5625, 73.5625, 73.5625, 73.5625, 73.64286, 73.64286, 73.3125, 73.125, 73.017853, 73, 73.0625, 73.464287, 73.571426, 73.64286, 73.64286, 73.56633, 73.64286, 73.64286, 73.714287, 73.64286, 73.535713, 73.428574, 73.428574, 73.35714, 73.125, 73.25, 73.375, 73.719383, 73.75, 73.714287, 73.464287, 73.5, 73.571426, 73.60714, 73.714287, 73.714287, 73.714287, 73.64286, 73.571426, 73.5, 73.5, 73.571426, 73.571426, 73.3125, 73.25, 73.1875, 73.25, 73.571426, 73.64286, 73.678574, 73.678574, 73.714287, 73.714287, 73.535713, 73.42347, 73.428574, 73.367348, 73.530617, 73.5, 73.5, 73.1875, 73.1875, 73.1875, 73.5, 73.60714, 73.535713, 73.448975, 73.464287, 73.3125, 73.714287, 73.85714, 73.928574, 73.821426, 73.64286, 73.494896, 73.35714, 73.35714, 73.35714, 73.35714, 73.505104, 73.5, 73.60714, 73.4375, 73.4375, 73.714287, 73.714287, 73.4375, 73.3125, 73.1875, 72.9375, 72.75, 72.625, 72.785713, 72.89286, 73.035713, 73.375, 73.321426, 73.35714, 73.428574, 73.428574, 73.285713, 73.25, 73.285713, 73.125, 73.387756, 73.487755, 73.602043, 73.469383, 73.556114, 73.535713, 73.535713, 73.464287, 73.1875, 73.0625, 72.714287, 72.714287, 72.875, 72.875, 72.875, 72.9375, 73.125, 73.125, 73.125, 73.125, 73.1875, 73.1875, 73.5, 73.464287, 73.285713, 73.214287, 73.10714, 73.214287, 73.39286, 73.571426, 73.571426, 73.5, 73.1875, 73, 73.14286, 72.84375, 73.071426, 73.14286, 73.214287, 73.0625, 73.0625, 73.1875, 73.3125, 73.375, 73.714287, 73.714287, 73.714287, 73.678574, 73.60714, 73.464287, 73.39286, 73.1875, 73.125, 73.0625, 72.9375, 72.875, 73.10714, 73.25, 73.306114, 73.199997, 73.133926, 73.205353, 73.387756, 73.285713, 73.25, 73.132652, 73.375, 73.285713, 73.125, 73.0625, 72.9375, 72.875, 72.9375, 73.0625, 73.125, 72.85714, 72.714287, 72.916664, 73.25, 73, 72.9375, 72.964287, 73.044647, 73.053574, 72.928574, 73.125, 72.9375, 72.875, 72.875, 73.071426, 73, 73.0625, 73.285713, 73.321426, 73.35714, 73.321426, 73.260201, 73.321426, 73.178574, 73.17347, 73.178574, 73.285713, 73.25, 73.348213, 73.375, 73.482147, 73.241074, 73.050003, 72.991074, 72.866074, 73.214287, 73.14286, 73.071426, 73.375, 73.416664, 73.367348, 73.571426, 73.39286, 73.234688, 73.14286, 73.178574, 73.25, 73.25, 73.178574, 73.14286, 73.178574, 73.214287, 73.458336, 73.285713, 73.0625, 73.125, 73.0625, 72.60714, 72.591835, 72.64286, 72.64286, 73.0625, 73, 73.14286, 73.10714, 73.291664, 73, 72.875, 72.9375, 72.9375, 73.0625, 73, 72.9375, 73.25, 73.285713, 73.428574, 73.571426, 73.64286, 73.571426, 73.571426, 73.571426, 73.382652, 72.601189, 72.591835, 72.5, 72.696426, 72.875, 73.294647, 73.535713, 73.5, 73.39286, 73.178574, 73.14286, 72.875, 72.803574, 72.833336, 72.744896, 72.724487, 72.64286, 72.602043, 72.729591, 72.811226, 72.704086, 72.166664, 72.151787, 72.1875, 72.464287, 72.857147, 73.053574, 73.3125, 73.40625, 73.46875, 73.65625, 73.96875, 74.1875, 74.4375, 74.866074, 75.053574, 75.392853, 75.895836, 75.919647, 76.125, 76.25, 76.544647, 76.875, 77.375, 77.625, 77.875, 78.1875, 78.375, 78.5625, 78.75, 78.78125, 78.84375, 79.049103, 79.760414, 80.050003, -10, -10, -10, -10, -10, -10, -10, -10, -10, -10, -10, -10, -10, -10, -10, -10, -10, -10, -10, -10, -10, -10, -10, -10, -10, -10, -10, -10, -10, -10, -10, -10, -10, -10, -10, -10, -10, -10, -10, -10, -10, -10, -10, -10, -10, -10, -10, -10, -10, -10, -10, -10, -10, -10, -10, -10, -10, -10, -10, 74.199997, 74.571426, 74.619041, 74.64286, 74.714287, 74.678574, 74.714287, 74.60714, 74.428574, 74.306114, 74.25, 74, 74.1875, 74.3125, 74.375, 74.4375, 74.401787, 74.678574, 74.678574, 74.714287, 74.678574, 74.64286, 74.60714, 74.535713, 74.39286, 74.321426, 74.39286, 74.60714, 74.755104, 74.714287, 74.60714, 74.321426, 74.321426, 74.25, 74.3125, 74.64286, 74.714287, 74.714287, 74.4375, 74.375, 74.3125, 74.3125, 74.3125, 74.535713, 74.5, 74.428574, 74.5, 74.535713, 74.64286, 74.714287, 74.714287, 74.714287, 74.714287, 74.714287, 74.60714, 74.339287, 74.375, 74.267853, 74.60714, 74.60714, 74.60714, 74.5, 74.464287, 74.5, 74.60714, 74.714287, 74.64286, 74.392853, 74.375, 74.375, 74.5, 74.5625, 74.625, 74.5625, 74.5, 74.401787, 74.571426, 74.535713, 74.428574, 74.125, 74.223213, 74.25, 74.375, 74.64286, 74.64286, 74.714287, 74.714287, 74.64286, 74.3125, 74.125, 73.875, 73.625, 73.5, 73.714287, 73.85714, 74.14286, 74.35714, 74.535713, 74.535713, 74.5, 74.464287, 74.035713, 73.901787, 73.9375, 73.9375, 74.285713, 74.214287, 74.25, 74.32653, 74.438774, 74.5, 74.535713, 74.60714, 74.571426, 74.464287, 74.666664, 74.5, 74.14286, 74.10714, 74.10714, 74.321426, 74.397957, 74.270401, 74.153061, 73.875, 73.9375, 74, 74.125, 74.125, 74, 73.9375, 73.8125, 74.10714, 74.214287, 74.321426, 74.321426, 74.367348, 74.407143, 74.153061, 74.234688, 74.10714, 74.14286, 74.03125, 74.09375, 74.1875, 74.125, 74.125, 74.1875, 74.25, 74.64286, 74.64286, 74.64286, 74.64286, 74.375, 74.3125, 74.25, 74.125, 74, 73.875, 73.928574, 73.928574, 74, 74, 74.080353, 74.407143, 74.133926, 74.205353, 74.25, 74.25, 74.1875, 74, 74.214287, 74.178574, 73.9375, 73.875, 73.75, 73.6875, 73.75, 73.9375, 74.0625, 74.5, 74.375, 74.291664, 74.10714, 73.875, 73.8125, 73.901787, 74.080353, 74.178574, 74.75, 74.1875, 74.0625, 74.14286, 74.10714, 74.071426, 74.035713, 74.071426, 74, 74.125, 74.25, 74.25, 74.196426, 74.464287, 74.35714, 74.42347, 74.321426, 74.35714, 74.39286, 74.428574, 74.571426, 74.571426, 74.241074, 74.050003, 74.116074, 74.275513, 74.35714, 74.25, 74.214287, 74.285713, 74.285713, 74.397957, 74.3125, 74.1875, 74.142853, 74.0625, 74, 74, 74, 74.214287, 74.25, 74.285713, 74.285713, 74.285713, 74.321426, 73.785713, 74.125, 74.0625, 74.333336, 74.303566, 74.333336, 74.333336, 74.285713, 74.35714, 74.35714, 74.35714, 74.35714, 73.916664, 73.64286, 73.64286, 73.875, 73.9375, 73.875, 73.8125, 74, 74.0625, 74.1875, 74.5, 74.3125, 74.25, 74.25, 74.3125, 74.418373, 74.569443, 74.553566, 74.375, 74.416664, 74.458336, 74.372452, 74.464287, 74.428574, 74.321426, 74.214287, 74.214287, 74.14286, 74.10714, 73.678574, 73.663261, 73.901787, 73.464287, 73.589287, 73.908165, 73.882652, 73.739799, 73.104164, 72.964287, 72.96875, 73.214287, 73.607147, 73.803574, 74.0625, 74.15625, 74.21875, 74.40625, 74.59375, 74.75, 74.875, 75.178574, 75.303574, 75.580353, 76.020836, 76.044647, 76.3125, 76.4375, 76.732147, 77.071426, 77.708336, 77.857147, 78.0625, 78.3125, 78.5, 78.75, 78.9375, 78.9375, 78.875, 78.955353, 79.572914, 79.862503, -10, -10, -10, -10, -10, -10, -10, -10, -10, -10, -10
-10, -10, -10, -10, -10, -10, 74.833336, 75.333328, 75.604164, 75.85714, 75.785713, 75.785713, 75.75, 75.64286, 75.448975, 75.35714, 75.25, 75.0625, 75.125, 75.1875, 75.3125, 75.64286, 75.714287, 75.714287, 75.714287, 75.714287, 75.64286, 75.571426, 75.25, 75.125, 75.35714, 75.5, 75.678574, 75.473213, 75.4375, 75.3125, 75.125, 74.928574, 75.25, 75.3125, 75.375, 75.571426, 75.5, 75.428574, 75.428574, 75.35714, 75.428574, 75.25, 75.3125, 75.60714, 75.571426, 75.64286, 75.64286, 75.678574, 75.714287, 75.714287, 75.714287, 75.64286, 75.64286, 75.571426, 75.5, 75.571426, 75.571426, 75.64286, 75.714287, 75.714287, 75.60714, 75.5, 75.5, 75.5, 75.535713, 75.535713, 75.484688, 75.535713, 75.60714, 75.64286, 75.4375, 75.4375, 75.375, 75.64286, 75.64286, 75.64286, 75.4375, 75.3125, 75.1875, 75.1875, 75.1875, 75.464287, 75.535713, 75.464287, 75.464287, 75.535713, 75.571426, 75.535713, 75.39286, 75.214287, 74.666664, 74.35714, 74.428574, 74.571426, 75.125, 75.25, 75.5, 75.25, 75.125, 75.125, 74.973213, 74.901787, 74.714287, 74.714287, 75.1875, 75.25, 75.1875, 75.1875, 75.25, 75.25, 75.3125, 75.60714, 75.64286, 75.678574, 75.714287, 75.571426, 75.35714, 75.214287, 75.214287, 75.39286, 75.505104, 75.448975, 75.008926, 74.8125, 74.8125, 74.75, 74.875, 74.875, 74.8125, 74.8125, 74.8125, 74.875, 74.9375, 75.0625, 75.0625, 75.196426, 75.549995, 75.071426, 75.306114, 75.125, 75.10714, 75.25, 75.35714, 75.410713, 75.35714, 75.321426, 75.35714, 75.25, 75.4375, 75.375, 75.3125, 75.25, 75.125, 75.321426, 75.321426, 75.214287, 75.178574, 75.10714, 75, 75, 74.75, 74.875, 75.234688, 75.442856, 75.438774, 75.520401, 75.464287, 75.5, 75.5, 75.125, 75.0625, 75, 74.9375, 74.9375, 75.035713, 74.928574, 74.928574, 75, 75.14286, 75.18367, 75.030617, 75.071426, 74.857147, 74.875, 75.10714, 75.209183, 75.448975, 75.561226, 75.64286, 75.5, 75.428574, 75.285713, 75.178574, 74.875, 74.8125, 74.875, 74.9375, 75.214287, 75.321426, 75.25, 75.224487, 75.464287, 75.321426, 75.387756, 75.285713, 75.214287, 75.25, 75.321426, 75.428574, 75.428574, 75.346939, 75.092857, 75.275513, 75.346939, 75.39286, 75.285713, 75.0625, 75.125, 75.1875, 75.25, 75.1875, 75.0625, 75, 75, 75, 75, 75, 75.25, 75.25, 75.214287, 75.0625, 75.0625, 75.0625, 75.375, 75.071426, 75.102043, 75.193886, 75.285713, 75.428574, 75.35714, 75.464287, 75.464287, 75.35714, 75.321426, 75.214287, 75.375, 75.416664, 75.458336, 75.285713, 75.285713, 75.214287, 74.833336, 75.178574, 74.9375, 75.03125, 75.125, 75.125, 75.125, 74.946426, 75.035713, 75.272324, 75.437073, 75.367348, 75.25, 75.25, 75.25, 75.346939, 75.1875, 75.25, 75, 75.125, 75.35714, 75.321426, 75.285713, 75.625, 75.547615, 75.17347, 75.291664, 74.887756, 74.979599, 74.709824, 74.811226, 74.333328, 73.901787, 73.90625, 74.089287, 74.589287, 75.025513, 75.39286, 75.5, 75.535713, 75.64286, 75.40625, 75.4375, 75.5, 75.5625, 75.625, 75.821426, 76.0625, 76.1875, 76.5, 76.6875, 77.044647, 77.321426, 77.895836, 78.044647, 78.1875, 78.375, 78.5625, 78.75, 78.9375, 79, 79.0625, 79.1875, 79.59375, 79.925003, 80.732147, 81.199997, -10, -10, -10, -10, -10, -10, -10, -10, -10, -10, -10, -10, -10, -10, -10, -10, -10, -10, -10, -10, -10, -10, -10, -10, -10, -10, -10, -10, -10, -10, -10, -10, -10, -10, -10, -10, -10, -10, -10, -10, -10, -10, -10, -10, -10, -10, -10, -10, -10, -10, -10, -10, -10, -10, -10, -10, -10, -10, -10, 77.111107, 76.833328, 76.85714, 76.714287, 76.5, 76.5, 76.64286, 76.581627, 76.535713, 76.428574, 76.321426, 76.464287, 76.5, 76.60714, 76.75, 76.64286, 76.571426, 76.5, 76.428574, 76.1875, 76.1875, 76.1875, 76.223213, 76.3125, 76.4375, 76.5, 76.40625, 76.28125, 76.09375, 76.14286, 76.458336, 76.39286, 76.535713, 76.375, 76.3125, 76.1875, 76.0625, 76.285713, 76.321426, 76.464287, 76.5, 76.535713, 76.64286, 76.64286, 76.714287, 76.64286, 76.64286, 76.571426, 76.571426, 76.64286, 76.375, 76.4375, 76.60714, 76.571426, 76.64286, 76.571426, 76.535713, 76.571426, 76.571426, 76.375, 76.375, 76.375, 76.3125, 76.25, 76.1875, 76.080353, 76.428574, 76.571426, 76.535713, 76.571426, 76.571426, 76.535713, 76.678574, 76.60714, 76.60714, 76.571426, 76.464287, 76.428574, 76.428574, 76.5, 76.535713, 76.375, 76.3125, 76.28125, 76.34375, 76.34375, 76.5, 76.35714, 76.25, 76.25, 76.291664, 76.375, 76.416664, 76.464287, 76.5, 76.3125, 76.25, 75.85714, 76.125, 76.255104, 76.244896, 76.5, 76.5, 76.39286, 76.321426, 76.25, 76, 76.0625, 76.125, 76.39286, 76.535713, 76.535713, 76.535713, 76.571426, 76.5, 76.39286, 76.285713, 76.285713, 76.35714, 76.362244, 76.341835, 76.224487, 76.071426, 75.8125, 75.625, 75.5, 75.416664, 75.604164, 75.705353, 76.071426, 76.10714, 75.9375, 76.0625, 76.0625, 76.331627, 76.478569, 76.260201, 76.080353, 76, 76.03125, 76.410713, 76.51786, 76.28125, 76.39286, 76.25, 76.178574, 76.25, 76.35714, 76.125, 76.09375, 76.09375, 76.03125, 76.15625, 76.39286, 76.321426, 76.321426, 76.25, 76.14286, 76.071426, 75.8125, 75.875, 76.080353, 76.324997, 76.612244, 76.653061, 76.60714, 76.60714, 76.60714, 76.428574, 76.25, 76.10714, 76.035713, 76.035713, 76, 75.928574, 75.89286, 75.8125, 76, 76.098213, 75.744896, 76.0625, 76.044647, 76.285713, 76.35714, 76.408157, 76.530617, 76.530617, 76.5, 76.39286, 76.35714, 76.214287, 76.14286, 75.875, 75.875, 76.214287, 76.285713, 76.35714, 76.428574, 76.39286, 76.133926, 76.375, 76.1875, 76.151787, 76.0625, 76, 76.0625, 76.125, 76.1875, 76.1875, 76.178574, 75.987503, 76.116074, 76.116074, 76.0625, 76, 76.214287, 76.285713, 76.428574, 76.464287, 76.1875, 76, 75.875, 76.071426, 76, 76.035713, 76.071426, 76, 76.0625, 76.0625, 76.125, 76.0625, 76.321426, 76.285713, 75.678574, 75.964287, 76.044647, 76.116074, 76.285713, 76.125, 76.160713, 76.017853, 75.821426, 75.75, 75.75, 76.193886, 76.285713, 76.35714, 76.321426, 76.214287, 76.14286, 76.333336, 76.214287, 76.214287, 76.09375, 76.125, 76.125, 76.321426, 76.666664, 76.75, 76.553574, 76.424103, 76.375, 76.3125, 76.28125, 76.21875, 76.25, 76.25, 76.25, 76.666664, 76.39286, 76.464287, 76.5, 76.535713, 76.60714, 76.540817, 76.295914, 76.06633, 75.836731, 75.607147, 75.647324, 75.616074, 75.523811, 75.32653, 75, 75.479591, 76.040817, 76.387756, 76.678574, 76.76786, 76.696426, 76.73214, 76.589287, 76.535713, 76.3125, 76.241074, 76.125, 76.25, 76.25, 76.5, 76.928574, 77.178574, 77.357147, 77.633926, 78.208336, 78.357147, 78.5, 78.5625, 78.75, 78.9375, 79.125, 79.25, 79.3125, 79.375, 79.65625, 79.875, 80.571434, 81.049995, -10, -10, -10, -10, -10, -10, -10, -10, -10
-10, -10, -10, -10, -10, -10, -10, 77.533333, 77.583328, 77.571426, 77.3125, 77.3125, 77.375, 77.375, 77.571426, 77.571426, 77.535713, 77.5, 77.64286, 77.64286, 77.60714, 77.64286, 77.3125, 77.25, 77.25, 77, 76.928574, 77.1875, 77.39286, 77.397957, 77.428574, 77.428574, 77.321426, 77.285713, 77.321426, 77.071434, 77.125, 77.25, 77.60714, 77.571426, 77.464287, 77.1875, 77.0625, 77.0625, 77.1875, 77.25, 77.375, 77.535713, 77.464287, 77.464287, 77.464287, 77.5, 77.3125, 77.375, 77.3125, 77.375, 77.4375, 77.3125, 77.571426, 77.571426, 77.571426, 77.64286, 77.375, 77.3125, 77.3125, 77.375, 77.375, 77.571426, 77.5, 77.1875, 77.125, 77.125, 76.928574, 77.3125, 77.4375, 77.3125, 77.535713, 77.535713, 77.535713, 77.64286, 77.375, 77.375, 77.535713, 77.571426, 77.535713, 77.464287, 77.428574, 77.321426, 77.35714, 77.35714, 77.39286, 77.535713, 77.34375, 77.34375, 77.1875, 77.0625, 77.214287, 77.25, 77.39286, 77.5, 77.571426, 77.535713, 77.428574, 77.25, 77.333336, 77.214287, 77.234688, 77.265312, 77.285713, 77.25, 77.321426, 77.321426, 77.321426, 77.25, 77.321426, 77.285713, 77.1875, 77.3125, 77.3125, 77.14286, 77.14286, 77.3125, 77.25, 77.1875, 77.1875, 77.035713, 77.040817, 77.020401, 77.214287, 77.35714, 77.214287, 76.666664, 76.178574, 76.154762, 76.976189, 77.020401, 77.214287, 77.14286, 77.14286, 77.214287, 77.214287, 77.255104, 77.137497, 77.255104, 77.080353, 77.35714, 77.35714, 77.39286, 77.39286, 77.25, 77, 76.875, 76.8125, 76.9375, 77.0625, 77.0625, 77.09375, 77.09375, 77.09375, 77.28125, 77.3125, 77.39286, 77.428574, 77.39286, 77.285713, 77.285713, 77.14286, 77.178574, 77.35714, 77.535713, 77.714287, 77.64286, 77.571426, 77.571426, 77.571426, 77.535713, 77.428574, 77.25, 77.10714, 76.875, 76.875, 76.875, 76.571426, 76.875, 77.14286, 77.112244, 77.26786, 77.214287, 77.336739, 77.5, 77.60714, 77.60714, 77.410713, 77.375, 77.071426, 77, 77, 76.85714, 77, 77.178574, 77.214287, 77.35714, 77.464287, 77.5, 77.535713, 77.5, 77.428574, 77.428574, 77.125, 77.0625, 77.0625, 77.0625, 77.0625, 77.125, 77.125, 77.0625, 77.125, 77, 77, 77, 76.8125, 76.8125, 77.071426, 77.14286, 77.285713, 77.285713, 77.214287, 77.14286, 76.9375, 77, 76.714287, 76.714287, 76.714287, 77.0625, 77.285713, 77.285713, 77.428574, 77.428574, 77.464287, 77.25, 77.321426, 77.089287, 77.035713, 76.866074, 76.875, 76.8125, 76.973213, 76.892853, 76.581627, 76.591843, 76.830353, 77.0625, 77.0625, 77.1875, 77.1875, 77.0625, 76.785713, 77.285713, 77.25, 77.178574, 77.214287, 77.178574, 77.214287, 77.35714, 77.39286, 77.464287, 77.428574, 77.341835, 77.321426, 77.285713, 77.35714, 77.285713, 77.285713, 77.35714, 77.39286, 77.5, 77.535713, 77.571426, 77.60714, 77.571426, 77.375, 77.348213, 77.133926, 77.026787, 76.571426, 76.39286, 76.59375, 76.75, 76.64286, 76.535713, 76.8125, 76.785713, 77.265312, 77.571426, 77.821426, 77.85714, 77.785713, 77.785713, 77.678574, 77.60714, 77.464287, 77.053574, 76.875, 76.9375, 76.75, 77.375, 77.5625, 77.6875, 77.8125, 77.883926, 78.270836, 78.482147, 78.625, 78.8125, 79, 79.1875, 79.4375, 79.5625, 79.625, 79.75, 80, 80.25, 80.678574, 81.216072, 81.399994, -10, -10, -10, -10, -10, -10, -10, -10, -10, -10, -10, -10, -10, -10, -10, -10, -10, -10, -10, -10, -10, -10, -10, -10, -10, -10, -10, -10, -10, -10, -10, -10, -10, -10, -10, -10, -10, -10, -10, -10, -10, -10, -10, -10, -10, -10, -10, -10, -10, -10, -10, -10, -10, -10, -10, -10, -10, -10, -10, 77.888885, 78.125, 78.128578, 78.383926, 78.5, 78.4375, 78.60714, 78.60714, 78.60714, 78.64286, 78.75, 78.75, 78.678574, 78.366074, 78.112503, 78.178574, 78.178574, 78.666664, 78.625, 78.428574, 78.535713, 78.505104, 78.428574, 78.125, 78, 78.03125, 78.39286, 78.788689, 78.854164, 78.916664, 78.714287, 78.375, 78.25, 78.35714, 78.25, 78.321426, 78.428574, 78.5, 78.60714, 78.535713, 78.25, 78.25, 78.25, 78.3125, 78.3125, 78.375, 78.3125, 78.571426, 78.64286, 78.535713, 78.60714, 78.60714, 78.60714, 78.4375, 78.375, 78.3125, 78.25, 78.5, 78.535713, 78.571426, 78.571426, 78.464287, 78.39286, 78.35714, 78.583336, 78.464287, 78.571426, 78.3125, 78.3125, 78.25, 78.1875, 78.1875, 78.1875, 78.25, 78.3125, 78.571426, 78.25, 78.125, 78.169647, 78.116074, 78.1875, 78.464287, 78.51786, 78.625, 78.589287, 78.48214, 78.125, 78.0625, 78.0625, 78.1875, 78.375, 78.64286, 78.4375, 78.60714, 78.5, 78.39286, 78.35714, 78.39286, 78.1875, 78.25, 78.25, 78.21875, 78.25, 78.25, 78.39286, 78.35714, 78.39286, 78.35714, 78.39286, 78.321426, 78.25, 78.5, 78.583336, 78.5, 78.464287, 78.35714, 78.285713, 78.458336, 78.625, 78.791664, 78.875, 78.571426, 78.464287, 78.5, 78.375, 78.361107, 78.333328, 78.306114, 78.321426, 78.178574, 78.178574, 78.0625, 78.125, 78.1875, 78.125, 78.125, 78.285713, 78.321426, 78.321426, 78.214287, 78, 77.9375, 77.848213, 77.75, 77.64286, 78.0625, 78.1875, 78.39286, 78.321426, 78.35714, 78.39286, 78.5, 78.571426, 78.5, 78.464287, 78.39286, 78.285713, 78.214287, 78.178574, 78.25, 78.428574, 78.60714, 78.714287, 78.4375, 78.375, 78.375, 78.375, 78.60714, 78.571426, 78.428574, 78.204086, 77.8125, 77.8125, 78, 78.375, 78.214287, 78.239799, 78.020401, 77.979599, 78.035713, 78.204086, 78.321426, 78.428574, 78.35714, 78.285713, 78.285713, 78.5, 78.583336, 78.666664, 78.541664, 78.214287, 78.178574, 78.178574, 78.35714, 78.428574, 78.5, 78.571426, 78.535713, 78.60714, 78.571426, 78.464287, 78.39286, 78.39286, 78.428574, 78.35714, 78.321426, 78.178574, 78.035713, 78.178574, 78.14286, 78.10714, 77.875, 77.6875, 77.6875, 77.75, 77.875, 78, 78, 77.9375, 78.10714, 78.14286, 78.25, 78.583336, 78.625, 78.625, 78.428574, 78.464287, 78.5, 78.535713, 78.464287, 78.39286, 78.25, 78.178574, 78.122452, 78.122452, 77.866074, 77.9375, 77.64286, 78.035713, 78.091835, 78.422615, 78.380951, 77.948975, 78.10714, 77.8125, 77.9375, 78, 78, 78.5, 78.1875, 78.125, 78.0625, 78.03125, 78.25, 78.0625, 78.125, 78.15625, 78.125, 78.125, 78.080353, 78.39286, 78.464287, 78.535713, 78.464287, 78.1875, 78.5, 78.3125, 78.375, 78.60714, 78.535713, 78.535713, 78.464287, 78.1875, 78.1875, 77.982147, 78.06633, 78.208336, 78.041664, 77.821426, 77.85714, 77.89286, 77.928574, 77.75, 78.10714, 78.346939, 78.535713, 78.5, 78.5625, 78.5625, 78.5625, 78.714287, 78.678574, 78.571426, 78.382652, 78.14286, 78.178574, 78.375, 78.428574, 78.3125, 78.3125, 78.375, 78.3125, 78.4375, 78.6875, 78.875, 79.125, 79.375, 79.5, 79.6875, 79.75, 79.875, 80.125, 80.482147, 80.75, 80.9375, 81.353569, 81.488892, -10, -10, -10, -10, -10, -10, -10, -10
-10, -10, -10, -10, -10, -10, -10, -10, -10, 78.714287, 79.799995, 79.617348, 79.75, 79.678574, 79.64286, 79.64286, 79.64286, 79.714287, 79.5625, 79.5625, 79.4375, 79.303574, 79.050003, 79.346939, 79.454086, 79.571426, 79.571426, 79.60714, 79.678574, 79.473213, 79.375, 78.964287, 78.821426, 79.15625, 79.51786, 79.747452, 79.76786, 79.785713, 79.75, 79.375, 79.3125, 79.464287, 79.35714, 79.464287, 79.535713, 79.5, 79.60714, 79.3125, 79.25, 79.25, 79.1875, 79.35714, 79.39286, 79.464287, 79.5, 79.64286, 79.678574, 79.60714, 79.64286, 79.64286, 79.64286, 79.64286, 79.60714, 79.571426, 79.5, 79.571426, 79.60714, 79.4375, 79.64286, 79.60714, 79.571426, 79.535713, 79.571426, 79.60714, 79.64286, 79.571426, 79.535713, 79.25, 79.1875, 78.928574, 79.1875, 79.25, 79.535713, 79.60714, 79.25, 78.85714, 79.169647, 79.178574, 79.5, 79.5, 79.5, 79.571426, 79.464287, 79.35714, 79.25, 79.178574, 79.25, 79.35714, 79.464287, 79.464287, 79.428574, 79.5, 79.5, 79.5, 79.5, 79.5, 79.5, 79.5, 79.464287, 79.428574, 79.39286, 79.35714, 79.285713, 79.214287, 79.25, 79.214287, 79.214287, 79.14286, 79.178574, 79.285713, 79.428574, 79.60714, 79.571426, 79.5, 79.125, 79.321426, 79.35714, 79.39286, 79.571426, 79.571426, 79.5, 79.5, 79.39286, 79.380943, 79.523804, 79.367348, 79.125, 79, 79.0625, 79.1875, 79.25, 79.464287, 79.285713, 79.285713, 79.285713, 79.0625, 79.0625, 78.9375, 78.875, 78.875, 78.848213, 78.5, 79.5, 79.35714, 79.5, 79.571426, 79.51786, 79.553574, 79.589287, 79.40625, 79.678574, 79.60714, 79.535713, 79.178574, 78.987503, 79.053574, 79.053574, 79.428574, 79.535713, 79.571426, 79.64286, 79.571426, 79.5, 79.571426, 79.571426, 79.571426, 79.535713, 79.428574, 79.239799, 79.071426, 78.833336, 78.916664, 79.35714, 79.39286, 79.346939, 78.9375, 78.714287, 78.714287, 78.821426, 79.0625, 79, 78.875, 78.875, 79.147957, 79.214287, 79.285713, 79.285713, 79.214287, 79.178574, 79, 79.0625, 79.25, 79.3125, 79.375, 79.4375, 79.4375, 79.714287, 79.64286, 79.60714, 79.571426, 79.5, 79.5, 79.428574, 79.35714, 79.0625, 78.714287, 79.0625, 79.0625, 79.214287, 79.178574, 79.071426, 78.535713, 78.60714, 79, 78.955353, 78.875, 78.875, 78.9375, 79.285713, 79.39286, 79.428574, 79.35714, 79.285713, 79.321426, 79.35714, 79.39286, 79.25, 79.25, 79.25, 78.928574, 78.928574, 78.85714, 79.311226, 79.178574, 79.214287, 79.5, 79.377548, 79.367348, 79.469383, 79.43367, 79.270401, 79.0625, 78.64286, 78.714287, 78.714287, 79.214287, 79.285713, 79.25, 79.214287, 79.25, 79.125, 79.1875, 79.1875, 79.1875, 79.125, 78.785713, 79.0625, 79.125, 79.25, 79.428574, 79.5, 79.428574, 79.35714, 79.428574, 79.5, 79.25, 79.3125, 79.3125, 79.3125, 79.3125, 79.1875, 79.1875, 79.044647, 79.193886, 79.045914, 78.685715, 78.739799, 78.85714, 79.035713, 79.178574, 79.583336, 79.285713, 79.125, 79.25, 79.3125, 79.4375, 79.714287, 79.714287, 79.714287, 79.714287, 79.64286, 79.530617, 79.35714, 79.285713, 79.178574, 79.321426, 79.285713, 79.0625, 79.0625, 78.875, 78.830353, 79, 79.1875, 79.4375, 79.6875, 79.8125, 80, 80.125, 80.3125, 80.625, 80.982147, 81.1875, 81.1875, 81.491074, 81.554161, -10, -10, -10, -10, -10, -10, -10, -10, -10, -10, -10, -10, -10, -10, -10, -10, -10, -10, -10, -10, -10, -10, -10, -10, -10, -10, -10, -10, -10, -10, -10, -10, -10, -10, -10, -10, -10, -10, -10, -10, -10, -10, -10, -10, -10, -10, -10, -10, -10, -10, -10, -10, -10, -10, -10, -10, -10, -10, -10, -10, 79.75, 80.721428, 80.724487, 80.821426, 80.75, 80.678574, 80.75, 80.75, 80.785713, 80.785713, 80.714287, 80.535713, 80.448982, 80.465309, 80.612251, 80.811226, 80.85714, 80.785713, 80.785713, 80.714287, 80.678574, 80.571426, 80.583336, 80.541664, 80.39286, 80.535713, 80.607147, 80.625, 80.625, 80.5625, 80.535713, 80.5, 80.5, 80.428574, 80.60714, 80.4375, 80.375, 80.375, 80.39286, 80.377548, 80.478569, 80.260201, 80.341835, 80.35714, 80.3125, 80.678574, 80.785713, 80.785713, 80.678574, 80.678574, 80.678574, 80.678574, 80.678574, 80.678574, 80.678574, 80.60714, 80.64286, 80.64286, 80.64286, 80.678574, 80.678574, 80.678574, 80.60714, 80.64286, 80.571426, 80.571426, 80.60714, 80.535713, 80.535713, 80.39286, 80.577385, 80.586739, 80.658165, 80.678574, 80.520401, 80.321426, 80.416664, 80.372452, 80.418373, 80.464287, 80.428574, 80.125, 80.1875, 80.1875, 80.125, 80.125, 80.35714, 80.35714, 80.35714, 80.125, 80.125, 80.0625, 80.125, 80.35714, 80.403061, 80.702385, 80.811226, 80.821426, 80.75, 80.678574, 80.51786, 80.39286, 80.35714, 80.0625, 80.09375, 79.928574, 80.0625, 80, 79.875, 79.875, 80, 80.125, 80.428574, 80.35714, 80.35714, 80.1875, 80.285713, 80.14286, 80.178574, 80.275513, 80.354164, 80.196426, 80.25, 80.535713, 80.60714, 80.678574, 80.5, 80.428574, 80.041664, 80.464287, 80.60714, 80.60714, 80.535713, 80.321426, 80.214287, 79.9375, 79.875, 79.8125, 79.75, 79.89286, 80, 80.040817, 80.25, 80.428574, 80.535713, 80.714287, 80.75, 80.64286, 80.571426, 80.5, 80.428574, 80.428574, 80.39286, 80.39286, 80.116074, 79.987503, 80.178574, 80.178574, 80.535713, 80.60714, 80.60714, 80.4375, 80.60714, 80.571426, 80.64286, 80.64286, 80.60714, 80.375, 80.3125, 80.418373, 80.285713, 80.583336, 80.625, 80.3125, 80.535713, 80.418373, 80.178574, 80.416664, 80.333336, 80.416664, 80, 79.9375, 79.64286, 79.714287, 80.098213, 80.116074, 79.916664, 79.892853, 79.8125, 79.8125, 79.9375, 80.178574, 80.39286, 80.5, 80.571426, 80.64286, 80.64286, 80.75, 80.714287, 80.64286, 80.571426, 80.39286, 80.125, 80.0625, 80.0625, 80.25, 80.5, 80.35714, 80.321426, 80.25, 80.178574, 80.071426, 80.25, 80.333336, 80.214287, 80.163261, 80.14286, 80.071426, 80.10714, 80.285713, 80.39286, 80.3125, 80.3125, 80, 80, 80.035713, 80.020401, 80.142853, 80.142853, 80.125, 80.583336, 80.666664, 80.666664, 80.387756, 80.285713, 80.285713, 80.25, 80.39286, 80.5, 80.64286, 80.473213, 80.510201, 80.438774, 80.458336, 80.416664, 80.458336, 80.25, 80.1875, 80.1875, 80.125, 80.39286, 80.39286, 80.464287, 80.464287, 80.35714, 80.25, 80.291664, 80.10714, 80.25, 80.428574, 80.5, 80.3125, 80.5, 80.39286, 80.35714, 80.428574, 80.125, 80.25, 80.375, 80.348213, 80.413261, 80.295914, 80.285713, 80.285713, 80.321426, 80.071426, 79.471428, 79.489799, 79.8125, 80.14286, 80.214287, 80.285713, 80.178574, 80.071426, 79.9375, 80, 80.125, 80.5, 80.571426, 80.64286, 80.714287, 80.678574, 80.64286, 80.571426, 80.5, 80.1875, 80.25, 80.1875, 80.35714, 80.321426, 80.071426, 79.377548, 79.464287, 79.571426, 80.0625, 80.160713, 80.151787, 80.3125, 80.3125, 80.625, 81, 81.419647, 81.6875, 81.625, 81.866074, 81.816666, 82.119049, -10, -10, -10, -10, -10, -10, -10
-10, -10, -10, -10, -10, -10, -10, -10, -10, -10, 81.133331, 81.571426, 81.625, 81.5625, 81.714287, 81.785713, 81.785713, 81.785713, 81.785713, 81.714287, 81.3125, 81.489799, 81.57959, 81.653061, 81.887756, 81.85714, 81.785713, 81.785713, 81.714287, 81.75, 81.64286, 81.535713, 81.535713, 81.5, 81.60714, 81.714287, 81.714287, 81.714287, 81.714287, 81.535713, 81.464287, 81.464287, 81.39286, 81.571426, 81.64286, 81.5, 81.25, 81.142853, 81.267853, 81.621422, 81.196426, 81.205353, 81.25, 81.612244, 81.785713, 81.85714, 81.785713, 81.714287, 81.714287, 81.714287, 81.714287, 81.714287, 81.714287, 81.714287, 81.678574, 81.678574, 81.60714, 81.60714, 81.64286, 81.571426, 81.571426, 81.3125, 81.3125, 81.3125, 81.3125, 81.375, 81.464287, 81.5, 81.464287, 81.459183, 81.729599, 81.765312, 81.75, 81.330353, 81.464287, 81.428574, 81.561226, 81.530617, 81.25, 81.1875, 81.0625, 81.125, 81.1875, 81.125, 81.428574, 81.428574, 81.428574, 81.1875, 81.0625, 81, 81, 81, 81.125, 81.258926, 81.738098, 81.918373, 81.928574, 81.85714, 81.785713, 81.4375, 81.3125, 81.25, 81.125, 81.321426, 81.625, 81.321426, 81.0625, 80.875, 80.875, 80.9375, 81.0625, 81, 80.928574, 81.1875, 81.464287, 81.505104, 81.791664, 81.875, 81.851189, 81.291664, 81.196426, 81.25, 81.375, 81.4375, 81.4375, 81.5, 81.5, 81.708336, 81.678574, 81.785713, 81.678574, 81.3125, 81.125, 80.9375, 80.8125, 80.6875, 80.6875, 81, 81.071426, 81.25, 81.306114, 81.35714, 81.375, 81.4375, 81.5625, 81.5625, 81.60714, 81.464287, 81.1875, 81.0625, 81.0625, 81.0625, 81, 81.132652, 81.092857, 81.346939, 81.454086, 81.64286, 81.678574, 81.64286, 81.64286, 81.64286, 81.64286, 81.714287, 81.64286, 81.5, 81.35714, 81.35714, 81.387756, 81.428574, 81.571426, 81.571426, 81.571426, 81.60714, 81.530617, 81.428574, 81.464287, 81.35714, 81.39286, 81.321426, 81.214287, 81.375, 81.333336, 81.147957, 81.132652, 80.791664, 80.556114, 80.5, 80.571426, 81.25, 81.35714, 81.464287, 81.464287, 81.5, 81.535713, 81.60714, 81.5, 81.4375, 81.3125, 81.1875, 81, 80.875, 80.875, 80.875, 81.178574, 81.285713, 81.321426, 81.35714, 81.35714, 81.0625, 80.9375, 81.14286, 81.14286, 81.178574, 81.198975, 81.25, 81.25, 81.25, 81.285713, 81.0625, 81.0625, 81.285713, 81.5, 81.583336, 81.75, 81.714287, 81.142853, 81.377548, 81.39286, 81.5, 81.571426, 81.571426, 81.535713, 81.428574, 81.125, 81.0625, 81.0625, 81.125, 81.1875, 81.464287, 81.5, 81.535713, 81.5, 81.35714, 81.35714, 81.25, 81.214287, 81.321426, 81.321426, 81.464287, 81.571426, 81.571426, 81.571426, 81.464287, 81.321426, 81.214287, 81.178574, 81.285713, 81.464287, 81.571426, 81.571426, 81.571426, 81.25, 81.125, 81.1875, 81.0625, 81.39286, 81.64286, 81.612244, 81.520401, 81.258926, 81.223213, 81.341835, 81.341835, 81.224487, 81.316666, 81.452385, 81.321426, 81.166664, 80.989799, 81.166664, 80.946426, 80.8125, 80.875, 80.9375, 80.85714, 81.25, 81.3125, 81.375, 81.64286, 81.714287, 81.714287, 81.571426, 81.428574, 81.25, 81.25, 81.35714, 81.39286, 81.39286, 81.14286, 81.095238, 81.041664, 81, 80.75, 80.85714, 80.721085, 80.887756, 80.887756, 81.375, 81.625, 81.794647, 82, 81.875, 82, 82.104164, 82.555557, 83.433334, -10, -10, -10, -10, -10, -10, -10, -10, -10, -10, -10, -10, -10, -10, -10, -10, -10, -10, -10, -10, -10, -10, -10, -10, -10, -10, -10, -10, -10, -10, -10, -10, -10, -10, -10, -10, -10, -10, -10, -10, -10, -10, -10, -10, -10, -10, -10, -10, -10, -10, -10, -10, -10, -10, -10, -10, -10, -10, -10, -10, 82.666664, 82.904762, 82.85714, 82.785713, 82.785713, 82.785713, 82.785713, 82.714287, 82.64286, 82.464287, 82.494896, 82.729599, 82.658165, 82.785713, 82.64286, 82.5, 82.5, 82.428574, 82.375, 82.4375, 82.473213, 82.5, 82.375, 82.571426, 82.64286, 82.64286, 82.714287, 82.714287, 82.375, 82.3125, 82.3125, 82.3125, 82.678574, 82.75, 82.64286, 82.25, 82.267853, 82.698975, 82.799995, 82.617348, 82.520401, 82.5, 82.68367, 82.821426, 82.85714, 82.785713, 82.714287, 82.714287, 82.714287, 82.714287, 82.714287, 82.714287, 82.64286, 82.571426, 82.571426, 82.3125, 82.375, 82.4375, 82.3125, 82.3125, 82.25, 82.25, 82.3125, 82.3125, 82.375, 82.3125, 82.375, 82.375, 82.401787, 82.836739, 82.836739, 82.785713, 82.591835, 82.571426, 82.571426, 82.64286, 82.375, 82.25, 82.1875, 82.285713, 82.35714, 82.39286, 82.321426, 82.35714, 82.35714, 82.39286, 82.39286, 82.285713, 82.178574, 82.10714, 81.875, 82, 82.133926, 82.395836, 82.704086, 82.714287, 82.785713, 82.908165, 82.765312, 82.535713, 82.5, 82.39286, 82.5, 82.571426, 82.5, 82.428574, 82.285713, 82.25, 82.285713, 82.321426, 82.666664, 82.666664, 82.5, 82.60714, 82.68367, 82.75, 82.785713, 82.729599, 82.547615, 82.438774, 82.39286, 82.39286, 82.39286, 82.321426, 82.35714, 82.5, 82.64286, 82.821426, 82.785713, 82.375, 82.125, 82, 81.9375, 81.704086, 81.875, 81.875, 82.321426, 82.25, 82.285713, 82.321426, 82.35714, 82.428574, 82.5, 82.5, 82.428574, 82.25, 82.1875, 82.1875, 82.0625, 82, 82, 82, 81.775513, 82.314285, 82.303574, 82.530617, 82.571426, 82.571426, 82.535713, 82.535713, 82.535713, 82.535713, 82.571426, 82.375, 82.25, 82.0625, 82, 82.214287, 82.39286, 82.571426, 82.64286, 82.60714, 82.60714, 82.535713, 82.535713, 82.64286, 82.571426, 82.60714, 82.571426, 82.5, 82.39286, 82.35714, 82.306114, 82.239799, 82.083328, 82.345238, 82.416664, 82.5, 82.35714, 82.39286, 82.25, 82.25, 82.3125, 82.375, 82.4375, 82.4375, 82.3125, 82.125, 82, 81.875, 81.8125, 81.9375, 82, 82.125, 82.25, 82.25, 82.25, 82.464287, 82.39286, 82.125, 82.125, 81.85714, 81.85714, 82.142853, 82.464287, 82.464287, 82.428574, 82.1875, 82.125, 81.785713, 82.39286, 82.428574, 82.428574, 82.5, 82.469383, 82.341835, 82.448975, 82.535713, 82.64286, 82.64286, 82.571426, 82.428574, 82.125, 82.0625, 81.9375, 81.9375, 81.9375, 81.9375, 82.0625, 82.125, 82.1875, 82.35714, 82.0625, 82.125, 82, 81.9375, 82.321426, 82.321426, 82.5, 82.678574, 82.4375, 82.4375, 82.375, 82.25, 82.1875, 82.125, 82.25, 82.678574, 82.785713, 82.785713, 82.714287, 82.5, 82.285713, 82.0625, 82.214287, 82.428574, 82.872452, 82.862244, 82.734688, 82.653061, 82.540817, 82.205353, 82.205353, 82.397957, 82.342857, 82.530617, 82.571426, 82.833336, 82.809525, 82.166664, 82.008926, 81.9375, 82.214287, 82.214287, 82.541664, 82.1875, 82.25, 82.375, 82.4375, 82.714287, 82.64286, 82.464287, 82.35714, 82.25, 82.321426, 82.464287, 82.21875, 82.15625, 82.14286, 82.010201, 82, 81.928574, 81.964287, 81.908157, 82.295631, 82.571434, 82.654762, 82.464287, 82.4375, 82.366074, 82.3125, 82.1875, 82.25, 82.5, 82.75, 83.433334, -10, -10, -10, -10, -10, -10
-10, -10, -10, -10, -10, -10, -10, -10, -10, -10, -10, 83.75, 83.904762, 83.85714, 83.785713, 83.5625, 83.5625, 83.5625, 83.5, 83.4375, 83.535713, 83.339287, 83.544647, 83.482147, 83.5625, 83.4375, 83.071426, 83.071426, 83, 83.3125, 83.375, 83.647957, 83.678574, 83.60714, 83.535713, 83.375, 83.375, 83.64286, 83.64286, 83.535713, 83.464287, 83.464287, 83.60714, 83.714287, 83.785713, 83.714287, 83.464287, 83.520401, 83.724487, 83.757141, 83.755104, 83.581627, 83.571426, 83.68367, 83.5625, 83.625, 83.5625, 83.714287, 83.714287, 83.714287, 83.714287, 83.714287, 83.714287, 83.4375, 83.375, 83.375, 83.3125, 83.375, 83.64286, 83.3125, 83.3125, 83.464287, 83.464287, 83.571426, 83.5, 83.535713, 83.464287, 83.5, 83.60714, 83.622452, 83.607147, 83.544647, 83.4375, 83.438774, 83.428574, 83.428574, 83.535713, 83.535713, 83.428574, 83.428574, 83.39286, 83.464287, 83.5, 83.5, 83.25, 83.25, 83.25, 83.5, 83.39286, 83.321426, 83.25, 83.178574, 83.25, 83.32653, 83.395836, 83.336739, 83.35714, 83.6875, 83.943886, 83.801025, 83.64286, 83.64286, 83.5, 83.535713, 83.5, 83.464287, 83.5, 83.464287, 83.5, 83.5, 83.5, 83.571426, 83.571426, 83.60714, 83.678574, 83.473213, 83.5, 83.5, 83.419647, 83.523804, 83.540817, 83.464287, 83.428574, 83.1875, 83.0625, 83.125, 83.25, 83.375, 83.5625, 83.5625, 83.375, 83.0625, 83, 83.25, 83.601189, 83.708336, 83.708336, 83.60714, 83.535713, 83.464287, 83.341835, 83.178574, 83.14286, 83, 83, 83, 83, 83, 83.285713, 83.25, 83.285713, 83.285713, 83.25, 83.583336, 83.464287, 83.571426, 83.3125, 83.25, 83.1875, 83.1875, 83.1875, 83.1875, 83.25, 83.25, 83.3125, 83.3125, 83.1875, 83.125, 82.85714, 83.1875, 83.25, 83.3125, 83.3125, 83.375, 83.60714, 83.60714, 83.678574, 83.64286, 83.60714, 83.535713, 83.464287, 83.125, 83.125, 83.125, 83.31633, 83.380943, 83.438774, 83.5, 83.535713, 83.60714, 83.571426, 83.3125, 83.3125, 83.3125, 83.571426, 83.64286, 83.64286, 83.3125, 83.125, 83.214287, 83.178574, 83.214287, 83.35714, 83.39286, 83.428574, 83.464287, 83.5, 83.464287, 83.428574, 83.39286, 83.285713, 83.285713, 83.541664, 83.583336, 83.464287, 83.571426, 83.60714, 83.571426, 83.428574, 83.35714, 83.541664, 83.428574, 83.571426, 83.375, 83.4375, 83.410713, 83.267853, 83.581627, 83.64286, 83.678574, 83.4375, 83.375, 83.25, 83.125, 83.321426, 83.214287, 83.178574, 82.9375, 82.64286, 82.785713, 82.85714, 82.928574, 83.125, 83, 83.0625, 83, 83.0625, 83.25, 83.25, 83.375, 83.714287, 83.64286, 83.64286, 83.535713, 83.35714, 83.321426, 83.321426, 83.5, 83.75, 83.85714, 83.85714, 83.714287, 83.464287, 83.306114, 83.299995, 83.153061, 83.413261, 83.729599, 83.734688, 83.724487, 83.68367, 83.57653, 83.448975, 83.484688, 83.3125, 83.3125, 83.571426, 83.535713, 83.5, 83.443886, 83.261902, 83.224487, 83.285713, 83.428574, 83.428574, 83.571426, 83.535713, 83.571426, 83.678574, 83.64286, 83.714287, 83.4375, 83.241074, 83.050003, 83.116074, 83.178574, 83.3125, 83.1875, 83.0625, 82.875, 82.875, 82.9375, 83.14286, 83.214287, 83.17347, 83.396255, 83.596939, 83.632652, 83.5, 83.428574, 82.991074, 82.875, 82.833336, 82.416664, 82.75, 83.111107, -10, -10, -10, -10, -10, -10, -10, -10, -10, -10, -10, -10, -10, -10, -10, -10, -10, -10, -10, -10, -10, -10, -10, -10, -10, -10, -10, -10, -10, -10, -10, -10, -10, -10, -10, -10, -10, -10, -10, -10, -10, -10, -10, -10, -10, -10, -10, -10, -10, -10, -10, -10, -10, -10, -10, -10, -10, -10, -10, -10, -10, -10, 84.904762, 84.85714, 84.714287, 84.571426, 84.571426, 84.571426, 84.571426, 84.64286, 84.60714, 84.60714, 84.678574, 84.60714, 84.571426, 84.5, 84.666664, 84.666664, 84.666664, 84.5, 84.60714, 84.719383, 84.678574, 84.535713, 84.25, 84.1875, 84.1875, 84.3125, 84.3125, 84.535713, 84.5, 84.5, 84.64286, 84.60714, 84.64286, 84.535713, 84.35714, 84.510201, 84.5625, 84.625, 84.928574, 84.75, 84.4375, 84.473213, 84.5, 84.5625, 84.714287, 84.714287, 84.64286, 84.571426, 84.5, 84.428574, 84.428574, 84.428574, 84.428574, 84.5, 84.535713, 84.60714, 84.678574, 84.571426, 84.571426, 84.571426, 84.571426, 84.75, 84.75, 84.75, 84.714287, 84.64286, 84.60714, 84.60714, 84.64286, 84.375, 84.3125, 84.1875, 84.1875, 84.1875, 84.3125, 84.60714, 84.571426, 84.571426, 84.571426, 84.60714, 84.375, 84.5, 84.35714, 84.25, 84.25, 84.321426, 84.285713, 84.214287, 84.224487, 84.39286, 84.428574, 84.535713, 84.535713, 84.851189, 84.875, 84.714287, 84.765312, 84.693886, 84.571426, 84.571426, 84.3125, 84.3125, 84.25, 84.25, 84.25, 84.464287, 84.464287, 84.464287, 84.535713, 84.571426, 84.64286, 84.64286, 84.571426, 84.3125, 84.1875, 84.125, 84.125, 84.125, 84.1875, 84.1875, 84.1875, 84.1875, 84.0625, 84.125, 84.125, 84.1875, 84.3125, 84.428574, 84.321426, 84.071426, 84.14286, 84.25, 84.443886, 84.60714, 84.60714, 84.714287, 84.678574, 84.571426, 84.330353, 83.928574, 83.85714, 83.85714, 83.714287, 83.875, 83.875, 83.9375, 84.35714, 84.39286, 84.464287, 84.464287, 84.5, 84.64286, 84.678574, 84.714287, 84.535713, 84.25, 84.1875, 84.1875, 84.1875, 84.1875, 84.25, 84.25, 84.535713, 84.571426, 84.464287, 84.39286, 84.666664, 84.25, 84.163261, 84.214287, 84.153061, 84.4375, 84.64286, 84.64286, 84.714287, 84.714287, 84.4375, 84.375, 84.3125, 83.85714, 84.125, 84.39286, 84.464287, 84.64286, 84.678574, 84.714287, 84.714287, 84.714287, 84.64286, 84.535713, 84.428574, 84.35714, 84.35714, 84.464287, 84.535713, 84.5, 84.464287, 84.428574, 84.428574, 84.5, 84.60714, 84.60714, 84.60714, 84.678574, 84.678574, 84.64286, 84.375, 84.375, 84.540817, 84.413261, 84.448975, 84.428574, 84.464287, 84.571426, 84.60714, 84.60714, 84.489799, 84.364281, 84.5, 84.535713, 84.714287, 84.535713, 84.428574, 84.428574, 84.428574, 84.571426, 84.714287, 84.714287, 84.64286, 84.571426, 84.5, 84.464287, 84.428574, 84.321426, 84.285713, 84.214287, 84.416664, 84.458336, 84.416664, 84.48214, 84.270836, 84.443886, 84.535713, 84.428574, 84.39286, 84.5, 84.5, 84.60714, 84.64286, 84.535713, 84.535713, 84.464287, 84.428574, 84.428574, 84.35714, 84.5, 84.678574, 84.785713, 84.85714, 84.5, 84.3125, 84.448975, 84.442856, 84.071426, 84.267853, 84.482147, 84.4375, 84.5, 84.5, 84.410713, 84.581627, 84.581627, 84.571426, 84.535713, 84.375, 84.3125, 84.3125, 84.294647, 84.166664, 84.397957, 84.39286, 84.5, 84.464287, 84.64286, 84.678574, 84.60714, 84.678574, 84.60714, 84.64286, 84.64286, 84.241074, 83.807144, 84.42347, 84.331627, 84.476189, 84.428574, 84, 83.767853, 83.928574, 84, 84.071426, 84.214287, 84.255104, 84.302086, 84.522324, 84.584824, 84.40625, 84.3125, 83.635719, 83.349998, 83.333336, -10, -10, -10, -10, -10, -10, -10, -10, -10, -10
-10, -10, -10, -10, -10, -10, -10, -10, -10, -10, -10, -10, 85.222221, 85.625, 85.5, 85.375, 85.3125, 85.25, 85.484688, 85.678574, 85.678574, 85.75, 85.714287, 85.678574, 85.64286, 85.535713, 85.5, 85.5, 85.5, 85.60714, 85.678574, 85.535713, 85.5, 85.375, 85.1875, 85.0625, 85.080353, 85.3125, 85.3125, 85.4375, 85.375, 85.375, 85.5, 85.4375, 85.4375, 85.375, 85.25, 85.375, 85.5625, 85.625, 85.6875, 85.75, 85.64286, 85.64286, 85.64286, 85.714287, 85.714287, 85.714287, 85.375, 85.1875, 84.955353, 84.892853, 85.083336, 85.178574, 85.5, 85.571426, 85.64286, 85.678574, 85.714287, 85.60714, 85.60714, 85.60714, 85.60714, 85.785713, 85.785713, 85.785713, 85.785713, 85.714287, 85.4375, 85.4375, 85.4375, 85.375, 85.3125, 85.1875, 85.1875, 85.1875, 85.3125, 85.64286, 85.64286, 85.64286, 85.64286, 85.64286, 85.535713, 85.428574, 85.25, 85.10714, 84.875, 84.9375, 85, 85, 85.071426, 85.571426, 85.571426, 85.64286, 85.64286, 85.729599, 85.75, 85.678574, 85.357147, 85.196426, 85.125, 85.160713, 85.321426, 85.125, 85, 85, 85.071426, 85.262497, 85.133926, 85.133926, 85.1875, 85.1875, 85.25, 85.25, 85.1875, 85.1875, 85.125, 85.125, 85.125, 85.0625, 85.0625, 85, 85.214287, 85.321426, 85.285713, 85.321426, 85.214287, 85.25, 85.1875, 85.1875, 85.1875, 84.9375, 85.178574, 85.0625, 85.232147, 85.4375, 85.4375, 85.4375, 85.535713, 85.428574, 85.448975, 85.666664, 85.708336, 85.708336, 85.5, 85.14286, 85.178574, 85.285713, 85.464287, 85.535713, 85.60714, 85.60714, 85.678574, 85.785713, 85.714287, 85.714287, 85.535713, 85.35714, 85.387756, 85.551025, 85.551025, 85.571426, 85.5, 85.35714, 85.464287, 85.535713, 85.571426, 85.60714, 85.64286, 86, 86.130951, 86.125, 85.98214, 85.678574, 85.60714, 85.60714, 85.64286, 85.64286, 85.64286, 85.571426, 85.5, 85.625, 85.535713, 85.57653, 85.484688, 85.510201, 85.428574, 85.5, 85.571426, 85.60714, 85.64286, 85.571426, 85.5, 85.25, 85, 85.3125, 85.375, 85.60714, 85.64286, 85.714287, 85.785713, 85.89286, 85.928574, 85.85714, 85.785713, 85.785713, 85.785713, 85.714287, 85.571426, 85.571426, 85.540817, 85.267853, 85.392853, 85.3125, 85.339287, 85.544647, 85.544647, 85.5625, 85.428574, 85.287498, 85.64286, 85.64286, 85.85714, 85.75, 85.333336, 85.333336, 85.571426, 85.60714, 85.714287, 85.714287, 85.60714, 85.5, 85.39286, 85.39286, 85.428574, 85.428574, 85.5, 85.39286, 85.428574, 85.428574, 85.428574, 85.520401, 85.666672, 85.693886, 85.678574, 85.60714, 85.60714, 85.64286, 85.571426, 85.535713, 85.3125, 85.25, 85.25, 85.1875, 85.125, 85.125, 85.125, 85.3125, 85.5, 85.5625, 85.625, 85.5, 85.571426, 85.627548, 85.657143, 85.438774, 85.515305, 85.419647, 85.375, 85.5, 85.4375, 85.375, 85.60714, 85.535713, 85.464287, 85.39286, 85.428574, 85.25, 85.3125, 85.3125, 85.10714, 85.178574, 85.419647, 85.375, 85.3125, 85.60714, 85.75, 85.678574, 85.5625, 85.5, 85.5, 85.75, 85.561226, 85.700005, 85.602043, 85.321426, 85.416664, 85.625, 85.375, 85.002548, 84.89286, 84.785713, 84.875, 85.125, 85.39286, 85.51786, 85.625, 85.125, 85.074997, 85, -10, -10, -10, -10, -10, -10, -10, -10, -10, -10, -10, -10, -10, -10, -10, -10, -10, -10, -10, -10, -10, -10, -10, -10, -10, -10, -10, -10, -10, -10, -10, -10, -10, -10, -10, -10, -10, -10, -10, -10, -10, -10, -10, -10, -10, -10, -10, -10, -10, -10, -10, -10, -10, -10, -10, -10, -10, -10, -10, -10, -10, -10, -10, -10, -10, -10, -10, -10, -10, 86.199997, 86.64286, 86.571426, 86.3125, 86.3125, 86.392853, 86.85714, 86.85714, 86.85714, 86.785713, 86.64286, 86.571426, 86.25, 86.1875, 86.1875, 86.1875, 86.510201, 86.657143, 86.591835, 86.64286, 86.5, 86.464287, 86.125, 86.142853, 86.535713, 86.535713, 86.678574, 86.535713, 86.535713, 86.571426, 86.428574, 86.5, 86.428574, 86.39286, 86.535713, 86.678574, 86.75, 86.785713, 86.75, 86.60714, 86.60714, 86.60714, 86.64286, 86.714287, 86.714287, 86.375, 86.1875, 85.663261, 85.591835, 86.083336, 86.241074, 86.571426, 86.64286, 86.714287, 86.64286, 86.571426, 86.3125, 86.3125, 86.375, 86.4375, 86.785713, 86.821426, 86.821426, 86.75, 86.60714, 86.428574, 86.35714, 86.438774, 86.702385, 86.693886, 86.535713, 86.42347, 86.39286, 86.5, 86.678574, 86.678574, 86.678574, 86.678574, 86.678574, 86.60714, 86.25, 86.125, 86, 85.9375, 85.714287, 86, 86.0625, 86.403061, 86.678574, 86.678574, 86.75, 86.64286, 86.482147, 86.4375, 86.3125, 86.125, 86.026787, 85.85714, 86.160713, 86.1875, 86.125, 85.9375, 85.9375, 86.008926, 86.407143, 86.071426, 86.071426, 86.125, 86.125, 86.25, 86.25, 86.1875, 86.1875, 86.35714, 86.39286, 86.39286, 86.285713, 86.125, 85.85714, 85.928574, 86.071426, 86.571426, 86.5, 86.0625, 86, 86, 86, 86.214287, 86.10714, 85.9375, 86, 86.0625, 86.25, 86.25, 86.25, 86.1875, 86.0625, 86.080353, 86.35714, 86.464287, 86.464287, 86.413261, 86.469383, 86.428574, 86.535713, 86.571426, 86.60714, 86.64286, 86.64286, 86.714287, 86.785713, 86.5, 86.5, 86.60714, 86.5, 86.56633, 86.729599, 86.729599, 86.821426, 86.714287, 86.571426, 86.375, 86.375, 86.4375, 86.714287, 86.785713, 86.964287, 87.040817, 87.071426, 86.948975, 86.821426, 86.5, 86.4375, 86.4375, 86.375, 86.535713, 86.428574, 86.39286, 86.5, 86.801025, 86.897957, 86.234688, 86.188774, 86.071426, 86.10714, 86.3125, 86.375, 86.4375, 86.375, 86.3125, 86.35714, 86.5, 86.35714, 86.5, 86.64286, 86.714287, 86.785713, 86.85714, 86.928574, 86.928574, 86.785713, 86.714287, 86.714287, 86.64286, 86.678574, 86.571426, 86.571426, 86.612244, 86.484688, 86.591835, 86.3125, 86.339287, 86.765312, 86.765312, 86.785713, 86.668373, 86.507141, 86.678574, 86.678574, 86.85714, 86.785713, 86.916664, 86.916664, 86.64286, 86.571426, 86.571426, 86.571426, 86.3125, 86.3125, 86.3125, 86.3125, 86.375, 86.4375, 86.714287, 86.4375, 86.4375, 86.375, 86.571426, 86.663261, 86.845238, 86.872452, 86.821426, 86.75, 86.714287, 86.64286, 86.3125, 86.25, 86.1875, 86.1875, 86.25, 86.1875, 86.125, 85.89286, 86.166664, 86.60714, 86.714287, 86.714287, 86.714287, 86.678574, 86.571426, 86.653061, 86.685715, 86.540817, 86.612244, 86.5, 86.428574, 86.535713, 86.535713, 86.60714, 86.4375, 86.375, 86.3125, 86.25, 86.5, 86.535713, 86.64286, 86.64286, 86.916664, 86.958336, 86.658165, 86.571426, 86.571426, 86.4375, 86.5625, 86.5, 86.75, 86.714287, 86.714287, 86.785713, 86.67347, 86.671432, 86.714287, 86.622452, 86.672615, 86.73214, 86.553574, 86.002968, 85.60714, 85.647957, 85.785713, 86.333336, 85.75, 86.099998, 86.199997, -10, -10, -10, -10, -10, -10, -10, -10, -10, -10, -10, -10, -10, -10, -10, -10
-10, -10, -10, -10, -10, -10, -10, -10, -10, -10, -10, -10, -10, -10, 87.821426, 87.738098, 87.64286, 87.571426, 87.627548, 87.85714, 87.85714, 87.785713, 87.714287, 87.375, 87.3125, 87.25, 86.928574, 86.928574, 86.928574, 87.321426, 87.449997, 87.330353, 87.60714, 87.5, 87.5, 87.464287, 87.484688, 87.64286, 87.64286, 87.75, 87.60714, 87.60714, 87.60714, 87.5, 87.571426, 87.535713, 87.535713, 87.64286, 87.714287, 87.5625, 87.5625, 87.5625, 87.4375, 87.4375, 87.4375, 87.4375, 87.714287, 87.714287, 87.535713, 87.285713, 87.327385, 87.428566, 87.380959, 87.525513, 87.5, 87.535713, 87.571426, 87.375, 87.375, 87.3125, 87.3125, 87.375, 87.64286, 87.5625, 87.625, 87.625, 87.5625, 87.5, 87.071426, 87, 87.081627, 87.845238, 87.801025, 87.714287, 87.530617, 87.428574, 87.464287, 87.571426, 87.64286, 87.714287, 87.714287, 87.714287, 87.571426, 87.321426, 87.214287, 87.10714, 87.14286, 87.5, 87.35714, 87.428574, 87.540817, 87.714287, 87.714287, 87.5625, 87.4375, 87.375, 87.3125, 87.125, 87.14286, 87.122444, 87.583336, 87.397957, 87.535713, 87.464287, 87.321426, 87.321426, 87.367348, 87.514282, 87.403061, 87.403061, 87.35714, 87.234688, 87.25, 87.25, 87.285713, 87.428574, 87.464287, 87.535713, 87.535713, 87.428574, 87.5, 87.75, 87.791664, 87.875, 87.64286, 87.571426, 87.39286, 87.0625, 86.9375, 86.875, 86.875, 87.14286, 87.178574, 87.25, 87.39286, 87.428574, 87.35714, 87.0625, 86.9375, 86.875, 87, 87.133926, 87.261909, 87.275513, 87.517853, 87.755104, 87.64286, 87.714287, 87.678574, 87.678574, 87.678574, 87.678574, 87.64286, 87.5, 87.4375, 87.4375, 87.64286, 87.571426, 87.67347, 87.836739, 87.836739, 87.928574, 87.785713, 87.64286, 87.571426, 87.428574, 87.428574, 87.428574, 87.375, 87.625, 87.785713, 87.875, 87.767853, 87.821426, 87.714287, 87.571426, 87.5, 87.1875, 87.1875, 87.1875, 87.25, 87.4375, 87.908165, 87.969383, 88.011902, 87.880951, 87.75, 87.708336, 87.3125, 87.3125, 87.375, 87.535713, 87.5, 87.464287, 87.428574, 87.39286, 87.428574, 87.535713, 87.64286, 87.908165, 87.979599, 87.833328, 87.724487, 87.375, 87.375, 87.4375, 87.4375, 87.5, 87.4375, 87.4375, 87.473213, 87.510201, 87.510201, 87.448975, 87.602043, 87.801025, 87.801025, 87.678574, 87.602043, 87.485718, 87.64286, 87.714287, 87.625, 87.821426, 87.785713, 87.785713, 87.64286, 87.464287, 87.25, 87.25, 87.1875, 87.25, 87.428574, 87.428574, 87.60714, 87.714287, 87.785713, 87.714287, 87.678574, 87.60714, 87.571426, 87.653061, 87.645836, 87.669647, 87.589287, 87.5625, 87.64286, 87.4375, 87.3125, 87.25, 87.1875, 87.428574, 87.5, 87.5, 87.464287, 87.75, 87.833336, 87.714287, 87.785713, 87.75, 87.714287, 87.714287, 87.4375, 87.5, 87.5, 87.4375, 87.67347, 87.375, 87.535713, 87.60714, 87.60714, 87.678574, 87.571426, 87.428574, 87.285713, 87.285713, 87.428574, 87.60714, 87.821426, 87.821426, 87.89286, 87.821426, 87.622452, 87.5, 87.5, 87.535713, 87.714287, 87.678574, 87.75, 87.75, 87.75, 87.785713, 87.714287, 87.5625, 87.535713, 87.724487, 87.738091, 87.785713, 87.678574, 87.720238, 87.625, 86.910713, 87.0625, 87.083336, -10, -10, -10, -10, -10, -10, -10, -10, -10, -10, -10, -10, -10, -10, -10, -10, -10, -10, -10, -10, -10, -10, -10, -10, -10, -10, -10, -10, -10, -10, -10, -10, -10, -10, -10, -10, -10, -10, -10, -10, -10, -10, -10, -10, -10, -10, -10, -10, -10, -10, -10, -10, -10, -10, -10, -10, -10, -10, -10, -10, -10, -10, -10, -10, -10, -10, -10, -10, -10, -10, -10, -10, -10, -10, -10, -10, 88.400002, 88.809525, 88.75, 88.714287, 88.724487, 88.85714, 88.928574, 88.6875, 88.607147, 88.291664, 88.133926, 88.25, 88.458336, 88.458336, 88.541664, 88.438774, 88.585709, 88.330353, 88.5, 88.4375, 88.678574, 88.714287, 88.653061, 88.714287, 88.714287, 88.5625, 88.571426, 88.5, 88.5, 88.428574, 88.571426, 88.64286, 88.64286, 88.785713, 88.785713, 88.785713, 88.785713, 88.714287, 88.64286, 88.64286, 88.64286, 88.64286, 88.714287, 88.64286, 88.464287, 88.321426, 88.244888, 88.438774, 88.619041, 88.67347, 88.375, 88.375, 88.375, 88.375, 88.571426, 88.535713, 88.535713, 88.60714, 88.60714, 88.64286, 88.64286, 88.64286, 88.64286, 88.64286, 88.875, 88.833336, 88.880951, 88.809525, 88.693886, 88.571426, 88.223213, 88.395836, 88.17347, 88.25, 88.5625, 88.785713, 88.714287, 88.714287, 88.535713, 88.35714, 88.321426, 88.285713, 88.428574, 88.571426, 88.535713, 88.571426, 88.60714, 88.64286, 88.64286, 88.571426, 88.5, 88.428574, 88.428574, 88.321426, 88.25, 88.285706, 88.5, 88.520409, 88.60714, 88.535713, 88.428574, 88.5, 88.540817, 88.614281, 88.612244, 88.612244, 88.535713, 88.413261, 88.39286, 88.321426, 88.321426, 88.428574, 88.464287, 88.3125, 88.3125, 88.464287, 88.571426, 88.678574, 88.75, 88.714287, 88.64286, 88.5, 88.321426, 88.178574, 88, 87.8125, 87.875, 88, 88.285713, 88.428574, 88.571426, 88.535713, 88.25, 88.285713, 88.035713, 87.89286, 87.75, 87.883926, 88.736115, 88.934532, 88.877548, 88.969383, 88.85714, 88.85714, 88.714287, 88.714287, 88.64286, 88.571426, 88.3125, 88.3125, 88.535713, 88.60714, 88.678574, 88.64286, 88.693871, 88.607147, 88.607147, 88.625, 88.714287, 88.64286, 88.571426, 88.571426, 88.071426, 88.071426, 88.14286, 88.5, 88.5, 88.625, 88.625, 88.785713, 88.821426, 88.678574, 88.14286, 88, 87.964287, 88.25, 88.1875, 88.5, 88.482147, 88.535713, 88.724487, 88.755104, 88.68367, 88.56633, 88.571426, 88.5, 88.535713, 88.535713, 88.535713, 88.5, 88.5, 88.25, 88.25, 88.3125, 88.4375, 88.872452, 88.794647, 88.666664, 88.571426, 88.178574, 88.375, 88.375, 88.571426, 88.64286, 88.535713, 88.535713, 88.60714, 88.535713, 88.375, 88.330353, 88.693871, 88.607147, 88.607147, 88.5, 88.4375, 88.375, 88.375, 88.67347, 88.598213, 88.625, 88.6875, 88.5625, 88.4375, 88.3125, 88.357147, 88.071426, 88, 88.64286, 88.678574, 88.678574, 88.85714, 88.89286, 88.85714, 88.821426, 88.75, 88.60714, 88.375, 88.4375, 88.5, 88.5625, 88.464287, 88.785713, 88.5, 88.785713, 88.658165, 88.377548, 88.377548, 88.428574, 88.571426, 88.64286, 88.60714, 88.678574, 88.785713, 88.75, 88.714287, 88.571426, 88.5, 88.571426, 88.571426, 88.5625, 88.5625, 88.714287, 88.765305, 88.60714, 88.60714, 88.64286, 88.64286, 88.714287, 88.60714, 88.571426, 88.166664, 88.166664, 88.571426, 88.4375, 88.625, 88.625, 88.6875, 88.625, 88.482147, 88.375, 88.375, 88.60714, 88.714287, 88.714287, 88.5625, 88.5625, 88.5625, 88.5625, 88.714287, 88.64286, 88.571426, 88.375, 88.3125, 88.083336, 88.199997, 88.150002, 88.099998, -10, -10, -10, -10, -10, -10, -10, -10, -10, -10, -10, -10, -10, -10, -10, -10, -10, -10, -10, -10, -10, -10
-10, -10, -10, -10, -10, -10, -10, -10, -10, -10, -10, -10, -10, -10, -10, 89.333336, 89.64286, 89.479164, 89.5, 89.625, 89.6875, 89.821426, 89.801025, 89.291664, 89.196426, 89.43367, 89.387756, 89.5, 89.622452, 89.68367, 89.512497, 89.581627, 89.67347, 89.719383, 89.714287, 89.785713, 89.571426, 89.571426, 89.571426, 89.64286, 89.60714, 89.3125, 89.3125, 89.5, 89.60714, 89.678574, 89.678574, 89.785713, 89.785713, 89.785713, 89.785713, 89.714287, 89.678574, 89.678574, 89.678574, 89.678574, 89.714287, 89.4375, 89.3125, 89.25, 89.267853, 89.4375, 89.714287, 89.714287, 89.64286, 89.64286, 89.64286, 89.60714, 89.5, 89.428574, 89.428574, 89.535713, 89.375, 89.4375, 89.5, 89.5, 89.678574, 89.591835, 89.535713, 89.5, 89.612244, 89.520836, 89.482147, 89.375, 89.223213, 89.630959, 89.946434, 90, 89.714287, 89.714287, 89.64286, 89.64286, 89.375, 89.464287, 89.464287, 89.464287, 89.535713, 89.571426, 89.25, 89.1875, 89.1875, 89.1875, 89.1875, 89.125, 89.0625, 89.214287, 89.25, 89.10714, 89.071426, 89.198975, 89.294647, 89.375, 89.5, 89.4375, 89.60714, 89.678574, 89.678574, 89.678574, 89.678574, 89.60714, 89.535713, 89.413261, 89.428574, 89.25, 89.25, 89.25, 89.1875, 89.1875, 89.1875, 89.25, 89.4375, 89.5625, 89.625, 89.5625, 89.4375, 89.25, 89.0625, 88.875, 88.75, 89, 89.071426, 89.25, 89.321426, 89.428574, 89.535713, 89.535713, 89.535713, 89.428574, 89.25, 88.875, 88.916664, 89.053566, 89.527779, 89.943886, 90.081627, 90.020401, 89.928574, 89.89286, 89.714287, 89.64286, 89.3125, 89.25, 89.1875, 89.25, 89.375, 89.64286, 89.64286, 89.571426, 89.571426, 89.571426, 89.64286, 89.5, 89.4375, 89.375, 89.3125, 89.5, 89.791664, 89.833336, 89.875, 89.64286, 89.64286, 89.5625, 89.5625, 89.5625, 89.821426, 89.714287, 89.916664, 89.833336, 89.708336, 89.535713, 89.464287, 89.3125, 89.357147, 89.375, 89.455353, 89.625, 89.526787, 89.314285, 89.596939, 89.443886, 89.535713, 89.535713, 89.535713, 89.571426, 89.571426, 89.5, 89.464287, 89.3125, 89.64286, 89.836739, 89.908165, 89.690475, 89.581627, 89.75, 89.535713, 89.60714, 89.64286, 89.678574, 89.60714, 89.535713, 89.375, 89.25, 89.428574, 89.520401, 89.64286, 89.714287, 89.714287, 89.571426, 89.571426, 89.571426, 89.375, 89.464287, 89.755104, 89.714287, 89.785713, 89.5, 89.4375, 89.60714, 89.693886, 89.75, 89.75, 89.678574, 89.714287, 89.785713, 89.89286, 89.625, 89.5, 89.4375, 89.3125, 89.1875, 89.125, 89.1875, 89.3125, 89.571426, 89.602043, 89.714287, 89.64286, 89.821426, 89.765312, 89.520401, 89.520401, 89.3125, 89.4375, 89.714287, 89.64286, 89.5, 89.5625, 89.5, 89.5, 89.375, 89.3125, 89.375, 89.60714, 89.75, 89.75, 89.75, 89.785713, 89.678574, 89.75, 89.75, 89.75, 89.785713, 89.64286, 89.64286, 89.791664, 89.708336, 89.571426, 89.571426, 89.571426, 89.64286, 89.64286, 89.571426, 89.571426, 89.571426, 89.571426, 89.714287, 89.785713, 89.785713, 89.785713, 89.64286, 89.64286, 89.64286, 89.64286, 89.4375, 89.375, 88.75, 88.666664, -10, -10, -10, -10, -10, -10, -10, -10, -10, -10, -10, -10, -10, -10, -10, -10, -10, -10, -10, -10, -10, -10, -10, -10, -10, -10, -10, -10, -10, -10, -10, -10, -10, -10, -10, -10, -10, -10, -10, -10, -10, -10, -10, -10, -10, -10, -10, -10, -10, -10, -10, -10, -10, -10, -10, -10, -10, -10, -10, -10, -10, -10, -10, -10, -10, -10, -10, -10, -10, -10, -10, -10, -10, -10, -10, -10, -10, -10, -10, -10, -10, -10, -10, -10, -10, 90.4375, 90.416664, 90.4375, 90.714287, 90.785713, 90.821426, 90.801025, 90.583328, 90.545914, 90.540817, 90.401787, 90.714287, 90.836739, 90.85714, 90.785713, 90.678574, 90.709183, 90.790817, 90.75, 90.704086, 90.224998, 90.446426, 90.446426, 90.5625, 90.714287, 90.571426, 90.571426, 90.571426, 90.64286, 90.714287, 90.714287, 90.785713, 90.785713, 90.785713, 90.714287, 90.64286, 90.64286, 90.64286, 90.714287, 90.714287, 90.714287, 90.64286, 90.535713, 90.5, 90.438774, 90.571426, 90.64286, 90.64286, 90.714287, 90.714287, 90.714287, 90.678574, 90.375, 90.3125, 90.3125, 90.375, 90.375, 90.64286, 90.714287, 90.714287, 90.714287, 90.455353, 90.25, 90.285713, 90.35714, 90.5625, 90.64286, 90.428574, 90.403061, 90.666672, 90.775513, 90.85714, 90.75, 90.4375, 90.3125, 90.25, 90.39286, 90.428574, 90.5, 90.571426, 90.535713, 90.25, 90.125, 90.0625, 90.0625, 90.0625, 90, 89.875, 89.9375, 90, 90.125, 89.785713, 89.714287, 89.806114, 90.294647, 90.375, 90.5, 90.64286, 90.64286, 90.714287, 90.64286, 90.571426, 90.375, 90.3125, 90.3125, 90.205353, 90.39286, 90.321426, 90.285713, 90.321426, 90.125, 90.1875, 90.1875, 90.39286, 90.5, 90.571426, 90.64286, 90.64286, 90.375, 90.3125, 89.89286, 89.75, 89.678574, 90.214287, 90.321426, 90.428574, 90.25, 90.3125, 90.375, 90.60714, 90.64286, 90.571426, 90.464287, 90.666664, 90.75, 90.880951, 91.097229, 90.989799, 91.071426, 90.964287, 90.928574, 90.785713, 90.64286, 90.375, 90.25, 90.25, 90.1875, 90.39286, 90.535713, 90.60714, 90.375, 90.375, 90.375, 90.375, 90.4375, 90.64286, 90.375, 90.25, 90.125, 90.35714, 90.464287, 90.571426, 90.678574, 90.714287, 90.678574, 90.714287, 90.714287, 90.714287, 90.785713, 90.75, 90.785713, 90.75, 90.678574, 90.714287, 90.60714, 90.571426, 90.25, 90.1875, 90.205353, 90.678574, 90.401787, 90.251785, 90.366074, 90.169647, 90.1875, 90.125, 90.125, 90.428574, 90.5, 90.464287, 90.530617, 90.693886, 90.801025, 90.732147, 90.732147, 90.738091, 90.68367, 90.678574, 90.64286, 90.60714, 90.64286, 90.64286, 90.571426, 90.375, 90.375, 90.25, 90.5, 90.581627, 90.4375, 90.785713, 90.85714, 90.765312, 90.64286, 90.64286, 90.535713, 90.67347, 90.755104, 90.714287, 90.785713, 90.714287, 90.60714, 90.64286, 90.765312, 90.64286, 90.714287, 90.75, 90.75, 90.821426, 90.85714, 90.5, 90.3125, 90.1875, 90.0625, 90, 90, 90.125, 90.25, 90.3125, 90.276787, 90.3125, 90.464287, 90.571426, 90.551025, 90.306114, 90.377548, 90.428574, 90.571426, 90.714287, 90.4375, 90.4375, 90.375, 90.25, 90.448975, 90.442856, 90.295914, 90.367348, 90.35714, 90.571426, 90.64286, 90.785713, 90.82653, 90.67347, 90.785713, 90.714287, 90.785713, 90.785713, 90.678574, 90.785713, 90.821426, 90.5, 90.541664, 90.75, 90.4375, 90.4375, 90.4375, 90.678574, 90.714287, 90.714287, 90.714287, 90.75, 90.785713, 90.785713, 90.785713, 90.4375, 90.4375, 89.916664, 89.916664, 90.099998, 90, -10, -10, -10, -10, -10, -10, -10, -10, -10, -10, -10, -10, -10, -10, -10, -10, -10, -10, -10, -10, -10, -10, -10, -10, -10, -10, -10, -10
-10, -10, -10, -10, -10, -10, -10, -10, -10, -10, -10, -10, -10, -10, -10, -10, 91, 91.619041, 91.547615, 91.571426, 91.375, 91.375, 91.419647, 91.523804, 91.612244, 91.647957, 91.67347, 91.785713, 91.872452, 91.89286, 91.821426, 91.714287, 91.526787, 91.598213, 91.625, 91.616074, 91.042854, 91.795914, 91.724487, 91.85714, 91.821426, 91.714287, 91.714287, 91.64286, 91.678574, 91.714287, 91.714287, 91.5625, 91.5625, 91.5625, 91.5, 91.4375, 91.4375, 91.4375, 91.714287, 91.714287, 91.714287, 91.678574, 91.64286, 91.64286, 91.571426, 91.535713, 91.3125, 91.25, 91.571426, 91.714287, 91.908165, 91.85714, 91.714287, 91.571426, 91.5, 91.571426, 91.60714, 91.678574, 91.75, 91.75, 91.785713, 91.663261, 91.791664, 91.827385, 91.833336, 91.60714, 91.64286, 91.535713, 91.663261, 91.645836, 91.741074, 91.75, 91.5625, 91.4375, 91.3125, 91.1875, 91.1875, 91.25, 91.535713, 91.60714, 91.3125, 91.1875, 91.0625, 91.0625, 91.0625, 91.0625, 91, 90.571426, 90.9375, 91.214287, 91.321426, 91.5, 91.535713, 91.76786, 91.719398, 91.821426, 91.821426, 91.75, 91.678574, 91.714287, 91.4375, 91.375, 91.3125, 91.1875, 91.25, 91.25, 91.25, 91.25, 91.125, 91.285713, 91.214287, 91.214287, 91.285713, 91.35714, 91.5, 91.535713, 91.375, 91.60714, 91.535713, 91.571426, 91.666664, 91.541664, 91.541664, 91.285713, 91.321426, 91.428574, 91.39286, 91.5, 91.571426, 91.64286, 91.714287, 91.678574, 91.64286, 91.678574, 91.75, 91.85714, 91.89286, 91.6875, 91.75, 91.6875, 91.6875, 91.5625, 91.4375, 91.3125, 91.39286, 91.428574, 91.428574, 91.5, 91.60714, 91.4375, 91.375, 91.571426, 91.571426, 91.571426, 91.64286, 91.678574, 91.60714, 91.464287, 91.1875, 91.25, 91.375, 91.5, 91.5, 91.5, 91.571426, 91.5, 91.5, 91.428574, 91.375, 91.4375, 91.5625, 91.625, 91.5625, 91.5625, 91.678574, 91.64286, 91.535713, 91.464287, 91.520401, 91.714287, 91.464287, 91.522453, 91.366074, 91.169647, 91.1875, 90.85714, 90.85714, 91.25, 91.3125, 91.3125, 91.637756, 91.801025, 91.836739, 91.785713, 91.75, 91.5, 91.5625, 91.625, 91.785713, 91.4375, 91.375, 91.4375, 91.647957, 91.770401, 91.541664, 91.617348, 91.653061, 91.64286, 91.64286, 91.785713, 91.85714, 91.836739, 91.785713, 91.85714, 91.5, 91.897964, 91.452377, 91.619041, 91.5625, 91.75, 91.75, 91.5, 91.607147, 91.5, 91.5, 91.5, 91.5, 91.5625, 91.625, 91.5, 91.3125, 91.25, 90.85714, 90.821426, 90.887756, 91.39286, 91.464287, 91.25, 91.3125, 91.3125, 91.25, 91.3125, 91.294647, 91.080353, 91.205353, 91.5, 91.60714, 91.714287, 91.64286, 91.64286, 91.375, 91.25, 91.520401, 91.549995, 91.403061, 91.196426, 90.928574, 91.375, 91.4375, 91.5625, 91.598213, 91.464287, 91.785713, 91.5, 91.785713, 91.785713, 91.714287, 91.821426, 91.89286, 92.083336, 92.083336, 91.785713, 91.64286, 91.571426, 91.5, 91.571426, 91.64286, 91.714287, 91.785713, 91.300003, 91.300003, 91.300003, 91.300003, 91.099998, 91.099998, -10, -10, -10, -10, -10, -10, -10, -10, -10, -10, -10, -10, -10, -10, -10, -10, -10, -10, -10, -10, -10, -10, -10, -10, -10, -10, -10, -10, -10, -10, -10, -10, -10, -10, -10, -10, -10, -10, -10, -10, -10, -10, -10, -10, -10, -10, -10, -10, -10, -10, -10, -10, -10, -10, -10, -10, -10, -10, -10, -10, -10, -10, -10, -10, -10, -10, -10, -10, -10, -10, -10, -10, -10, -10, -10, -10, -10, -10, -10, -10, -10, -10, -10, -10, -10, -10, -10, -10, -10, -10, -10, -10, 92.133331, 92.354164, 92.458336, 92.10714, 92.035713, 92.10714, 92.375, 92.5, 92.535713, 92.765305, 92.625, 92.669647, 92.6875, 92.625, 92.714287, 92.693871, 92.535713, 92.785713, 92.775513, 92.900002, 92.938774, 92.867348, 92.964287, 92.85714, 92.714287, 92.714287, 92.64286, 92.64286, 92.714287, 92.714287, 92.714287, 92.714287, 92.714287, 92.64286, 92.64286, 92.64286, 92.64286, 92.714287, 92.714287, 92.714287, 92.714287, 92.714287, 92.714287, 92.64286, 92.375, 92.3125, 92.035713, 92.178574, 92.5625, 92.943886, 92.85714, 92.785713, 92.60714, 92.56633, 92.68367, 92.678574, 92.785713, 92.5625, 92.5625, 92.785713, 92.724487, 92.678574, 92.709183, 92.714287, 92.4375, 92.5, 92.64286, 92.765312, 92.785713, 92.785713, 92.785713, 92.678574, 92.60714, 92.535713, 92.39286, 92.25, 92.3125, 92.3125, 92.3125, 92.39286, 92.214287, 92.25, 92.285713, 92.214287, 92.214287, 92.071426, 92.166664, 92.14286, 92.285713, 92.428574, 92.535713, 92.637756, 92.836739, 92.979599, 92.964287, 92.785713, 92.64286, 92.5, 92.428574, 92.35714, 92.35714, 92.39286, 92.285713, 92.428574, 92.5, 92.505104, 92.571426, 92.3125, 92.1875, 92.125, 91.85714, 92.125, 92.125, 92.25, 92.1875, 92.25, 92.375, 92.535713, 92.714287, 92.60714, 92.5, 92.535713, 92.35714, 92.125, 92.1875, 92.35714, 92.5, 92.64286, 92.678574, 92.64286, 92.64286, 92.64286, 92.5, 92.625, 92.6875, 92.6875, 92.625, 92.625, 92.5, 92.4375, 92.3125, 92.438774, 92.630959, 92.704086, 92.458336, 92.714287, 92.678574, 92.64286, 92.571426, 92.464287, 92.5, 92.5, 92.571426, 92.678574, 92.795914, 92.849998, 92.489799, 92.418373, 92.285713, 92.39286, 92.64286, 92.410713, 92.330353, 92.267853, 92.1875, 92.25, 92, 92.3125, 92.375, 92.4375, 92.714287, 92.714287, 92.714287, 92.714287, 92.714287, 92.678574, 92.64286, 92.581627, 92.571426, 92.459183, 92.342857, 92.31633, 92.204086, 92.260201, 92.736115, 92.863098, 92.714287, 92.714287, 92.64286, 92.602043, 92.765312, 92.765312, 92.5, 92.5, 92.4375, 92.714287, 92.785713, 92.714287, 92.5, 92.25, 92.5, 92.68367, 92.984688, 93.291664, 92.867348, 92.795914, 92.678574, 92.678574, 92.785713, 92.85714, 92.836739, 92.785713, 92.85714, 93.041664, 92.846939, 92.354164, 92.354164, 92.64286, 92.5625, 92.75, 92.4375, 92.375, 92.464287, 92.464287, 92.535713, 92.60714, 92.4375, 92.714287, 92.678574, 92.571426, 92.535713, 92.708336, 92.791664, 92.821434, 92.535713, 92.571426, 92.5, 92.535713, 92.39286, 92.25, 92.0625, 92.0625, 92.0625, 92.35714, 92.428574, 92.571426, 92.755104, 92.678574, 92.637756, 92.535713, 92.464287, 92.591835, 92.657143, 92.510201, 92.510201, 92.666664, 92.5, 92.571426, 92.64286, 92.68367, 92.602043, 92.5, 92.5, 92.5625, 92.5625, 92.714287, 92.785713, 92.85714, 92.964287, 92.988098, 92.349998, 92.199997, 92.050003, 91.75, 91.833336, 91.916664, 92, 92.300003, -10, -10, -10, -10, -10, -10, -10, -10, -10, -10, -10, -10, -10, -10, -10, -10, -10, -10, -10, -10, -10, -10, -10, -10, -10, -10, -10, -10, -10, -10, -10, -10, -10, -10, -10, -10, -10, -10
-10, -10, -10, -10, -10, -10, -10, -10, -10, -10, -10, -10, -10, -10, -10, -10, -10, -10, 93.761902, 93.761909, 93.875, 93.833336, 93.791664, 93.571426, 93.64286, 93.714287, 93.5625, 93.5, 93.4375, 93.4375, 93.571426, 93.64286, 93.714287, 93.714287, 93.85714, 93.887756, 93.914291, 93.821426, 93.696426, 93.75, 93.625, 93.5, 93.5, 93.4375, 93.4375, 93.785713, 93.755104, 93.591835, 93.591835, 93.571426, 93.535713, 93.535713, 93.535713, 93.535713, 93.64286, 93.714287, 93.714287, 93.714287, 93.714287, 93.714287, 93.678574, 93.60714, 93.535713, 93.75, 93.791664, 93.64286, 93.765312, 93.64286, 93.571426, 93.3125, 93.339287, 93.68367, 93.714287, 93.785713, 93.714287, 93.714287, 93.785713, 93.785713, 93.625, 93.714287, 93.75, 93.678574, 93.416664, 93.556114, 93.658165, 93.75, 93.821426, 93.785713, 93.714287, 93.678574, 93.571426, 93.39286, 93.321426, 93.285713, 93.321426, 93.1875, 93.1875, 93.125, 93.428574, 93.5, 93.1875, 93.1875, 92.785713, 93, 93.39286, 93.5, 93.60714, 93.714287, 93.81633, 93.979599, 93.989799, 93.85714, 93.4375, 93.3125, 93.25, 93, 92.928574, 93.1875, 93.5, 93.428574, 93.535713, 93.60714, 93.612244, 93.678574, 93.60714, 93.5, 93.464287, 93.666664, 93.25, 93.1875, 93.25, 93.125, 93.1875, 93.3125, 93.3125, 93.5625, 93.5, 93.4375, 93.375, 93.125, 93.0625, 93.125, 93.1875, 93.375, 93.714287, 93.714287, 93.4375, 93.375, 93.375, 93.375, 93.64286, 93.714287, 93.714287, 93.714287, 93.64286, 93.375, 93.3125, 93.1875, 93.258926, 93.702385, 93.811226, 94.041664, 93.785713, 93.75, 93.678574, 93.678574, 93.375, 93.4375, 93.4375, 93.4375, 93.64286, 93.724487, 93.814285, 93.303574, 93.561226, 93.464287, 93.535713, 93.714287, 93.647957, 93.330353, 93.267853, 93.1875, 93.25, 93.666664, 93.5, 93.571426, 93.64286, 93.64286, 93.64286, 93.64286, 93.64286, 93.714287, 93.714287, 93.714287, 93.4375, 93.375, 93.3125, 93.035713, 92.964287, 92.89286, 93.474487, 93.666672, 93.775513, 93.821426, 93.785713, 93.64286, 93.276787, 93.419647, 93.419647, 93.4375, 93.5, 93.714287, 93.785713, 93.85714, 93.5625, 93.3125, 93.25, 93.3125, 93.719383, 94.020401, 94.061226, 93.710205, 93.785713, 93.632652, 93.714287, 93.5625, 93.5625, 93.482147, 93.663261, 93.799995, 93.770401, 93.616074, 93.291664, 93.354164, 93.4375, 93.714287, 93.75, 93.60714, 93.3125, 93.241074, 93.112503, 93.303574, 93.561226, 93.571426, 93.571426, 93.5, 93.464287, 93.571426, 93.678574, 93.821426, 93.846939, 93.678574, 93.678574, 93.60714, 93.64286, 93.535713, 93.39286, 93.35714, 93.35714, 93.35714, 93.464287, 93.5, 93.60714, 93.755104, 93.785713, 93.526787, 93.678574, 93.64286, 93.653061, 93.685715, 93.612244, 93.612244, 93.571426, 93.60714, 93.64286, 93.4375, 93.473213, 93.401787, 93.4375, 93.150002, 93.199997, 93.199997, 93.199997, 93.083336, 93.166664, 93.333336, 93.361115, -10, -10, -10, -10, -10, -10, -10, -10, -10, -10, -10, -10, -10, -10, -10, -10, -10, -10, -10, -10, -10, -10, -10, -10, -10, -10, -10, -10, -10, -10, -10, -10, -10, -10, -10, -10, -10, -10, -10, -10, -10, -10, -10, -10, -10, -10, -10, -10, -10, -10, -10, -10, -10, -10, -10, -10, -10, -10, -10, -10, -10, -10, -10, -10, -10, -10, -10, -10, -10, -10, -10, -10, -10, -10, -10, -10, -10, -10, -10, -10, -10, -10, -10, -10, -10, -10, -10, -10, -10, -10, -10, -10, -10, -10, -10, -10, -10, -10, -10, -10, -10, -10, -10, -10, -10, -10, -10, 94.333328, 94.366676, 94.75, 94.714287, 94.678574, 94.64286, 94.678574, 94.714287, 94.785713, 94.5625, 94.25, 94.285713, 94.285713, 94.35714, 94.666664, 94.666664, 95.035713, 94.8125, 94.8125, 94.75, 94.625, 94.625, 94.5625, 94.5, 94.5, 94.64286, 94.64286, 94.785713, 94.755104, 94.455353, 94.455353, 94.4375, 94.214287, 94.214287, 94.25, 94.25, 94.5625, 94.785713, 94.714287, 94.714287, 94.714287, 94.714287, 94.714287, 94.678574, 94.64286, 94.678574, 94.678574, 94.678574, 94.544647, 94.4375, 94.14286, 94.3125, 94.339287, 94.473213, 94.785713, 94.85714, 94.785713, 94.785713, 94.5625, 94.5625, 94.785713, 94.836739, 94.89286, 94.846939, 94.291664, 94.267853, 94.357147, 94.4375, 94.5625, 94.5625, 94.714287, 94.64286, 94.3125, 94.1875, 94.0625, 94, 94, 93.9375, 94.178574, 94.178574, 94.25, 94.285713, 94.285713, 94.35714, 94.583336, 94.666664, 94.428574, 94.5, 94.5, 94.60714, 94.765312, 94.669647, 94.741074, 94.625, 94.4375, 94.3125, 94.25, 94.666664, 94.666664, 94.5, 94.5, 94.39286, 94.484688, 94.773811, 94.841843, 94.928574, 94.821426, 94.64286, 94.535713, 94.5, 94.464287, 94.35714, 94.464287, 94.321426, 94.321426, 94.464287, 94.464287, 94.64286, 94.64286, 94.60714, 94.535713, 94.35714, 94.25, 94.285713, 94.35714, 94.464287, 94.571426, 94.571426, 94.5, 94.3125, 94.4375, 94.4375, 94.5, 94.785713, 94.714287, 94.714287, 94.4375, 94.375, 94.25, 94.1875, 94.438774, 94.702385, 94.811226, 94.821426, 94.75, 94.714287, 94.714287, 94.714287, 94.64286, 94.64286, 94.64286, 94.64286, 94.4375, 94.508926, 94.587502, 94.366074, 94.632652, 94.571426, 94.571426, 94.64286, 94.505104, 94.341835, 94.377548, 94.39286, 94.535713, 94.571426, 94.60714, 94.64286, 94.678574, 94.4375, 94.4375, 94.4375, 94.4375, 94.714287, 94.714287, 94.714287, 94.64286, 94.571426, 94.5, 94.75, 94.75, 94.75, 94.510201, 94.768715, 94.959183, 94.928574, 94.928574, 94.5, 94.3125, 94.3125, 94.3125, 94.535713, 94.678574, 94.75, 94.785713, 94.821426, 94.75, 94.571426, 94.60714, 94.64286, 94.598213, 94.830353, 94.803574, 94.496429, 94.5625, 94.491074, 94.785713, 94.785713, 94.5, 94.4375, 94.517853, 94.637497, 94.642853, 94.553574, 94.452377, 94.523804, 94.571426, 94.714287, 94.5, 94.5, 94.428574, 94.116074, 93.987503, 94.241074, 94.366074, 94.75, 94.25, 94.214287, 94.214287, 94.35714, 94.5, 94.64286, 94.857147, 94.619041, 94.510201, 94.39286, 94.510201, 94.738098, 94.739799, 94.75, 94.678574, 94.60714, 94.571426, 94.571426, 94.64286, 94.755104, 94.785713, 94.744896, 94.714287, 94.714287, 94.785713, 94.809525, 94.199997, 94.199997, 94.199997, 94.199997, 94.199997, 94.099998, 94.099998, 94.099998, 94.099998, -10, -10, -10, -10, -10, -10, -10, -10, -10, -10, -10, -10, -10, -10, -10, -10, -10, -10, -10, -10, -10, -10, -10, -10, -10, -10, -10, -10, -10, -10, -10, -10, -10, -10, -10, -10, -10, -10, -10, -10, -10, -10, -10, -10, -10, -10, -10, -10, -10, -10, -10, -10, -10, -10
-10, -10, -10, -10, -10, -10, -10, -10, -10, -10, -10, -10, -10, -10, -10, -10, -10, -10, -10, -10, 95.166664, 95.166664, 95.083336, 95.714287, 95.714287, 95.714287, 95.85714, 95.85714, 96.083336, 96.166664, 96.083336, 96.125, 96.166664, 96.166664, 96, 95.928574, 95.89286, 95.625, 95.5625, 95.5625, 95.714287, 95.678574, 95.678574, 95.678574, 95.75, 95.928574, 95.969383, 95.877548, 95.806114, 95.714287, 95.916664, 95.916664, 96, 96, 95.785713, 95.785713, 95.714287, 95.714287, 95.714287, 95.714287, 95.64286, 95.64286, 95.64286, 95.4375, 95.5, 95.4375, 95.375, 95.5, 95.666664, 95.464287, 95.622452, 95.535713, 95.85714, 95.89286, 95.85714, 95.85714, 95.785713, 95.714287, 95.714287, 95.785713, 95.928574, 95.989799, 95.416664, 95.330353, 95.25, 95.3125, 95.4375, 95.714287, 95.714287, 95.4375, 95.375, 95.285713, 95.017853, 94.883926, 94.8125, 94.75, 94.875, 94.9375, 95.0625, 94.85714, 95.39286, 95.464287, 95.5, 95.571426, 95.535713, 95.571426, 95.375, 95.285713, 95.6875, 95.6875, 95.5625, 95.375, 95.464287, 95.35714, 95.39286, 95.428574, 95.428574, 95.535713, 95.5, 95.428574, 95.267853, 95.738098, 95.85714, 95.89286, 95.821426, 95.714287, 95.4375, 95.4375, 95.60714, 95.428574, 95.428574, 95.25, 95.214287, 95.39286, 95.464287, 95.375, 95.535713, 95.535713, 95.464287, 95.428574, 95.428574, 95.35714, 95.428574, 95.25, 95.3125, 95.375, 95.375, 95.60714, 95.75, 95.75, 95.714287, 95.785713, 95.714287, 95.714287, 95.64286, 95.60714, 95.5, 95.464287, 95.469383, 95.395836, 95.491074, 95.5, 95.4375, 95.375, 95.5, 95.464287, 95.428574, 95.428574, 95.5, 95.464287, 95.428574, 95.321426, 95.275002, 95.17347, 95.306129, 95.595238, 95.647957, 95.53125, 95.165817, 94.984688, 95.330353, 95.64286, 95.678574, 95.714287, 95.714287, 95.714287, 95.714287, 95.64286, 95.64286, 95.64286, 95.64286, 95.714287, 95.714287, 95.714287, 95.678574, 95.64286, 95.60714, 95.571426, 95.571426, 95.571426, 95.540817, 95.610123, 95.776787, 95.75, 95.75, 95.5, 95.535713, 95.535713, 95.535713, 95.60714, 95.714287, 95.785713, 95.714287, 95.64286, 95.535713, 95.35714, 95.5, 95.571426, 95.714287, 95.6875, 95.553574, 95.425003, 95.491074, 95.704086, 95.785713, 95.785713, 95.714287, 95.64286, 95.663261, 95.728569, 95.663261, 95.60714, 95.60714, 95.678574, 95.678574, 95.785713, 95.375, 95.25, 95.428574, 95.053574, 95.271431, 95.525513, 95.632652, 95.785713, 96, 96.041664, 96.041664, 96.083336, 96.125, 96.166664, 95.918373, 95.354164, 95.196426, 95.0625, 95.133926, 95.630959, 95.775513, 95.85714, 95.785713, 95.714287, 95.64286, 95.64286, 95.150002, 95.047615, 95.300003, 95.271431, 95.25, 95.25, 95.300003, 95.333336, -10, -10, -10, -10, -10, -10, -10, -10, -10, -10, -10, -10, -10, -10, -10, -10, -10, -10, -10, -10, -10, -10, -10, -10, -10, -10, -10, -10, -10, -10, -10, -10, -10, -10, -10, -10, -10, -10, -10, -10, -10, -10, -10, -10, -10, -10, -10, -10, -10, -10, -10, -10, -10, -10, -10, -10, -10, -10, -10, -10, -10, -10, -10, -10, -10, -10, -10, -10, -10, -10, -10, -10, -10, -10, -10, -10, -10, -10, -10, -10, -10, -10, -10, -10, -10, -10, -10, -10, -10, -10, -10, -10, -10, -10, -10, -10, -10, -10, -10, -10, -10, -10, -10, -10, -10, -10, -10, -10, -10, -10, -10, -10, -10, -10, -10, -10, -10, -10, -10, -10, -10, -10, -10, -10, -10, -10, -10, -10, -10, 96.199997, 96.199997, 96.199997, 96.85714, 96.89286, 96.928574, 97, 96.928574, 96.964287, 97, 97, 96.75, 96.625, 96.5, 96.4375, 96.571426, 96.64286, 96.714287, 96.714287, 96.785713, 96.785713, 96.85714, 96.964287, 96.948982, 96.938774, 96.867348, 96.785713, 96.785713, 96.785713, 96.85714, 96.85714, 96.821426, 96.785713, 96.714287, 96.714287, 96.714287, 96.714287, 96.4375, 96.4375, 96.4375, 96.375, 96.4375, 96.60714, 96.571426, 96.60714, 96.571426, 96.60714, 96.714287, 96.75, 96.85714, 96.85714, 96.85714, 96.85714, 96.785713, 96.714287, 96.5, 96.5625, 96.6875, 96.803574, 96.707481, 96.459175, 96.404762, 96.535713, 96.64286, 96.785713, 96.714287, 96.64286, 96.60714, 96.540817, 96.270401, 96.153061, 95.571426, 95.60714, 95.75, 96.1875, 96.1875, 96.583336, 96.428574, 96.5, 96.571426, 96.571426, 96.5, 96.5, 96.571426, 96.916664, 96.785713, 96.785713, 96.75, 96.64286, 96.64286, 96.571426, 96.3125, 96.375, 96.375, 96.4375, 96.3125, 96.25, 96.267853, 96.458336, 96.836739, 96.85714, 96.785713, 96.714287, 96.64286, 96.64286, 96.64286, 96.3125, 96.3125, 96.1875, 96.125, 96.25, 96.535713, 96.375, 96.375, 96.375, 96.3125, 96.571426, 96.571426, 96.5, 96.535713, 96.3125, 96.3125, 96.64286, 96.714287, 96.75, 96.89286, 96.821426, 96.678574, 96.714287, 96.64286, 96.64286, 96.678574, 96.678574, 96.60714, 96.60714, 96.375, 96.3125, 96.3125, 96.3125, 96.3125, 96.3125, 96.25, 96.276787, 96.091835, 96.071426, 96.178574, 96.3125, 96.25, 96.25, 95.85714, 95.785713, 95.918373, 96.458336, 96.68367, 96.678574, 96.833336, 96.791664, 96.64286, 96.785713, 96.785713, 96.785713, 96.785713, 96.64286, 96.571426, 96.535713, 96.535713, 96.60714, 96.678574, 96.714287, 96.714287, 96.714287, 96.714287, 96.714287, 96.714287, 96.5, 96.5, 96.4375, 96.401787, 96.867348, 96.948975, 96.928574, 96.928574, 96.678574, 96.571426, 96.5, 96.428574, 96.464287, 96.571426, 96.5, 96.4375, 96.401787, 96.204086, 96.102043, 96.285713, 96.321426, 96.625, 96.785713, 96.530617, 96.457146, 96.530617, 96.67347, 96.785713, 96.785713, 96.75, 96.714287, 96.724487, 96.757141, 96.724487, 96.64286, 96.678574, 96.714287, 96.714287, 96.785713, 96.4375, 96.4375, 96.4375, 96.530617, 96.528572, 96.602043, 96.67347, 96.75, 96.785713, 96.75, 96.678574, 96.785713, 96.821426, 96.85714, 96.846939, 96.291664, 96.113091, 95.416664, 95.511902, 95.94445, 96.154762, 96.5, 96.400002, 96.300003, 96.199997, 96.199997, -10, -10, -10, -10, -10, -10, -10, -10, -10, -10, -10, -10, -10, -10, -10, -10, -10, -10, -10, -10, -10, -10, -10, -10, -10, -10, -10, -10, -10, -10, -10, -10, -10, -10, -10, -10, -10, -10, -10, -10, -10, -10, -10, -10, -10, -10, -10, -10, -10, -10, -10, -10, -10, -10, -10, -10, -10, -10, -10, -10, -10, -10, -10, -10, -10, -10, -10, -10, -10, -10, -10
-10, -10, -10, -10, -10, -10, -10, -10, -10, -10, -10, -10, -10, -10, -10, -10, -10, -10, -10, -10, -10, -10, -10, -10, -10, -10, 97.166664, 97.25, 97.333336, 97.416664, 97.625, 97.583336, 97.625, 97.5625, 97.5, 97.375, 97.25, 97.25, 97.3125, 97.4375, 97.714287, 97.714287, 97.785713, 97.85714, 97.897957, 97.887756, 97.928574, 97.6875, 97.6875, 97.625, 97.625, 97.625, 97.6875, 97.6875, 97.625, 97.5625, 97.714287, 97.714287, 97.714287, 97.714287, 97.64286, 97.64286, 97.64286, 97.571426, 97.64286, 97.64286, 97.64286, 97.714287, 97.714287, 97.714287, 97.785713, 97.785713, 97.625, 97.625, 97.625, 97.625, 97.714287, 97.571426, 97.5, 97.571426, 97.836739, 97.979599, 97.790817, 97.591835, 97.476189, 97.64286, 97.60714, 97.64286, 97.571426, 97.535713, 97.64286, 97.612244, 97.413261, 97.331627, 97.458336, 97.583336, 97.625, 97.5, 97.5, 97.5, 97.535713, 97.5, 97.535713, 97.3125, 97.25, 97.3125, 97.64286, 97.785713, 97.821426, 97.821426, 97.785713, 97.64286, 97.571426, 97.428574, 97.285713, 97.35714, 97.428574, 97.571426, 97.535713, 97.428574, 97.367348, 97.270836, 97.357147, 97.4375, 97.4375, 97.64286, 97.678574, 97.678574, 97.678574, 97.571426, 97.535713, 97.464287, 97.428574, 97.464287, 97.464287, 97.39286, 97.35714, 97.428574, 97.5, 97.64286, 97.678574, 97.678574, 97.678574, 97.64286, 97.64286, 97.714287, 97.785713, 97.821426, 97.89286, 97.625, 97.5, 97.5, 97.4375, 97.4375, 97.714287, 97.714287, 97.678574, 97.60714, 97.535713, 97.39286, 97.39286, 97.464287, 97.464287, 97.535713, 97.25, 97.214287, 97.714287, 97.666664, 97.791664, 97.5, 97.5, 97.5, 97.708336, 97.75, 97.869049, 97.880959, 97.862244, 97.75, 97.571426, 97.535713, 97.571426, 97.75, 97.785713, 97.785713, 97.785713, 97.4375, 97.375, 97.375, 97.375, 97.4375, 97.714287, 97.714287, 97.714287, 97.714287, 97.714287, 97.714287, 97.714287, 97.64286, 97.64286, 97.375, 97.56633, 97.887756, 97.928574, 97.928574, 97.89286, 97.714287, 97.4375, 97.4375, 97.14286, 97.178574, 97.25, 97.5625, 97.4375, 97.339287, 97.851196, 97.904762, 98.083336, 98.125, 97.862244, 97.526787, 97.375, 97.3125, 97.375, 97.5625, 97.625, 97.625, 97.625, 97.5625, 97.5625, 97.5625, 97.5625, 97.60714, 97.60714, 97.535713, 97.535713, 97.64286, 97.60714, 97.714287, 97.714287, 97.678574, 97.714287, 97.678574, 97.785713, 97.645836, 97.166664, 97.166664, 97.083336, 97.166664, 97.166664, 97.166664, 97.154762, 96.933334, 96.723801, -10, -10, -10, -10, -10, -10, -10, -10, -10, -10, -10, -10, -10, -10, -10, -10, -10, -10, -10, -10, -10, -10, -10, -10, -10, -10, -10, -10, -10, -10, -10, -10, -10, -10, -10, -10, -10, -10, -10, -10, -10, -10, -10, -10, -10, -10, -10, -10, -10, -10, -10, -10, -10, -10, -10, -10, -10, -10, -10, -10, -10, -10, -10, -10, -10, -10, -10, -10, -10, -10, -10, -10, -10, -10, -10, -10, -10, -10, -10, -10, -10, -10, -10, -10, -10, -10, -10, -10, -10, -10, -10, -10, -10, -10, -10, -10, -10, -10, -10, -10, -10, -10, -10, -10, -10, -10, -10, -10, -10, -10, -10, -10, -10, -10, -10, -10, -10, -10, -10, -10, -10, -10, -10, -10, -10, -10, -10, -10, -10, -10, -10, -10, -10, -10, -10, -10, -10, -10, -10, -10, -10, -10, -10, -10, -10, -10, -10, -10, -10, -10, -10, -10, -10, 97.833336, 97.777779, 97.833336, 98.0625, 98.0625, 98.0625, 98.0625, 98.1875, 98.3125, 98.64286, 98.714287, 98.64286, 98.714287, 98.785713, 98.598213, 98.651787, 98.6875, 98.625, 98.625, 98.5625, 98.714287, 98.714287, 98.714287, 98.785713, 98.785713, 98.785713, 98.785713, 98.714287, 98.714287, 98.64286, 98.60714, 98.60714, 98.60714, 98.714287, 98.821426, 98.821426, 98.821426, 98.785713, 98.714287, 98.714287, 98.5625, 98.5625, 98.5625, 98.5625, 98.5625, 98.5625, 98.4375, 98.25, 98.125, 98.403061, 98.931969, 99.06633, 98.723213, 98.517853, 98.416664, 98.785713, 98.5, 98.4375, 98.3125, 98.3125, 98.4375, 98.473213, 98.510201, 98.397957, 98.377548, 98.64286, 98.678574, 98.714287, 98.60714, 98.571426, 98.5, 98.25, 98.25, 98.1875, 98.25, 98.571426, 98.5, 98.5625, 98.5625, 98.5625, 98.714287, 98.678574, 98.3125, 98.125, 98, 98.0625, 98.428574, 98.60714, 98.535713, 98.321426, 97.892853, 97.8125, 97.9375, 98.169647, 98.3125, 98.4375, 98.64286, 98.571426, 98.5, 98.39286, 98.428574, 98.464287, 98.464287, 98.428574, 98.125, 98.0625, 98.125, 98.540817, 98.64286, 98.75, 98.714287, 98.75, 98.75, 98.75, 98.75, 98.785713, 98.625, 98.625, 98.625, 98.5625, 98.64286, 98.64286, 98.64286, 98.64286, 98.714287, 98.714287, 98.714287, 98.46875, 98.714287, 98.354164, 98.354164, 98.714287, 98.64286, 98.64286, 98.535713, 98.530617, 98.612244, 98.571426, 98.678574, 98.60714, 98.60714, 98.60714, 98.60714, 98.64286, 98.744896, 98.90477, 98.877548, 98.59375, 98.46875, 98.4375, 98.4375, 98.5625, 98.785713, 98.785713, 98.785713, 98.64286, 98.571426, 98.571426, 98.571426, 98.64286, 98.714287, 98.714287, 98.714287, 98.714287, 98.714287, 98.714287, 98.714287, 98.678574, 98.678574, 98.60714, 98.637756, 98.607147, 98.544647, 98.5625, 98.5, 98.64286, 98.64286, 98.64286, 98.875, 98.958336, 98.916664, 98.714287, 98.60714, 98.530617, 98.729599, 98.775513, 98.89286, 98.928574, 98.862244, 98.464287, 98.571426, 98.3125, 98.571426, 98.714287, 98.785713, 98.785713, 98.785713, 98.714287, 98.714287, 98.714287, 98.714287, 98.4375, 98.4375, 98.375, 98.375, 97.916664, 98.150002, 98.349998, 98.349998, 98.349998, 98.300003, 98.199997, 98.300003, 98.233337, -10, -10, -10, -10, -10, -10, -10, -10, -10, -10, -10, -10, -10, -10, -10, -10, -10, -10, -10, -10, -10, -10, -10, -10, -10, -10, -10, -10, -10, -10, -10, -10, -10, -10, -10, -10, -10, -10, -10, -10, -10, -10, -10, -10, -10, -10, -10, -10, -10, -10, -10, -10, -10, -10, -10, -10, -10, -10, -10, -10, -10, -10, -10, -10, -10, -10, -10, -10, -10, -10, -10, -10, -10, -10, -10, -10, -10, -10, -10, -10, -10, -10, -10, -10, -10, -10, -10, -10, -10
-10, -10, -10, -10, -10, -10, -10, -10, -10, -10, -10, -10, -10, -10, -10, -10, -10, -10, -10, -10, -10, -10, -10, -10, -10, -10, -10, -10, -10, -10, -10, -10, -10, 98.416664, 98.416664, 98.416664, 98.599998, 99.14286, 99.380959, 99.535713, 99.571426, 99.375, 99.4375, 99.5, 99.473213, 99.464287, 99.64286, 99.571426, 99.714287, 99.714287, 99.714287, 99.785713, 99.785713, 99.85714, 99.85714, 99.785713, 99.785713, 99.714287, 99.714287, 99.4375, 99.4375, 99.5, 99.5625, 99.928574, 100, 99.928574, 99.85714, 99.785713, 99.714287, 99.714287, 99.714287, 99.714287, 99.714287, 99.714287, 99.714287, 99.714287, 99.4375, 99.3125, 98.964287, 99.321426, 99.931969, 99.994896, 99.877548, 99.724487, 99.666664, 99.785713, 99.64286, 99.3125, 99.1875, 99.1875, 99.3125, 99.571426, 99.1875, 99.0625, 99.1875, 99.491074, 99.5625, 99.5625, 99.4375, 99.60714, 99.25, 99.1875, 99.25, 99.428574, 99.377548, 99.520401, 99.535713, 99.375, 99.4375, 99.375, 99.375, 99.3125, 99.1875, 99.125, 99.0625, 99.1875, 99.3125, 99.64286, 99.484688, 98.6875, 98.455353, 98.625, 98.830353, 99.169647, 99.3125, 99.64286, 99.4375, 99.3125, 99.1875, 99.125, 99.1875, 99.3125, 99.375, 99.3125, 99.1875, 99.125, 99.25, 99.612244, 99.714287, 99.785713, 99.714287, 99.785713, 99.785713, 99.785713, 99.785713, 99.5625, 99.5, 99.4375, 99.375, 99.5, 99.535713, 99.60714, 99.678574, 99.75, 99.785713, 99.785713, 99.785713, 99.678574, 99.75, 99.958336, 99.958336, 99.785713, 99.64286, 99.64286, 99.60714, 99.622452, 99.535713, 99.714287, 99.5625, 99.714287, 99.714287, 99.714287, 99.785713, 99.85714, 99.928574, 100, 99.964287, 99.821426, 99.75, 99.678574, 99.64286, 99.5, 99.4375, 99.4375, 99.4375, 99.60714, 99.64286, 99.64286, 99.64286, 99.678574, 99.714287, 99.714287, 99.714287, 99.714287, 99.714287, 99.714287, 99.714287, 99.714287, 99.714287, 99.678574, 99.693886, 99.544647, 99.482147, 99.5, 99.4375, 99.4375, 99.678574, 99.714287, 99.75, 99.821426, 99.85714, 99.89286, 99.583336, 99.280617, 99.732147, 99.741074, 99.75, 99.75, 99.660713, 99.67347, 99.64286, 99.571426, 99.64286, 99.75, 99.785713, 99.785713, 99.785713, 99.199997, 99.199997, 99.199997, 99.199997, 99.099998, 99, 98.900002, 98.900002, -10, -10, -10, -10, -10, -10, -10, -10, -10, -10, -10, -10, -10, -10, -10, -10, -10, -10, -10, -10, -10, -10, -10, -10, -10, -10, -10, -10, -10, -10, -10, -10, -10, -10, -10, -10, -10, -10, -10, -10, -10, -10, -10, -10, -10, -10, -10, -10, -10, -10, -10, -10, -10, -10, -10, -10, -10, -10, -10, -10, -10, -10, -10, -10, -10, -10, -10, -10, -10, -10, -10, -10, -10, -10, -10, -10, -10, -10, -10, -10, -10, -10, -10, -10, -10, -10, -10, -10, -10, -10, -10, -10, -10, -10, -10, -10, -10, -10, -10, -10, -10, -10, -10, -10, -10, -10, -10, -10, -10, -10, -10, -10, -10, -10, -10, -10, -10, -10, -10, -10, -10, -10, -10, -10, -10, -10, -10, -10, -10, -10, -10, -10, -10, -10, -10, -10, -10, -10, -10, -10, -10, -10, -10, -10, -10, -10, -10, -10, -10, -10, -10, -10, -10, -10, -10, -10, -10, -10, -10, -10, -10, -10, -10, -10, -10, -10, -10, -10, -10, -10, -10, -10, -10, -10, -10, -10, -10, -10, 99.416664, 99.69445, 99.833336, 100.375, 100.375, 100.375, 100.4375, 100.41071, 100.40179, 100.4375, 100.53571, 100.64286, 100.64286, 100.64286, 100.78571, 100.78571, 100.85714, 100.85714, 100.78571, 100.78571, 100.71429, 100.71429, 100.64286, 100.64286, 100.71429, 100.85714, 101, 101.07143, 101, 100.85714, 100.78571, 100.71429, 100.71429, 100.71429, 100.71429, 100.64286, 100.57143, 100.57143, 100.57143, 100.60714, 100.57143, 100.70834, 100.54591, 100.69048, 100.65179, 100.78571, 100.64286, 100.60714, 100.64286, 100.53571, 100.42857, 100.35714, 100.35714, 100.39286, 100.46429, 100.125, 99.846939, 100, 100.49107, 100.59184, 100.57143, 100.5, 100.5, 100.125, 100.13776, 100.25, 100.37245, 100.20535, 100.45535, 100.46875, 100.46875, 100.75, 100.40625, 100.3125, 100.25, 100.125, 100.32143, 100.35714, 100.46429, 100.57143, 100.67857, 100.33035, 99.446426, 99.216835, 99.410713, 100.12755, 100.32143, 100.42857, 100.53571, 100.57143, 100.3125, 100.1875, 100.125, 100.1875, 100.25, 100.42857, 100.39286, 100.28571, 100.32143, 100.53571, 100.61224, 100.67857, 100.71429, 100.64286, 100.5625, 100.5625, 100.5625, 100.5625, 100.71429, 100.4375, 100.375, 100.25, 100.25, 100.3125, 100.375, 100.71429, 100.78571, 100.78571, 100.78571, 100.78571, 100.71429, 100.78571, 100.82143, 100.82143, 100.89286, 100.82143, 100.5625, 100.5625, 100.5, 100.71429, 100.78571, 100.78571, 100.85714, 100.85714, 100.78571, 100.625, 100.625, 100.6875, 100.75, 100.71875, 100.82143, 100.82143, 100.75, 100.71429, 100.75, 100.4375, 100.4375, 100.4375, 100.4375, 100.71429, 100.64286, 100.64286, 100.64286, 100.64286, 100.71429, 100.71429, 100.71429, 100.71429, 100.71429, 100.78571, 100.78571, 100.78571, 100.78571, 100.71429, 100.64286, 100.57143, 100.64286, 100.64286, 100.71429, 100.78571, 100.5625, 100.625, 100.6875, 100.6875, 100.85714, 101.08334, 101.04166, 100.85714, 100.78571, 100.78571, 100.6875, 100.70238, 100.17143, 100.2, 100.15, 100.2, 100.08334, 100.08334, 100.08334, 100.08334, -10, -10, -10, -10, -10, -10, -10, -10, -10, -10, -10, -10, -10, -10, -10, -10, -10, -10, -10, -10, -10, -10, -10, -10, -10, -10, -10, -10, -10, -10, -10, -10, -10, -10, -10, -10, -10, -10, -10, -10, -10, -10, -10, -10, -10, -10, -10, -10, -10, -10, -10, -10, -10, -10, -10, -10, -10, -10, -10, -10, -10, -10, -10, -10, -10, -10, -10, -10, -10, -10, -10, -10, -10, -10, -10, -10, -10, -10, -10, -10, -10, -10, -10, -10, -10, -10, -10, -10, -10, -10, -10, -10, -10, -10, -10, -10, -10, -10, -10, -10, -10, -10, -10, -10, -10, -10
