41, 40.75, 40.5, 40.25, 39.9375, 40, 39.848213, 39.607143, 39.294643, 39.03125, 38.96875, 38.84375, 38.65625, 38.40625, 38.120537, 37.9375, 37.9375, 37.75, 37.375, 36.982143, 36.8125, 36.6875, 36.5625, 36.4375, 36.1875, 36.0625, 36, 35.6875, 35.5, 35.25, 35.0625, 35.0625, 34.741074, 34.229168, 33.910713, 33.6875, 33.5625, 33.625, 33.4375, 33.3125, 33.169643, 32.901787, 32.9375, 33.071426, 33.6875, 33.75, 33.75, 33.4375, 33.1875, 33, 32.9375, 32.9375, 32.9375, 32.9375, 33, 32.875, 32.625, 32.375, 32.1875, 32.125, 32.125, 32.125, 32.0625, 32, 32, 32, 31.90625, 31.65625, 31.40625, 31.21875, 31.0625, 31.0625, 31.0625, 31, 31, 30.9375, 30.8125, 30.625, 30.40625, 30.1875, 30, 29.875, 29.84375, 29.875, 29.75, 29.5625, 28.357143, 24.1, 23, 21.875, 21.625, 21.25, 20.558035, 19.35, 18.023811, 17.142857, 16.220238, 15.059524, 14.303572, 13.633928, 12.619047, 11.184524, 10.303572, 8.791667, 8.3214283, 8, 8, 8, 8.0625, 8.1875, 8.1875, 8.1875, 8.1875, 8.1875, 8.21875, 8.28125, 8.21875, 8.09375, 8.0625, 8, 8, 7.9375, 7.5982141, 6.854167, 6.5, 6.1875, 6.1875, 6.0625, 6, 6, 6, 5.75, 5.5625, 5.46875, 5.46875, 5.71875, 5.90625, 6.25, 6.75, 7.7142859, 8.4285717, 8.75, 8.9375, 9, 9.0625, 9.0625, 9.1875, 9.1875, 9.125, 9.125, 9.0625, 9.0625, 9.0625, 9.0625, 8.9375, 8.75, 8.75, 8.6875, 8.75, 8.875, 8.875, 8.9375, 9, 9.125, 9.208333, 9.666667, -10, -10, -10, -10, -10, -10, 17.358334, 16.766666, 16.75, 16.758928, 17.306547, 18.440477, 19.196428, 19.642857, 19.9375, 20.294643, 20.625, 20.982143, 21.321428, 21.75, 21.8125, 21.964287, 22.348213, 22.544643, 23.03125, 23.40625, 23.71875, 23.96875, 23.866072, 23.625, 23.491072, 23.041666, 22.946428, 22.75, 22.59375, 22.46875, 22.28125, 22, 21.745537, 21.513393, 21.200893, 20.866072, 20.392857, 20.071428, 19.883928, 20.486113, 20.523809, 20.333334, -10, -10, -10, 15.857142, 16.257143, 18.412699, 18.107639, 17.46875, 16.973959, 17.359375, 18.309525, 18.833334, 19.587303, 19.928572, 20.125, 20.34375, 20.458334, -10, -10, -10, 23.458334, 23.695238, 23.875, 23.9375, 24, 24, 24.1875, 24.25, 24.428572, 24.794643, 25.098215, 25.294643, 25.375, 25.375, 25.4375, 25.5625, 25.6875, 25.875, 25.875, 25.9375, 25.9375, 26.196428, 26.625, 26.8125, 27.1875, 27.3125, 27.5, 27.6875, 27.8125, 28, 28.232143, 28.5, 28.6875, 28.8125, 28.9375, 28.9375, 29, 29, 29.196428, 29.5, 29.5625, 29.75, 29.839287, 30.107143, 30.491072, 30.625, 30.732143, 30.830357, 31.065477, 31.107143, 31.25, 31.482143, 31.625, 31.875, 32, 32, 32.0625, 32.3125, 32.5625, 32.8125, 33.125, 33.3125, 33.375, 33.5625, 33.794643, 33.8125, 34, 33.9375, 34.080357, 34.458332, 34.857143, 35.0625, 35.3125, 35.5625, 35.875, 36.357143, 36.5, 36.625, 36.6875, 36.6875, 36.9375, 37.008926, 37, 37.428574, 37.690475, 37.928574, 37.9375, 37.8125, 37.982143, 38.471725, 38.959824, 39.46875, 39.53125, 39.455357, 39.321426, 39.1875, 39.321426, 39.5, -10, -10, -10, -10, -10, -10, -10, -10, -10, -10, -10, -10, -10, -10, -10, -10, -10, -10, -10, -10, -10, -10, -10, -10, -10, -10, -10, 40.125, 40.599998, 41.339287, 41.964287, 42.5, 42.6875, 42.9375, 42.9375, 42.6875, 42.5, 42.25, 42, 42, 41.75, 41.5, 41.25, 41, 41, 40.75, 40.5, 40.25, 39.90625, 39.84375, 39.629463, 39.388393, 39.120537, 38.875, 38.8125, 38.625, 38.46875, 38.34375, 38.15625, 38, 37.928574, 37.5625, 37.375, 37.125, 36.9375, 36.839287, 36.6875, 36.5, 36.3125, 36.125, 36.0625, 35.785713, 35.517857, 35.258926, 35.0625, 35.0625, 34.741074, 34.166668, 33.741074, 33.5625, 33.4375, 33.625, 33.5625, 33.5, 33.419643, 33.089287, 33.125, 33.133926, 33.625, 33.625, 33.5625, 33.3125, 33.125, 33, 33, 33, 33, 33, 33, 32.875, 32.6875, 32.4375, 32.25, 32.1875, 32.125, 32.125, 32.0625, 32, 32, 32, 31.96875, 31.71875, 31.46875, 31.21875, 31, 31, 31, 31, 31, 30.875, 30.6875, 30.5, 30.34375, 30.25, 30.125, 30, 29.90625, 29.875, 29.75, 29.5625, 28.598215, 24.590475, 23.333334, 22.053572, 21.5625, 21.25, 20.665178, 19.35, 18.172621, 17.214285, 16.375, 15.130952, 14.25, 13.526786, 12.869047, 11.25, 10.375, 8.791667, 8.3214283, 8, 8, 8, 8.125, 8.3125, 8.3125, 8.375, 8.2946434, 8.1875, 8.3973217, 8.3883934, 8.34375, 8.15625, 8.0625, 8, 8, 8, 7.6607141, 6.854167, 6.3928571, 6.0625, 6.0625, 6, 6, 6, 5.9375, 5.6875, 5.5803571, 5.59375, 5.59375, 5.84375, 5.90625, 6.25, 6.75, 7.7142859, 8.4285717, 8.75, 8.9375, 8.875, 8.9375, 8.9375, 9.0625, 9.1875, 9.125, 9.125, 9.0625, 9, 9.0625, 9.125, 9, 8.875, 8.8125, 8.6875, 8.75, 8.875, 8.9375, 9, 9.0625, 9.1875, 9.208333, -10, -10, -10, -10, -10, -10, -10, 17.208334, 16.85, 16.919643, 17.008928, 17.556547, 18.482143, 19.205357, 19.642857, 19.875, 20.1875, 20.5625, 20.919643, 21.383928, 21.8125, 21.875, 22.089287, 22.473213, 22.700893, 23.21875, 23.53125, 23.78125, 23.9375, 23.8125, 23.625, 23.366072, 22.979166, 22.821428, 22.75, 22.71875, 22.65625, 22.459822, 21.947916, 21.696428, 21.544643, 21.482143, 21.5051, 21.091837, 20.795918, 20.653061, 20.880953, 21.061224, 20.959185, -10, -10, -10, 18.571428, 18.947618, 19.425171, 19.074406, 18.348215, 18.086309, 18.336309, 18.846939, 19.160713, 19.752977, 19.928572, 20, 20.125, 20.238096, 20.809525, 21.666668, 22.25, 23.458334, 23.72024, 23.8125, 23.9375, 23.9375, 23.96875, 24.09375, 24.276787, 24.651787, 24.9375, 25.232143, 25.357143, 25.4375, 25.5, 25.625, 25.6875, 25.8125, 25.9375, 25.9375, 26, 26.071428, 26.446428, 26.75, 26.9375, 27.1875, 27.3125, 27.5, 27.625, 27.75, 27.875, 28.125, 28.544643, 28.803572, 29, 29, 29, 29, 28.9375, 29.196428, 29.5, 29.5625, 29.6875, 29.714287, 29.919643, 30.303572, 30.5625, 30.794643, 31.017857, 31.315477, 31.294643, 31.375, 31.5, 31.625, 31.875, 31.9375, 31.9375, 32, 32.294643, 32.5625, 32.8125, 33.125, 33.375, 33.5, 33.6875, 33.919643, 33.875, 34, 34.0625, 34.267857, 34.708332, 35.0625, 35.1875, 35.3125, 35.5, 35.8125, 36.232143, 36.375, 36.5, 36.625, 36.6875, 37.125, 37.321426, 37.294643, 37.607143, 37.669643, 37.857143, 37.875, 37.875, 38.080357, 38.489582, 38.897324, 39.40625, 39.46875, 39.330357
41, 40.75, 40.5, 40.25, 39.90625, 39.78125, 39.59375, 39.46875, 39.21875, 38.924107, 38.78125, 38.5, 38.34375, 38.21875, 38.03125, 37.9375, 37.785713, 37.267857, 37.205357, 37.035713, 36.9375, 36.901787, 36.6875, 36.5625, 36.375, 36.25, 36.3125, 36.017857, 35.559525, 35.267857, 35, 35, 34.803574, 34.220238, 33.595242, 33.383926, 33.25, 33.4375, 33.4375, 33.5, 33.419643, 33.089287, 33.089287, 33, 33.3125, 33.375, 33.3125, 33.1875, 33.0625, 33, 33, 33, 33, 33, 33, 32.9375, 32.8125, 32.5625, 32.375, 32.25, 32.125, 32.125, 32.0625, 32, 32, 32, 32, 31.75, 31.5, 31.25, 31, 31, 31, 31, 31, 30.875, 30.75, 30.625, 30.59375, 30.5625, 30.4375, 30.3125, 30.09375, 30, 29.8125, 29.5625, 28.598215, 25.613333, 23.333334, 22.022322, 21.53125, 21.21875, 20.633928, 19.409523, 18.464287, 17.297619, 16.4375, 15.017857, 14.178571, 13.455358, 12.683332, 11.208333, 10.333333, 8.791667, 8.3214283, 8, 8, 8, 8.125, 8.3125, 8.375, 8.5, 8.4196434, 8.3125, 8.4598217, 8.4508934, 8.40625, 8.21875, 8.125, 8, 8, 8, 7.7232141, 6.979167, 6.5714283, 6.1041665, 6.0714283, 6, 6, 6, 5.9375, 5.75, 5.6428571, 5.65625, 5.65625, 5.84375, 5.90625, 6.25, 6.75, 7.6428571, 8.3214283, 8.6875, 8.875, 8.875, 8.9375, 8.9375, 9.0625, 9.1875, 9.125, 9.125, 9.125, 9.125, 9.25, 9.375, 9.25, 9.0625, 8.9375, 8.8125, 8.875, 9, 9.125, 9.1875, 9.21875, 9.28125, 9.25, -10, -10, -10, -10, -10, -10, -10, 17.208334, 17.142857, 17.443453, 17.633928, 18.181547, 18.9375, 19.205357, 19.5625, 19.75, 20.125, 20.5625, 20.919643, 21.375, 21.6875, 21.8125, 22.098215, 22.660713, 22.888393, 23.40625, 23.59375, 23.84375, 23.875, 23.75, 23.5625, 23.303572, 22.979166, 22.821428, 22.8125, 22.84375, 22.84375, 22.647322, 22.197916, 22.008928, 21.919643, 21.982143, 21.848213, 21.424107, 21.133928, 21.008928, 21.208334, 21.428572, 21.464287, 19.869047, 19.095238, 18.946428, 19.239796, 19.633673, 20.028275, 19.791668, 19.125, 18.726191, 18.851191, 19.1875, 19.535713, 19.794643, 19.8125, 19.75, 19.8125, 20.011906, 20.873016, 21.722223, 22.5, 23.270834, 23.636906, 23.78125, 23.9375, 24, 24.03125, 24.09375, 24.276787, 24.651787, 24.9375, 25.232143, 25.419643, 25.5, 25.5625, 25.625, 25.625, 25.75, 25.875, 25.9375, 26, 26.133928, 26.571428, 26.910713, 27.0625, 27.25, 27.375, 27.598213, 27.6875, 27.8125, 27.875, 28.1875, 28.575893, 28.772322, 28.84375, 28.71875, 28.6875, 28.75, 28.8125, 29.125, 29.375, 29.5, 29.6875, 29.75, 29.8125, 30.125, 30.4375, 30.794643, 31.0625, 31.232143, 31.1875, 31.3125, 31.53125, 31.78125, 32.09375, 32.080357, 31.9375, 32.071426, 32.382141, 32.580357, 32.875, 33.0625, 33.3125, 33.4375, 33.625, 33.901787, 33.875, 34.125, 34.3125, 34.5625, 34.9375, 35.125, 35.125, 35.1875, 35.3125, 35.6875, 36.107143, 36.25, 36.25, 36.375, 36.5, 37, 37.410713, 37.482143, 37.678574, 37.741074, 37.857143, 37.875, 37.875, 38.080357, 38.489582, 38.834824, 39.21875, 39.21875, 39.1875, 39.125, 39, 39.071426, 39.25, -10, -10, -10, -10, -10, -10, -10, -10, -10, -10, -10, -10, -10, -10, -10, -10, -10, -10, -10, -10, -10, -10, -10, -10, -10, -10, -10, 40.1875, 40.516666, 40.940475, 41.5, 42.395832, 42.669643, 42.9375, 42.875, 42.5625, 42.339287, 42.125, 41.9375, 42, 41.75, 41.5, 41.25, 41.0625, 41.0625, 40.8125, 40.517857, 40.25, 39.90625, 39.78125, 39.59375, 39.375, 39.0625, 38.705357, 38.5, 38.25, 38.15625, 38.09375, 37.90625, 37.875, 37.660713, 37.205357, 37.205357, 37.035713, 37, 36.901787, 36.75, 36.6875, 36.5, 36.375, 36.375, 36.017857, 35.559525, 35.267857, 35, 35, 34.803574, 34.282738, 33.764881, 33.571426, 33.5, 33.625, 33.5625, 33.625, 33.607143, 33.258926, 33.151787, 33, 33, 33.125, 33.0625, 33.0625, 33, 33, 33, 33, 33, 33, 33, 33, 32.875, 32.625, 32.4375, 32.25, 32.125, 32.125, 32.0625, 32, 32, 32, 32, 31.75, 31.5, 31.3125, 31.0625, 31.0625, 31.0625, 31, 31, 30.875, 30.75, 30.625, 30.625, 30.5625, 30.4375, 30.3125, 30.0625, 30, 29.75, 29.5, 28.526785, 24.857143, 23.333334, 22.053572, 21.5625, 21.25, 20.633928, 19.309525, 18.5, 17.422619, 16.589285, 14.946428, 14.142857, 13.375, 12.504761, 11.113095, 10.208333, 8.75, 8.2857141, 8, 8, 8, 8.125, 8.3125, 8.4375, 8.625, 8.5446434, 8.3125, 8.3616076, 8.3258934, 8.3883934, 8.28125, 8.1875, 8.0625, 8, 8, 7.8303571, 7.3958335, 7, 6.333333, 6.1428566, 6, 6, 6, 5.9375, 5.8125, 5.8303571, 5.90625, 5.90625, 6.03125, 5.96875, 6.25, 6.6875, 7.4642859, 8.2976189, 8.6785717, 8.875, 8.875, 8.875, 8.875, 9, 9.125, 9.1875, 9.1607141, 9.0892859, 9.1875, 9.3571434, 9.5, 9.4375, 9.25, 9.0625, 9, 9, 9.09375, 9.28125, 9.40625, 9.5625, 9.5758934, 9.375, -10, -10, -10, -10, -10, -10, 17.25, 17.145834, 17.330357, 17.907738, 18.303572, 18.770834, 19.125, 19.25, 19.5, 19.75, 20.125, 20.5625, 20.919643, 21.375, 21.625, 21.75, 22.160715, 22.607143, 22.897322, 23.40625, 23.59375, 23.84375, 23.8125, 23.625, 23.375, 23.125, 23.0625, 23, 23, 22.90625, 22.78125, 22.522322, 22.072916, 22.008928, 22.044643, 22.107143, 22.0625, 21.709822, 21.229166, 21.080357, 21.0625, 21.285713, 21.276787, 20.246031, 19.285715, 19.059523, 19.772322, 20.066963, 20.147322, 19.833334, 19.517857, 19.267857, 19.392857, 19.625, 19.848213, 19.9375, 19.875, 19.6875, 19.65625, 19.897322, 20.797619, 21.702381, 22.482143, 23.083334, 23.553572, 23.75, 23.9375, 24, 24.03125, 24.03125, 24.223213, 24.860119, 25.080357, 25.25, 25.4375, 25.375, 25.5, 25.5625, 25.5, 25.6875, 25.8125, 25.9375, 26, 26.196428, 26.65625, 26.941963, 27.21875, 27.40625, 27.5625, 27.785713, 27.8125, 27.875, 27.875, 28.0625, 28.388393, 28.59375, 28.822916, 28.6875, 28.71875, 28.71875, 28.8125, 29.125, 29.446428, 29.75, 29.9375, 30, 29.9375, 30.125, 30.4375, 30.794643, 31, 31.125, 31, 31.0625, 31.21875, 31.513393, 32.15625, 32.223213, 32.125, 32.133926, 32.212502, 32.348213, 32.770832, 32.928574, 33.1875, 33.3125, 33.5625, 33.794643, 33.9375, 34.1875, 34.4375, 34.6875, 35, 35.125, 35.125, 35.1875, 35.3125, 35.6875, 36.035713, 36.1875, 36.1875, 36.3125, 36.5, 37, 37.4375, 37.544643, 37.625, 37.75, 37.857143, 37.767857, 37.767857, 37.955357, 38.440475, 38.803574, 39.125, 39.125, 39.125
41, 40.75, 40.424107, 40.125, 39.84375, 39.78125, 39.625, 39.375, 39.0625, 38.642857, 38.4375, 38.28125, 38.25, 38.1875, 38, 37.9375, 37.598213, 37.205357, 37.1875, 36.919643, 36.953125, 36.792412, 36.71875, 36.703125, 36.609375, 36.484375, 36.40625, 35.973213, 35.497025, 35.205357, 35, 35, 34.8125, 34.491074, 33.934525, 33.696426, 33.5625, 33.651787, 33.6875, 33.571426, 33.642857, 33.357143, 33.214287, 33.125, 32.9375, 33.0625, 33, 33, 33, 33, 33, 33, 33, 33, 33, 33, 32.875, 32.625, 32.375, 32.125, 32, 32, 32, 32, 32, 32, 32, 31.75, 31.5, 31.3125, 31.0625, 31.0625, 31.0625, 31, 31, 30.9375, 30.875, 30.8125, 30.8125, 30.6875, 30.5, 30.3125, 30.0625, 30, 29.75, 29.5, 28.526785, 24.857143, 23.333334, 22.116072, 21.616072, 21.1875, 20.633928, 19.297619, 18.5, 17.422619, 16.625, 15.029761, 14.214286, 13.375, 12.326191, 11.101191, 10.166666, 8.75, 8.2857141, 8, 8, 8, 8.125, 8.3125, 8.5, 8.6875, 8.5446434, 8.25, 8.2053576, 8.1696434, 8.2946434, 8.25, 8.1875, 8.0625, 8, 8, 7.9375, 7.75, 7.3125, 6.5386901, 6.2053566, 6, 6, 6, 5.9375, 5.875, 5.9553571, 6.0625, 6.0625, 6.125, 6, 6.25, 6.6875, 7.4285712, 8.2217255, 8.6473217, 8.90625, 8.9375, 8.9375, 8.9375, 8.9375, 9.0625, 9.1875, 9.1428576, 9.0267859, 9.1875, 9.2946434, 9.5625, 9.5625, 9.5, 9.34375, 9.25, 9.1875, 9.1875, 9.40625, 9.625, 9.8125, 9.71875, 9.4750004, -10, -10, -10, -10, -10, 17.166668, 17.357141, 17.431547, 17.642857, 18.345238, 18.732143, 19.0625, 19.3125, 19.375, 19.5625, 19.8125, 20.1875, 20.5625, 20.875, 21.3125, 21.59375, 21.90625, 22.352678, 22.71875, 23.040178, 23.59375, 23.71875, 23.96875, 23.75, 23.5, 23.1875, 22.8125, 22.75, 22.75, 22.8125, 22.8125, 22.75, 22.491072, 22.104166, 22.044643, 21.9375, 22, 21.9375, 21.709822, 21.354166, 21.178572, 21.017857, 21.035713, 20.901787, 20.184523, 19.428572, 19.401787, 19.772322, 20.191963, 20.325893, 20.083334, 19.767857, 19.517857, 19.580357, 19.75, 19.910713, 19.9375, 19.875, 19.625, 19.59375, 19.897322, 20.904762, 21.797619, 22.589287, 23, 23.5, 23.6875, 23.9375, 24, 23.96875, 23.90625, 24.160713, 24.833334, 25.080357, 25.25, 25.3125, 25.1875, 25.25, 25.3125, 25.25, 25.5, 25.6875, 25.875, 26.0625, 26.352678, 26.84375, 27.191963, 27.40625, 27.5625, 27.75, 27.973213, 28.0625, 28.0625, 27.9375, 28.017857, 28.263393, 28.486607, 28.930059, 28.794643, 28.84375, 28.78125, 28.8125, 29.0625, 29.383928, 29.8125, 30.035713, 30.125, 30.0625, 30.125, 30.4375, 30.794643, 31.0625, 31.1875, 31, 30.964287, 31.09375, 31.433037, 32.09375, 32.285713, 32.25, 32.258926, 32.337502, 32.410713, 32.770832, 32.928574, 33.1875, 33.3125, 33.5625, 33.794643, 33.9375, 34.1875, 34.375, 34.625, 34.9375, 35.0625, 35.125, 35.125, 35.25, 35.625, 35.946426, 36.125, 36.125, 36.1875, 36.4375, 36.875, 37.25, 37.357143, 37.4375, 37.625, 37.857143, 37.892857, 37.955357, 38.1875, 38.482143, 38.8125, 39.0625, 39.0625, 39.0625, 39, 39, 39.0625, 39.083332, -10, -10, -10, -10, -10, -10, -10, -10, -10, -10, -10, -10, -10, -10, -10, -10, -10, -10, -10, -10, -10, -10, -10, -10, -10, -10, -10, 40.0625, 40.166664, 40.357143, 41.107143, 42.288689, 42.75, 43, 42.8125, 42.4375, 42.116074, 41.9375, 41.875, 41.875, 41.625, 41.375, 41.125, 41.0625, 40.9375, 40.6875, 40.361607, 40.03125, 39.78125, 39.78125, 39.625, 39.40625, 39.15625, 38.736607, 38.59375, 38.5, 38.5, 38.375, 38.125, 38, 37.607143, 37.330357, 37.1875, 36.852676, 36.859375, 36.671875, 36.578125, 36.5625, 36.53125, 36.46875, 36.375, 35.9375, 35.479168, 35.196426, 35, 35, 34.875, 34.678574, 34.229168, 33.946426, 33.8125, 33.776787, 33.6875, 33.508926, 33.517857, 33.232143, 33.089287, 33.0625, 32.875, 33, 33, 33, 33, 33, 33, 33, 33, 33, 33, 33, 32.8125, 32.5625, 32.3125, 32.0625, 32, 32, 32, 32, 32, 32, 32, 31.75, 31.5, 31.3125, 31.0625, 31.0625, 31.0625, 31, 31, 31, 30.9375, 30.9375, 30.9375, 30.75, 30.625, 30.375, 30.125, 30.0625, 29.8125, 29.5625, 28.357143, 24.1, 23, 21.9375, 21.669643, 21.041666, 20.455357, 19.401785, 18.67857, 17.476191, 16.761906, 15.041666, 14.142857, 13.303572, 12.305357, 11.184524, 9.958333, 8.6904764, 8.2142859, 8, 8, 8, 8.0625, 8.1875, 8.375, 8.5, 8.4375, 8.25, 8.0267859, 8.0625, 8.1696434, 8.1875, 8.1875, 8.0625, 8, 8, 8, 7.875, 7.4821434, 6.6190476, 6.2678566, 6, 6, 6, 6, 6, 6.0625, 6.0625, 6.0625, 6, 5.9375, 6.1875, 6.6071429, 7.1875, 7.864583, 8.2723217, 8.59375, 8.8571434, 8.9375, 9, 9, 9.0625, 9.125, 9.0178576, 8.9017859, 9.0625, 9.1696434, 9.5, 9.5625, 9.5625, 9.4598217, 9.25, 9.1875, 9.15625, 9.4375, 9.78125, 10, 9.7991066, 9.5749998, -10, -10, -10, -10, 17.75, 17.555557, 17.642857, 17.806547, 18.017857, 18.657738, 19.044643, 19.419643, 19.625, 19.6875, 19.75, 19.9375, 20.25, 20.5625, 20.9375, 21.375, 21.6875, 22.0625, 22.446428, 22.879463, 23.404762, 23.857143, 23.9375, 24.0625, 23.8125, 23.5625, 23.3125, 22.9375, 22.75, 22.75, 22.75, 22.6875, 22.625, 22.375, 22.1875, 22.1875, 22.0625, 22, 21.9375, 21.741072, 21.541666, 21.491072, 21.267857, 21.160713, 21, 20.571428, 19.764286, 19.892857, 20.09375, 20.625, 20.638393, 20.404762, 19.934523, 19.705357, 19.705357, 19.8125, 19.875, 19.875, 19.8125, 19.625, 19.59375, 19.825893, 20.642857, 21.630953, 22.392857, 22.821428, 23.458334, 23.678572, 23.9375, 24, 24.0625, 24.125, 24.383928, 24.895834, 25.080357, 25.1875, 25.25, 25.1875, 25.25, 25.25, 25.1875, 25.375, 25.5625, 25.8125, 26.125, 26.40625, 26.84375, 27.254463, 27.40625, 27.5625, 27.65625, 27.848213, 28, 28.0625, 28.03125, 28.1875, 28.21875, 28.370537, 28.822916, 28.940477, 29.084822, 29.15625, 29.25, 29.357143, 29.425594, 29.696428, 29.848213, 30, 30.0625, 30.1875, 30.5, 30.919643, 31.1875, 31.375, 31.1875, 31.026787, 31.09375, 31.370537, 32.03125, 32.348213, 32.3125, 32.258926, 32.292854, 32.348213, 32.708332, 32.991074, 33.1875, 33.25, 33.5, 33.669643, 33.875, 34.1875, 34.375, 34.625, 34.875, 35, 35.0625, 35.0625, 35.25, 35.625, 35.946426, 36.125, 36.125, 36.125, 36.375, 36.75, 37.0625, 37.1875, 37.401787, 37.669643, 37.928574, 37.955357, 37.955357, 38.1875, 38.419643, 38.6875, 38.9375, 38.9375, 39
40.90625, 40.65625, 40.330357, 40, 39.78125, 39.78125, 39.5625, 39.34375, 39.15625, 38.84375, 38.78125, 38.75, 38.6875, 38.5, 38.25, 38.0625, 37.6875, 37.5625, 37.357143, 36.977676, 36.921875, 36.600449, 36.348957, 36.34375, 36.3125, 36.3125, 36.1875, 35.830357, 35.5, 35.25, 35.0625, 35, 34.875, 34.75, 34.5, 34.25, 34.0625, 34.026787, 33.910713, 33.633926, 33.8125, 33.482143, 33.375, 33.25, 33, 33, 33, 33, 33, 33, 33, 33, 33, 33, 33, 33, 32.75, 32.5, 32.25, 32, 32, 32, 32, 32, 32, 32, 31.9375, 31.6875, 31.4375, 31.3125, 31.1875, 31.1875, 31.1875, 31.0625, 31, 31, 30.9375, 30.9375, 30.9375, 30.8125, 30.75, 30.5, 30.25, 30.125, 29.875, 29.625, 28.428572, 23.866667, 23, 22, 21.732143, 21.166666, 20.642857, 19.308929, 18.261904, 17.17857, 16.511906, 15.083333, 13.904761, 13.053572, 12.267857, 11.363095, 10.058332, 8.7738094, 8.2142859, 8, 8, 8.0625, 8.0625, 8.125, 8.25, 8.25, 8.25, 8.125, 7.9642859, 8, 8.1071434, 8.125, 8.125, 8.0625, 8, 8, 7.9285717, 7.5416665, 7.1964288, 6.5148811, 6.2589283, 6.0625, 6, 6, 6, 6, 6.0625, 6.0625, 6, 5.875, 5.8125, 6.0625, 6.5267859, 7.0178571, 7.614583, 7.8973217, 8.2633924, 8.8571434, 9.0089283, 9.125, 9.0625, 9.0625, 9.125, 9.0178576, 8.8392859, 8.9375, 8.9821434, 9.25, 9.375, 9.5, 9.5848217, 9.5714283, 9.5625, 9.53125, 9.625, 9.875, 9.96875, 9.7053566, 9.5333328, -10, -10, -10, -10, 17.833334, 17.666668, 17.830357, 18.035713, 18.1875, 18.553572, 18.794643, 19.169643, 19.4375, 19.6875, 19.8125, 20.0625, 20.375, 20.625, 21.0625, 21.4375, 21.75, 22.125, 22.375, 22.691963, 23.279762, 23.776787, 23.9375, 24.0625, 23.875, 23.625, 23.375, 23, 22.75, 22.75, 22.75, 22.625, 22.5, 22.25, 22, 22, 21.875, 21.75, 21.75, 21.678572, 21.604166, 21.678572, 21.517857, 21.379463, 21.15625, 20.772322, 20.212204, 20.357143, 20.5625, 20.875, 20.982143, 20.592262, 20.059523, 19.875, 19.8125, 19.9375, 20, 20, 20, 19.875, 19.84375, 19.96875, 20.464285, 21.505953, 22.071428, 22.602678, 23.177084, 23.517857, 23.979166, 24, 24.1875, 24.25, 24.446428, 24.958334, 25.080357, 25.125, 25.1875, 25.1875, 25.3125, 25.375, 25.375, 25.5, 25.625, 25.8125, 26.15625, 26.4375, 26.875, 27.25, 27.40625, 27.5, 27.46875, 27.5625, 27.75, 27.875, 27.96875, 28.1875, 28.21875, 28.370537, 28.970238, 29.293156, 29.480656, 29.50625, 29.541666, 29.285715, 29.336308, 29.540178, 29.754463, 29.96875, 30.0625, 30.25, 30.5, 30.9375, 31.357143, 31.553572, 31.375, 31.089287, 31, 31.160715, 31.958332, 32.288689, 32.362499, 32.366074, 32.321426, 32.455357, 32.708332, 33.053574, 33.25, 33.3125, 33.5625, 33.6875, 33.875, 34.125, 34.25, 34.5, 34.6875, 34.875, 35, 35, 35.25, 35.625, 35.946426, 36.125, 36.125, 36.125, 36.375, 36.6875, 36.9375, 36.9375, 37.116074, 37.526787, 37.857143, 37.955357, 37.955357, 38.1875, 38.357143, 38.625, 38.875, 38.9375, 39.09375, 39.09375, 39.09375, 39.09375, 39.083332, -10, -10, -10, -10, -10, -10, -10, -10, -10, -10, -10, -10, -10, -10, -10, -10, -10, -10, -10, -10, -10, -10, -10, -10, -10, -10, -10, 40, 40.041668, 40.34375, 41.404762, 42.419643, 42.88393, 43, 42.75, 42.4375, 42.151787, 41.9375, 41.9375, 41.75, 41.5, 41.25, 41, 41, 40.8125, 40.5625, 40.28125, 39.96875, 39.78125, 39.71875, 39.5, 39.3125, 39.1875, 39, 39, 38.9375, 38.875, 38.625, 38.375, 38.1875, 37.75, 37.5625, 37.294643, 36.915176, 36.859375, 36.537949, 36.223957, 36.15625, 36.125, 36.1875, 36.0625, 35.767857, 35.4375, 35.1875, 35.0625, 35, 34.9375, 34.875, 34.6875, 34.4375, 34.1875, 34.026787, 33.848213, 33.571426, 33.75, 33.625, 33.660713, 33.392857, 33.133926, 33, 33, 33, 33, 33, 33, 33, 33, 33, 33, 33, 32.75, 32.5, 32.25, 32, 32, 32, 32, 32, 32, 32, 31.875, 31.625, 31.375, 31.1875, 31.125, 31.125, 31.125, 31.0625, 31, 31, 30.9375, 30.9375, 30.9375, 30.875, 30.875, 30.625, 30.375, 30.1875, 29.9375, 29.75, 27.55102, 23.283335, 22.75, 22, 21.732143, 21.166666, 20.678572, 19.392262, 18.333334, 17.136906, 16.255953, 15.154761, 14.047619, 13.241072, 12.589286, 11.441668, 9.9333324, 8.7440472, 8.2053566, 8, 8, 8.125, 8.125, 8.125, 8.1875, 8.0625, 8.0625, 8.0625, 8, 8, 7.9375, 7.875, 7.875, 7.875, 7.9375, 8, 7.9285717, 7.4702382, 6.9345236, 6.4196429, 6.1875, 6.0625, 6, 6, 6, 6, 6, 6, 5.875, 5.6875, 5.7053571, 6.0833335, 6.5803571, 7.0178571, 7.34375, 7.65625, 8.1919641, 8.8928566, 9.0714283, 9.1875, 9.0625, 9.0625, 9.0625, 8.9821434, 8.875, 8.875, 8.875, 9.125, 9.25, 9.4375, 9.5848217, 9.5089283, 9.5, 9.4375, 9.46875, 9.65625, 9.625, 9.3482141, 9.4261904, -10, -10, -10, -10, 17.833334, 17.916668, 18.163691, 18.285713, 18.375, 18.53125, 18.53125, 18.888393, 19.107143, 19.666666, 19.875, 20.1875, 20.5, 20.6875, 21.125, 21.4375, 21.75, 22.125, 22.25, 22.53125, 23.270834, 23.785715, 24, 24.125, 23.9375, 23.6875, 23.4375, 23.0625, 22.71875, 22.65625, 22.65625, 22.53125, 22.4375, 22.1875, 21.9375, 21.9375, 21.75, 21.6875, 21.6875, 21.6875, 21.9375, 22.035713, 21.830357, 21.59375, 21.28125, 20.897322, 20.608036, 20.785715, 21.0625, 21.25, 21.258928, 20.904762, 20.416666, 20.178572, 19.854166, 19.892857, 19.875, 19.9375, 20, 19.9375, 19.9375, 20, 20.392857, 21.511906, 22.107143, 22.709822, 23.239584, 23.580357, 23.979166, 24, 24.1875, 24.25, 24.375, 24.625, 24.785713, 24.875, 25, 25.125, 25.3125, 25.375, 25.4375, 25.5, 25.5, 25.6875, 26.03125, 26.3125, 26.78125, 27.09375, 27.1875, 27.28125, 27.21875, 27.25, 27.5, 27.6875, 27.84375, 28.1875, 28.21875, 28.299107, 28.75, 29.345238, 29.47024, 29.475, 29.470238, 29.035715, 29.264881, 29.361607, 29.691963, 29.90625, 30.0625, 30.25, 30.4375, 30.883928, 31.502977, 31.732143, 31.625, 31.339287, 31.25, 31.303572, 31.770832, 32.020832, 32.112499, 32.366074, 32.553574, 32.75, 32.875, 33.125, 33.1875, 33.1875, 33.4375, 33.5625, 33.8125, 34.035713, 34.026787, 34.3125, 34.544643, 34.8125, 35, 34.9375, 35.151787, 35.544643, 35.839287, 36.0625, 36.0625, 36.125, 36.375, 36.6875, 36.9375, 36.9375, 37.116074, 37.464287, 37.794643, 38, 38.026787, 38.357143, 38.428574, 38.625, 38.8125, 38.9375, 39.15625
40.8125, 40.5625, 40.3125, 40.03125, 39.90625, 39.78125, 39.53125, 39.3125, 39.125, 39, 38.9375, 38.8125, 38.75, 38.5, 38.3125, 38.1875, 37.75, 37.4375, 37.080357, 36.861607, 36.90625, 36.638393, 36.171875, 36.078125, 35.953125, 36.078125, 35.96875, 35.75, 35.4375, 35.1875, 35, 34.9375, 34.9375, 34.9375, 34.875, 34.6875, 34.428574, 33.979168, 33.669643, 33.5625, 33.732143, 33.8125, 33.883926, 33.473213, 33.205357, 33, 33, 33, 33, 33, 33, 33, 33, 33, 33, 33, 32.75, 32.5, 32.25, 32, 32, 32, 32, 32, 32, 32, 31.875, 31.6875, 31.4375, 31.25, 31.1875, 31.125, 31.125, 31.0625, 31, 31, 30.9375, 30.9375, 30.9375, 30.9375, 30.9375, 30.6875, 30.4375, 30.1875, 30, 29.875, 24.190475, 22.700001, 22.5, 22, 21.741072, 21.229166, 20.642857, 19.570835, 18.309525, 17.119049, 16, 15.154761, 14.083333, 13.136905, 12.517857, 11.405953, 9.6416664, 8.6428566, 8.1339283, 8, 8, 8.1875, 8.25, 8.25, 8.25, 8, 7.9375, 8, 8.0357141, 8.0625, 7.96875, 7.78125, 7.78125, 7.78125, 7.875, 8, 7.9285717, 7.4613094, 6.7886901, 6.3482141, 6.125, 6.0625, 6, 6, 6, 6, 5.9375, 5.875, 5.6875, 5.5, 5.6428571, 6.1279764, 6.5803571, 6.875, 7.1339283, 7.583333, 8.0803566, 8.7678566, 8.9464283, 9, 8.9375, 8.9375, 8.875, 8.875, 8.875, 8.875, 8.9375, 9.0625, 9.125, 9.25, 9.3660717, 9.3214283, 9.375, 9.40625, 9.46875, 9.625, 9.625, 9.4553566, 9.6833334, 11.25, -10, -10, -10, -10, 18.083334, 18.270834, 18.25, 18.3125, 18.34375, 18.28125, 18.513393, 18.741072, 19.5, 19.803572, 20.1875, 20.5, 20.6875, 21.0625, 21.375, 21.65625, 21.96875, 22.09375, 22.375, 23.136906, 23.642859, 23.9375, 24.0625, 24, 23.75, 23.5, 23.1875, 22.90625, 22.84375, 22.84375, 22.71875, 22.625, 22.375, 21.979166, 21.866072, 21.5625, 21.5625, 21.5625, 21.625, 21.875, 22, 21.9375, 21.84375, 21.625, 21.303572, 20.987499, 20.959822, 21.03125, 21.03125, 21.03125, 20.915178, 20.541666, 20.366072, 19.979166, 19.955357, 19.875, 19.9375, 20, 20, 20.0625, 20.125, 20.401785, 21.440477, 22.25, 22.852678, 23.364584, 23.642857, 23.979166, 24, 24.1875, 24.25, 24.3125, 24.46875, 24.59375, 24.71875, 24.90625, 25.125, 25.3125, 25.4375, 25.5625, 25.625, 25.625, 25.75, 25.90625, 26.03125, 26.459822, 26.96875, 27.205357, 27.3125, 27.21875, 27.25, 27.4375, 27.6875, 27.84375, 28.0625, 28.120537, 28.191963, 28.455357, 29.175596, 29.22024, 29.376787, 29.577379, 28.959185, 29.389881, 29.361607, 29.59375, 29.84375, 30, 30.1875, 30.25, 30.526785, 31.136906, 31.544643, 31.5, 31.339287, 31.1875, 31.133928, 31.645832, 31.833332, 31.924999, 32.178574, 32.33036, 32.669643, 32.866074, 33.125, 33.1875, 33.25, 33.5, 33.625, 33.9375, 34.129463, 34.120537, 34.40625, 34.575893, 34.8125, 35, 34.9375, 35.089287, 35.357143, 35.616074, 35.875, 35.9375, 36.1875, 36.4375, 36.75, 37, 36.9375, 37.116074, 37.464287, 37.732143, 37.9375, 38.026787, 38.357143, 38.491074, 38.6875, 38.75, 38.875, 39.09375, 39.15625, 39.28125, 39.21875, 39.166668, -10, -10, -10, -10, -10, -10, -10, -10, -10, -10, -10, -10, -10, -10, -10, -10, -10, -10, -10, -10, -10, -10, -10, -10, -10, -10, -10, 40.0625, 40.208332, 40.486607, 41.297619, 42.266369, 42.776787, 42.9375, 42.75, 42.5, 42.25, 42, 42, 41.75, 41.5, 41.25, 41, 41, 40.8125, 40.5625, 40.3125, 40.0625, 40, 39.8125, 39.5625, 39.3125, 39.0625, 39, 38.875, 38.6875, 38.5625, 38.3125, 38.1875, 38.09375, 37.71875, 37.34375, 37.017857, 36.92857, 37, 36.794643, 36.25, 36.09375, 35.84375, 35.96875, 35.8125, 35.625, 35.375, 35.053574, 34.75, 34.6875, 34.625, 34.758926, 34.9375, 34.8125, 34.616074, 34.041668, 33.625, 33.5, 33.669643, 33.875, 34.008926, 33.598213, 33.330357, 33.0625, 33, 33, 33, 33, 33, 33, 33, 32.9375, 32.9375, 32.9375, 32.6875, 32.5, 32.25, 31.9375, 31.9375, 31.9375, 31.9375, 31.9375, 31.9375, 31.9375, 31.8125, 31.75, 31.5, 31.3125, 31.25, 31.1875, 31.1875, 31.125, 31.0625, 31, 31, 31, 31, 31, 30.875, 30.625, 30.375, 30.125, 30, 29.9375, 22.938776, 22.35, 22.25, 22, 21.75, 21.375, 20.785713, 19.633335, 18.107143, 17.119049, 15.666666, 14.928572, 13.904761, 13.029762, 12.419642, 11.030953, 9.5642853, 8.5982141, 8.1339283, 8, 8.0625, 8.25, 8.3125, 8.3125, 8.25, 8, 7.96875, 8.09375, 8.1294641, 8.15625, 7.96875, 7.53125, 7.59375, 7.6383929, 7.8125, 8, 7.9285717, 7.4523807, 6.6428571, 6.2767859, 6.0625, 6.0625, 6, 6, 6, 5.9375, 5.9017859, 5.875, 5.5089283, 5.4553571, 5.6428571, 6.2351189, 6.6607146, 6.9375, 7.2053571, 7.854166, 8.25, 8.7857141, 8.8214283, 8.75, 8.75, 8.8125, 8.9375, 9.125, 9.1875, 9.1875, 9.125, 9.0625, 9, 9.0625, 9.1875, 9.3214283, 9.375, 9.5, 9.5, 9.65625, 9.75, 9.75, 10.145833, 11.277778, -10, -10, -10, -10, 18, 18.145834, 18.125, 18.1875, 18.147322, 17.893749, 18.084822, 18.303572, 19.125, 19.553572, 20.0625, 20.4375, 20.6875, 21, 21.3125, 21.5625, 21.875, 22, 22.214287, 22.803572, 23.392859, 23.75, 24, 24, 23.75, 23.5, 23.3125, 23.15625, 23.075893, 22.885416, 22.59375, 22.375, 22.125, 21.729166, 21.678572, 21.5, 21.625, 21.6875, 21.6875, 21.875, 21.9375, 21.857143, 21.635416, 21.455357, 21.25, 21.125, 20.96875, 20.96875, 20.90625, 20.84375, 20.90625, 20.875, 20.741072, 20.354166, 20.098213, 19.9375, 19.9375, 20, 20, 20.09375, 20.1875, 20.424107, 21.357143, 22.529762, 23.15625, 23.53125, 23.714287, 23.979166, 24.0625, 24.25, 24.3125, 24.375, 24.46875, 24.59375, 24.71875, 24.9375, 25.15625, 25.28125, 25.40625, 25.5625, 25.625, 25.6875, 25.8125, 25.78125, 25.78125, 26.022322, 26.513393, 27.142857, 27.464287, 27.5, 27.5, 27.625, 27.75, 27.875, 28, 28.058037, 28.129463, 28.375, 28.967262, 28.979168, 29.064287, 29.202379, 28.785715, 29.223213, 29.321428, 29.625, 29.9375, 30.09375, 30.25, 30.25, 30.401785, 30.949406, 31.232143, 31.1875, 31.089287, 30.9375, 31.008928, 31.583332, 31.770832, 31.924999, 32.116074, 32.232147, 32.651787, 32.857143, 33.0625, 33.125, 33.1875, 33.4375, 33.625, 33.9375, 34.129463, 34.058037, 34.34375, 34.513393, 34.75, 35, 34.9375, 35.089287, 35.294643, 35.553574, 35.8125, 35.875, 36.25, 36.5, 36.75, 36.9375, 36.8125, 36.973213, 37.440475, 37.732143, 37.9375, 38.026787, 38.357143, 38.553574, 38.8125, 38.875, 39.0625, 39.21875
40.78125, 40.59375, 40.40625, 40.21875, 40.25, 40.03125, 39.78125, 39.46875, 39.15625, 39.0625, 38.84375, 38.59375, 38.46875, 38.21875, 38.125, 38.03125, 37.71875, 37.40625, 37.142857, 37.17857, 37.1875, 36.928574, 36.434525, 36.25, 36, 36, 35.705357, 35.375, 35.125, 34.866074, 34.544643, 34.4375, 34.40625, 34.540176, 34.96875, 34.96875, 34.866074, 34.229168, 33.505955, 33.392857, 33.4375, 33.8125, 34.008926, 33.723213, 33.517857, 33.3125, 33.25, 33.1875, 33.125, 33.0625, 33, 33, 33, 32.9375, 32.9375, 32.875, 32.625, 32.4375, 32.1875, 31.9375, 31.875, 31.875, 31.875, 31.8125, 31.8125, 31.8125, 31.6875, 31.75, 31.5625, 31.3125, 31.1875, 31.0625, 31.0625, 31.0625, 31.0625, 31, 31, 31, 31, 31, 30.8125, 30.5625, 30.3125, 30.0625, 30, 30, 22, 22, 22, 22, 21.705357, 21.083334, 20.464285, 19.583334, 18.315475, 17.125, 15.583333, 14.595239, 13.821428, 12.684524, 12.035714, 10.602382, 9.2767859, 8.4910717, 8.125, 8, 8.0625, 8.1875, 8.1875, 8.125, 8.0625, 7.875, 7.90625, 8.09375, 8.1294641, 8.15625, 7.96875, 7.46875, 7.53125, 7.5758929, 7.75, 8, 7.9285717, 7.4523807, 6.5714283, 6.2142859, 6, 6, 6, 6, 6, 5.9375, 5.9017859, 5.875, 5.5714283, 5.6428571, 5.8928571, 6.4851189, 6.8035717, 7.0625, 7.3928571, 8.2113094, 8.6428566, 8.8482141, 8.8125, 8.625, 8.625, 8.75, 8.875, 9.1875, 9.25, 9.25, 9.125, 8.9375, 8.8125, 8.8125, 8.875, 8.9375, 9, 9.125, 9.25, 9.4375, 9.6875, 9.8125, 10.3125, 11.208333, -10, -10, -10, -10, 18, 18.083334, 18.0625, 18.0625, 17.897322, 17.536608, 17.584822, 17.918367, 18.775511, 19.220238, 19.8125, 20.28125, 20.59375, 20.875, 21.1875, 21.40625, 21.71875, 21.90625, 22.120537, 22.6875, 23.369049, 23.741072, 24, 24, 23.75, 23.5, 23.375, 23.28125, 23.183037, 22.802082, 22.477678, 22.25, 22.0625, 21.729166, 21.678572, 21.625, 21.8125, 21.875, 21.875, 21.9375, 21.9375, 21.857143, 21.666666, 21.549107, 21.40625, 21.34375, 21.15625, 21.03125, 20.870537, 20.78125, 20.90625, 21.0625, 21.053572, 20.711309, 20.264879, 20.008928, 19.9375, 20, 20, 20.125, 20.25, 20.446428, 21.273809, 22.892857, 23.642857, 24.0625, 24.125, 24.125, 24.1875, 24.3125, 24.4375, 24.5, 24.53125, 24.65625, 24.84375, 25.0625, 25.21875, 25.28125, 25.34375, 25.4375, 25.5625, 25.6875, 25.8125, 25.6875, 25.625, 25.741072, 26.232143, 27.008928, 27.693453, 27.791666, 27.65, 27.8125, 27.803572, 27.9375, 27.9375, 27.964287, 28.035713, 28.227678, 28.739584, 28.802084, 28.933037, 29.035713, 28.857143, 29.1875, 29.352678, 29.59375, 29.96875, 30.15625, 30.25, 30.25, 30.321428, 30.717262, 30.928572, 30.875, 30.776787, 30.625, 30.758928, 31.333334, 31.616072, 31.875, 32, 32.116074, 32.526787, 32.857143, 33.098213, 33.25, 33.3125, 33.4375, 33.625, 33.875, 34.066963, 34.058037, 34.34375, 34.513393, 34.75, 35, 34.96875, 35.089287, 35.294643, 35.553574, 35.78125, 35.875, 36.25, 36.4375, 36.625, 36.75, 36.6875, 36.946426, 37.440475, 37.741074, 37.9375, 38.026787, 38.357143, 38.616074, 38.875, 38.9375, 39.0625, 39.1875, 39.1875, 39.3125, 39.25, 39.166668, -10, -10, -10, -10, -10, -10, -10, -10, -10, -10, -10, -10, -10, -10, -10, -10, -10, -10, -10, -10, -10, -10, -10, -10, -10, -10, -10, 40.083332, -10, -10, -10, 42.114582, 42.569046, 42.8125, 42.633926, 42.571426, 42.3125, 42.125, 42.0625, 41.8125, 41.6875, 41.4375, 41.1875, 41.125, 40.75, 40.625, 40.53125, 40.46875, 40.571426, 40.272324, 39.977676, 39.59375, 39.34375, 39.25, 38.96875, 38.71875, 38.424107, 38.15625, 38.0625, 37.90625, 37.65625, 37.40625, 37.267857, 37.464287, 37.4375, 37.0625, 36.452381, 36.330357, 36.150002, 35.928574, 35.55357, 35.125, 34.9375, 34.803574, 34.580357, 34.5, 34.46875, 34.540176, 35.03125, 35.09375, 35.053574, 34.479168, 33.630955, 33.517857, 33.5, 33.8125, 33.973213, 33.830357, 33.696426, 33.5625, 33.4375, 33.3125, 33.1875, 33.0625, 33, 33, 32.9375, 32.875, 32.875, 32.75, 32.5625, 32.375, 32.125, 31.9375, 31.875, 31.8125, 31.75, 31.625, 31.625, 31.6875, 31.625, 31.75, 31.5625, 31.3125, 31.1875, 31.0625, 31.0625, 31.0625, 31.0625, 31, 31, 31, 30.9375, 30.875, 30.625, 30.375, 30.1875, 30, 30, 30, 30, 22, 22, 22, 21.660713, 20.708334, 20, 19.375, 18.208334, 16.891666, 15.291667, 14.130953, 13.214286, 12.005952, 11.214286, 10.095239, 9.0684528, 8.4375, 8.125, 8, 8.0625, 8.125, 8.0535717, 7.7291665, 7.6666665, 7.7083335, 7.8348217, 8.09375, 8.1294641, 8.21875, 8.0669641, 7.4866071, 7.5491071, 7.5758929, 7.75, 8, 7.8571434, 7.1904759, 6.4761906, 6.1428571, 6, 6, 6, 6, 5.9375, 5.875, 5.8392859, 5.8125, 5.6339283, 5.8303571, 6.125, 6.5892859, 6.875, 7.125, 7.5178571, 8.3809528, 8.6517859, 8.8125, 8.75, 8.5, 8.5625, 8.6875, 8.875, 9.3125, 9.4375, 9.4285717, 9.125, 8.875, 8.6875, 8.75, 8.8125, 8.9375, 9, 9.125, 9.25, 9.46875, 9.78125, 9.96875, 10.450893, 11.041666, -10, -10, -10, -10, 18, 18, 18, 17.830357, 17.324406, 16.942858, 16.991072, 17.269842, 17.876984, 18.970238, 19.5625, 20.09375, 20.53125, 20.8125, 21.125, 21.34375, 21.65625, 21.90625, 22.15625, 22.580357, 23.380953, 23.732143, 24, 23.928572, 23.5625, 23.375, 23.3125, 23.375, 23.339287, 22.958332, 22.633928, 22.4375, 22.25, 21.916666, 21.803572, 21.75, 21.875, 21.9375, 21.9375, 21.9375, 21.9375, 21.857143, 21.666666, 21.611607, 21.53125, 21.53125, 21.34375, 21.03125, 20.808037, 20.825893, 20.950893, 21.1875, 21.1875, 21.044643, 20.559523, 20.258928, 20.0625, 20, 20, 20.125, 20.25, 20.375, 21, 23, 23.785713, 24.25, 24.3125, 24.3125, 24.375, 24.5, 24.625, 24.75, 24.888393, 25.03125, 25.15625, 25.25, 25.28125, 25.21875, 25.28125, 25.4375, 25.625, 25.875, 26, 25.8125, 25.6875, 25.678572, 26.107143, 26.821428, 27.64966, 27.761904, 27.507143, 27.916666, 27.928572, 28.125, 28.0625, 28.089287, 28.160713, 28.25, 28.5, 28.625, 28.901787, 29.107143, 29.169643, 29.25, 29.40625, 29.59375, 29.96875, 30.191963, 30.214287, 30.25, 30.25, 30.508928, 30.6875, 30.6875, 30.714287, 30.6875, 30.946428, 31.520834, 31.741072, 31.9375, 31.9375, 31.991072, 32.410713, 32.940475, 33.181545, 33.299999, 33.491074, 33.553574, 33.75, 33.875, 34.03125, 34.15625, 34.40625, 34.59375, 34.8125, 35, 35.09375, 35.25, 35.375, 35.5625, 35.71875, 35.8125, 36.1875, 36.5, 36.803574, 36.973213, 36.75, 37.133926, 37.565475, 37.803574, 38, 38.0625, 38.3125, 38.5, 38.75, 38.875, 38.9375, 39.0625
40.75, 40.625, 40.53125, 40.46875, 40.571426, 40.303574, 40.040176, 39.65625, 39.40625, 39.28125, 38.959824, 38.510418, 38.120537, 37.90625, 37.875, 37.71875, 37.59375, 37.375, 37.3125, 37.446426, 37.25, 36.915176, 36.410713, 36.392857, 36.248215, 35.892857, 35.61607, 35.1875, 35.125, 35.053574, 34.830357, 34.6875, 34.59375, 34.665176, 35.15625, 35.21875, 35.25, 34.8125, 33.934525, 33.767857, 33.625, 33.875, 34.03125, 34.03125, 33.96875, 33.84375, 33.625, 33.4375, 33.25, 33.0625, 33, 32.9375, 32.8125, 32.75, 32.6875, 32.5625, 32.4375, 32.25, 32.0625, 31.9375, 31.875, 31.75, 31.625, 31.4375, 31.4375, 31.5625, 31.5, 31.625, 31.4375, 31.1875, 31.125, 31.0625, 31.0625, 31.0625, 31.0625, 31, 31, 31, 30.875, 30.75, 30.5, 30.25, 30.125, 30, 30, 30, 30, 22, 22, 22, 21.630951, 20.527779, 19.809525, 18.785715, 17.857143, 16.338095, 14.904762, 13.702382, 12.726191, 11.422618, 10.571429, 9.4523811, 8.8392859, 8.3303566, 8.125, 8, 8.0625, 8.0625, 7.9910717, 7.6666665, 7.6041665, 7.7708335, 7.8973217, 8.09375, 8.09375, 8.15625, 7.9732141, 7.4553571, 7.5178571, 7.5446429, 7.75, 8, 7.7946434, 7.0744042, 6.4523811, 6.1339283, 6, 6, 6, 6, 5.9375, 5.875, 5.9017859, 5.9375, 5.8214283, 6.0892859, 6.4375, 6.7321429, 7, 7.125, 7.5178571, 8.3809528, 8.7232151, 8.9375, 8.875, 8.6875, 8.6875, 8.75, 8.9375, 9.3839283, 9.854167, 9.8452377, 9.333333, 8.9107141, 8.5625, 8.625, 8.6875, 8.875, 9, 9.125, 9.1875, 9.34375, 9.65625, 9.84375, 10.28125, 10.666666, -10, -10, -10, -10, 18, 18, 17.892857, 17.330357, 16.782738, 16.526192, 16.741072, 17.354166, 17.910715, 18.791666, 19.375, 19.96875, 20.46875, 20.75, 21.125, 21.34375, 21.65625, 21.90625, 22.09375, 22.464285, 23.357143, 23.723215, 24, 23.857143, 23.375, 23.25, 23.1875, 23.3125, 23.276787, 22.895832, 22.571428, 22.375, 22.1875, 22, 21.9375, 21.9375, 21.9375, 21.9375, 21.875, 21.8125, 21.875, 21.857143, 21.604166, 21.580357, 21.5, 21.5, 21.40625, 21.15625, 21.058037, 21.200893, 21.294643, 21.4375, 21.375, 21.169643, 20.684523, 20.383928, 20.125, 20.0625, 20.1875, 20.491072, 20.530613, 20.704082, 21.306122, 23.375, 24.080357, 24.4375, 24.5, 24.5, 24.5, 24.625, 24.75, 24.875, 25.107143, 25.3125, 25.375, 25.40625, 25.34375, 25.21875, 25.21875, 25.375, 25.5625, 25.8125, 26, 25.875, 25.8125, 25.75, 25.857143, 26.491072, 27.054424, 27.212303, 27.444643, 27.854166, 27.803572, 28.0625, 28.232143, 28.3125, 28.3125, 28.3125, 28.4375, 28.625, 28.875, 29, 29.125, 29.125, 29.361607, 29.691963, 29.96875, 30.254463, 30.214287, 30.25, 30.25, 30.5, 30.5625, 30.6875, 30.75, 30.8125, 31.133928, 31.677084, 31.959822, 32.09375, 32.09375, 32.089287, 32.375, 33.095238, 33.202381, 33.174999, 33.303574, 33.241074, 33.5, 33.625, 33.8125, 34, 34.3125, 34.625, 34.875, 34.964287, 35.15625, 35.357143, 35.53125, 35.65625, 35.6875, 35.71875, 36.053574, 36.666668, 37.044643, 37.223213, 37.5, 37.321426, 37.690475, 37.866074, 38, 38.0625, 38.3125, 38.5, 38.75, 38.9375, 39, 39.125, 39.25, 39.375, 39.4375, 39.5, -10, -10, -10, -10, -10, -10, -10, -10, -10, -10, -10, -10, -10, -10, -10, -10, -10, -10, -10, -10, -10, -10, -10, -10, -10, -10, -10, -10, -10, -10, -10, 42.625, 42.949997, 42.946426, 42.544643, 42.464287, 42.1875, 42.125, 41.96875, 41.75, 41.625, 41.375, 41.21875, 41.125, 40.75, 40.625, 40.53125, 40.46875, 40.508926, 40.241074, 39.977676, 39.59375, 39.40625, 39.28125, 38.959824, 38.479168, 38.026787, 37.8125, 37.78125, 37.625, 37.5625, 37.375, 37.234375, 37.254463, 37.03125, 36.602676, 36.207588, 36.267857, 36.185715, 35.892857, 35.67857, 35.3125, 35.3125, 35.375, 35.330357, 35.125, 35.03125, 34.90625, 35.15625, 35.21875, 35.25, 34.9375, 34.166668, 34.017857, 33.8125, 34, 34.09375, 34.09375, 34.09375, 34.03125, 33.8125, 33.5625, 33.3125, 33.0625, 33, 32.9375, 32.8125, 32.8125, 32.6875, 32.5, 32.375, 32.125, 32, 32, 31.9375, 31.8125, 31.6875, 31.5, 31.4375, 31.5, 31.375, 31.375, 31.25, 31.0625, 31.0625, 31, 31, 31, 31, 31, 31, 31, 30.875, 30.6875, 30.4375, 30.1875, 30.0625, 30, 30, 30, 24.333334, 22.476192, 22.342855, -10, -10, -10, -10, 17.25, 16.694445, 15.796429, 14.404762, 13.27381, 12.369047, 10.779761, 9.8988104, 9.0357141, 8.625, 8.2053566, 8.125, 8, 8, 8, 7.9285717, 7.6041665, 7.6041665, 7.7708335, 7.8660717, 8, 8, 8.0625, 7.9732141, 7.6428571, 7.6428571, 7.625, 7.75, 8, 7.7321434, 6.958333, 6.4285717, 6.125, 6, 6, 6, 6, 5.9375, 5.9375, 5.9375, 5.9375, 6, 6.1964283, 6.5625, 6.75, 7, 7.125, 7.5178571, 8.3809528, 8.7232151, 8.9375, 8.9375, 8.8125, 8.8125, 8.875, 9.0089283, 9.5922613, 10.095239, 10.050595, 9.291666, 8.8482141, 8.5, 8.625, 8.75, 9, 9.1875, 9.375, 9.4375, 9.53125, 9.78125, 9.84375, 10.09375, 10.416666, -10, -10, -10, -10, 18, 18.125, 18.059523, 17.275509, 16.6875, 16.547619, 16.669643, 17.354166, 18.12245, 18.791666, 19.375, 19.96875, 20.46875, 20.75, 21.125, 21.34375, 21.59375, 21.84375, 21.96875, 22.276785, 23.187502, 23.642857, 23.875, 23.669643, 23.151787, 23.125, 23.098213, 23.25, 23.294643, 23.104166, 22.946428, 22.875, 22.6875, 22.4375, 22.25, 22.125, 21.9375, 21.8125, 21.8125, 21.75, 21.875, 22, 21.875, 21.875, 21.75, 21.625, 21.53125, 21.28125, 21.245537, 21.450893, 21.410715, 21.3125, 21.25, 21.044643, 20.729166, 20.446428, 20.25, 20.25, 20.616072, 21.138393, 22.089287, 22.455359, 23.011904, 23.791666, 24.392857, 24.625, 24.6875, 24.625, 24.5, 24.5625, 24.5625, 24.6875, 24.982143, 25.25, 25.375, 25.3125, 25.214287, 25.160713, 25.1875, 25.4375, 25.625, 25.875, 26, 25.9375, 25.9375, 25.9375, 26, 26.303572, 26.916666, 27.184523, 27.194643, 27.604166, 27.553572, 27.875, 28.107143, 28.25, 28.375, 28.375, 28.4375, 28.625, 28.8125, 28.9375, 29.1875, 29.3125, 29.6875, 29.973213, 30.125, 30.223213, 30.026787, 30.0625, 30.0625, 30.375, 30.625, 30.919643, 31, 31.125, 31.241072, 31.516371, 31.834822, 32.022324, 32.191963, 32.1875, 32.392857, 33.104164, 33.238094, 33.237499, 33.366074, 33.241074, 33.5, 33.625, 33.8125, 34.0625, 34.375, 34.75, 34.973213, 34.857143, 35.049107, 35.232143, 35.575893, 35.65625, 35.6875, 35.71875, 35.991074, 36.666668, 37.169643, 37.535713, 37.660713, 37.8125, 37.919643, 37.9375, 38, 38.0625, 38.28125, 38.46875, 38.71875, 38.90625, 38.9375, 39.0625
40.625, 40.4375, 40.34375, 40.28125, 40.196426, 39.897324, 39.633926, 39.3125, 39.25, 39.21875, 38.928574, 38.447918, 37.933037, 37.71875, 37.71875, 37.5625, 37.5, 37.21875, 36.953125, 36.816963, 36.53125, 36.133926, 35.908482, 36.017857, 35.998215, 35.830357, 35.723213, 35.5, 35.625, 35.6875, 35.723213, 35.5625, 35.375, 35.125, 35.151787, 35.294643, 35.294643, 35.0625, 34.5, 34.25, 34, 34.0625, 34.09375, 34.09375, 34.09375, 34.03125, 33.75, 33.5, 33.25, 33, 33, 32.9375, 32.8125, 32.8125, 32.6875, 32.5625, 32.4375, 32.1875, 32.0625, 32, 32, 31.875, 31.75, 31.625, 31.5, 31.5, 31.375, 31.25, 31.125, 31, 31, 31, 31, 31, 31, 31, 31, 31, 30.875, 30.6875, 30.4375, 30.1875, 30.0625, 30, 30, 30, 28.571428, 23.666668, 23.200001, -10, -10, -10, -10, 16.5, 16.095238, 15.504762, 13.946428, 12.940476, 11.82653, 10.279761, 9.4702387, 8.6071424, 8.3839283, 8.0625, 8.0625, 8, 8, 8, 7.9598217, 7.6354165, 7.6354165, 7.8020835, 7.8660717, 7.9375, 7.9375, 8, 7.9107141, 7.7053571, 7.7053571, 7.6875, 7.8125, 8, 7.7410717, 7.1041665, 6.5, 6.1875, 6, 6, 6, 6, 5.875, 5.875, 5.875, 5.875, 6, 6.1339283, 6.5, 6.6875, 6.9375, 7.125, 7.4553571, 8.2738094, 8.5982151, 8.8125, 8.875, 8.8125, 8.875, 8.9375, 9.1339283, 9.7172613, 10.318453, 10.300595, 9.604166, 9.2232141, 8.875, 8.9375, 8.9375, 9.0625, 9.25, 9.5625, 9.7946434, 9.96875, 10.21875, 10.15625, 10.21875, 10.229166, -10, -10, -10, -10, -10, 18.25, 18.226189, 17.785715, 16.770834, 16.779762, 16.966518, 17.854166, 18.491072, 19.107143, 19.5625, 20, 20.375, 20.625, 21, 21.25, 21.5625, 21.75, 21.8125, 22.017857, 22.711311, 23.464285, 23.767857, 23.669643, 23.151787, 23.1875, 23.160713, 23.25, 23.3125, 23.25, 23.125, 23.125, 22.9375, 22.6875, 22.5, 22.25, 22, 21.8125, 21.8125, 21.8125, 21.9375, 22, 21.75, 21.6875, 21.5, 21.3125, 21.21875, 21.03125, 21.09375, 21.388393, 21.348215, 21.1875, 21.125, 21.044643, 20.9375, 20.75, 20.5, 20.4375, 20.866072, 21.7551, 22.530613, 23.030613, 23.510204, 24, 24.3125, 24.4375, 24.5625, 24.607143, 24.5, 24.5625, 24.5, 24.625, 25.044643, 25.3125, 25.375, 25.28125, 25.183037, 25.191963, 25.28125, 25.5, 25.59375, 25.78125, 25.90625, 25.96875, 26, 26, 26.0625, 26.25, 26.5, 26.830357, 26.982143, 27.291666, 27.375, 27.6875, 27.982143, 28.1875, 28.4375, 28.53125, 28.700893, 28.84375, 28.96875, 29, 29.25, 29.5, 29.982143, 30.285713, 30.3125, 30.285713, 30.089287, 30.125, 30.125, 30.4375, 30.6875, 30.982143, 31.1875, 31.375, 31.482143, 31.495537, 31.78125, 31.959822, 32.066963, 32.125, 32.339287, 33.1875, 33.380951, 33.362499, 33.491074, 33.428574, 33.625, 33.75, 33.9375, 34.1875, 34.5, 34.9375, 35.071426, 34.75, 34.839287, 34.991074, 35.534225, 35.647324, 35.71875, 35.71875, 35.991074, 36.729168, 37.294643, 37.723213, 37.910713, 38, 38, 38, 38, 38.0625, 38.28125, 38.46875, 38.71875, 38.90625, 38.9375, 39, 39.1875, 39.375, 39.5, 39.666668, -10, -10, -10, -10, -10, -10, -10, -10, -10, -10, -10, -10, -10, -10, -10, -10, -10, -10, -10, -10, -10, -10, -10, -10, -10, -10, -10, -10, -10, -10, -10, 43.1875, 43.333332, 43.080353, 42.494045, 42.205357, 41.9375, 42, 41.84375, 41.625, 41.375, 41.125, 40.96875, 40.8125, 40.5625, 40.3125, 40.125, 40, 39.8125, 39.59375, 39.375, 39.125, 39, 38.96875, 38.678574, 38.197918, 37.852676, 37.65625, 37.71875, 37.5625, 37.5, 37.15625, 36.765625, 36.53125, 36.209824, 35.729168, 35.694199, 35.84375, 35.919643, 36.058037, 36.0625, 35.9375, 36.0625, 36, 36, 35.785713, 35.383926, 35.053574, 34.982143, 35.273811, 35.263393, 35.15625, 34.71875, 34.4375, 34.1875, 34.125, 34.15625, 34.09375, 34.09375, 34.03125, 33.75, 33.5, 33.25, 33, 33, 32.9375, 32.875, 32.875, 32.75, 32.625, 32.4375, 32.1875, 32.0625, 32, 32, 31.9375, 31.875, 31.8125, 31.625, 31.5, 31.3125, 31.1875, 31.125, 31.0625, 31.0625, 31, 31, 31, 31, 31, 31, 31, 30.9375, 30.8125, 30.5625, 30.3125, 30.125, 30, 30, 30, 29.666666, -10, -10, -10, -10, -10, -10, 16.041668, 15.654761, 14.779761, 13.458333, 12.583333, 10.776191, 9.8583336, 9.2321434, 8.2857141, 8.2053566, 7.9375, 8, 8, 8, 8, 8.03125, 7.90625, 7.84375, 7.84375, 7.8125, 7.875, 7.9375, 7.9375, 7.8125, 7.71875, 7.71875, 7.71875, 7.84375, 7.9375, 7.6875, 7.25, 6.6160712, 6.3125, 6.0625, 6, 6, 6, 5.9375, 5.9375, 5.9375, 5.9375, 6, 6.0714283, 6.4375, 6.625, 6.9732141, 7.4124999, 7.5178571, 8.3095236, 8.5357151, 8.75, 8.875, 8.875, 8.9375, 8.9375, 9.0982141, 9.6994047, 10.309524, 10.434525, 9.979166, 9.6607141, 9.3125, 9.1428566, 9.0625, 9.125, 9.375, 9.8125, 10.169643, 10.375, 10.625, 10.4375, 10.3125, 10.229166, 10, -10, -10, -10, -10, 18.25, 18.184523, 17.836735, 17.0625, 17.154762, 17.435268, 18.044643, 18.669643, 19.232143, 19.625, 20.0625, 20.375, 20.625, 21.03125, 21.25, 21.5625, 21.8125, 21.964285, 22.183672, 22.717688, 23.535715, 23.767857, 23.741072, 23.401787, 23.375, 23.285713, 23.25, 23.25, 23.1875, 23.125, 23.0625, 22.9375, 22.75, 22.625, 22.4375, 22.125, 21.875, 21.8125, 21.8125, 21.9375, 21.9375, 21.625, 21.5, 21.25, 21.0625, 20.96875, 20.84375, 20.96875, 21.09375, 20.991072, 20.8125, 20.919643, 21.044643, 21.0625, 20.9375, 20.75, 20.6875, 21.178572, 21.973215, 22.75, 23.214287, 23.5625, 24, 23.8125, 23.875, 24.053572, 24.461309, 24.491072, 24.625, 24.5625, 24.625, 24.96875, 25.15625, 25.21875, 25.25, 25.245537, 25.379463, 25.53125, 25.625, 25.683037, 25.84375, 25.799107, 25.96875, 25.9375, 26.0625, 26.1875, 26.4375, 26.75, 27.080357, 27.1875, 27.1875, 27.1875, 27.4375, 27.732143, 28, 28.375, 28.625, 28.964287, 29.125, 29.25, 29.25, 29.4375, 29.6875, 30.107143, 30.348213, 30.3125, 30.25, 30.1875, 30.25, 30.3125, 30.5625, 30.75, 30.982143, 31.125, 31.25, 31.357143, 31.308037, 31.65625, 31.897322, 32.004463, 32.1875, 32.455357, 33.211308, 33.485115, 33.5625, 33.5625, 33.5, 33.625, 33.75, 34, 34.25, 34.5625, 35, 35.071426, 34.75, 34.776787, 34.928574, 35.471725, 35.647324, 35.78125, 35.78125, 36.053574, 36.666668, 37.053574, 37.4375, 37.660713, 37.8125, 38, 38.125, 38.125, 38.1875, 38.34375, 38.53125, 38.71875, 38.90625, 38.9375, 38.9375
40.53125, 40.28125, 40.09375, 40, 39.75, 39.5, 39.21875, 38.90625, 38.78125, 38.71875, 38.5, 38.28125, 38.03125, 37.84375, 37.84375, 37.625, 37.5, 37.1875, 36.828125, 36.65625, 36.397324, 35.947918, 35.944199, 36.09375, 36.196426, 36.34375, 36.205357, 36.0625, 36.0625, 36, 36.0625, 35.910713, 35.508926, 35.116074, 35, 35.24881, 35.038391, 35.15625, 34.700893, 34.5625, 34.3125, 34.125, 34.125, 34, 34, 33.9375, 33.6875, 33.4375, 33.1875, 33, 33, 33, 33, 33, 32.9375, 32.75, 32.5, 32.25, 32.0625, 32, 32, 32, 32, 32, 31.8125, 31.625, 31.4375, 31.3125, 31.3125, 31.25, 31.1875, 31.0625, 31, 31, 30.9375, 30.9375, 30.9375, 30.9375, 31, 30.875, 30.625, 30.375, 30.125, 30, 30, 30, 29.75, -10, -10, -10, -10, -10, 15.625, 15.625, 15.248511, 14.279761, 12.970238, 11.886905, 10.379762, 9.4833336, 9.1607141, 8.3303566, 8.2857141, 8, 8, 8, 8, 8, 7.96875, 7.84375, 7.78125, 7.78125, 7.75, 7.8125, 7.875, 7.875, 7.875, 7.78125, 7.78125, 7.78125, 7.84375, 7.875, 7.625, 7.25, 6.6607141, 6.375, 6.125, 6, 6, 6, 5.9375, 5.9375, 5.9375, 5.9375, 6, 6, 6.1875, 6.375, 6.8035717, 7.8291664, 8.0535717, 8.7261906, 8.7946434, 8.875, 8.9375, 8.875, 9, 9.125, 9.3482141, 9.770833, 10.035714, 10.142857, 9.958333, 9.875, 9.6875, 9.4553566, 9.3125, 9.3303566, 9.708333, 10.178572, 10.607143, 10.8125, 11, 10.75, 10.5, 10.3125, -10, -10, -10, -10, -10, 18.25, 18.25, 18.044643, 17.479168, 17.383928, 17.466518, 17.964287, 18.8125, 19.375, 19.75, 20.125, 20.375, 20.625, 21, 21.21875, 21.53125, 21.84375, 22.464285, 22.780611, 23.132654, 23.544643, 23.705357, 23.8125, 23.589287, 23.5, 23.410713, 23.25, 23.25, 23.1875, 23.125, 23, 22.875, 22.6875, 22.5625, 22.4375, 22.1875, 22, 21.9375, 21.9375, 22, 21.9375, 21.625, 21.4375, 21.1875, 21, 20.875, 20.75, 20.8125, 20.875, 20.803572, 20.625, 20.794643, 20.982143, 21.0625, 21.0625, 20.9375, 20.875, 21.241072, 21.732143, 22.196428, 22.482143, 22.464285, 22.416666, 22.75, 22.964285, 23.382654, 24.202381, 24.473213, 24.6875, 24.6875, 24.75, 24.96875, 25.03125, 25.09375, 25.125, 25.183037, 25.410713, 25.625, 25.65625, 25.736607, 26.013393, 25.90625, 26.03125, 25.830357, 25.955357, 26.270834, 26.553572, 26.8125, 27.035713, 27.1875, 27.3125, 27.4375, 27.6875, 27.875, 28.0625, 28.4375, 28.75, 29.089287, 29.25, 29.375, 29.375, 29.5625, 29.875, 30.214287, 30.3125, 30.3125, 30.1875, 30.1875, 30.3125, 30.4375, 30.6875, 30.875, 31.044643, 31.125, 31.25, 31.357143, 31.339287, 31.625, 31.866072, 31.973213, 32.125, 32.446426, 33.002975, 33.370537, 33.65625, 33.71875, 33.78125, 33.875, 33.9375, 34.1875, 34.375, 34.5625, 34.9375, 34.946426, 34.723213, 34.714287, 34.883926, 35.440475, 35.616074, 35.8125, 35.8125, 36.0625, 36.482143, 36.8125, 37.1875, 37.410713, 37.625, 37.9375, 38.232143, 38.25, 38.25, 38.34375, 38.46875, 38.65625, 38.90625, 39, 39, 39.0625, 39.017857, 39, 39, -10, -10, -10, -10, -10, -10, -10, -10, -10, -10, -10, -10, -10, -10, -10, -10, -10, -10, -10, -10, -10, -10, -10, -10, -10, -10, -10, -10, -10, 43.166668, 43.111111, 43.1875, 43.229168, 42.98214, 42.476189, 42.196426, 41.9375, 42, 41.8125, 41.5625, 41.3125, 41.125, 41.0625, 40.90625, 40.65625, 40.299107, 40.09375, 40, 39.75, 39.5, 39.21875, 38.90625, 38.78125, 38.6875, 38.46875, 38.28125, 38.09375, 37.9375, 37.9375, 37.6875, 37.5, 37.15625, 36.78125, 36.705357, 36.616074, 36.260418, 36.334824, 36.34375, 36.446426, 36.46875, 36.267857, 36.125, 36.0625, 36, 36.0625, 35.973213, 35.571426, 35.178574, 35.0625, 35.18631, 34.975891, 35.15625, 34.763393, 34.6875, 34.4375, 34.1875, 34.125, 34, 34, 33.875, 33.625, 33.375, 33.125, 33, 33, 33, 33, 33, 33, 32.8125, 32.5625, 32.3125, 32.0625, 32, 32, 31.9375, 31.9375, 31.9375, 31.8125, 31.75, 31.625, 31.5, 31.5, 31.375, 31.25, 31.125, 31, 31, 30.875, 30.875, 30.8125, 30.75, 30.8125, 30.6875, 30.5, 30.3125, 30.125, 30, 30, 29.9375, 29.916666, -10, -10, -10, -10, -10, 15.5, 15.2, 14.686011, 13.613095, 12.442177, 11.10119, 9.6654758, 9.2333336, 9.0877972, 8.4866066, 8.3794641, 8.09375, 8, 8, 8, 8, 7.96875, 7.84375, 7.78125, 7.75, 7.65625, 7.65625, 7.71875, 7.75, 7.8125, 7.84375, 7.84375, 7.84375, 7.90625, 7.8125, 7.5625, 7.25, 6.7053571, 6.4375, 6.1875, 6, 6, 6, 5.9375, 5.9375, 5.9375, 5.875, 5.9375, 6, 6.2321429, 6.5, 6.9910717, 8.0166664, 8.2321434, 8.8163271, 8.8874998, 8.8214283, 8.8839283, 8.75, 8.8839283, 9.291667, 9.4851189, 9.6517859, 9.8571424, 9.9375, 10.0625, 10.0625, 10, 9.8125, 9.6875, 9.7053566, 10.020833, 10.366072, 10.732143, 10.875, 11, 10.75, 10.5, 10.3125, -10, -10, -10, -10, -10, 18.166666, 18.111113, 17.964285, 17.895834, 17.770834, 17.796875, 18.089287, 18.830357, 19.446428, 19.803572, 20.1875, 20.375, 20.625, 21, 21.15625, 21.46875, 21.84375, 22.419643, 22.714285, 23.275511, 23.5625, 23.767857, 23.9375, 23.75, 23.5625, 23.375, 23.125, 23.0625, 23, 22.9375, 22.8125, 22.6875, 22.5625, 22.4375, 22.375, 22.25, 22.125, 22, 22, 22, 21.875, 21.625, 21.375, 21.125, 20.9375, 20.8125, 20.6875, 20.6875, 20.6875, 20.625, 20.5625, 20.732143, 20.919643, 20.9375, 21, 20.8125, 20.6875, 20.8125, 21.116072, 21.214285, 21.418367, 21.535715, 21.714285, 21.964285, 22.5, 23.053572, 23.970238, 24.441963, 24.75, 24.859375, 24.890625, 25.046875, 25.078125, 25.09375, 25.1875, 25.15625, 25.3125, 25.5625, 25.575893, 25.799107, 26.138393, 26.09375, 26.28125, 26.017857, 26.080357, 26.395834, 26.616072, 26.8125, 27, 27.1875, 27.375, 27.6875, 28, 28.1875, 28.375, 28.625, 28.875, 29.276787, 29.4375, 29.625, 29.6875, 29.75, 29.9375, 30.107143, 30.125, 30.125, 30.0625, 30.125, 30.375, 30.5625, 30.8125, 30.9375, 31, 31.1875, 31.3125, 31.392857, 31.517857, 31.6875, 31.875, 31.9375, 32.09375, 32.415176, 32.909225, 33.241074, 33.59375, 33.763393, 33.90625, 34, 34, 34.1875, 34.3125, 34.5, 34.8125, 34.848213, 34.830357, 34.883926, 35.071426, 35.520832, 35.678574, 35.8125, 35.8125, 36.0625, 36.482143, 36.75, 37, 37.125, 37.3125, 37.6875, 38.044643, 38.142857, 38.357143, 38.491074, 38.625, 38.75, 38.9375, 39, 39
40.71875, 40.361607, 40.09375, 40, 39.78125, 39.53125, 39.25, 38.9375, 38.78125, 38.625, 38.40625, 38.1875, 38, 37.84375, 37.78125, 37.5625, 37.375, 37.1875, 37, 37.142857, 37.214287, 36.809525, 36.8125, 36.71875, 36.821426, 36.78125, 36.517857, 36.3125, 36.125, 36, 36.0625, 36.035713, 35.633926, 35.303574, 35.223213, 35.204166, 34.993752, 35.21875, 34.888393, 34.8125, 34.333332, 34.008926, 33.9375, 33.875, 33.9375, 33.875, 33.625, 33.375, 33.125, 33, 33, 33, 33, 33, 33, 32.75, 32.5, 32.1875, 31.875, 31.875, 31.875, 31.875, 31.9375, 31.9375, 31.875, 31.875, 31.75, 31.625, 31.625, 31.4375, 31.3125, 31.1875, 31, 31, 30.8125, 30.8125, 30.75, 30.625, 30.6875, 30.5, 30.3125, 30.1875, 30.0625, 30, 30, 29.875, 29.833332, -10, -10, -10, -10, -10, 15.375, 14.975, 14.269345, 13.113095, 11.419047, 10.306122, 9.4571428, 9.0874996, 8.9940472, 8.5089283, 8.4017859, 8.125, 8, 8, 8, 8, 8, 7.9375, 7.875, 7.84375, 7.71875, 7.71875, 7.78125, 7.75, 7.6875, 7.5580359, 7.59375, 7.7008929, 7.84375, 7.75, 7.5, 7.25, 6.8125, 6.5625, 6.3125, 6.0625, 6, 6, 6, 6, 6, 5.9375, 5.9375, 6.0625, 6.2946429, 6.625, 7.1785717, 8.1416664, 8.3571434, 8.7857141, 9.0124998, 8.8526783, 8.8839283, 8.6875, 8.8839283, 9.447917, 9.6726189, 9.6785717, 9.8214283, 9.84375, 10.0625, 10.1875, 10.25, 10.21875, 10.1875, 10.205357, 10.422619, 10.616072, 10.8125, 10.9375, 11, 10.75, 10.5, 10.333333, -10, -10, -10, -10, -10, -10, -10, -10, 18.25, 18.104168, 18.09375, 18.183037, 18.75, 19.422619, 19.794643, 20.1875, 20.4375, 20.6875, 21.125, 21.40625, 21.763393, 22.21875, 22.857143, 23.151785, 23.5, 23.6875, 23.8125, 23.875, 23.6875, 23.4375, 23.1875, 22.9375, 22.875, 22.875, 22.8125, 22.6875, 22.5, 22.3125, 22.1875, 22.125, 22, 21.875, 21.6875, 21.75, 21.8125, 21.8125, 21.6875, 21.4375, 21.1875, 21, 20.9375, 20.875, 20.875, 20.75, 20.625, 20.4375, 20.482143, 20.5625, 20.5625, 20.625, 20.5625, 20.5, 20.5625, 20.6875, 20.723213, 20.75, 20.75, 20.8125, 21.142857, 22.0625, 22.803572, 23.800594, 24.379463, 24.625, 24.765625, 24.859375, 24.890625, 24.984375, 25.03125, 25.15625, 25.125, 25.28125, 25.53125, 25.638393, 25.986607, 26.325893, 26.28125, 26.34375, 26.017857, 26.080357, 26.395834, 26.616072, 26.875, 27.125, 27.3125, 27.5625, 27.875, 28.1875, 28.4375, 28.625, 28.75, 28.8125, 29.044643, 29.1875, 29.5, 29.75, 29.9375, 30.125, 30.1875, 30.116072, 29.9375, 29.9375, 30, 30.375, 30.625, 30.875, 31, 31.0625, 31.1875, 31.3125, 31.330357, 31.392857, 31.4375, 31.5, 31.607143, 32.09375, 32.486607, 32.825893, 33.125, 33.46875, 33.700893, 33.90625, 34, 34, 34.1875, 34.3125, 34.5, 34.75, 34.8125, 34.9375, 35.125, 35.375, 35.625, 35.75, 35.875, 35.875, 36.0625, 36.482143, 36.6875, 36.9375, 37.0625, 37.1875, 37.571426, 38.044643, 38.205357, 38.544643, 38.616074, 38.75, 38.8125, 38.9375, 39, 39.071426, 39.3125, 39.17857, 39.080357, 38.933334, -10, -10, -10, -10, -10, -10, -10, -10, -10, -10, -10, -10, -10, -10, -10, -10, -10, -10, -10, -10, -10, -10, -10, -10, -10, -10, -10, -10, 41.5, 42.5, 42.714287, 42.875, 43.0625, 42.883926, 42.473213, 42.205357, 41.90625, 41.84375, 41.59375, 41.34375, 41.25, 41.125, 41.125, 40.924107, 40.65625, 40.299107, 40.09375, 40, 39.78125, 39.53125, 39.25, 38.9375, 38.90625, 38.723213, 38.424107, 38.196426, 37.9375, 37.84375, 37.71875, 37.5, 37.3125, 37.1875, 37.0625, 37.142857, 37.285713, 37.17857, 37.133926, 37.0625, 37, 36.875, 36.580357, 36.375, 36.125, 36, 36, 36, 35.8125, 35.625, 35.580357, 35.412498, 35.141071, 35.041668, 34.74107, 34.625, 34.270832, 34.008926, 33.9375, 33.9375, 33.875, 33.75, 33.5, 33.25, 33.0625, 33, 33, 33, 33, 33, 32.9375, 32.6875, 32.4375, 32.125, 31.875, 31.875, 31.875, 31.875, 31.9375, 31.9375, 31.9375, 32, 31.875, 31.75, 31.75, 31.5, 31.375, 31.25, 31, 31, 30.8125, 30.8125, 30.75, 30.5625, 30.5625, 30.3125, 30.125, 30.0625, 30, 30, 30, 29.8125, 29.749998, -10, -10, -10, -10, -10, 15, 14.558332, 13.78125, 12.613095, 11.12381, 9.8392849, 9, 8.8125, 8.7232141, 8.5, 8.3928566, 8.125, 8, 8, 8, 8, 8, 8, 8, 7.96875, 7.84375, 7.78125, 7.78125, 7.8125, 7.75, 7.4434524, 7.5089283, 7.6517859, 7.8125, 7.75, 7.5, 7.25, 6.8125, 6.5625, 6.3125, 6.0625, 6, 6, 6, 6, 6, 5.9375, 6, 6.1875, 6.4196429, 6.75, 7.2053571, 7.979167, 8.5357141, 9, 9.2624998, 9.0401783, 8.9464283, 8.75, 9.0714283, 9.760417, 9.9226189, 9.8839283, 10.071428, 10.03125, 10.080357, 10.229167, 10.4375, 10.638393, 10.75, 10.642857, 10.797619, 10.901786, 10.9375, 11.0625, 11, 10.75, 10.5, 10.333333, -10, -10, -10, -10, -10, -10, -10, -10, 18.5, 18.395834, 18.25, 18.138393, 18.642857, 19.380953, 19.785715, 20.1875, 20.4375, 20.6875, 21.15625, 21.46875, 21.888393, 22.34375, 22.732143, 22.973213, 23.3125, 23.5625, 23.75, 23.875, 23.625, 23.375, 23.1875, 23, 22.982143, 22.875, 22.8125, 22.625, 22.4375, 22.1875, 22, 21.9375, 21.875, 21.8125, 21.625, 21.625, 21.625, 21.625, 21.5625, 21.375, 21.1875, 21, 21, 21, 21, 20.875, 20.75, 20.5, 20.375, 20.3125, 20.25, 20.3125, 20.1875, 20.1875, 20.1875, 20.1875, 20.1875, 20.1875, 20.125, 20.1875, 20.607143, 22, 22.875, 23.696428, 24.138393, 24.3125, 24.484375, 24.609375, 24.734375, 24.890625, 24.96875, 25.125, 25.125, 25.28125, 25.53125, 25.763393, 26.209822, 26.575893, 26.602678, 26.53125, 26.142857, 26.080357, 26.302084, 26.522322, 26.78125, 27.15625, 27.375, 27.6875, 28.0625, 28.3125, 28.5625, 28.6875, 28.6875, 28.625, 28.75, 28.875, 29.25, 29.625, 29.875, 30.125, 30.125, 29.928572, 29.651787, 29.6875, 29.866072, 30.285713, 30.5, 30.6875, 30.8125, 30.9375, 31.125, 31.3125, 31.267857, 31.361607, 31.375, 31.321428, 31.669643, 32.125, 32.486607, 32.71875, 33, 33.34375, 33.638393, 33.90625, 34, 34.0625, 34.25, 34.375, 34.5625, 34.75, 34.75, 34.8125, 34.9375, 35.169643, 35.75, 35.955357, 36.125, 36.0625, 36.125, 36.482143, 36.625, 36.875, 37.0625, 37.125, 37.446426, 37.857143, 38.080357, 38.544643, 38.616074, 38.75, 38.8125, 38.875, 39.0625, 39.321426
40.625, 40.267857, 40.0625, 40, 39.8125, 39.5625, 39.3125, 39.0625, 39.125, 38.977676, 38.566963, 38.267857, 37.9375, 37.84375, 37.65625, 37.4375, 37.25, 37.125, 37.0625, 37.142857, 37.285713, 37.17857, 37.133926, 37, 36.9375, 36.875, 36.625, 36.4375, 36.1875, 36, 36, 36, 35.875, 35.6875, 35.5625, 35.3125, 35.116074, 34.854168, 34.633926, 34.4375, 34.208332, 34.008926, 33.9375, 33.9375, 33.75, 33.625, 33.375, 33.1875, 33.0625, 33, 33, 33, 33, 33, 32.875, 32.625, 32.375, 32.0625, 31.875, 31.875, 31.875, 31.875, 31.9375, 31.9375, 31.9375, 32, 31.875, 31.75, 31.75, 31.5, 31.375, 31.25, 31, 31, 30.875, 30.875, 30.75, 30.5, 30.375, 30.125, 30, 30, 30, 30, 30, 29.75, 29.666666, -10, -10, -10, -10, -10, 13.857142, 13.628571, 13.128572, 11.841667, 10.457142, 9.3928566, 8.7053566, 8.5625, 8.4375, 8.3125, 8.25, 8.0625, 8, 8, 8, 8.0625, 8.0625, 8.0625, 8.0625, 7.96875, 7.90625, 7.84375, 7.84375, 7.875, 7.6875, 7.3809524, 7.4464283, 7.5892859, 7.8125, 7.75, 7.5, 7.25, 6.8125, 6.5625, 6.3125, 6.0625, 6, 6, 6, 6, 6, 5.9375, 6.0625, 6.3125, 6.6071429, 7, 7.3125, 7.5625, 8.0357141, 8.75, 9.1464281, 9.0714283, 9.0401783, 8.90625, 9.2901783, 9.947917, 10.047619, 10.147322, 10.334822, 10.3125, 10.361607, 10.479167, 10.6875, 10.950893, 11.0625, 10.964286, 10.964286, 10.866072, 10.9375, 11, 11, 10.75, 10.5, 10.333333, -10, -10, -10, -10, -10, -10, -10, -10, 18.875, 18.833334, 18.65625, 18.34375, 18.285715, 19.02211, 19.387754, 19.958334, 20.348213, 20.6875, 21.1875, 21.5, 21.982143, 22.4375, 22.732143, 23, 23.3125, 23.5625, 23.8125, 23.875, 23.625, 23.321428, 22.916666, 22.75, 22.732143, 22.75, 22.75, 22.6875, 22.5, 22.25, 22.0625, 21.9375, 21.875, 21.741072, 21.375, 21.375, 21.3125, 21.4375, 21.410713, 21.214287, 21.125, 20.9375, 21, 20.9375, 20.875, 20.6875, 20.4375, 20.276787, 20.223213, 20.125, 20.125, 20.0625, 19.9375, 19.9375, 19.9375, 20, 20.0625, 20.0625, 20.071428, 20.270834, 20.551022, 22.1875, 23.044643, 23.767857, 24.15625, 24.25, 24.296875, 24.359375, 24.591518, 24.819197, 24.96875, 25.1875, 25.25, 25.4375, 25.6875, 25.919643, 26.25, 26.375, 26.459822, 26.59375, 26.25, 26.258928, 26.290178, 26.59375, 26.78125, 27.15625, 27.3125, 27.5625, 27.9375, 28.1875, 28.375, 28.5, 28.4375, 28.375, 28.5625, 28.75, 29.125, 29.5, 29.75, 29.9375, 29.9375, 29.821428, 29.735119, 29.794643, 29.991072, 30.285713, 30.3125, 30.40625, 30.46875, 30.65625, 30.90625, 31.0625, 30.955357, 30.933035, 31.145834, 31.303572, 31.669643, 32.25, 32.611607, 32.90625, 33.15625, 33.375, 33.669643, 33.875, 34, 34.1875, 34.375, 34.5625, 34.75, 34.9375, 34.9375, 34.875, 34.901787, 35.044643, 35.625, 35.892857, 36.125, 36.125, 36.125, 36.4375, 36.5625, 36.8125, 37.0625, 37.0625, 37.258926, 37.53125, 37.799107, 38.325893, 38.459824, 38.625, 38.6875, 38.8125, 39.107143, 39.446426, 39.848213, 39.785713, 39.642857, 39.433334, -10, -10, -10, -10, -10, -10, -10, -10, -10, -10, -10, -10, -10, -10, -10, -10, -10, -10, -10, -10, -10, -10, -10, -10, -10, -10, -10, -10, 41.375, 41.849998, 42.404762, 42.741074, 42.875, 42.660713, 42.267857, 42.008926, 41.84375, 41.71875, 41.53125, 41.28125, 41.15625, 40.96875, 40.90625, 40.642857, 40.40625, 40.21875, 40.03125, 40, 39.8125, 39.5625, 39.3125, 39.0625, 39.125, 38.9375, 38.410713, 38.174107, 37.84375, 37.84375, 37.625, 37.40625, 37.21875, 37.15625, 37.1875, 37.25, 37.285713, 37.17857, 37.071426, 37.0625, 37, 37, 36.8125, 36.5625, 36.3125, 36, 35.875, 35.8125, 35.6875, 35.5625, 35.5, 35.375, 35.178574, 34.916668, 34.696426, 34.4375, 34.270832, 34.071426, 34, 33.9375, 33.625, 33.5, 33.25, 33.125, 33.0625, 33, 33, 33, 33, 33, 32.875, 32.625, 32.375, 32.0625, 31.875, 31.875, 31.8125, 31.875, 31.9375, 31.9375, 32, 32, 31.875, 31.8125, 31.8125, 31.5625, 31.4375, 31.25, 31.0625, 31.0625, 31, 31, 30.8125, 30.5625, 30.375, 30.125, 30, 30, 30, 30, 30, 29.875, 29.833332, -10, -10, -10, -10, -10, 10.150001, 10.077778, 11.059999, 10.691667, 9.8738098, 9.03125, 8.4866066, 8.25, 8.125, 8.0625, 8.0625, 7.96875, 8, 8, 8, 8.0625, 8.0625, 8.0625, 8.0625, 8, 8, 8, 8, 7.9375, 7.625, 7.2559524, 7.3214283, 7.5267859, 7.8125, 7.75, 7.5, 7.25, 6.8125, 6.5625, 6.3125, 6.0625, 6, 6, 6, 6, 6, 6, 6.1875, 6.4375, 6.6875, 7, 7.1875, 7.375, 7.8928571, 8.9285717, 9.2678566, 9.4375, 9.40625, 9.28125, 9.6830359, 10.138393, 10.267858, 10.433036, 10.584822, 10.6875, 10.709822, 10.684525, 10.854167, 11.177083, 11.303572, 11.214286, 11.151786, 10.991072, 11, 11, 11, 10.75, 10.5, 10.333333, -10, -10, -10, -10, -10, -10, -10, -10, 18.75, 18.75, 18.59375, 18.28125, 18.205357, 18.444445, 18.742857, 19.895834, 20.348213, 20.6875, 21.1875, 21.5625, 21.982143, 22.4375, 22.833334, 23.133928, 23.375, 23.5, 23.6875, 23.6875, 23.5, 23.196428, 22.729166, 22.526787, 22.544643, 22.669643, 22.75, 22.75, 22.5625, 22.3125, 22.1875, 22, 21.875, 21.449406, 21.080357, 21.0625, 21.125, 21.375, 21.348213, 21.276787, 21.1875, 20.9375, 20.892857, 20.75, 20.625, 20.4375, 20.1875, 20.089287, 20.035713, 20, 20.0625, 20, 19.9375, 19.9375, 19.9375, 19.9375, 20, 20, 20.071428, 20.539118, 21.154762, 22.25, 23.044643, 23.732143, 24.0625, 24.125, 24.125, 24.21875, 24.513393, 24.772322, 24.90625, 25.151787, 25.419643, 25.607143, 25.8125, 25.955357, 26.333334, 26.357143, 26.334822, 26.308037, 26.0625, 26.241072, 26.415178, 26.78125, 26.90625, 27.21875, 27.25, 27.5, 27.875, 28.098213, 28.25, 28.3125, 28.1875, 28.125, 28.25, 28.4375, 28.8125, 29.1875, 29.5625, 29.8125, 29.8125, 29.758928, 29.610119, 29.669643, 29.928572, 30.160713, 30.15625, 30.171875, 30.171875, 30.361607, 30.65625, 30.729166, 30.919643, 30.852678, 31.177084, 31.272322, 31.700893, 32.3125, 32.705357, 33.0625, 33.3125, 33.5, 33.75, 33.9375, 34, 34.1875, 34.4375, 34.6875, 34.875, 35.125, 35.035713, 34.767857, 34.732143, 34.857143, 35.544643, 35.892857, 36.1875, 36.1875, 36.125, 36.375, 36.5, 36.8125, 37.1875, 37.25, 37.383926, 37.625, 37.8125, 38.125, 38.25, 38.375, 38.4375, 38.633926, 39.107143, 39.446426
40.3125, 40.15625, 40.03125, 40, 39.78125, 39.53125, 39.28125, 39.03125, 39.125, 38.9375, 38.410713, 38.205357, 37.9375, 38, 37.78125, 37.53125, 37.28125, 37.09375, 37.03125, 36.90625, 36.90625, 36.941963, 36.9375, 37.0625, 37, 37, 36.875, 36.625, 36.375, 36.0625, 35.875, 35.875, 35.785713, 35.651787, 35.5625, 35.3125, 35.178574, 34.764881, 34.464287, 34.258926, 34.375, 34.375, 34.294643, 33.979168, 33.508926, 33.25, 33.0625, 33, 33, 33, 33, 33, 33, 33, 32.8125, 32.5625, 32.3125, 32.0625, 32, 32, 31.9375, 31.875, 31.875, 31.875, 31.9375, 31.9375, 31.875, 31.875, 31.8125, 31.625, 31.4375, 31.1875, 31.0625, 31.0625, 31.0625, 31, 30.75, 30.5625, 30.285713, 30.026787, 30, 29.9375, 30, 30, 30, 30, 30, 11, 11, 10.785714, 10.333333, -10, 8.7714291, 8.6952381, 8.8722219, 8.6285715, 8.7659864, 8.4241076, 8.2366066, 7.9375, 7.78125, 7.71875, 7.8258929, 7.8660717, 8, 8, 8, 8.0625, 8.0625, 8, 8, 7.9375, 7.9375, 8, 8, 8, 7.8125, 7.5416665, 7.5714283, 7.6696429, 7.875, 7.75, 7.5, 7.25, 6.75, 6.5, 6.25, 6, 6, 6, 6, 6, 6, 6.0625, 6.3125, 6.5625, 6.8125, 7, 7.0625, 7.1875, 7.75, 9.1071434, 9.3392849, 9.65625, 9.59375, 9.59375, 10.058036, 10.419643, 10.517858, 10.71875, 10.834822, 11.03125, 11.022322, 11.059525, 11.229167, 11.458333, 11.553572, 11.464286, 11.4375, 11.241072, 11.1875, 11.0625, 11, 10.75, 10.4375, 10.2, -10, -10, -10, -10, -10, -10, 18, 18.333334, 18.625, 18.729166, 18.6875, 18.4375, 18.379463, 18.677084, 19.316326, 19.958334, 20.441963, 20.84375, 21.3125, 21.5625, 21.90625, 22.34375, 22.739584, 23.102678, 23.3125, 23.3125, 23.375, 23.375, 23.3125, 23.133928, 22.622023, 22.410715, 22.419643, 22.607143, 22.8125, 22.8125, 22.625, 22.4375, 22.3125, 22.169643, 22, 21.574406, 21.142857, 21.0625, 21, 21.1875, 21.160713, 21.151787, 21.125, 20.875, 20.767857, 20.5625, 20.375, 20.25, 20.0625, 20.026787, 20.035713, 20, 20.0625, 20, 19.96875, 20.03125, 20.03125, 20.03125, 20.0625, 20.125, 20.383928, 20.922621, 21.339287, 22.3125, 22.982143, 23.651787, 23.9375, 24.0625, 24.03125, 24.125, 24.482143, 24.678572, 24.870537, 25.125, 25.294643, 25.44643, 25.5625, 25.705357, 26.114584, 26.200893, 26.241072, 26.276787, 26.133928, 26.491072, 26.633928, 27.0625, 27.125, 27.3125, 27.3125, 27.5, 27.75, 27.99107, 28.232143, 28.232143, 28.125, 28.125, 28.1875, 28.4375, 28.75, 29, 29.3125, 29.4375, 29.375, 29.330357, 29.360119, 29.482143, 29.803572, 29.973213, 29.9375, 29.875, 29.875, 30.127232, 30.515625, 30.666666, 30.982143, 31.040178, 31.427084, 31.647322, 32.09375, 32.419643, 32.75, 33.0625, 33.25, 33.4375, 33.6875, 33.875, 33.9375, 34.125, 34.375, 34.669643, 34.875, 35.125, 34.973213, 34.642857, 34.544643, 34.669643, 35.464287, 35.830357, 36.125, 36.125, 36.0625, 36.3125, 36.5, 36.8125, 37.1875, 37.25, 37.3125, 37.375, 37.5, 37.758926, 38.145832, 38.232143, 38.3125, 38.526787, 39.107143, 39.375, 39.723213, 39.625, 39.5625, 39.5, -10, -10, -10, -10, -10, -10, -10, -10, -10, -10, -10, -10, -10, -10, -10, -10, -10, -10, -10, -10, -10, -10, -10, -10, -10, -10, -10, -10, -10, 41.683334, 42.490471, 42.723213, 42.75, 42.5, 42.3125, 42.125, 42.125, 41.9375, 41.580357, 41.3125, 41, 40.84375, 40.71875, 40.5, 40.3125, 40.15625, 40, 39.90625, 39.6875, 39.4375, 39.21875, 39.03125, 39.0625, 38.839287, 38.392857, 38.196426, 37.9375, 38.0625, 37.879463, 37.549107, 37.290176, 37.03125, 36.90625, 36.84375, 36.84375, 36.78125, 36.875, 36.9375, 36.9375, 37, 36.875, 36.625, 36.375, 36.0625, 35.875, 35.9375, 35.785713, 35.501785, 35.491074, 35.0625, 35, 34.723213, 34.455357, 34.258926, 34.25, 34.276787, 34.232143, 33.738094, 33.392857, 33.125, 33, 33, 33, 33, 33, 33, 33, 32.9375, 32.75, 32.5, 32.25, 32.0625, 32, 32, 31.9375, 31.8125, 31.8125, 31.8125, 31.875, 31.9375, 31.875, 31.8125, 31.6875, 31.5, 31.3125, 31.125, 31.0625, 31.0625, 31.0625, 30.9375, 30.625, 30.4375, 30.098213, 29.901787, 29.9375, 29.875, 30, 30, 30, 30.125, 30.166668, 11, 11, 10.666667, 9.1333332, 8, 7.6125002, 7.6083336, 7.7000003, 7.8346939, 8.3666668, 8.1026793, 8.15625, 7.75, 7.59375, 7.53125, 7.6383929, 7.8035717, 8, 8, 8, 8.0625, 8.0625, 7.9375, 7.9375, 7.875, 7.875, 8, 8, 7.9375, 7.8125, 7.75, 7.75, 7.8125, 7.9375, 7.8125, 7.5625, 7.3125, 6.875, 6.5625, 6.3125, 6.0625, 6, 6, 6, 6, 6.0625, 6.125, 6.375, 6.625, 6.8125, 7, 7.0714283, 7.416667, 7.8928571, 9.1875, 9.4642849, 9.78125, 9.78125, 9.8125, 10.183036, 10.544643, 10.741072, 10.9375, 11.03125, 11.21875, 11.379464, 11.392857, 11.479167, 11.645833, 11.741072, 11.839286, 11.8125, 11.517857, 11.330357, 11.0625, 11, 10.741072, 10.229167, 9.9666662, -10, -10, -10, -10, -10, -10, 17.777779, 18.138891, 18.607143, 18.75, 18.8125, 18.625, 18.549107, 18.928572, 19.397961, 20.020834, 20.504463, 20.90625, 21.3125, 21.5625, 21.90625, 22.40625, 22.909227, 23.258928, 23.40625, 23.34375, 23.3125, 23.21875, 23.21875, 23.102678, 22.559523, 22.285715, 22.276787, 22.544643, 22.75, 22.875, 22.625, 22.4375, 22.25, 22.044643, 21.8125, 21.386906, 21.017857, 21, 21, 21.1875, 21.160713, 21.151787, 21.125, 20.9375, 20.803572, 20.455357, 20.196428, 20.0625, 20, 20.089287, 20.223213, 20.25, 20.3125, 20.1875, 20.09375, 19.986607, 19.90625, 19.90625, 19.9375, 20.0625, 20.446428, 21.154762, 21.875, 22.455357, 23.044643, 23.589287, 23.9375, 24.1875, 24.1875, 24.3125, 24.607143, 24.669643, 24.751785, 24.979164, 24.848215, 25.080357, 25.241072, 25.571428, 26.105656, 26.200893, 26.169643, 26.160713, 26.133928, 26.553572, 26.852678, 27.34375, 27.40625, 27.46875, 27.375, 27.5, 27.6875, 28.05357, 28.357143, 28.357143, 28.3125, 28.3125, 28.25, 28.5, 28.6875, 28.8125, 29.125, 29.25, 29.25, 29.330357, 29.520834, 29.607143, 29.8125, 29.9375, 29.875, 29.8125, 29.8125, 30.064732, 30.453125, 30.604166, 30.982143, 31.071428, 31.489584, 31.709822, 32.15625, 32.450893, 32.75, 33.0625, 33.1875, 33.375, 33.625, 33.8125, 33.9375, 34.0625, 34.25, 34.482143, 34.625, 34.9375, 34.910713, 34.705357, 34.732143, 34.875, 35.339287, 35.6875, 36, 36.125, 36.125, 36.375, 36.5625, 36.8125, 37.125, 37.25, 37.25, 37.330357, 37.535713, 37.633926, 38.083332, 38.107143, 38.1875, 38.464287, 38.982143, 39.125
40.3125, 40.15625, 40.03125, 39.84375, 39.59375, 39.34375, 39.125, 39, 39, 38.741074, 38.375, 38.1875, 37.9375, 38.125, 37.977676, 37.566963, 37.299107, 37.03125, 36.90625, 36.84375, 36.84375, 36.78125, 36.875, 36.9375, 36.875, 36.9375, 36.8125, 36.625, 36.4375, 36.125, 35.9375, 35.875, 35.598213, 35.314285, 35.401787, 35.0625, 35.125, 34.785713, 34.517857, 34.196426, 34.125, 34.151787, 34.044643, 33.613094, 33.330357, 33.0625, 33, 33, 33, 33, 33, 33, 33, 32.9375, 32.8125, 32.625, 32.4375, 32.25, 32.125, 32.0625, 31.9375, 31.8125, 31.8125, 31.8125, 31.875, 31.9375, 31.875, 31.75, 31.5625, 31.375, 31.1875, 31, 30.9375, 30.9375, 30.9375, 30.8125, 30.5625, 30.375, 29.973213, 29.839287, 29.875, 29.8125, 30, 30, 30, 30.25, 30.333334, 11.25, 11.25, 10.821428, 9, 7.9047623, 7.5946426, 7.5238099, 7.5816321, 7.8061218, 8.3785715, 8.0907745, 8.1651783, 7.75, 7.59375, 7.53125, 7.6383929, 7.8035717, 8, 8, 8, 8, 8, 7.9375, 8, 8.0625, 8.1875, 8.2857141, 8.1428566, 7.9375, 7.8392859, 7.9821429, 7.9821429, 8.0625, 8.0625, 7.875, 7.625, 7.4375, 7.125, 6.8125, 6.625, 6.34375, 6.1875, 6.125, 6.1785717, 6.375, 6.3125, 6.5178571, 6.625, 6.8125, 6.9375, 7.0714283, 7.4880953, 7.9880953, 8.4732141, 9.4375, 9.6428566, 9.875, 9.875, 9.96875, 10.245536, 10.513393, 10.794643, 11.138393, 11.410714, 11.6875, 11.816964, 11.767857, 11.791667, 11.927083, 12.053572, 12.125, 11.991072, 11.625, 11.330357, 11.0625, 11, 10.741072, 10.229167, 9.8833332, -10, -10, -10, -10, -10, 17, 17.683334, 18.187502, 18.535713, 18.75, 18.875, 18.8125, 18.96875, 19.28125, 19.794643, 20.3125, 20.65625, 20.96875, 21.3125, 21.5625, 21.90625, 22.40625, 22.846727, 23.071428, 23.174107, 23.239584, 23.241072, 23.21875, 23.28125, 23.28125, 22.955357, 22.660715, 22.589287, 22.669643, 22.8125, 22.8125, 22.5625, 22.375, 22.1875, 22.044643, 21.741072, 21.208334, 21.017857, 20.90625, 20.96875, 21.03125, 21.03125, 21.0625, 21, 20.875, 20.616072, 20.330357, 20.133928, 20, 20.125, 20.25, 20.3125, 20.375, 20.3125, 20.1875, 20.09375, 20.049107, 20.03125, 20.03125, 20.0625, 20.205357, 20.791666, 21.392859, 22, 22.392857, 22.830357, 23.422621, 23.741072, 24.09375, 24.1875, 24.375, 24.5625, 24.459822, 24.501785, 24.816666, 24.473215, 24.75, 24.834822, 25.290178, 25.980656, 26.232143, 26.205357, 26.035713, 26.133928, 26.482143, 26.84375, 27.21875, 27.40625, 27.53125, 27.4375, 27.5625, 27.5625, 27.883926, 28.401787, 28.473215, 28.5625, 28.5625, 28.5, 28.6875, 28.8125, 28.875, 29.0625, 29.1875, 29.1875, 29.1875, 29.1875, 29.3125, 29.625, 29.982143, 30.0625, 30.09375, 30.09375, 30.283482, 30.671875, 30.791666, 31.169643, 31.25, 31.46875, 31.65625, 32.09375, 32.450893, 32.75, 33.0625, 33.1875, 33.4375, 33.6875, 33.875, 33.9375, 33.9375, 34, 34.19643, 34.482143, 34.803574, 34.848213, 34.767857, 34.892857, 35.125, 35.589287, 35.875, 36.1875, 36.3125, 36.375, 36.5625, 36.6875, 36.875, 37.1875, 37.375, 37.375, 37.486607, 37.691963, 37.76339, 38.177082, 38.169643, 38.125, 38.339287, 38.75, 38.875, 39.25, 39.25, 39.25, 39.333336, -10, -10, -10, -10, -10, -10, -10, -10, -10, -10, -10, -10, -10, -10, -10, -10, -10, -10, -10, -10, -10, -10, -10, -10, -10, -10, -10, -10, -10, 41.666668, 42.574997, 42.547615, 42.4375, 42.089287, 42, 41.875, 42, 41.8125, 41.455357, 41.25, 40.984375, 40.953125, 40.765625, 40.546875, 40.3125, 40.09375, 40, 39.78125, 39.53125, 39.28125, 39.0625, 39, 38.9375, 38.6875, 38.4375, 38.1875, 38, 38.125, 37.946426, 37.535713, 37.330357, 37.125, 37.09375, 37.09375, 37.09375, 36.96875, 37, 37.0625, 36.910713, 36.901787, 36.8125, 36.625, 36.5, 36.25, 36.125, 36, 35.723213, 35.439285, 35.526787, 35.1875, 35.1875, 34.67857, 34.330357, 34.008926, 33.9375, 34.026787, 33.982143, 33.613094, 33.392857, 33.125, 33.0625, 33, 33, 33, 33, 33, 33, 32.9375, 32.8125, 32.6875, 32.5625, 32.375, 32.25, 32.125, 32, 31.875, 31.875, 31.875, 31.875, 31.9375, 31.875, 31.6875, 31.4375, 31.25, 31.0625, 30.9375, 30.8125, 30.8125, 30.8125, 30.6875, 30.625, 30.4375, 30.035713, 29.901787, 29.875, 29.8125, 30, 30, 30, 30.1875, 30.333334, 11.5, 11.5, 11.008928, 9.0714283, 8.3469391, 7.8367348, 8.7142859, 8.9821424, 9.1785707, 8.8785715, 8.3095245, 8.3214283, 7.875, 7.75, 7.625, 7.7946429, 7.9285717, 8.0625, 8.125, 8.125, 8.1875, 8.1875, 8.1517859, 8.3571434, 8.4910717, 8.6875, 8.8482141, 8.7678566, 8.3469391, 8.3809528, 8.4285717, 8.4196434, 8.4107141, 8.2053566, 8.0089283, 7.8125, 7.75, 7.5625, 7.3125, 7.1875, 7.03125, 6.704082, 6.6428571, 6.704082, 7.1875, 6.7857141, 7.2678571, 7.3125, 7.375, 7.4375, 7.5089283, 7.9880953, 8.8435373, 9.2857141, 9.6875, 9.8214283, 9.9375, 10, 10.21875, 10.46875, 10.71875, 10.991072, 11.263393, 11.625, 11.910714, 12.03125, 12.1875, 12.09375, 12, 11.96875, 11.90625, 11.741072, 11.4375, 11.205357, 11, 10.9375, 10.678572, 10.166667, 9.8000002, 9.666667, -10, -10, -10, -10, 17.111113, 17.558334, 18.041668, 18.410713, 18.75, 18.9375, 19, 19.227678, 19.677084, 20.116072, 20.5625, 20.78125, 21.03125, 21.3125, 21.5625, 21.96875, 22.477678, 22.930059, 23.03125, 23.142857, 23.270834, 23.303572, 23.40625, 23.53125, 23.59375, 23.330357, 23.071428, 22.901787, 22.8125, 22.875, 22.8125, 22.625, 22.46875, 22.21875, 22.017857, 21.428572, 21.142857, 21, 20.90625, 20.84375, 20.799107, 20.856251, 20.767857, 20.8125, 20.75, 20.598213, 20.330357, 20.196428, 20, 20.1875, 20.285713, 20.205357, 20.196428, 20.125, 20.0625, 20.0625, 20.142857, 20.1875, 20.1875, 20.1875, 20.267857, 20.791666, 21.452381, 22.354166, 22.758928, 23.142857, 23.565477, 23.803572, 24.09375, 24.1875, 24.3125, 24.4375, 24.272322, 24.314285, 24.602379, 24.116072, 24.392857, 24.522322, 25.022322, 25.647322, 26, 26.111607, 26.165178, 26.205357, 26.375, 26.65625, 27.013393, 27.34375, 27.53125, 27.5625, 27.6875, 27.5625, 27.879463, 28.401787, 28.535715, 28.75, 28.78125, 28.75, 28.875, 28.9375, 28.9375, 29, 29.0625, 29.0625, 29.125, 29.25, 29.4375, 29.8125, 30.169643, 30.28125, 30.390625, 30.390625, 30.515625, 30.734375, 30.875, 31.125, 31.3125, 31.5, 31.75, 32.125, 32.482143, 32.8125, 33.1875, 33.3125, 33.5625, 33.75, 33.875, 34, 34.0625, 34.125, 34.32143, 34.544643, 34.741074, 34.875, 35, 35.25, 35.5625, 35.857143, 36.0625, 36.25, 36.3125, 36.4375, 36.625, 36.75, 36.875, 37.0625, 37.1875, 37.25, 37.455357, 37.660713, 37.73214, 38.020832, 37.982143, 38, 38.267857, 38.625, 38.8125
40.375, 40.125, 39.96875, 39.6875, 39.4375, 39.1875, 39, 39, 38.875, 38.625, 38.375, 38.125, 38, 38.125, 38.008926, 37.660713, 37.517857, 37.375, 37.375, 37.4375, 37.4375, 37.375, 37.375, 37.3125, 36.869045, 36.794643, 36.6875, 36.625, 36.5625, 36.3125, 36.1875, 35.875, 35.625, 35.412498, 35.526787, 35.3125, 35.1875, 34.642857, 34.375, 34.0625, 33.9375, 33.964287, 33.875, 33.696426, 33.571426, 33.3125, 33.1875, 33.0625, 33, 33, 33, 33, 33, 32.9375, 32.875, 32.75, 32.5625, 32.339287, 32.1875, 32.0625, 32, 31.9375, 31.9375, 31.9375, 31.9375, 32, 31.875, 31.625, 31.375, 31.125, 31, 30.9375, 30.8125, 30.8125, 30.8125, 30.6875, 30.625, 30.4375, 30.0625, 30, 29.9375, 29.875, 30, 30, 30, 30.125, 12, 11.75, 11.75, 11.334822, 10.541667, 9.9226189, 9.4464293, 9.5, 9.5204077, 9.6836729, 9.6326532, 8.916667, 8.8214283, 8.5, 8.4375, 8.1428576, 8.25, 8.3571424, 8.4285717, 8.5, 8.6875, 8.6875, 8.6875, 8.6517859, 8.8839283, 9.1607151, 9.6683674, 9.8265305, 9.8061218, 9.9761906, 9.2559528, 8.9897966, 8.9438772, 9.1607141, 8.6275511, 8.6339283, 8.4017859, 8.375, 8.3125, 8.1875, 8.2857141, 8.2142859, 8.5178576, 8.5, 8.6190481, 8.4285717, 8.375, 8.3418369, 8.2142859, 8.25, 8.3214283, 8.1964283, 8.7380953, 9.3630953, 9.6964283, 9.9375, 10, 10, 10.125, 10.34375, 10.53125, 10.78125, 10.991072, 11.263393, 11.6875, 11.910714, 11.96875, 12.0625, 11.816964, 11.580357, 11.477678, 11.46875, 11.366072, 11.1875, 11.080357, 10.9375, 10.9375, 10.678572, 10.229167, 9.9333334, -10, -10, -10, -10, 17.75, 17.333334, 17.620834, 18.020834, 18.410713, 18.75, 18.875, 19, 19.303572, 19.933334, 20.25, 20.75, 20.8125, 21, 21.25, 21.5, 21.875, 22.446428, 22.898809, 23, 23.142857, 23.270834, 23.366072, 23.53125, 23.700893, 23.71875, 23.5625, 23.3125, 23.089287, 22.9375, 22.9375, 22.875, 22.75, 22.53125, 22.15625, 21.80357, 21.241072, 20.892857, 20.75, 20.558037, 20.46875, 20.361607, 20.481251, 20.455357, 20.669643, 20.75, 20.651785, 20.267857, 20.133928, 19.875, 20.125, 20.223213, 20.142857, 20.071428, 20, 19.9375, 19.96875, 20.111607, 20.15625, 20.15625, 20.1875, 20.276785, 20.9375, 21.523809, 22.416666, 22.767857, 23.288691, 23.636906, 23.866072, 24.09375, 24.1875, 24.25, 24.3125, 24.147322, 24.1625, 24.441666, 24.116072, 24.428572, 24.65625, 25.272322, 25.772322, 26.1875, 26.267857, 26.446428, 26.477678, 26.46875, 26.75, 26.982143, 27.375, 27.5625, 27.625, 27.75, 27.6875, 28.049107, 28.330357, 28.392857, 28.6875, 28.763393, 28.875, 29, 29.071428, 29.200001, 29.071428, 29.205357, 29.1875, 29.3125, 29.5, 29.625, 29.9375, 30.232143, 30.375, 30.5625, 30.625, 30.75, 30.9375, 31.0625, 31.25, 31.4375, 31.6875, 32, 32.482143, 32.75, 33, 33.28125, 33.375, 33.625, 33.8125, 33.90625, 34.125, 34.25, 34.3125, 34.464287, 34.607143, 34.741074, 35, 35.3125, 35.625, 35.875, 36.107143, 36.0625, 36.25, 36.419643, 36.616074, 36.78125, 36.78125, 36.84375, 36.96875, 37.125, 37.3125, 37.580357, 37.910713, 37.946426, 37.901787, 37.875, 37.8125, 38.1875, 38.5, 38.75, 39.0625, 39.0625, 39.151787, 39.299999, -10, -10, -10, -10, -10, -10, -10, -10, -10, -10, -10, -10, -10, -10, -10, -10, -10, -10, -10, -10, -10, -10, -10, -10, -10, -10, -10, -10, -10, -10, 42.775002, 42.607143, 42.375, 42.026787, 41.8125, 41.6875, 41.8125, 41.625, 41.4375, 41.3125, 41.125, 41.125, 41, 40.75, 40.4375, 40.1875, 40, 39.6875, 39.4375, 39.1875, 39, 39, 38.875, 38.625, 38.375, 38.125, 38, 38.0625, 37.973213, 37.767857, 37.633926, 37.5625, 37.625, 37.6875, 37.75, 37.8125, 37.75, 37.625, 37.074402, 36.857143, 36.75, 36.75, 36.75, 36.5, 36.3125, 35.875, 35.625, 35.5625, 35.598213, 35.5, 35.3125, 34.830357, 34.491074, 34.0625, 34, 33.9375, 33.875, 33.875, 33.75, 33.5, 33.3125, 33.125, 33, 33, 33, 33, 33, 32.9375, 32.875, 32.75, 32.5625, 32.339287, 32.1875, 32.0625, 32, 32, 32, 32, 32, 32, 31.875, 31.625, 31.375, 31.125, 31, 30.9375, 30.8125, 30.8125, 30.8125, 30.75, 30.6875, 30.5625, 30.3125, 30.1875, 30.125, 30, 30, 30, 30, 30.0625, 12, 12, 12, 11.665178, 11.130953, 10.637755, 10.239797, 10.1875, 10.205357, 10.3125, 10.178572, 9.666667, 9.5089283, 9.5, 9.5, 9.666667, 9.791667, 9.875, 9.875, 9.916667, 9.6428576, 9.6428576, 9.6428576, 9.4642859, 9.6964283, 10.035715, 10.366072, 10.535714, 10.795918, 10.765306, 10.455782, 10.535714, 10.446429, 10.112245, 10.053571, 9.5816326, 9.4948978, 9.5051022, 9.341836, 9.2959185, 9.1428576, 9.2321424, 9.4438782, 9.5, 9.6734695, 9.6428576, 9.5, 9.3035717, 9.2704077, 9.1887751, 9.1785717, 9.1836729, 9.4880953, 9.9464283, 10.0625, 10.142857, 10.0625, 10.0625, 10.25, 10.5, 10.71875, 10.90625, 11.053572, 11.232143, 11.625, 11.848214, 11.84375, 12, 11.674108, 11.223213, 11.058035, 10.96875, 10.928572, 10.875, 10.9375, 10.875, 10.9375, 10.6875, 10.5, 10.25, -10, -10, -10, -10, 17.833334, 17.583334, 17.7875, 18.083334, 18.366072, 18.75, 18.982143, 19.125, 19.428572, 19.995834, 20.25, 20.75, 20.8125, 21, 21.1875, 21.4375, 21.75, 22.258928, 22.666666, 22.84375, 23.111607, 23.302084, 23.491072, 23.6875, 23.794643, 23.75, 23.5625, 23.3125, 23.125, 23, 23, 22.9375, 22.875, 22.65625, 22.28125, 21.821426, 21.241072, 20.767857, 20.5625, 20.308037, 20.09375, 20.049107, 20.168751, 20.142857, 20.482143, 20.5625, 20.553572, 20.375, 20.25, 20.0625, 20.25, 20.223213, 20.017857, 19.714285, 19.625, 19.678572, 20.114584, 20.46875, 20.65625, 20.53125, 20.5, 20.589285, 21.366072, 21.952381, 22.479166, 22.6875, 23.038691, 23.449406, 23.785713, 23.96875, 24.125, 24.125, 24.1875, 24.15625, 24.25, 24.525, 24.4375, 24.607143, 24.799107, 25.34375, 25.59375, 26, 26.1875, 26.5625, 26.700893, 26.65625, 26.875, 26.982143, 27.375, 27.625, 27.6875, 27.8125, 27.75, 28.049107, 28.24107, 28.232143, 28.5625, 28.683037, 29, 29.098213, 29.133928, 29.369644, 29.071428, 29.267857, 29.25, 29.4375, 29.625, 29.75, 30, 30.169643, 30.339287, 30.669643, 30.803572, 30.9375, 31.125, 31.25, 31.4375, 31.625, 31.8125, 32.125, 32.607143, 32.982143, 33.1875, 33.46875, 33.5625, 33.75, 33.9375, 34.040176, 34.375, 34.5625, 34.6875, 34.776787, 34.919643, 34.928574, 35.0625, 35.3125, 35.625, 35.919643, 36.169643, 36.125, 36.25, 36.419643, 36.678574, 36.84375, 36.78125, 36.84375, 36.90625, 37, 37.3125, 37.5625, 37.875, 38.071426, 37.964287, 38.03125, 37.9375, 38.25, 38.5625, 38.78125
40.4375, 40.1875, 40, 39.6875, 39.4375, 39.1875, 39, 39, 38.8125, 38.5625, 38.3125, 38.0625, 38, 38, 37.9375, 37.875, 37.8125, 37.8125, 37.875, 37.9375, 38, 38, 37.875, 37.6875, 37.074402, 36.794643, 36.75, 36.8125, 36.982143, 36.794643, 36.333332, 35.9375, 35.75, 35.75, 35.8125, 35.6875, 35.375, 34.919643, 34.553574, 34.25, 34.3125, 34.25, 34.142857, 34.071426, 33.9375, 33.6875, 33.4375, 33.1875, 33, 33, 33, 33, 33, 32.9375, 32.875, 32.678574, 32.3125, 32.151787, 32, 32, 32, 32, 32, 32, 32, 32, 31.875, 31.625, 31.4375, 31.1875, 31.0625, 31.0625, 30.9375, 30.9375, 30.9375, 30.875, 30.8125, 30.75, 30.625, 30.4375, 30.3125, 30.125, 30, 30, 30, 30.0625, 12, 12, 12, 11.84375, 11.65625, 11.34375, 11.03125, 10.9375, 10.8125, 10.8125, 10.75, 10.714286, 10.678572, 10.535714, 10.566327, 10.693878, 10.801021, 10.892858, 10.821428, 10.785714, 10.714286, 10.678572, 10.678572, 10.62245, 10.571429, 10.848215, 11.116072, 11.375, 11.5625, 11.669643, 11.354167, 11.133928, 11.25, 10.785714, 10.867347, 10.683673, 10.637755, 10.612245, 10.367347, 9.9464283, 9.8125, 9.875, 10.169643, 10.25, 10.375, 10.28125, 10.464286, 10.505102, 10.174107, 10.133928, 9.8571424, 10.0625, 10.196428, 10.4375, 10.375, 10.455357, 10.4375, 10.419643, 10.5, 10.6875, 10.875, 11.1875, 11.3125, 11.375, 11.589286, 11.723214, 11.6875, 11.875, 11.611608, 11.191963, 11.058035, 10.96875, 11, 11.0625, 11.125, 11.0625, 11.0625, 10.9375, 10.8125, 10.857142, -10, -10, -10, 17.5, 17.767857, 17.864584, 18, 18.125, 18.375, 18.65625, 18.919643, 19.0625, 19.366072, 19.995834, 20.1875, 20.6875, 20.75, 20.9375, 21.1875, 21.4375, 21.6875, 22.196428, 22.729166, 23.075893, 23.40625, 23.46875, 23.5625, 23.625, 23.607143, 23.464287, 23.3125, 23.125, 23.125, 23.125, 23.125, 23.125, 23, 22.71875, 22.28125, 21.696426, 21.125, 20.767857, 20.5, 20.276787, 20, 19.955357, 20.137501, 20.205357, 20.669643, 20.78125, 20.834822, 20.65625, 20.40625, 20.25, 20.3125, 20.160713, 19.924107, 19.495535, 19.491072, 19.821428, 20.436012, 20.763393, 20.78125, 20.65625, 20.5625, 20.696428, 21.199406, 21.693453, 22.229166, 22.5, 22.967262, 23.449406, 23.785713, 23.9375, 24, 24, 24.0625, 24.1875, 24.375, 24.5625, 24.6875, 24.75, 25.017857, 25.5, 25.6875, 26.0625, 26.1875, 26.625, 26.825893, 26.84375, 27.0625, 27.169643, 27.5, 27.6875, 27.8125, 27.875, 27.875, 28.15625, 28.133926, 28.053574, 28.375, 28.558037, 28.9375, 29.071428, 28.964285, 29.200001, 28.946428, 29.205357, 29.3125, 29.5625, 29.8125, 29.875, 30, 29.9375, 30.107143, 30.589287, 30.794643, 31, 31.1875, 31.4375, 31.723213, 32, 32.1875, 32.5, 32.982143, 33.294643, 33.5, 33.65625, 33.6875, 33.8125, 33.9375, 34.040176, 34.4375, 34.6875, 34.9375, 35.0625, 35.0625, 35, 35.125, 35.375, 35.6875, 35.982143, 36.169643, 36.125, 36.1875, 36.357143, 36.616074, 36.78125, 36.78125, 36.84375, 36.84375, 36.875, 37.1875, 37.4375, 37.75, 37.973213, 37.901787, 37.958332, 37.916668, 38.25, 38.8125, 38.927082, 39.125, 39.0625, 39.120537, 39.258331, -10, -10, -10, -10, -10, -10, -10, -10, -10, -10, -10, -10, -10, -10, -10, -10, -10, -10, -10, -10, -10, -10, -10, -10, -10, -10, -10, -10, -10, 42.75, 42.916668, 42.729168, 42.5, 42.142857, 41.9375, 41.875, 41.9375, 41.875, 41.6875, 41.5, 41.296875, 41.171875, 40.953125, 40.703125, 40.40625, 40.15625, 40, 39.6875, 39.4375, 39.1875, 39, 39, 38.8125, 38.5625, 38.3125, 38.0625, 38, 38, 38, 38, 37.9375, 37.9375, 37.9375, 37.9375, 37.9375, 37.9375, 37.875, 37.625, 37.038689, 36.794643, 36.6875, 36.8125, 37.044643, 36.919643, 36.520832, 36.25, 36.125, 36.053574, 35.9375, 35.75, 35.375, 35.089287, 34.678574, 34.375, 34.375, 34.25, 34.142857, 34.071426, 34, 33.75, 33.5, 33.25, 33, 33, 33, 33, 33, 32.9375, 32.875, 32.616074, 32.1875, 32.026787, 31.875, 31.9375, 32, 32, 32, 32, 32, 32, 31.875, 31.6875, 31.5625, 31.3125, 31.1875, 31.125, 31, 31, 31, 30.9375, 30.75, 30.75, 30.625, 30.5, 30.4375, 30.1875, 30.0625, 30, 30.0625, 30.1875, 30.541668, 12, 12, 11.90625, 11.78125, 11.59375, 11.477678, 11.5625, 11.714286, 11.785714, 11.714286, 11.714286, 11.785714, 11.5, 11.526786, 11.908164, 11.87245, 11.928572, 11.6875, 11.625, 11.5625, 11.714286, 11.714286, 11.678572, 11.693877, 11.669643, 11.866072, 12.0625, 12.25, 12.4375, 12.3125, 12.1875, 11.9375, 11.6875, 11.625, 11.5, 11.765306, 11.719388, 11.258928, 10.795918, 10.875, 10.8125, 10.9375, 11, 11.1875, 11.21875, 11.25, 11.469388, 11.270408, 11.260203, 11.458333, 11.25, 11.125, 11.1125, 11.044643, 10.892857, 10.830357, 10.8125, 11.020833, 11.071428, 11.234694, 11.517857, 11.580357, 11.625, 11.875, 12, 12.0625, 12.25, 12.017858, 11.660713, 11.526785, 11.4375, 11.5625, 11.625, 11.75, 11.71875, 11.71875, 11.71875, 11.65625, 12.003402, 14, 14.285714, 15, 17.222221, 17.75, 18.015625, 18.09375, 18.1875, 18.4375, 18.609375, 18.825893, 18.9375, 19.232143, 19.769644, 20.008928, 20.5625, 20.6875, 20.9375, 21.1875, 21.4375, 21.6875, 22.125, 22.5, 22.919643, 23.25, 23.34375, 23.375, 23.3125, 23.169643, 22.995537, 22.946428, 23, 23.0625, 23.1875, 23.125, 23.125, 22.9375, 22.625, 22.1875, 21.598213, 21.3125, 20.9375, 20.6875, 20.526787, 20.3125, 20.25, 20.25, 20.205357, 20.544643, 20.65625, 20.709822, 20.59375, 20.34375, 20.25, 20.25, 20.125, 20.03125, 19.611607, 19.642857, 20.053572, 20.717262, 20.955357, 20.839287, 20.8125, 20.794643, 21.071428, 21.636906, 21.964285, 22.1875, 22.383928, 22.842262, 23.386906, 23.785713, 23.9375, 23.9375, 23.9375, 24, 24.1875, 24.5, 24.75, 24.9375, 25.0625, 25.392857, 25.982143, 26.0625, 26.3125, 26.28125, 26.59375, 26.879463, 27.03125, 27.25, 27.3125, 27.5625, 27.75, 27.875, 28, 28, 28.1875, 28.133926, 27.928574, 28.25, 28.464287, 28.8125, 28.883928, 28.678572, 28.950001, 28.803572, 29.205357, 29.5, 29.785713, 30, 30, 29.9375, 29.875, 30.107143, 30.625, 30.857143, 31.125, 31.3125, 31.6875, 31.973213, 32.25, 32.4375, 32.75, 33.294643, 33.607143, 33.75, 33.78125, 33.75, 33.8125, 33.9375, 34.040176, 34.4375, 34.6875, 34.9375, 35.0625, 35.0625, 35, 35.125, 35.375, 35.625, 35.794643, 35.982143, 35.9375, 36.0625, 36.357143, 36.553574, 36.65625, 36.59375, 36.65625, 36.71875, 36.8125, 37.125, 37.34375, 37.6875, 37.941963, 37.964287, -10, -10, -10, 38.8125, 38.90625
