33.6875, 33.5625, 33.455357, 33.375, 33.25, 33.1875, 33.1875, 33.0625, 33, 33, 32.982143, 32.875, 32.9375, 32.6875, 32.5625, 32.3125, 32.125, 32.125, 32.0625, 32.0625, 32, 32, 32, 31.9375, 31.6875, 31.5625, 31.375, 31.1875, 31.1875, 31.0625, 31, 30.875, 30.875, 30.75, 30.5625, 30.5625, 30.3125, 30.1875, 30.1875, 30.0625, 30.0625, 30.0625, 30, 30, 30, 29.9375, 29.75, 29.5, 29.25, 29.0625, 29, 28.875, 28.6875, 28.5, 28.4375, 28.3125, 28.25, 28.142857, 28, 28, 27.9375, 27.9375, 27.794643, 27.401787, 27.214287, 27, 26.9375, 27, 27, 26.9375, 26.9375, 26.8125, 26.6875, 26.5625, 26.375, 26.1875, 26.0625, 26.0625, 26.035713, 26.0625, 26.0625, 26, 25.9375, 25.8125, 25.5625, 25.3125, 25.125, 25, 25, 25, 24.9375, 24.875, 24.625, 24.4375, 24.3125, 24.1875, 24.25, 24.1875, 24.0625, 23.875, 23.6875, 23.5625, 23.5, 23.5, 23.375, 23.125, 22.933037, 22.71875, 22.46875, 22.34375, 22.1875, 22.0625, 22.125, 22.125, 22.0625, 22.0625, 22, 21.9375, 21.9375, 21.875, 21.75, 21.6875, 21.4375, 21.25, 21.125, 21, 21, 21, 21, 20.9375, 20.8125, 20.8125, 20.5625, 20.375, 20.25, 20, 20, 20.125, 20.1875, 20.089287, 19.645832, 19.330357, 19.1875, 19.1875, 19.125, 19.125, 19.0625, 19, 18.9375, 18.9375, 18.6875, 18.625, 18.4375, 18.1875, 18.1875, 18, 18, 18, 17.9375, 17.875, 17.8125, 17.5625, 17.375, 17.1875, 17.0625, 17.125, 17.098213, 17.026787, 16.9375, 16.8125, 16.678572, 16.3125, 16.25, 16.0625, 16.0625, 16.0625, 16, 16, 16, 16, 15.75, 15.5, 15.25, 15, 15.25, 15.5, 15.75, 16, 16.125, 16.3125, 16.5, 16.75, 16.75, 16.75, 16.9375, 17.035713, 17.25, 17.5625, 17.6875, 17.875, 18, 18.0625, 18.125, 18.25, 18.5, 18.8125, 19.205357, 19.5, 19.75, 19.875, 20, 20, 20.0625, 20.1875, 20.375, 20.625, 20.8125, 20.9375, 21.125, 21.375, 21.625, 21.875, 22, 22, 22, 22.125, 22.375, 22.625, 22.875, 23, 23, 23, 23.125, 23.375, 23.625, 23.875, 24, 24.125, 24.3125, 24.5625, 24.8125, 24.9375, 25, 25, 25.1875, 25.375, 25.625, 25.875, 25.9375, 26.0625, 26.125, 26.25, 26.5, 26.6875, 26.875, 27, 27.1875, 27.375, 27.625, 27.875, 28, 28.3125, 28.5625, 28.8125, 29, 29, 29, 29, 29, 29.1875, 29.4375, 29.6875, 29.9375, 30.0625, 30.125, 30.375, 30.625, 30.8125, 31, 30.714285, 29.333334, 28.714285, 28.25, 28, 10.75, 10.833334, 10.875, 11, 11, 11, 10.9375, 10.875, 10.8125, 10.8125, 10.875, 10.9375, 11, 11, 11, 11, 11, 11, 10.875, 10.75, 10.625, 10.5, 10.5625, 10.625, 10.625, 10.75, 10.8125, 10.875, 11, 11, 11, 11, 11, 11, 11, 11, 10.9375, 10.9375, 10.9375, 10.9375, 11, 10.9375, 10.9375, 10.9375, 10.9375, 11, 10.9375, 10.9375, 10.9375, 10.9375, 10.9375, 10.875, 10.875, 10.875, 10.916667, -10, -10, -10, -10, -10, -10, -10, -10, -10, -10, -10, -10, -10, -10, -10, -10, -10, -10, -10, -10, -10, -10, -10, -10, -10, -10, 35.125, 35.083336, 35, 34.75, 34.4375, 34.1875, 33.9375, 33.9375, 33.875, 33.625, 33.651787, 33.660713, 33.5, 33.455357, 33.375, 33.3125, 33.25, 33.25, 33.125, 33, 33, 33.044643, 32.910713, 32.830357, 32.571426, 32.4375, 32.25, 32.0625, 32.0625, 32, 32, 32, 32, 32, 31.9375, 31.6875, 31.5625, 31.375, 31.1875, 31.1875, 31.0625, 31, 30.875, 30.875, 30.75, 30.5625, 30.5625, 30.3125, 30.1875, 30.1875, 30.0625, 30.0625, 30.0625, 30, 30, 30, 29.875, 29.6875, 29.4375, 29.1875, 29.0625, 29, 28.9375, 28.8125, 28.6875, 28.625, 28.4375, 28.3125, 28.205357, 28.0625, 28.0625, 27.9375, 27.875, 27.857143, 27.589287, 27.392857, 27.133928, 27, 27, 27, 26.9375, 26.9375, 26.8125, 26.6875, 26.5625, 26.3125, 26.125, 26, 26, 26.035713, 26.0625, 26.0625, 26, 25.875, 25.75, 25.5, 25.25, 25.125, 25, 25, 25, 24.9375, 24.875, 24.625, 24.4375, 24.25, 24.0625, 24.125, 24.0625, 24.0625, 24, 23.875, 23.75, 23.625, 23.5, 23.3125, 23.125, 22.96875, 22.78125, 22.53125, 22.34375, 22.1875, 22.0625, 22.0625, 22.0625, 22, 22, 22, 21.9375, 21.875, 21.75, 21.625, 21.5, 21.3125, 21.1875, 21.0625, 21, 21, 21, 21, 20.9375, 20.875, 20.875, 20.625, 20.4375, 20.25, 20, 20, 20.0625, 20.0625, 19.982143, 19.666666, 19.446428, 19.232143, 19.026787, 19, 19, 19.0625, 19.125, 19.125, 19.0625, 18.8125, 18.642857, 18.4375, 18.1875, 18.1875, 18, 18, 18, 17.9375, 17.875, 17.8125, 17.5625, 17.375, 17.125, 16.9375, 17, 16.910713, 16.901787, 16.875, 16.75, 16.678572, 16.3125, 16.25, 16.0625, 16.0625, 16.0625, 16, 16, 16, 16, 15.75, 15.5, 15.25, 15, 15.25, 15.5, 15.75, 16.0625, 16.25, 16.5, 16.75, 16.9375, 16.9375, 16.9375, 17.0625, 17.160713, 17.3125, 17.5, 17.625, 17.8125, 17.9375, 18.125, 18.25, 18.4375, 18.6875, 18.875, 19.169643, 19.4375, 19.6875, 19.875, 20, 20, 20.0625, 20.25, 20.5, 20.75, 20.9375, 21, 21.0625, 21.3125, 21.5625, 21.8125, 22, 22, 22.0625, 22.25, 22.5, 22.75, 22.9375, 23, 23, 23, 23.0625, 23.3125, 23.5625, 23.8125, 24, 24.125, 24.375, 24.625, 24.875, 25, 25, 25, 25.125, 25.375, 25.625, 25.875, 26, 26.125, 26.25, 26.4375, 26.6875, 26.8125, 26.9375, 27, 27.1875, 27.375, 27.625, 27.875, 27.9375, 28.1875, 28.4375, 28.6875, 28.9375, 29, 29, 29, 29.0625, 29.3125, 29.5625, 29.8125, 30, 30, 30, 30.25, 30.5, 30.75, 31, 30.714285, 29.333334, 28.714285, 28.25, 28, 10.75, 10.833334, 10.875, 11, 11, 11, 10.875, 10.8125, 10.6875, 10.6875, 10.8125, 10.875, 11, 10.9375, 10.9375, 10.9375, 10.9375, 11, 10.8125, 10.6875, 10.5, 10.375, 10.5, 10.5, 10.5, 10.5625, 10.625, 10.75, 10.9375, 11, 11, 11, 11, 10.9375, 10.9375, 10.9375, 10.9375, 11, 11, 11, 11, 10.875, 10.875, 10.875, 10.875, 11, 10.875, 10.8125, 10.8125, 10.8125, 10.875, 10.875, 10.875
33.785713, 33.625, 33.517857, 33.4375, 33.3125, 33.25, 33.25, 33.125, 33.0625, 33.125, 33.169643, 33.035713, 32.830357, 32.508926, 32.375, 32.1875, 32.0625, 32.125, 32.125, 32.125, 32.1875, 32.1875, 32.1875, 32.116074, 31.583334, 31.416666, 31.285713, 31.125, 31.1875, 31.0625, 30.9375, 30.875, 30.875, 30.8125, 30.6875, 30.5625, 30.3125, 30.125, 30.125, 30.0625, 30, 30, 29.9375, 29.9375, 30, 29.8125, 29.625, 29.375, 29.125, 29.0625, 29, 28.9375, 28.8125, 28.6875, 28.5625, 28.375, 28.25, 28.142857, 28.0625, 28.0625, 27.9375, 27.875, 27.785715, 27.401787, 27.205357, 26.946428, 26.9375, 26.9375, 27, 26.9375, 26.9375, 26.8125, 26.75, 26.625, 26.375, 26.25, 26.0625, 26, 26, 25.9375, 25.875, 25.8125, 25.6875, 25.5625, 25.375, 25.1875, 25.0625, 25, 24.9375, 24.875, 24.875, 24.875, 24.6875, 24.5625, 24.3125, 24.0625, 24.125, 24.0625, 24.0625, 24.0625, 24, 23.9375, 23.8125, 23.625, 23.375, 23.1875, 23.03125, 22.90625, 22.71875, 22.53125, 22.366072, 22.0625, 22.0625, 22, 22, 22, 22, 21.9375, 21.875, 21.6875, 21.5625, 21.4375, 21.25, 21.1875, 21.0625, 21, 21, 21, 21, 21, 21, 21, 20.75, 20.5, 20.25, 20, 20, 20, 19.9375, 19.875, 19.75, 19.625, 19.410715, 19.026787, 19.0625, 19.107143, 19.1875, 19.3125, 19.25, 19.0625, 18.767857, 18.517857, 18.3125, 18.125, 18.125, 18, 18, 18, 18, 18, 17.875, 17.625, 17.375, 17.0625, 16.9375, 17, 16.910713, 16.901787, 16.8125, 16.625, 16.553572, 16.1875, 16.1875, 16.0625, 16.0625, 16.0625, 16, 16, 15.9375, 15.875, 15.625, 15.375, 15.1875, 15.0625, 15.3125, 15.5625, 15.8125, 16.0625, 16.3125, 16.5625, 16.8125, 17, 16.9375, 16.9375, 17.0625, 17.223213, 17.4375, 17.5625, 17.6875, 17.8125, 17.875, 18.1875, 18.375, 18.625, 18.875, 18.9375, 19.0625, 19.3125, 19.5625, 19.8125, 20, 20, 20.0625, 20.3125, 20.5625, 20.8125, 21.0625, 21.125, 21.1875, 21.4375, 21.625, 21.8125, 22, 22, 22.125, 22.3125, 22.5, 22.6875, 22.8125, 22.875, 22.9375, 23, 23.0625, 23.3125, 23.5625, 23.8125, 24, 24.1875, 24.4375, 24.6875, 24.9375, 25, 25, 25, 25.125, 25.375, 25.625, 25.875, 26, 26.1875, 26.375, 26.5625, 26.8125, 26.875, 26.9375, 27, 27.1875, 27.375, 27.625, 27.875, 27.9375, 28.125, 28.3125, 28.5625, 28.8125, 28.9375, 29, 29.0625, 29.1875, 29.4375, 29.6875, 29.875, 30, 30, 30.0625, 30.3125, 30.5625, 30.8125, 31, 30.714285, 29.333334, 28.714285, 28.25, 28, 10.75, 10.750001, 10.8125, 10.875, 10.8125, 10.8125, 10.625, 10.625, 10.5625, 10.5625, 10.75, 10.8125, 10.9375, 10.875, 10.8125, 10.75, 10.75, 10.8125, 10.6875, 10.625, 10.375, 10.3125, 10.4375, 10.4375, 10.4375, 10.4375, 10.4375, 10.5625, 10.8125, 10.9375, 10.9375, 10.875, 10.8125, 10.6875, 10.6875, 10.6875, 10.6875, 10.75, 10.75, 10.75, 10.75, 10.6875, 10.75, 10.8125, 10.8125, 10.875, 10.6875, 10.5625, 10.625, 10.625, 10.75, 10.8125, 10.75, 10.8125, 10.833334, -10, -10, -10, -10, -10, -10, -10, -10, -10, -10, -10, -10, -10, -10, -10, -10, -10, -10, -10, -10, -10, -10, -10, -10, -10, -10, 34.791668, 35.083336, 35.229164, 34.9375, 34.488098, 34.196426, 34, 34, 34, 33.875, 33.839287, 33.910713, 33.75, 33.642857, 33.5625, 33.5, 33.375, 33.375, 33.25, 33.0625, 33.0625, 33.0625, 33.035713, 32.830357, 32.571426, 32.3125, 32.125, 32, 32.0625, 32.125, 32.125, 32.25, 32.223213, 32.080357, 31.9375, 31.395834, 31.229166, 31.098213, 31, 31.0625, 30.9375, 30.8125, 30.75, 30.75, 30.8125, 30.75, 30.625, 30.4375, 30.1875, 30.1875, 30.125, 30, 30, 29.875, 29.8125, 29.8125, 29.625, 29.5625, 29.375, 29.1875, 29.125, 29, 29, 28.875, 28.75, 28.5625, 28.3125, 28.25, 28.25, 28.1875, 28.1875, 28, 27.875, 27.723215, 27.339287, 27.205357, 26.946428, 27, 27, 27, 26.9375, 26.9375, 26.875, 26.8125, 26.6875, 26.4375, 26.25, 26.0625, 26, 25.928572, 25.604166, 25.541666, 25.645834, 25.544643, 25.4375, 25.25, 25.0625, 25, 25, 24.9375, 24.875, 24.8125, 24.75, 24.625, 24.5, 24.3125, 24.125, 24.125, 24.0625, 24.0625, 24.0625, 24, 23.9375, 23.8125, 23.5625, 23.3125, 23.125, 23, 23, 22.875, 22.75, 22.553572, 22.178572, 22, 21.9375, 21.9375, 22, 22, 21.9375, 21.875, 21.625, 21.4375, 21.3125, 21.125, 21.1875, 21.125, 21.0625, 21.0625, 21, 21, 21, 21, 20.9375, 20.6875, 20.4375, 20.1875, 20, 20, 20, 20, 20, 19.875, 19.75, 19.473215, 19.026787, 19.0625, 19.044643, 19.125, 19.25, 19.25, 19.125, 18.830357, 18.517857, 18.25, 18.0625, 18.0625, 18, 18, 18, 18, 18, 17.9375, 17.6875, 17.4375, 17.1875, 17, 17.0625, 16.973213, 16.901787, 16.75, 16.5, 16.366072, 16, 16, 15.9375, 16, 16, 16, 16, 15.875, 15.75, 15.5, 15.25, 15.125, 15.0625, 15.3125, 15.5625, 15.8125, 16.125, 16.375, 16.625, 16.875, 17, 17, 17, 17.0625, 17.1875, 17.375, 17.5, 17.6875, 17.8125, 17.875, 18.25, 18.5, 18.75, 19, 19, 19.0625, 19.3125, 19.5625, 19.8125, 20, 20, 20, 20.25, 20.5, 20.75, 21.0625, 21.125, 21.25, 21.5, 21.6875, 21.875, 22, 22, 22.125, 22.25, 22.375, 22.5625, 22.6875, 22.8125, 22.9375, 23, 23.0625, 23.3125, 23.5625, 23.8125, 24, 24.125, 24.375, 24.625, 24.875, 25, 25, 25, 25.0625, 25.3125, 25.5625, 25.8125, 26, 26.1875, 26.375, 26.625, 26.875, 26.9375, 27, 27, 27.25, 27.5, 27.75, 28, 28, 28.125, 28.3125, 28.5625, 28.8125, 28.9375, 29, 29.0625, 29.1875, 29.4375, 29.6875, 29.875, 30, 30.0625, 30.1875, 30.4375, 30.6875, 30.875, 30.9375, 30.660715, 29.500002, 28.848215, 28.330357, 28.083334, 10.75, 10.666667, 10.75, 10.8125, 10.6875, 10.6875, 10.4375, 10.4375, 10.4375, 10.4375, 10.625, 10.6875, 10.8125, 10.75, 10.6875, 10.5625, 10.5, 10.5625, 10.5, 10.5625, 10.375, 10.375, 10.4375, 10.375, 10.375, 10.3125, 10.375, 10.5, 10.6875, 10.8125, 10.75, 10.625, 10.5625, 10.4375, 10.4375, 10.4375, 10.4375, 10.5, 10.5, 10.5, 10.5, 10.4375, 10.5, 10.5625, 10.5625, 10.625, 10.4375, 10.3125, 10.375, 10.375, 10.5625, 10.6875, 10.625
34.071426, 33.839287, 33.767857, 33.625, 33.625, 33.5625, 33.5, 33.3125, 33.125, 33.0625, 33.0625, 33.035713, 32.830357, 32.633926, 32.4375, 32.25, 32.125, 32.125, 32.125, 32.125, 32.25, 32.223213, 32.080357, 31.9375, 31.395834, 31.229166, 31.098213, 31, 31.0625, 30.875, 30.6875, 30.5625, 30.5, 30.5625, 30.5625, 30.5, 30.4375, 30.25, 30.1875, 30.1875, 30, 30, 29.9375, 29.8125, 29.75, 29.5, 29.375, 29.1875, 29.0625, 29.0625, 29, 29, 28.8125, 28.625, 28.4375, 28.25, 28.1875, 28.1875, 28.125, 28.0625, 28, 27.9375, 27.803572, 27.5625, 27.392857, 27.196428, 27.1875, 27.125, 27.0625, 27, 27, 27, 26.875, 26.625, 26.375, 26.125, 26, 26, 25.866072, 25.541666, 25.479166, 25.583334, 25.544643, 25.4375, 25.25, 25.0625, 25, 25, 24.9375, 24.9375, 24.848213, 24.642857, 24.508928, 24.4375, 24.3125, 24.1875, 24.125, 24, 24, 24, 24, 23.9375, 23.8125, 23.5625, 23.3125, 23.125, 23, 23, 22.9375, 22.875, 22.741072, 22.366072, 22.125, 22, 21.9375, 21.9375, 21.875, 21.84375, 21.78125, 21.59375, 21.46875, 21.3125, 21.125, 21.1875, 21.125, 21.0625, 21.0625, 20.9375, 20.875, 20.875, 20.875, 20.875, 20.6875, 20.4375, 20.1875, 20, 20, 20, 20, 20, 19.9375, 19.8125, 19.535715, 19.089287, 19.0625, 19.044643, 19.125, 19.25, 19.3125, 19.1875, 18.892857, 18.473213, 18.1875, 18, 18, 18, 18, 18, 18, 18, 17.875, 17.625, 17.375, 17.125, 17, 17, 16.9375, 16.9375, 16.75, 16.5, 16.3125, 16.0625, 16, 16, 16, 16, 16, 16, 15.875, 15.6875, 15.4375, 15.1875, 15.0625, 15.125, 15.375, 15.625, 15.875, 16.1875, 16.4375, 16.6875, 16.9375, 17, 17, 17, 17, 17.0625, 17.25, 17.375, 17.625, 17.8125, 17.875, 18.1875, 18.4375, 18.6875, 18.9375, 19, 19.0625, 19.3125, 19.5625, 19.8125, 20, 20, 20, 20.25, 20.5, 20.75, 21.0625, 21.125, 21.3125, 21.5625, 21.75, 21.9375, 22, 22, 22.125, 22.1875, 22.25, 22.4375, 22.5625, 22.75, 22.9375, 23.0625, 23.125, 23.375, 23.625, 23.8125, 24, 24.0625, 24.3125, 24.5625, 24.8125, 25, 25, 25, 25, 25.25, 25.5, 25.75, 26, 26.125, 26.3125, 26.5625, 26.8125, 26.9375, 27, 27, 27.25, 27.5, 27.75, 28, 28, 28.125, 28.3125, 28.5625, 28.8125, 28.9375, 29, 29.0625, 29.1875, 29.4375, 29.6875, 29.875, 30, 30.0625, 30.25, 30.5, 30.75, 30.9375, 30.875, 30.607143, 29.666668, 28.982143, 28.410713, 28.166668, 10.625, 10.5, 10.5625, 10.5625, 10.4375, 10.4375, 10.25, 10.3125, 10.375, 10.375, 10.5, 10.5, 10.5625, 10.5, 10.4375, 10.3125, 10.25, 10.3125, 10.25, 10.3125, 10.1875, 10.25, 10.375, 10.375, 10.375, 10.25, 10.25, 10.3125, 10.4375, 10.5625, 10.5, 10.375, 10.3125, 10.1875, 10.1875, 10.1875, 10.1875, 10.25, 10.25, 10.25, 10.25, 10.25, 10.3125, 10.375, 10.375, 10.375, 10.25, 10.125, 10.1875, 10.1875, 10.3125, 10.4375, 10.375, 10.5625, 10.583333, -10, -10, -10, -10, -10, -10, -10, -10, -10, -10, -10, -10, -10, -10, -10, -10, -10, -10, -10, -10, -10, -10, -10, -10, -10, 35.5, 34.900002, 34.952377, 34.880951, 34.571426, 34.300598, 34.258926, 34.25, 34.3125, 34.25, 34.125, 34.125, 33.973213, 33.776787, 33.75, 33.6875, 33.75, 33.75, 33.625, 33.375, 33.1875, 33.0625, 33, 33, 32.9375, 32.8125, 32.6875, 32.5, 32.3125, 32.25, 32.1875, 32.0625, 32.214287, 32.258926, 32.080357, 31.9375, 31.333334, 31.166666, 30.973213, 30.9375, 31, 30.8125, 30.625, 30.4375, 30.3125, 30.3125, 30.3125, 30.25, 30.25, 30.125, 30.125, 30.1875, 30, 30, 29.9375, 29.75, 29.625, 29.375, 29.25, 29.125, 29.0625, 29.0625, 28.9375, 28.875, 28.625, 28.4375, 28.375, 28.25, 28.25, 28.1875, 28.0625, 28, 28, 27.9375, 27.741072, 27.5, 27.375, 27.25, 27.25, 27.125, 27.0625, 27, 27, 26.9375, 26.75, 26.5, 26.25, 26.0625, 25.9375, 25.9375, 25.803572, 25.479166, 25.416666, 25.458334, 25.419643, 25.375, 25.25, 25.125, 25.0625, 25, 24.9375, 24.9375, 24.848213, 24.642857, 24.571428, 24.5, 24.375, 24.25, 24.125, 24, 24, 24, 24, 23.9375, 23.8125, 23.5625, 23.3125, 23.125, 23, 23, 23, 23, 22.928572, 22.616072, 22.3125, 22.125, 22, 21.875, 21.75, 21.59375, 21.558037, 21.504463, 21.40625, 21.375, 21.125, 21.1875, 21.125, 21.0625, 21.0625, 20.9375, 20.8125, 20.8125, 20.75, 20.75, 20.625, 20.375, 20.1875, 20, 20, 20, 20, 20, 20, 19.875, 19.616072, 19.25, 19.125, 19.044643, 19.0625, 19.125, 19.1875, 19.125, 18.830357, 18.473213, 18.25, 18.125, 18.125, 18.0625, 17.964287, 17.9375, 17.9375, 18, 17.8125, 17.5625, 17.3125, 17.0625, 17, 17, 17, 17, 16.8125, 16.5625, 16.375, 16.125, 16.0625, 16.0625, 16, 16, 16, 16, 15.8125, 15.5625, 15.3125, 15.0625, 15, 15.1875, 15.4375, 15.6875, 15.9375, 16.125, 16.3125, 16.5, 16.75, 16.875, 16.9375, 17, 17, 17.0625, 17.3125, 17.5, 17.75, 17.9375, 18, 18.25, 18.5, 18.75, 18.9375, 19, 19.0625, 19.25, 19.5, 19.75, 19.9375, 20, 20, 20.1875, 20.4375, 20.6875, 21, 21.125, 21.3125, 21.5625, 21.75, 21.9375, 22, 22, 22.0625, 22.125, 22.1875, 22.375, 22.5625, 22.75, 23, 23.125, 23.1875, 23.4375, 23.625, 23.8125, 24, 24.0625, 24.3125, 24.5625, 24.8125, 25, 25, 25, 25.0625, 25.3125, 25.5625, 25.8125, 26, 26.0625, 26.25, 26.5, 26.75, 26.9375, 27, 27, 27.25, 27.5, 27.75, 28, 28, 28.125, 28.3125, 28.5, 28.75, 28.875, 28.9375, 29.0625, 29.125, 29.375, 29.625, 29.8125, 30, 30.0625, 30.3125, 30.5625, 30.8125, 31, 30.8125, 30.553572, 29.833334, 29.116072, 28.491072, 28.25, 10.375, 10.166667, 10.25, 10.25, 10.125, 10.1875, 10.0625, 10.125, 10.25, 10.25, 10.3125, 10.3125, 10.3125, 10.3125, 10.25, 10.125, 10.0625, 10.0625, 10.0625, 10.125, 10.0625, 10.125, 10.1875, 10.25, 10.25, 10.1875, 10.1875, 10.1875, 10.25, 10.3125, 10.25, 10.125, 10.125, 10.0625, 10.0625, 10.0625, 10, 10, 10, 10, 10, 10.0625, 10.125, 10.1875, 10.1875, 10.125, 10.0625, 10, 10.0625, 10.0625, 10.125, 10.1875, 10.125
33.973213, 33.839287, 33.875, 33.8125, 33.866074, 33.604168, 33.455357, 33.25, 33.1875, 33.125, 33.0625, 33.0625, 33, 32.9375, 32.875, 32.75, 32.5, 32.3125, 32.125, 31.9375, 32.026787, 32.133926, 31.892857, 31.550594, 31.25, 31.0625, 30.9375, 30.9375, 30.9375, 30.8125, 30.6875, 30.4375, 30.25, 30.125, 30.125, 30.275, 30.1875, 30.196428, 30.125, 30.1875, 30.0625, 30.0625, 30, 29.8125, 29.5625, 29.3125, 29.1875, 29.0625, 29.0625, 29.0625, 28.875, 28.75, 28.5, 28.3125, 28.3125, 28.25, 28.25, 28.1875, 28.0625, 28, 28, 27.9375, 27.8125, 27.75, 27.625, 27.5, 27.375, 27.1875, 27.0625, 27, 27, 26.875, 26.625, 26.375, 26.1875, 26.035713, 25.830357, 25.830357, 25.678572, 25.416666, 25.416666, 25.458334, 25.357143, 25.3125, 25.1875, 25.0625, 25.0625, 25, 25, 25.0625, 24.973213, 24.767857, 24.696428, 24.5625, 24.4375, 24.3125, 24.125, 24, 24, 24, 24, 23.9375, 23.8125, 23.5625, 23.3125, 23.125, 23, 23, 23, 23, 23, 22.866072, 22.5, 22.3125, 22.0625, 21.875, 21.6875, 21.46875, 21.433037, 21.379463, 21.28125, 21.25, 21, 21.0625, 21.125, 21.125, 21.125, 20.9375, 20.6875, 20.6875, 20.5625, 20.5625, 20.5, 20.25, 20.125, 20, 20, 20, 20, 20, 19.9375, 19.8125, 19.5625, 19.3125, 19.125, 18.9375, 18.9375, 18.9375, 19.0625, 19.125, 18.875, 18.535713, 18.375, 18.1875, 18.1875, 18.125, 17.964287, 17.9375, 17.9375, 18, 17.875, 17.625, 17.375, 17.125, 17, 17, 17, 17, 16.8125, 16.5625, 16.4375, 16.1875, 16.125, 16.125, 16, 16, 16, 16, 15.875, 15.6875, 15.4375, 15.1875, 15.0625, 15.1875, 15.4375, 15.6875, 15.9375, 16.125, 16.25, 16.375, 16.625, 16.75, 16.875, 17, 17, 17, 17.25, 17.5, 17.75, 18, 18.125, 18.25, 18.4375, 18.6875, 18.8125, 18.9375, 19.0625, 19.25, 19.5, 19.75, 19.9375, 20, 20, 20.125, 20.375, 20.625, 20.875, 21, 21.125, 21.375, 21.625, 21.875, 22, 22, 22, 22.125, 22.25, 22.5, 22.75, 22.875, 23.0625, 23.125, 23.1875, 23.4375, 23.625, 23.8125, 24, 24, 24.25, 24.5, 24.75, 25, 25, 25, 25.125, 25.375, 25.625, 25.875, 26, 26, 26.1875, 26.4375, 26.6875, 26.9375, 27, 27, 27.1875, 27.4375, 27.6875, 27.9375, 28, 28.125, 28.375, 28.5625, 28.8125, 28.9375, 28.9375, 29, 29.0625, 29.3125, 29.5625, 29.8125, 30, 30.0625, 30.3125, 30.5625, 30.8125, 31, 30.75, 30.5, 30, 29.25, 28.571428, 28.333334, 10.125, 10, 10.0625, 10.125, 10.0625, 10.125, 10.0625, 10.0625, 10.125, 10.125, 10.125, 10.125, 10.125, 10.125, 10.125, 10.0625, 10, 10, 10, 10.0625, 10.0625, 10.0625, 10.0625, 10.0625, 10.0625, 10.0625, 10.125, 10.125, 10.125, 10.125, 10.0625, 10, 10.0625, 10.0625, 10.0625, 10.0625, 10, 10, 10, 10, 10, 10, 10, 10, 10, 10, 10, 10, 10, 10, 10, 10, 10, 10.125, 10.166666, -10, -10, -10, -10, -10, -10, -10, -10, -10, -10, -10, -10, -10, -10, -10, -10, -10, -10, -10, -10, -10, -10, -10, -10, -10, 35.25, 35.233334, 34.952381, 34.589287, 34.446426, 34.375, 34.375, 34.375, 34.3125, 34.1875, 34.0625, 34.125, 33.973213, 33.839287, 33.875, 33.8125, 33.803574, 33.541668, 33.330357, 33.125, 33.125, 33.0625, 33.0625, 33.0625, 33, 32.9375, 32.9375, 32.8125, 32.5625, 32.375, 32.125, 31.9375, 31.964287, 32.098213, 31.9375, 31.604166, 31.3125, 31.0625, 30.9375, 30.9375, 30.9375, 30.875, 30.8125, 30.625, 30.366072, 29.916666, 29.958334, 30.25, 30.0625, 30.205357, 30.0625, 30.125, 30.0625, 30.0625, 30.0625, 29.9375, 29.75, 29.5, 29.25, 29.0625, 29, 29, 28.875, 28.6875, 28.4375, 28.25, 28.25, 28.25, 28.25, 28.1875, 28.0625, 28, 28, 27.9375, 27.8125, 27.75, 27.625, 27.5, 27.375, 27.1875, 27.0625, 27, 26.9375, 26.75, 26.5, 26.25, 26.125, 26.035713, 25.830357, 25.830357, 25.6875, 25.625, 25.625, 25.4375, 25.3125, 25.25, 25.125, 25.0625, 25.0625, 25, 25, 25.0625, 24.973213, 24.767857, 24.571428, 24.375, 24.3125, 24.223213, 24.125, 24.0625, 24, 24, 24, 24, 23.875, 23.625, 23.375, 23.125, 23, 23, 23, 23, 23, 22.9375, 22.6875, 22.4375, 22.1875, 21.875, 21.6875, 21.46875, 21.433037, 21.441963, 21.34375, 21.3125, 21.125, 21.125, 21.25, 21.25, 21.1875, 21, 20.625, 20.651787, 20.5625, 20.446428, 20.446428, 20.1875, 20.125, 20, 20, 20, 20, 20, 19.875, 19.8125, 19.5625, 19.3125, 19.1875, 19, 19, 19, 19.125, 19.125, 18.9375, 18.598213, 18.4375, 18.25, 18.125, 18.0625, 17.901787, 17.8125, 17.8125, 17.875, 17.75, 17.5625, 17.375, 17.125, 17, 17, 17, 17, 16.875, 16.625, 16.5, 16.25, 16.125, 16.125, 16, 16, 16, 16, 15.9375, 15.8125, 15.5625, 15.3125, 15.125, 15.25, 15.5, 15.75, 16, 16.0625, 16.125, 16.1875, 16.4375, 16.625, 16.8125, 17, 17, 17, 17.25, 17.5, 17.75, 18.0625, 18.25, 18.375, 18.5625, 18.75, 18.8125, 18.9375, 19, 19.1875, 19.4375, 19.6875, 19.9375, 20, 20, 20.0625, 20.3125, 20.5625, 20.8125, 21, 21.0625, 21.3125, 21.5625, 21.8125, 22, 22, 22, 22.1875, 22.375, 22.625, 22.875, 22.9375, 23.0625, 23.125, 23.125, 23.375, 23.5625, 23.75, 24, 24, 24.25, 24.5, 24.75, 25, 25, 25, 25.125, 25.375, 25.5625, 25.8125, 25.9375, 25.9375, 26.1875, 26.4375, 26.6875, 26.9375, 27, 27, 27.1875, 27.4375, 27.6875, 27.9375, 28, 28.0625, 28.25, 28.375, 28.625, 28.8125, 28.875, 29, 29.0625, 29.3125, 29.5625, 29.8125, 30, 30, 30.25, 30.5, 30.75, 31, 30.75, 30.5, 30, 29.25, 28.571428, 28.333334, 10, 9.916667, 9.9375, 9.9375, 9.9375, 10, 10, 10, 10, 10, 10, 10, 10, 10, 10, 10, 10, 10, 10, 10, 10, 10, 10, 10, 10, 9.9375, 9.9375, 9.9375, 9.9375, 10, 10, 10, 10.0625, 10.0625, 10.0625, 10.0625, 10, 10, 10, 10, 10, 10, 10, 10, 9.9375, 9.9375, 9.9375, 9.9375, 10, 10, 10, 10, 10
33.9375, 33.8125, 33.8125, 33.8125, 33.678574, 33.416668, 33.205357, 33, 33.0625, 33.0625, 33.0625, 33.0625, 33, 32.9375, 32.875, 32.75, 32.5, 32.3125, 32.125, 31.9375, 31.964287, 32.098213, 31.875, 31.541666, 31.25, 31, 30.9375, 31, 31, 31, 31, 30.8125, 30.616072, 30.104166, 30.145834, 30.375, 30.0625, 30.205357, 30, 30, 29.9375, 29.875, 29.8125, 29.6875, 29.625, 29.4375, 29.25, 29.0625, 28.9375, 28.9375, 28.8125, 28.6875, 28.4375, 28.25, 28.1875, 28.125, 28.125, 28.0625, 28, 28, 28, 27.9375, 27.875, 27.8125, 27.6875, 27.5, 27.3125, 27.125, 27, 27, 26.875, 26.625, 26.375, 26.125, 26.0625, 26.035713, 25.830357, 25.830357, 25.75, 25.625, 25.625, 25.4375, 25.3125, 25.3125, 25.1875, 25.125, 25.0625, 25, 25, 25, 24.875, 24.75, 24.5625, 24.3125, 24.3125, 24.223213, 24.125, 24.125, 24, 24, 24, 24, 23.8125, 23.5625, 23.3125, 23.0625, 23, 23, 23, 23, 23, 23, 22.75, 22.5, 22.25, 21.9375, 21.8125, 21.625, 21.589287, 21.598213, 21.5, 21.4375, 21.3125, 21.25, 21.3125, 21.3125, 21.1875, 21.0625, 20.75, 20.714287, 20.5625, 20.383928, 20.383928, 20.1875, 20.1875, 20.0625, 20, 20, 20, 20, 19.8125, 19.75, 19.5, 19.25, 19.1875, 19, 19, 19, 19.0625, 19.0625, 18.9375, 18.642857, 18.5, 18.25, 18, 17.875, 17.714287, 17.625, 17.625, 17.6875, 17.5625, 17.5, 17.4375, 17.25, 17.125, 17.0625, 17, 17, 16.875, 16.6875, 16.5625, 16.3125, 16.1875, 16.125, 16, 16, 16, 16, 15.9375, 15.8125, 15.5625, 15.3125, 15.125, 15.25, 15.5, 15.75, 16, 16, 16, 16, 16.25, 16.5, 16.75, 17, 17, 17, 17.1875, 17.4375, 17.6875, 18, 18.3125, 18.5, 18.6875, 18.875, 18.875, 18.9375, 19, 19.125, 19.3125, 19.5, 19.75, 19.875, 19.875, 19.9375, 20.125, 20.3125, 20.625, 20.875, 20.9375, 21.25, 21.5, 21.75, 22, 22, 22, 22.25, 22.5, 22.75, 23, 23, 23.0625, 23.0625, 23.0625, 23.3125, 23.5, 23.75, 24, 24, 24.25, 24.5, 24.75, 25, 25, 25, 25.125, 25.375, 25.5625, 25.8125, 25.9375, 25.9375, 26.125, 26.375, 26.625, 26.875, 27, 27, 27.1875, 27.4375, 27.6875, 27.9375, 28, 28, 28.125, 28.1875, 28.4375, 28.6875, 28.8125, 29, 29.0625, 29.25, 29.4375, 29.6875, 29.875, 30, 30.3125, 30.5625, 30.8125, 31, 30.8125, 30.625, 30.178572, 29.270834, 28.67857, 28.333334, 10, 9.916667, 9.9375, 9.9375, 9.9375, 10, 10, 10, 10, 10, 10, 10, 10, 10, 10, 10, 10, 10, 10, 10, 10, 10, 10, 10, 10, 9.9375, 9.875, 9.8125, 9.8125, 9.875, 9.9375, 10, 10.0625, 10.0625, 10.0625, 10.0625, 10, 10, 10, 10, 10, 10, 10, 10, 9.875, 9.875, 9.8125, 9.75, 9.8125, 9.8125, 9.875, 9.9375, 10, 10, 10, -10, -10, -10, -10, -10, -10, -10, -10, -10, -10, -10, -10, -10, -10, -10, -10, -10, -10, -10, -10, -10, -10, -10, -10, -10, 35, 35, 35, 34.875, 34.875, 34.75, 34.5, 34.4375, 34.25, 34.125, 34.125, 34.0625, 34, 33.9375, 33.875, 33.875, 33.616074, 33.291668, 33.142857, 32.9375, 33.0625, 33.0625, 33.0625, 33.0625, 33, 32.875, 32.8125, 32.6875, 32.4375, 32.3125, 32.125, 32, 32, 32.0625, 31.875, 31.479166, 31.25, 31, 31.0625, 31.125, 31.125, 31.125, 31.0625, 30.9375, 30.803572, 30.354166, 30.395834, 30.5625, 30.1875, 30.267857, 30.0625, 30.125, 30.044643, 29.791666, 29.633928, 29.5, 29.5625, 29.4375, 29.3125, 29.125, 28.9375, 28.9375, 28.875, 28.8125, 28.625, 28.4375, 28.3125, 28.1875, 28.125, 28.0625, 28, 28, 28, 28, 27.875, 27.8125, 27.75, 27.5, 27.375, 27.1875, 27, 27, 26.875, 26.6875, 26.5, 26.25, 26.1875, 26.098213, 25.892857, 25.892857, 25.8125, 25.6875, 25.6875, 25.5625, 25.5, 25.5, 25.3125, 25.1875, 25.0625, 25, 25, 25, 24.875, 24.6875, 24.4375, 24.1875, 24.1875, 24.160713, 24.125, 24.125, 24, 24, 24, 23.9375, 23.6875, 23.4375, 23.1875, 23, 23, 23, 23, 23, 23, 22.9375, 22.6875, 22.4375, 22.1875, 22, 21.9375, 21.875, 21.875, 21.8125, 21.75, 21.625, 21.5, 21.375, 21.375, 21.3125, 21.1875, 21.0625, 20.8125, 20.776787, 20.625, 20.383928, 20.383928, 20.1875, 20.25, 20.1875, 20.0625, 20.0625, 20, 20, 19.75, 19.625, 19.375, 19.125, 19.125, 19, 19, 19, 19, 19, 18.875, 18.625, 18.4375, 18.125, 17.8125, 17.6875, 17.625, 17.5, 17.5, 17.5, 17.375, 17.375, 17.375, 17.25, 17.125, 17.0625, 17, 17, 16.9375, 16.75, 16.5625, 16.3125, 16.125, 16.0625, 16, 16, 16, 16, 16, 15.875, 15.625, 15.375, 15.125, 15.25, 15.5, 15.75, 16, 16, 16, 16.0625, 16.3125, 16.5625, 16.8125, 17, 17, 17, 17.125, 17.375, 17.625, 17.9375, 18.3125, 18.5, 18.6875, 18.875, 18.875, 18.9375, 18.9375, 19.0625, 19.25, 19.410713, 19.625, 19.75, 19.6875, 19.830357, 20.169643, 20.366072, 20.6875, 20.875, 21, 21.3125, 21.5625, 21.8125, 22, 22, 22, 22.25, 22.5, 22.75, 23, 23, 23, 23, 23, 23.25, 23.5, 23.75, 24, 24, 24.25, 24.5, 24.75, 25, 25, 25, 25.0625, 25.25, 25.375, 25.625, 25.8125, 25.9375, 26.1875, 26.4375, 26.6875, 26.875, 27, 27, 27.1875, 27.4375, 27.6875, 27.9375, 28, 28, 28.125, 28.25, 28.5, 28.75, 28.875, 29, 29.0625, 29.25, 29.4375, 29.6875, 29.875, 30, 30.3125, 30.5625, 30.8125, 31, 30.875, 30.75, 30.357143, 29.291668, 28.785713, 10, 9.916667, 9.9375, 9.9375, 9.9375, 10, 10, 9.9375, 9.9375, 9.9375, 9.9375, 10, 10, 10, 10, 10, 10, 10, 10, 10, 10, 10, 10, 10, 10, 9.9375, 9.8125, 9.6875, 9.5625, 9.625, 9.75, 9.875, 10, 10, 10, 10, 10, 10, 9.9375, 9.875, 9.8125, 9.8125, 9.875, 9.9375, 10, 9.875, 9.875, 9.8125, 9.75, 9.75, 9.75, 9.8125, 9.875, 10
34.125, 33.9375, 33.75, 33.6875, 33.4375, 33.375, 33.25, 33.0625, 33.0625, 33, 33, 33, 33, 32.8125, 32.75, 32.5625, 32.3125, 32.25, 32.0625, 32, 32, 32, 31.8125, 31.5625, 31.3125, 31.125, 31.125, 31.1875, 31.1875, 31.125, 31.0625, 31, 30.928572, 30.541666, 30.583334, 30.5375, 30.25, 30.258928, 30.125, 30.25, 30.151787, 29.708332, 29.455357, 29.25, 29.375, 29.3125, 29.25, 29.125, 28.9375, 28.9375, 28.9375, 28.9375, 28.8125, 28.6875, 28.5625, 28.375, 28.3125, 28.1875, 28.0625, 28.0625, 28, 28, 27.875, 27.75, 27.6875, 27.4375, 27.3125, 27.1875, 27, 27, 26.875, 26.75, 26.625, 26.375, 26.25, 26.125, 26, 26, 25.9375, 25.8125, 25.8125, 25.75, 25.75, 25.6875, 25.4375, 25.25, 25.0625, 25, 25, 25, 24.875, 24.6875, 24.4375, 24.25, 24.25, 24.223213, 24.1875, 24.125, 24, 24, 23.9375, 23.875, 23.625, 23.375, 23.1875, 23, 23, 23, 23, 23, 23, 22.9375, 22.75, 22.5, 22.25, 22.0625, 22, 22, 22, 22, 21.9375, 21.75, 21.625, 21.4375, 21.3125, 21.3125, 21.25, 21.1875, 21.125, 21.026787, 20.875, 20.633928, 20.571428, 20.375, 20.375, 20.25, 20.0625, 20.0625, 20, 20, 19.75, 19.5625, 19.3125, 19.0625, 19.0625, 19, 19, 19, 19, 19, 18.875, 18.625, 18.375, 18.0625, 17.75, 17.625, 17.625, 17.5, 17.4375, 17.375, 17.25, 17.25, 17.3125, 17.25, 17.125, 17, 16.875, 16.8125, 16.8125, 16.75, 16.5625, 16.375, 16.125, 16, 16, 16, 16, 16, 16, 15.875, 15.625, 15.375, 15.125, 15.25, 15.5, 15.75, 16, 16, 16, 16.0625, 16.25, 16.5, 16.75, 16.9375, 17, 17.0625, 17.1875, 17.4375, 17.6875, 17.9375, 18.3125, 18.5625, 18.8125, 19, 19, 19, 18.875, 18.9375, 19.0625, 19.160713, 19.375, 19.5625, 19.5625, 19.830357, 20.232143, 20.428572, 20.75, 20.875, 21.0625, 21.375, 21.625, 21.875, 22, 22, 22, 22.25, 22.5, 22.75, 23, 23, 23, 23, 23, 23.25, 23.5, 23.75, 24, 24, 24.1875, 24.4375, 24.6875, 24.9375, 25, 25, 25.0625, 25.21875, 25.28125, 25.53125, 25.71875, 25.9375, 26.25, 26.5, 26.75, 26.875, 27, 27, 27.25, 27.5, 27.75, 28, 28, 28, 28.0625, 28.1875, 28.4375, 28.6875, 28.875, 29, 29, 29.125, 29.3125, 29.5625, 29.8125, 30, 30.3125, 30.5625, 30.8125, 31, 30.9375, 30.875, 30.5, 29.229168, 28.792856, 10, 9.833334, 9.8125, 9.75, 9.6875, 9.8125, 9.875, 9.875, 9.9375, 9.9375, 9.9375, 10, 10, 10, 10, 10, 10, 10, 10, 10, 10, 10, 10, 9.9375, 9.875, 9.75, 9.5625, 9.5, 9.4375, 9.5625, 9.75, 9.875, 10, 10, 10, 10, 10, 10, 9.875, 9.75, 9.625, 9.625, 9.75, 9.875, 10, 9.8125, 9.8125, 9.75, 9.6875, 9.75, 9.75, 9.8125, 9.875, 10, 10, 10, -10, -10, -10, -10, -10, -10, -10, -10, -10, -10, -10, -10, -10, -10, -10, -10, -10, -10, -10, -10, -10, -10, -10, -10, -10, 35, 35, 35, 35, 35, 34.9375, 34.6875, 34.5625, 34.5, 34.375, 34.4375, 34.3125, 34.125, 33.9375, 33.6875, 33.5625, 33.3125, 33.25, 33.1875, 33.0625, 33.0625, 33, 33, 33, 33, 32.875, 32.8125, 32.625, 32.375, 32.25, 32.0625, 32.0625, 32.0625, 32.0625, 31.875, 31.5625, 31.3125, 31.125, 31.1875, 31.25, 31.25, 31.1875, 31.0625, 31, 31, 30.8125, 30.75, 30.5, 30.3125, 30.25, 30.25, 30.357143, 30.116072, 29.708332, 29.330357, 29.125, 29.1875, 29.125, 29.125, 29.0625, 28.9375, 28.9375, 28.9375, 29, 28.875, 28.75, 28.625, 28.375, 28.3125, 28.1875, 28.0625, 28.0625, 28, 28, 27.9375, 27.8125, 27.6875, 27.4375, 27.25, 27.125, 27, 27, 26.9375, 26.875, 26.8125, 26.625, 26.4375, 26.25, 26.0625, 26, 26, 25.9375, 25.9375, 25.9375, 25.9375, 25.8125, 25.5625, 25.3125, 25.0625, 25, 25, 25, 24.9375, 24.8125, 24.6875, 24.5625, 24.5, 24.375, 24.25, 24.125, 24, 24, 23.875, 23.75, 23.5, 23.3125, 23.1875, 23.0625, 23.0625, 23, 23, 23, 23, 22.9375, 22.8125, 22.5625, 22.3125, 22.125, 22, 22, 22, 22, 22, 21.875, 21.6875, 21.4375, 21.1875, 21.125, 21.125, 21.125, 21.25, 21.125, 20.9375, 20.8125, 20.5, 20.375, 20.3125, 20.25, 20.0625, 20.0625, 20, 20, 19.75, 19.5, 19.25, 19, 19, 19, 19, 19, 19, 19, 18.8125, 18.5625, 18.3125, 18, 17.8125, 17.6875, 17.6875, 17.625, 17.5625, 17.5, 17.375, 17.3125, 17.3125, 17.25, 17.125, 17, 16.8125, 16.6875, 16.6875, 16.6875, 16.5625, 16.4375, 16.1875, 16, 16, 16, 16, 16, 16, 15.875, 15.625, 15.375, 15.125, 15.25, 15.5, 15.75, 16, 16, 16, 16.0625, 16.1875, 16.4375, 16.6875, 16.875, 17.0625, 17.1875, 17.3125, 17.5625, 17.75, 17.875, 18.25, 18.5, 18.75, 19, 19, 19, 18.8125, 18.75, 18.8125, 18.848213, 19.125, 19.4375, 19.5, 19.830357, 20.169643, 20.366072, 20.6875, 20.8125, 21.0625, 21.375, 21.625, 21.875, 22, 22, 22, 22.25, 22.5, 22.75, 23, 23, 23, 23, 23.0625, 23.3125, 23.5625, 23.8125, 24, 24, 24.125, 24.375, 24.625, 24.875, 25, 25, 25.125, 25.28125, 25.40625, 25.65625, 25.78125, 26.0625, 26.375, 26.625, 26.875, 26.9375, 27, 27, 27.25, 27.5, 27.6875, 27.875, 27.875, 27.875, 28, 28.25, 28.5, 28.75, 28.9375, 29, 29, 29.0625, 29.1875, 29.4375, 29.6875, 29.9375, 30.3125, 30.5625, 30.8125, 31, 30.96875, 30.90625, 30.535713, 29.104168, 28.721428, 10, 9.708334, 9.645833, 9.5625, 9.4375, 9.625, 9.75, 9.8125, 9.9375, 9.9375, 9.9375, 9.9375, 9.875, 9.875, 9.875, 9.9375, 9.9375, 9.875, 9.8125, 9.75, 9.8125, 9.875, 9.9375, 9.9375, 9.875, 9.6875, 9.5625, 9.5, 9.4375, 9.625, 9.75, 9.875, 9.9375, 9.875, 9.875, 9.875, 9.875, 9.9375, 9.75, 9.5625, 9.4375, 9.375, 9.5, 9.6875, 9.8125, 9.6875, 9.75, 9.625, 9.5625, 9.625, 9.625, 9.6875, 9.8125, 9.9375
34.125, 34, 33.75, 33.5625, 33.3125, 33.1875, 33.125, 33.125, 33.125, 33.0625, 33.125, 33.0625, 33.0625, 32.9375, 32.8125, 32.6875, 32.4375, 32.3125, 32.125, 32.0625, 32.125, 32.125, 32, 31.75, 31.4375, 31.25, 31.25, 31.1875, 31.1875, 31.125, 31, 31, 31, 30.8125, 30.6875, 30.4375, 30.25, 30.1875, 30.25, 30.357143, 30.178572, 29.833332, 29.517857, 29.3125, 29.25, 29.125, 29.0625, 29.0625, 29, 29, 29, 29, 28.875, 28.75, 28.625, 28.375, 28.3125, 28.1875, 28.0625, 28.0625, 28, 28, 27.9375, 27.75, 27.5625, 27.3125, 27.125, 27.0625, 27, 27, 26.9375, 26.9375, 26.9375, 26.8125, 26.625, 26.375, 26.125, 26, 26, 26, 26, 26, 26, 25.8125, 25.5625, 25.3125, 25.0625, 25, 25, 25, 25, 24.9375, 24.8125, 24.75, 24.625, 24.419643, 24.1875, 24.0625, 23.9375, 24, 23.8125, 23.625, 23.375, 23.25, 23.1875, 23.125, 23.125, 23, 23, 23, 23, 22.9375, 22.875, 22.625, 22.375, 22.1875, 22, 22, 22, 22, 21.9375, 21.8125, 21.625, 21.375, 21.1875, 21.125, 21.125, 21.125, 21.25, 21.1875, 21.0625, 20.9375, 20.625, 20.4375, 20.3125, 20.25, 20.0625, 20.0625, 19.9375, 19.9375, 19.75, 19.5, 19.3125, 19.0625, 19, 19, 19, 19, 19, 19, 18.75, 18.5, 18.25, 18, 17.9375, 17.875, 17.875, 17.8125, 17.75, 17.6875, 17.625, 17.4375, 17.3125, 17.1875, 17, 16.875, 16.6875, 16.5, 16.5, 16.5625, 16.5, 16.4375, 16.1875, 16, 16, 16, 16, 16, 16, 15.9375, 15.6875, 15.4375, 15.1875, 15.25, 15.5, 15.6875, 15.9375, 15.9375, 15.9375, 16.0625, 16.125, 16.375, 16.625, 16.8125, 17.125, 17.3125, 17.5, 17.75, 17.875, 17.9375, 18.25, 18.5, 18.75, 19, 19, 19, 18.875, 18.785713, 18.776787, 18.910713, 19.169643, 19.5, 19.625, 19.892857, 20.294643, 20.553572, 20.8125, 20.9375, 21.1875, 21.4375, 21.6875, 21.9375, 22, 22, 22, 22.25, 22.5, 22.75, 23, 23, 23, 23, 23.125, 23.375, 23.625, 23.875, 24, 24, 24.0625, 24.3125, 24.5625, 24.8125, 25, 25, 25.1875, 25.34375, 25.46875, 25.71875, 25.78125, 26.125, 26.5, 26.75, 27, 27, 27, 27, 27.25, 27.5, 27.625, 27.75, 27.75, 27.75, 28, 28.375, 28.625, 28.875, 29, 29, 29, 29.0625, 29.1875, 29.4375, 29.6875, 29.875, 30.1875, 30.4375, 30.6875, 30.9375, 30.9375, 30.8125, 30.392857, 28.958334, 28.542856, 28, 9.583334, 9.5625, 9.4375, 9.3125, 9.4375, 9.5625, 9.625, 9.75, 9.75, 9.6875, 9.6875, 9.6875, 9.75, 9.75, 9.875, 9.8125, 9.6875, 9.625, 9.5, 9.5625, 9.625, 9.6875, 9.6875, 9.625, 9.5, 9.4375, 9.5, 9.5, 9.6875, 9.8125, 9.8125, 9.8125, 9.75, 9.75, 9.75, 9.75, 9.75, 9.5, 9.3125, 9.1875, 9.125, 9.25, 9.4375, 9.625, 9.625, 9.75, 9.6875, 9.625, 9.625, 9.5625, 9.5625, 9.625, 9.6875, 9.75, 9.833333, -10, -10, -10, -10, -10, -10, -10, -10, -10, -10, -10, -10, -10, -10, -10, -10, -10, -10, -10, -10, -10, -10, -10, -10, -10, 35.125, 35.083332, 35.0625, 35, 35, 35.0625, 34.875, 34.625, 34.354168, 34.1875, 34.1875, 34.25, 34.0625, 33.875, 33.6875, 33.4375, 33.3125, 33.1875, 33.0625, 33.125, 33, 33, 33.0625, 33, 33.0625, 33, 32.875, 32.75, 32.5625, 32.4375, 32.25, 32.25, 32.3125, 32.25, 32.125, 31.875, 31.5, 31.3125, 31.25, 31.0625, 31.0625, 31, 30.875, 30.875, 30.8125, 30.5625, 30.5, 30.3125, 30.1875, 30.1875, 30.1875, 30.232143, 30.07143, 29.916666, 29.633928, 29.4375, 29.25, 29.0625, 29, 29, 29, 29, 29, 29, 28.8125, 28.625, 28.4375, 28.1875, 28.1875, 28.125, 28.0625, 28.0625, 28, 28, 28, 27.75, 27.5625, 27.3125, 27.0625, 27.0625, 27, 27, 26.9375, 26.9375, 26.875, 26.8125, 26.625, 26.375, 26.1875, 26, 26, 26, 26, 26, 26, 25.8125, 25.625, 25.375, 25.125, 25.0625, 25, 25, 24.9375, 24.9375, 24.8125, 24.8125, 24.8125, 24.544643, 24.3125, 24.125, 23.9375, 23.9375, 23.6875, 23.5, 23.3125, 23.25, 23.25, 23.1875, 23.125, 23, 23.0625, 23.0625, 23.0625, 23.0625, 23, 22.8125, 22.5625, 22.3125, 22.0625, 22, 22, 22, 21.9375, 21.8125, 21.6875, 21.4375, 21.25, 21.1875, 21.125, 21.125, 21.25, 21.1875, 21.125, 21.0625, 20.678572, 20.375, 20.125, 20.017857, 20.107143, 20.083334, 19.854166, 19.830357, 19.6875, 19.5, 19.375, 19.125, 19, 19, 19, 19, 19, 19, 18.8125, 18.5625, 18.3125, 18.0625, 18, 18, 18, 18, 17.9375, 17.875, 17.8125, 17.5625, 17.375, 17.1875, 17, 16.875, 16.6875, 16.4375, 16.4375, 16.5625, 16.5, 16.5, 16.25, 16, 16, 16, 16, 16, 16, 16, 15.8125, 15.5625, 15.3125, 15.25, 15.4375, 15.625, 15.875, 15.9375, 15.9375, 16, 16.0625, 16.3125, 16.5625, 16.875, 17.1875, 17.375, 17.625, 17.8125, 17.9375, 18, 18.25, 18.5, 18.75, 19, 19, 19.0625, 19.0625, 18.973213, 18.901787, 19, 19.232143, 19.5625, 19.8125, 20, 20.25, 20.5, 20.75, 20.9375, 21.125, 21.3125, 21.5625, 21.8125, 21.9375, 22, 22, 22.25, 22.5, 22.75, 23, 23, 23, 23, 23.1875, 23.4375, 23.6875, 23.9375, 24.0625, 24.0625, 24.125, 24.375, 24.5625, 24.8125, 25, 25.0625, 25.3125, 25.53125, 25.71875, 25.90625, 25.90625, 26.1875, 26.5, 26.75, 27, 27, 27, 27, 27.1875, 27.4375, 27.5625, 27.6875, 27.75, 27.75, 28, 28.375, 28.625, 28.875, 29, 29, 29, 29, 29.125, 29.375, 29.625, 29.875, 30.1875, 30.4375, 30.6875, 30.9375, 30.90625, 30.71875, 30.25, 28.8125, 28.364286, 28, 9.791667, 9.625, 9.3928566, 9.1875, 9.1875, 9.3125, 9.4375, 9.5625, 9.5625, 9.5, 9.4375, 9.4375, 9.5, 9.5625, 9.75, 9.6875, 9.5625, 9.4375, 9.25, 9.3125, 9.375, 9.4375, 9.4375, 9.375, 9.3125, 9.3125, 9.4375, 9.5625, 9.75, 9.875, 9.8125, 9.6875, 9.625, 9.5625, 9.5625, 9.5625, 9.5, 9.3125, 9.1875, 9.125, 9.0625, 9.125, 9.25, 9.4375, 9.5, 9.6875, 9.625, 9.5, 9.5, 9.375, 9.375, 9.4375, 9.4375
33.875, 33.8125, 33.6875, 33.5, 33.5, 33.3125, 33.1875, 33.1875, 33, 33, 33.0625, 33, 33.0625, 33, 32.8125, 32.6875, 32.5625, 32.5, 32.375, 32.375, 32.3125, 32.125, 32.0625, 31.8125, 31.5, 31.375, 31.25, 31.0625, 31.0625, 31.0625, 30.910713, 30.767857, 30.633928, 30.375, 30.3125, 30.1875, 30.125, 30.125, 30.125, 30.107143, 29.964287, 30, 29.8125, 29.625, 29.3125, 29.026787, 28.9375, 28.9375, 29, 29, 29, 29, 28.8125, 28.5625, 28.375, 28.107143, 27.964287, 28, 27.9375, 28, 28, 28, 27.9375, 27.75, 27.625, 27.375, 27.1875, 27.125, 26.9375, 26.9375, 26.875, 26.875, 26.875, 26.8125, 26.625, 26.4375, 26.25, 26.0625, 26.0625, 26, 26, 26, 26, 25.875, 25.6875, 25.4375, 25.1875, 25.0625, 25, 25, 24.9375, 24.9375, 24.8125, 24.8125, 24.8125, 24.544643, 24.3125, 24.125, 23.9375, 23.875, 23.625, 23.4375, 23.3125, 23.3125, 23.3125, 23.25, 23.125, 23, 23, 23, 23, 23, 23, 22.875, 22.625, 22.375, 22.125, 22, 22, 22, 21.9375, 21.875, 21.75, 21.5, 21.3125, 21.125, 21, 21, 21.0625, 21.0625, 21.0625, 21, 20.678572, 20.375, 20.125, 20.017857, 20.107143, 20.083334, 19.791666, 19.767857, 19.6875, 19.5, 19.4375, 19.1875, 19, 19, 19, 19, 19, 19, 18.8125, 18.5625, 18.3125, 18.0625, 18, 18, 18, 18, 18, 18, 17.875, 17.625, 17.375, 17.125, 17, 16.9375, 16.8125, 16.5625, 16.5, 16.5625, 16.4375, 16.4375, 16.25, 16, 16, 16, 16, 16, 16, 16, 15.8125, 15.5625, 15.3125, 15.1875, 15.375, 15.5625, 15.8125, 15.9375, 16, 16.125, 16.25, 16.5, 16.6875, 16.9375, 17.1875, 17.3125, 17.5625, 17.75, 17.875, 18, 18.25, 18.5, 18.75, 19, 19, 19.0625, 19.125, 19.035713, 18.964287, 19.125, 19.357143, 19.6875, 20, 20.125, 20.3125, 20.5625, 20.75, 20.9375, 21.0625, 21.1875, 21.375, 21.625, 21.8125, 22, 22.0625, 22.25, 22.5, 22.6875, 22.9375, 23, 23, 23, 23.1875, 23.4375, 23.6875, 23.9375, 24.0625, 24.0625, 24.1875, 24.375, 24.5, 24.75, 24.875, 25, 25.25, 25.5, 25.75, 25.9375, 26, 26.1875, 26.4375, 26.6875, 26.9375, 27, 27, 27, 27.1875, 27.4375, 27.5625, 27.6875, 27.75, 27.75, 28.0625, 28.4375, 28.6875, 28.9375, 29, 29, 29, 29, 29.125, 29.375, 29.625, 29.9375, 30.25, 30.5, 30.75, 30.9375, 30.875, 30.625, 30.142857, 28.75, 28.285715, 28, 10.125, 9.8999996, 9.4970236, 9.2589283, 9.125, 9.1875, 9.25, 9.3125, 9.3125, 9.25, 9.1875, 9.1875, 9.25, 9.3125, 9.5, 9.4375, 9.3125, 9.1875, 9, 9.0625, 9.125, 9.1875, 9.25, 9.25, 9.25, 9.3125, 9.375, 9.4375, 9.5625, 9.6875, 9.625, 9.5, 9.4375, 9.3125, 9.3125, 9.3125, 9.25, 9.125, 9.0625, 9.0625, 9, 9, 9.0625, 9.1875, 9.3125, 9.5, 9.4375, 9.3125, 9.25, 9.125, 9.125, 9.1875, 9.1875, 9.25, 9.333333, -10, -10, -10, -10, -10, -10, -10, -10, -10, -10, -10, -10, -10, -10, -10, -10, -10, -10, -10, -10, -10, -10, -10, -10, -10, 35.375, 35.166664, 35.125, 35.035713, 35, 35.125, 35, 34.875, 34.479168, 34.25, 34.125, 34.0625, 33.9375, 33.875, 33.6875, 33.5, 33.5, 33.375, 33.3125, 33.375, 33.25, 33.1875, 33.125, 32.964287, 33, 32.875, 32.6875, 32.625, 32.5625, 32.625, 32.5625, 32.375, 32.214287, 32, 32, 31.9375, 31.625, 31.5, 31.25, 31, 31, 31, 30.848213, 30.642857, 30.446428, 30.25, 30.25, 30.1875, 30.1875, 30.125, 30.0625, 30, 29.875, 29.875, 29.75, 29.5625, 29.3125, 29.026787, 28.9375, 28.9375, 29, 29.0625, 29.0625, 29.0625, 28.9375, 28.6875, 28.5625, 28.357143, 28.214287, 28.1875, 28.0625, 28.0625, 27.96875, 27.90625, 27.78125, 27.59375, 27.5, 27.3125, 27.1875, 27.125, 26.9375, 26.9375, 26.875, 26.875, 26.875, 26.8125, 26.625, 26.4375, 26.25, 26.0625, 26.0625, 26, 26, 26, 26, 25.875, 25.6875, 25.4375, 25.1875, 25.0625, 25, 25, 24.9375, 24.9375, 24.8125, 24.8125, 24.741072, 24.357143, 24.1875, 24, 23.9375, 23.8125, 23.625, 23.5, 23.4375, 23.4375, 23.375, 23.25, 23.0625, 23, 22.9375, 22.875, 22.875, 22.875, 22.875, 22.8125, 22.5625, 22.3125, 22.125, 22, 22, 22, 21.9375, 21.875, 21.75, 21.5, 21.3125, 21.125, 21, 21, 21, 21, 21, 21, 20.928572, 20.5625, 20.3125, 20.080357, 20.107143, 20.083334, 19.791666, 19.767857, 19.678572, 19.375, 19.4375, 19.223213, 19.0625, 19, 18.875, 18.875, 18.875, 18.9375, 18.875, 18.625, 18.375, 18.0625, 17.9375, 17.9375, 17.9375, 18, 18, 18, 17.875, 17.6875, 17.4375, 17.1875, 17.0625, 16.9375, 16.875, 16.625, 16.5625, 16.625, 16.4375, 16.5, 16.375, 16.125, 16.125, 16.0625, 16, 16, 16, 16, 15.8125, 15.5625, 15.3125, 15.125, 15.3125, 15.5, 15.75, 15.9375, 16, 16.15625, 16.34375, 16.59375, 16.78125, 17, 17.125, 17.25, 17.5, 17.6875, 17.875, 18, 18.25, 18.5, 18.75, 19, 19, 19.0625, 19.1875, 19.160713, 19.089287, 19.3125, 19.482143, 19.75, 20.125, 20.25, 20.5, 20.75, 20.875, 21, 21.0625, 21.125, 21.25, 21.5, 21.75, 22.107143, 22.1875, 22.3125, 22.5, 22.625, 22.875, 23, 23, 23, 23.125, 23.375, 23.625, 23.875, 24.0625, 24.0625, 24.1875, 24.375, 24.5, 24.75, 24.875, 25, 25.1875, 25.4375, 25.6875, 25.875, 26, 26.125, 26.3125, 26.5625, 26.8125, 26.875, 26.875, 26.875, 27.0625, 27.419643, 27.625, 27.8125, 27.875, 27.875, 28.125, 28.375, 28.5625, 28.8125, 28.875, 28.9375, 29, 29.0625, 29.25, 29.5, 29.75, 30.0625, 30.3125, 30.5625, 30.8125, 30.9375, 30.875, 30.625, 30.142857, 28.75, 28.285715, 28, 10.142858, 9.8166676, 9.4345236, 9.2589283, 9.0625, 9.0625, 9.0625, 9.0625, 9.0625, 8.9375, 8.9375, 9, 9.0625, 9.1875, 9.3125, 9.25, 9.1875, 9.125, 9, 9, 9, 9, 9, 9, 9.0625, 9.125, 9.1875, 9.25, 9.3125, 9.4375, 9.375, 9.3125, 9.3125, 9.1875, 9.1875, 9.1875, 9.0625, 9, 9, 9, 9, 9, 9, 9.125, 9.25, 9.375, 9.375, 9.25, 9.125, 9, 9, 9, 9
33.9375, 33.875, 33.6875, 33.5625, 33.5625, 33.4375, 33.4375, 33.4375, 33.294643, 33.041668, 32.821426, 32.651787, 32.6875, 32.5625, 32.5625, 32.5625, 32.625, 32.75, 32.5625, 32.267857, 32.026787, 31.8125, 31.875, 31.875, 31.6875, 31.5625, 31.3125, 31.0625, 31, 31, 30.848213, 30.580357, 30.383928, 30.25, 30.232143, 30.125, 30.25, 30.232143, 30.1875, 30.125, 29.875, 29.75, 29.5625, 29.375, 29.1875, 28.964287, 28.9375, 28.9375, 29, 29.125, 29.125, 29.125, 29.0625, 28.8125, 28.75, 28.607143, 28.401787, 28.3125, 28.125, 28, 27.84375, 27.71875, 27.53125, 27.40625, 27.375, 27.25, 27.1875, 27.125, 26.9375, 26.9375, 26.875, 26.8125, 26.75, 26.625, 26.4375, 26.3125, 26.1875, 26.0625, 26.0625, 26, 26, 26, 25.9375, 25.8125, 25.625, 25.375, 25.1875, 25.0625, 25, 25, 24.9375, 24.9375, 24.875, 24.875, 24.741072, 24.375, 24.25, 24, 23.9375, 23.6875, 23.5, 23.375, 23.375, 23.375, 23.3125, 23.1875, 23, 23, 22.9375, 22.875, 22.8125, 22.75, 22.6875, 22.625, 22.4375, 22.25, 22.125, 22, 22, 22, 22, 21.9375, 21.75, 21.5, 21.25, 21.0625, 21, 21, 21, 21, 21, 20.9375, 20.803572, 20.4375, 20.1875, 20.017857, 20.107143, 20.083334, 19.854166, 19.830357, 19.678572, 19.375, 19.375, 19.160713, 19.0625, 19, 18.875, 18.875, 18.875, 18.9375, 18.9375, 18.6875, 18.375, 17.955357, 17.75, 17.75, 17.8125, 17.9375, 18, 18, 17.875, 17.75, 17.5, 17.25, 17.125, 17, 17, 16.8125, 16.75, 16.75, 16.5625, 16.625, 16.5625, 16.3125, 16.25, 16.125, 16, 16, 16, 15.9375, 15.75, 15.5, 15.25, 15.0625, 15.25, 15.5, 15.75, 16, 16.0625, 16.15625, 16.34375, 16.59375, 16.78125, 17, 17.0625, 17.1875, 17.4375, 17.625, 17.875, 18.0625, 18.3125, 18.5625, 18.8125, 19, 19, 19.0625, 19.1875, 19.25, 19.25, 19.4375, 19.5625, 19.75, 20.1875, 20.375, 20.5625, 20.8125, 20.875, 20.9375, 21, 21.0625, 21.1875, 21.4375, 21.8125, 22.232143, 22.375, 22.5, 22.625, 22.6875, 22.875, 23, 23, 23, 23.125, 23.375, 23.625, 23.875, 24.0625, 24.0625, 24.1875, 24.375, 24.5, 24.75, 24.875, 25, 25.125, 25.375, 25.625, 25.8125, 26, 26.0625, 26.1875, 26.4375, 26.6875, 26.75, 26.8125, 26.8125, 26.9375, 27.357143, 27.625, 27.875, 28, 28, 28.125, 28.25, 28.4375, 28.6875, 28.8125, 28.9375, 29, 29.125, 29.375, 29.625, 29.875, 30.1875, 30.4375, 30.6875, 30.9375, 31, 30.875, 30.625, 30.142857, 28.75, 28.285715, 28, 9.5714283, 9.5666676, 9.2470236, 9.1339283, 9, 9, 9, 9, 9, 8.9375, 8.9375, 8.9375, 8.9375, 9.0625, 9.125, 9.125, 9.125, 9.0625, 9, 9, 9, 9, 9, 9, 9, 9, 9, 9.0625, 9.125, 9.25, 9.25, 9.1875, 9.1875, 9.0625, 9.0625, 9.0625, 9, 9, 9, 9, 9, 9, 9, 9.0625, 9.125, 9.1875, 9.1875, 9.125, 9.0625, 9, 9, 9, 9, 9, 9, -10, -10, -10, -10, -10, -10, -10, -10, -10, -10, -10, -10, -10, -10, -10, -10, -10, -10, -10, -10, -10, -10, -10, -10, -10, 35.125, 35, 35, 35.035713, 35, 35.0625, 34.9375, 34.8125, 34.5625, 34.3125, 34.1875, 34.0625, 34, 34, 33.8125, 33.75, 33.6875, 33.5625, 33.625, 33.625, 33.535713, 33.020836, 32.705357, 32.526787, 32.5, 32.375, 32.4375, 32.375, 32.5, 32.6875, 32.5, 32.205357, 31.901787, 31.6875, 31.6875, 31.6875, 31.625, 31.5, 31.3125, 31.1875, 31.0625, 31.0625, 30.973213, 30.705357, 30.571428, 30.5, 30.357143, 30.1875, 30.25, 30.232143, 30.25, 30.1875, 29.9375, 29.75, 29.625, 29.5, 29.3125, 29.089287, 29, 28.9375, 29, 29.125, 29.125, 29.0625, 29, 28.8125, 28.75, 28.732143, 28.526787, 28.375, 28.1875, 28, 27.78125, 27.59375, 27.34375, 27.21875, 27.1875, 27.1875, 27.1875, 27.125, 27, 26.9375, 26.875, 26.75, 26.625, 26.401787, 26.25, 26.1875, 26.125, 26.0625, 26.0625, 26, 26, 26, 25.9375, 25.75, 25.5, 25.25, 25.0625, 25, 25, 25, 25, 25, 24.9375, 24.875, 24.616072, 24.25, 24.125, 23.9375, 23.9375, 23.75, 23.625, 23.5625, 23.5625, 23.5, 23.375, 23.1875, 23, 23, 22.875, 22.8125, 22.75, 22.6875, 22.6875, 22.5625, 22.375, 22.1875, 22.0625, 22, 22, 22, 22, 21.9375, 21.6875, 21.4375, 21.1875, 21, 21, 21, 21, 21, 20.9375, 20.8125, 20.6875, 20.4375, 20.25, 20.125, 20, 20, 19.9375, 19.9375, 19.741072, 19.4375, 19.375, 19.160713, 19.125, 19, 18.875, 18.875, 18.875, 18.9375, 18.9375, 18.6875, 18.375, 17.955357, 17.6875, 17.6875, 17.75, 17.875, 18, 18, 17.9375, 17.875, 17.625, 17.375, 17.1875, 17, 17, 16.875, 16.8125, 16.8125, 16.6875, 16.6875, 16.625, 16.4375, 16.3125, 16.1875, 16.0625, 16, 16, 15.875, 15.625, 15.375, 15.125, 15, 15.25, 15.5625, 15.919643, 16.125, 16.1875, 16.21875, 16.34375, 16.59375, 16.78125, 16.9375, 17, 17.1875, 17.375, 17.625, 17.875, 18, 18.3125, 18.5625, 18.8125, 19, 19, 19, 19.125, 19.25, 19.3125, 19.5625, 19.6875, 19.8125, 20.25, 20.4375, 20.5625, 20.75, 20.75, 20.8125, 21, 21.1875, 21.3125, 21.5625, 21.875, 22.294643, 22.5, 22.625, 22.75, 22.75, 22.875, 23, 23, 23, 23.0625, 23.3125, 23.5625, 23.8125, 24, 24, 24.125, 24.3125, 24.5, 24.75, 24.9375, 25, 25.0625, 25.25, 25.4375, 25.6875, 25.9375, 26, 26.125, 26.375, 26.625, 26.75, 26.8125, 26.8125, 26.9375, 27.357143, 27.5625, 27.8125, 27.9375, 27.9375, 28.0625, 28.125, 28.25, 28.5, 28.6875, 28.875, 29, 29.125, 29.375, 29.625, 29.875, 30.25, 30.5, 30.75, 31, 31, 30.875, 30.625, 30.232143, 28.75, 28.285715, 28, 9.1428576, 9.3166676, 9.104167, 9.0714283, 9, 9, 9, 9, 9, 8.9375, 8.9375, 8.9375, 8.9375, 9, 9, 9, 9, 9, 9, 9, 9, 9, 9, 9, 9, 9, 9, 9, 9, 9.0625, 9.0625, 9.0625, 9.0625, 9, 9, 9, 9, 9, 9, 9, 9, 9, 9, 9, 9, 9, 9, 9, 9, 9, 9, 9, 9
34.0625, 34, 33.875, 33.8125, 33.6875, 33.6875, 33.75, 33.8125, 33.723213, 33.145836, 32.767857, 32.526787, 32.5, 32.375, 32.5, 32.5, 32.5625, 32.75, 32.5, 32.142857, 31.964287, 31.8125, 31.75, 31.8125, 31.6875, 31.4375, 31.3125, 31.125, 31, 31, 30.9375, 30.8125, 30.75, 30.75, 30.544643, 30.375, 30.375, 30.294643, 30.3125, 30.1875, 29.9375, 29.6875, 29.5, 29.375, 29.25, 29.125, 29.125, 29.0625, 29.0625, 29.1875, 29.125, 29, 28.9375, 28.75, 28.625, 28.6875, 28.5625, 28.375, 28.25, 28, 27.71875, 27.46875, 27.21875, 27.03125, 27, 27.125, 27.098213, 27.026787, 27.0625, 26.875, 26.8125, 26.5625, 26.25, 26.107143, 26.208334, 26.241072, 26.25, 26.125, 26.0625, 26, 26, 26, 25.9375, 25.75, 25.5, 25.25, 25.0625, 25, 25, 25, 25, 25, 24.875, 24.75, 24.491072, 24.125, 24.0625, 23.9375, 23.9375, 23.8125, 23.75, 23.625, 23.5625, 23.4375, 23.25, 23.125, 23, 23, 22.9375, 22.875, 22.75, 22.6875, 22.5625, 22.4375, 22.375, 22.1875, 22.0625, 21.892857, 21.875, 21.875, 21.9375, 21.875, 21.625, 21.375, 21.1875, 21.0625, 21.0625, 21.0625, 21, 21, 20.875, 20.6875, 20.5, 20.25, 20.125, 20.0625, 20, 20, 20, 20, 19.803572, 19.5625, 19.5, 19.285713, 19.25, 19, 18.8125, 18.8125, 18.8125, 18.9375, 19, 18.75, 18.4375, 18.017857, 17.625, 17.625, 17.6875, 17.8125, 18, 18, 18, 17.9375, 17.6875, 17.4375, 17.1875, 17, 17, 16.9375, 16.9375, 16.9375, 16.875, 16.8125, 16.6875, 16.5, 16.3125, 16.1875, 16, 15.875, 15.8125, 15.625, 15.4375, 15.25, 15.0625, 15, 15.25, 15.5625, 15.919643, 16.125, 16.1875, 16.21875, 16.34375, 16.59375, 16.78125, 16.9375, 17, 17.25, 17.375, 17.625, 17.875, 17.9375, 18.3125, 18.5625, 18.8125, 19, 19, 19, 19.1875, 19.375, 19.5, 19.75, 19.8125, 19.875, 20.1875, 20.3125, 20.375, 20.5, 20.5625, 20.6875, 20.9375, 21.25, 21.4375, 21.6875, 22.0625, 22.357143, 22.5625, 22.75, 22.8125, 22.875, 22.9375, 23, 23, 23, 23.0625, 23.3125, 23.5625, 23.8125, 24, 24, 24.125, 24.375, 24.625, 24.9375, 25.1875, 25.25, 25.3125, 25.4375, 25.5625, 25.75, 25.9375, 26.0625, 26.1875, 26.4375, 26.6875, 26.75, 26.8125, 26.8125, 26.9375, 27.357143, 27.5625, 27.8125, 27.9375, 27.9375, 28.0625, 28.125, 28.25, 28.5, 28.6875, 28.875, 29, 29.1875, 29.4375, 29.6875, 29.9375, 30.25, 30.4375, 30.6875, 30.9375, 30.9375, 30.875, 30.625, 30.321428, -10, -10, -10, 8.875, 8.916667, 8.9375, 9, 9, 9, 9, 9, 9, 8.9375, 8.9375, 8.9375, 8.9375, 9, 9, 9, 9, 9, 9, 9, 9, 9, 9, 9, 9, 9, 9, 9, 9, 9, 9, 9, 9, 8.9375, 8.9375, 8.9375, 8.9375, 9, 9, 9, 9, 9, 9, 9, 9, 9, 9, 8.9375, 8.9375, 8.9375, 8.9375, 9, 9, 9, 9, -10, -10, -10, -10, -10, -10, -10, -10, -10, -10, -10, -10, -10, -10, -10, -10, -10, -10, -10, -10, -10, -10, -10, -10, -10, 34.875, 34.916668, 34.9375, 34.9375, 34.9375, 34.9375, 34.875, 34.8125, 34.5625, 34.3125, 34.125, 34, 33.9375, 33.8125, 33.8125, 33.8125, 33.8125, 33.875, 33.875, 33.8125, 33.598213, 33.020836, 32.705357, 32.5625, 32.5625, 32.5, 32.625, 32.625, 32.625, 32.6875, 32.375, 32.080357, 31.9375, 31.75, 31.625, 31.5625, 31.5, 31.3125, 31.25, 31.125, 31, 31, 31, 30.9375, 30.9375, 30.875, 30.607143, 30.375, 30.25, 30.232143, 30.25, 30.1875, 30.0625, 29.8125, 29.625, 29.4375, 29.3125, 29.160713, 29.089287, 29.0625, 29, 29.125, 29.0625, 28.9375, 28.875, 28.75, 28.5625, 28.5625, 28.375, 28.1875, 28.125, 27.9375, 27.75, 27.5, 27.25, 27.0625, 27, 27.1875, 27.160713, 27.089287, 27.125, 26.8125, 26.6875, 26.375, 26.0625, 25.982143, 26.145834, 26.241072, 26.25, 26.125, 26.0625, 26, 26, 25.9375, 25.875, 25.6875, 25.4375, 25.25, 25.0625, 25, 25, 25, 25, 25, 24.8125, 24.625, 24.375, 24.125, 24.0625, 24, 23.9375, 23.875, 23.75, 23.5625, 23.4375, 23.25, 23.125, 23.0625, 23, 23, 23, 23, 22.8125, 22.6875, 22.5, 22.375, 22.4375, 22.3125, 22.125, 21.785713, 21.75, 21.75, 21.875, 21.875, 21.625, 21.375, 21.1875, 21.0625, 21.0625, 21.0625, 21, 21, 20.8125, 20.5625, 20.3125, 20.0625, 20, 20, 20, 20, 20, 20, 19.875, 19.8125, 19.625, 19.375, 19.25, 19, 18.9375, 18.875, 18.8125, 18.875, 18.875, 18.6875, 18.4375, 18.080357, 17.75, 17.723213, 17.714287, 17.8125, 17.9375, 17.9375, 17.875, 17.75, 17.5, 17.3125, 17.125, 17, 17, 17, 17, 17, 16.9375, 16.75, 16.5625, 16.375, 16.1875, 16.0625, 15.875, 15.75, 15.625, 15.4375, 15.3125, 15.125, 15, 15, 15.25, 15.5625, 15.919643, 16.125, 16.25, 16.3125, 16.4375, 16.6875, 16.8125, 16.9375, 17, 17.1875, 17.25, 17.5, 17.75, 17.875, 18.3125, 18.5625, 18.8125, 19, 19, 19, 19.25, 19.5, 19.6875, 19.9375, 19.9375, 19.9375, 20.125, 20.1875, 20.25, 20.3125, 20.375, 20.5625, 20.8125, 21.1875, 21.4375, 21.6875, 22, 22.1875, 22.4375, 22.625, 22.6875, 22.8125, 22.875, 22.9375, 23, 23, 23.125, 23.375, 23.625, 23.875, 24, 24.0625, 24.25, 24.5, 24.75, 25, 25.1875, 25.25, 25.375, 25.5, 25.625, 25.8125, 25.9375, 26.125, 26.3125, 26.5625, 26.8125, 26.875, 26.9375, 26.9375, 27, 27.3125, 27.5, 27.75, 27.9375, 28, 28.125, 28.1875, 28.375, 28.5625, 28.75, 28.9375, 29.0625, 29.3125, 29.669643, 29.875, 30.0625, 30.25, 30.375, 30.625, 30.875, 30.9375, 30.84375, 30.59375, 30.369047, -10, -10, -10, 8.875, 8.916667, 8.9375, 9, 9, 9, 9, 9, 9, 9, 9, 9, 9, 9, 8.9375, 8.875, 8.8125, 8.8125, 8.875, 8.9375, 9, 9, 9, 9, 9, 9, 9, 9, 9, 9, 9, 9, 9, 8.9375, 8.9375, 8.9375, 8.9375, 9, 9, 9, 9, 9, 9, 9, 9, 9, 9, 8.9375, 8.9375, 8.9375, 8.9375, 9, 8.9375
33.875, 33.6875, 33.6875, 33.75, 33.875, 33.892857, 33.821426, 33.75, 33.616074, 33.354168, 33.16964, 32.955357, 32.883926, 32.75, 32.8125, 32.6875, 32.5625, 32.5625, 32.3125, 32.1875, 32.0625, 31.8125, 31.5625, 31.375, 31.25, 31.1875, 31.1875, 31.125, 31.0625, 31, 31, 31, 31, 30.9375, 30.75, 30.5625, 30.3125, 30.1875, 30.125, 30.0625, 30.0625, 29.875, 29.6875, 29.5, 29.3125, 29.160713, 29.089287, 29.0625, 29, 29.0625, 28.9375, 28.75, 28.6875, 28.625, 28.4375, 28.4375, 28.25, 28.0625, 28.0625, 27.9375, 27.75, 27.5, 27.25, 27.0625, 27, 27.1875, 27.160713, 27.089287, 27.125, 26.8125, 26.75, 26.5, 26.25, 26.232143, 26.395834, 26.491072, 26.4375, 26.25, 26.125, 26, 26, 25.9375, 25.9375, 25.75, 25.5, 25.3125, 25.0625, 25, 25, 25, 25, 25, 24.75, 24.5, 24.25, 24, 24, 24, 24, 24, 23.9375, 23.75, 23.5625, 23.3125, 23.125, 23.0625, 23, 23, 22.9375, 22.9375, 22.75, 22.625, 22.5625, 22.5, 22.5625, 22.4375, 22.125, 21.660713, 21.625, 21.625, 21.8125, 21.9375, 21.6875, 21.4375, 21.25, 21.0625, 21.0625, 21.0625, 21, 21, 20.75, 20.5, 20.25, 20, 20, 20, 20, 19.9375, 19.875, 19.875, 19.8125, 19.8125, 19.6875, 19.4375, 19.25, 19, 18.9375, 18.8125, 18.6875, 18.6875, 18.625, 18.4375, 18.25, 18.0625, 17.8125, 17.848213, 17.839287, 17.875, 17.875, 17.8125, 17.6875, 17.5, 17.3125, 17.1875, 17.0625, 17, 17, 17, 17, 16.9375, 16.8125, 16.5625, 16.3125, 16.1875, 16.0625, 16, 15.8125, 15.6875, 15.5, 15.3125, 15.25, 15.0625, 15, 15, 15.25, 15.5625, 15.919643, 16.125, 16.25, 16.375, 16.5625, 16.8125, 16.9375, 17, 17, 17.125, 17.1875, 17.4375, 17.6875, 17.8125, 18.25, 18.5, 18.75, 19, 19, 19, 19.25, 19.5, 19.75, 20, 20, 20, 20.0625, 20.0625, 20.125, 20.125, 20.1875, 20.375, 20.625, 21, 21.25, 21.5625, 21.8125, 22, 22.25, 22.375, 22.5, 22.6875, 22.8125, 22.9375, 23, 23.0625, 23.1875, 23.4375, 23.6875, 23.875, 24, 24.0625, 24.25, 24.5, 24.75, 25, 25.1875, 25.25, 25.3125, 25.401787, 25.607143, 25.803572, 25.9375, 26.1875, 26.4375, 26.6875, 26.9375, 27, 27, 27, 27.0625, 27.3125, 27.5, 27.75, 28, 28.125, 28.25, 28.3125, 28.4375, 28.5625, 28.75, 28.9375, 29.125, 29.3125, 29.669643, 29.875, 30, 30.1875, 30.3125, 30.5625, 30.8125, 30.9375, 30.8125, 30.5625, 30.416668, -10, -10, -10, 8.875, 8.916667, 8.9375, 8.9375, 8.875, 8.875, 8.875, 8.9375, 9, 9, 9, 9, 9, 8.9375, 8.8125, 8.6875, 8.5625, 8.5625, 8.625, 8.6875, 8.8125, 8.875, 8.9375, 9, 9, 9, 8.9375, 8.875, 8.8125, 8.75, 8.8125, 8.875, 8.9375, 8.9375, 8.875, 8.8125, 8.8125, 8.875, 8.9375, 9, 9, 9, 9, 9, 9, 9, 9, 8.9375, 8.875, 8.8125, 8.75, 8.75, 8.6875, 8.625, 8.583333, -10, -10, -10, -10, -10, -10, -10, -10, -10, -10, -10, -10, -10, -10, -10, -10, -10, -10, -10, -10, -10, -10, -10, -10, -10, 35, 34.916668, 34.964287, 34.982143, 35.053574, 35.0625, 35.0625, 35.098213, 34.705357, 34.446426, 34.1875, 34, 33.875, 33.6875, 33.6875, 33.75, 33.8125, 33.767857, 33.633926, 33.571426, 33.770832, 33.770832, 33.514881, 33.214287, 33.071426, 32.9375, 32.9375, 32.875, 32.625, 32.5, 32.25, 32.0625, 32, 31.8125, 31.5625, 31.375, 31.1875, 31.125, 31.0625, 30.9375, 30.9375, 30.9375, 31.035713, 31.0625, 31.0625, 30.9375, 30.8125, 30.625, 30.375, 30.1875, 30.0625, 30, 30, 29.875, 29.625, 29.4375, 29.3125, 29.160713, 29.151787, 29.125, 29, 29.0625, 28.9375, 28.75, 28.75, 28.6875, 28.5, 28.4375, 28.1875, 28, 28, 27.9375, 27.8125, 27.625, 27.375, 27.125, 26.964287, 27.0625, 27.035713, 27.026787, 27.0625, 26.8125, 26.75, 26.5625, 26.4375, 26.517857, 26.708334, 26.803572, 26.625, 26.4375, 26.3125, 26.125, 26.125, 25.9375, 25.875, 25.75, 25.5625, 25.4375, 25.1875, 25.0625, 25, 25, 25, 25, 24.75, 24.5625, 24.3125, 24.0625, 24.0625, 24, 24, 24, 23.9375, 23.75, 23.5625, 23.3125, 23.125, 23.0625, 23, 23, 22.9375, 22.875, 22.625, 22.4375, 22.375, 22.375, 22.5625, 22.5, 22.1875, 21.723213, 21.625, 21.625, 21.8125, 21.9375, 21.75, 21.5625, 21.4375, 21.241072, 21.0625, 21.0625, 20.9375, 21, 20.8125, 20.625, 20.375, 20.125, 20.0625, 20, 20, 19.9375, 19.8125, 19.8125, 19.8125, 19.75, 19.6875, 19.4375, 19.1875, 19, 18.9375, 18.8125, 18.6875, 18.625, 18.5, 18.25, 18, 17.875, 17.75, 17.848213, 17.901787, 17.9375, 17.8125, 17.6875, 17.5, 17.3125, 17.25, 17.1875, 17.125, 17.0625, 17, 17, 17, 16.875, 16.6875, 16.4375, 16.1875, 16.0625, 16, 15.9375, 15.75, 15.6875, 15.4375, 15.3125, 15.25, 15.0625, 15.0625, 15, 15.25, 15.5, 15.75, 16, 16.1875, 16.4375, 16.6875, 16.9375, 17, 17.0625, 17.125, 17.25, 17.3125, 17.5, 17.6875, 17.8125, 18.25, 18.5, 18.75, 19, 19, 19, 19.1875, 19.4375, 19.6875, 19.9375, 20, 20, 20, 20, 20.0625, 20.0625, 20.1875, 20.375, 20.5625, 20.875, 21.125, 21.4375, 21.75, 21.9375, 22.1875, 22.3125, 22.4375, 22.6875, 22.8125, 22.9375, 23, 23.0625, 23.25, 23.5, 23.75, 23.9375, 24, 24.0625, 24.1875, 24.375, 24.625, 24.875, 25.0625, 25.1875, 25.1875, 25.303572, 25.651787, 25.857143, 26, 26.25, 26.5, 26.75, 27, 27, 27, 27, 27.125, 27.375, 27.625, 27.9375, 28.1875, 28.3125, 28.375, 28.375, 28.5, 28.625, 28.8125, 29, 29.1875, 29.4375, 29.794643, 30, 30.0625, 30.125, 30.25, 30.5, 30.75, 30.9375, 30.78125, 30.53125, 30.354168, -10, -10, -10, 8.625, 8.729167, 8.8125, 8.8125, 8.8125, 8.8125, 8.75, 8.875, 8.875, 8.8125, 8.875, 8.875, 8.9375, 8.9375, 8.8125, 8.6875, 8.5, 8.4375, 8.4375, 8.4375, 8.625, 8.75, 8.875, 9, 8.9375, 8.9375, 8.8125, 8.6875, 8.625, 8.5, 8.5625, 8.6875, 8.75, 8.75, 8.6875, 8.625, 8.6875, 8.8125, 8.9375, 8.9375, 8.875, 8.8125, 8.75, 8.75, 8.75, 8.8125, 8.875, 8.8125, 8.75, 8.6875, 8.625, 8.625, 8.5625
33.9375, 33.8125, 33.8125, 33.75, 33.75, 33.580357, 33.446426, 33.446426, 33.690475, 33.645832, 33.452381, 33.151787, 33.008926, 32.9375, 32.9375, 32.8125, 32.625, 32.375, 32.125, 32, 31.9375, 31.8125, 31.625, 31.375, 31.1875, 31.0625, 30.875, 30.8125, 30.75, 30.75, 30.848213, 30.8125, 30.8125, 30.75, 30.75, 30.5625, 30.375, 30.1875, 30, 30, 30, 29.9375, 29.6875, 29.5, 29.375, 29.160713, 29.089287, 29.0625, 28.9375, 29, 28.9375, 28.75, 28.6875, 28.6875, 28.5625, 28.5, 28.3125, 28.0625, 28, 27.9375, 27.8125, 27.625, 27.375, 27.125, 26.964287, 27.0625, 27.035713, 27.026787, 27.0625, 26.875, 26.875, 26.8125, 26.8125, 26.8125, 26.75, 26.75, 26.5, 26.375, 26.3125, 26.125, 26.125, 25.9375, 25.875, 25.75, 25.625, 25.5, 25.25, 25.125, 25, 25, 25, 24.9375, 24.6875, 24.5625, 24.3125, 24.125, 24.125, 24, 24, 23.9375, 23.875, 23.75, 23.625, 23.4375, 23.25, 23.125, 23, 23, 22.9375, 22.875, 22.6875, 22.4375, 22.375, 22.3125, 22.375, 22.375, 22.125, 21.830357, 21.75, 21.75, 21.875, 22, 21.875, 21.75, 21.625, 21.428572, 21.25, 21.1875, 21.0625, 21.0625, 20.8125, 20.6875, 20.5, 20.25, 20.1875, 20.0625, 20, 19.9375, 19.75, 19.6875, 19.6875, 19.625, 19.5625, 19.375, 19.125, 19, 19, 18.875, 18.75, 18.625, 18.4375, 18.125, 17.767857, 17.6875, 17.6875, 17.848213, 17.964287, 17.9375, 17.6875, 17.5, 17.25, 17.1875, 17.1875, 17.1875, 17.1875, 17.0625, 17, 17, 17, 16.8125, 16.5625, 16.3125, 16.0625, 16, 16, 15.9375, 15.8125, 15.8125, 15.625, 15.5625, 15.4375, 15.1875, 15.125, 15, 15.25, 15.5, 15.75, 16, 16.1875, 16.4375, 16.6875, 16.96875, 17.09375, 17.21875, 17.28125, 17.3125, 17.3125, 17.375, 17.5625, 17.75, 18.1875, 18.5, 18.75, 19, 19, 19, 19.1875, 19.4375, 19.6875, 19.9375, 20, 19.9375, 19.964287, 20.107143, 20.241072, 20.3125, 20.375, 20.5, 20.625, 20.8125, 21.0625, 21.375, 21.625, 21.875, 22.0625, 22.125, 22.3125, 22.5625, 22.75, 22.9375, 23, 23.125, 23.375, 23.625, 23.875, 24, 24, 24.0625, 24.125, 24.25, 24.5, 24.6875, 24.875, 25, 24.875, 25.017857, 25.50893, 25.785715, 26, 26.1875, 26.4375, 26.6875, 26.9375, 27, 27, 27, 27.125, 27.375, 27.625, 27.9375, 28.1875, 28.3125, 28.3125, 28.25, 28.375, 28.5, 28.75, 29, 29.25, 29.5, 29.857143, 30.0625, 30.0625, 30.0625, 30.25, 30.5, 30.75, 30.9375, 30.6875, 30.4375, 30.229168, 30, 8, 8, 8.375, 8.479167, 8.5625, 8.5625, 8.5625, 8.5625, 8.5, 8.625, 8.625, 8.5625, 8.6875, 8.75, 8.8125, 8.8125, 8.6875, 8.5625, 8.375, 8.3125, 8.25, 8.1875, 8.375, 8.5625, 8.6875, 8.8125, 8.75, 8.6875, 8.5625, 8.4375, 8.375, 8.25, 8.3125, 8.4375, 8.5, 8.5625, 8.5625, 8.5625, 8.625, 8.6875, 8.75, 8.6875, 8.625, 8.5625, 8.5, 8.5, 8.5, 8.5625, 8.625, 8.625, 8.5625, 8.5625, 8.5625, 8.5, 8.5, 8.375, 8.25, -10, -10, -10, -10, -10, -10, -10, -10, -10, -10, -10, -10, -10, -10, -10, -10, -10, -10, -10, -10, -10, -10, -10, -10, -10, 35, 34.916668, 34.901787, 34.94643, 35.1875, 35.339287, 35.357143, 35.285713, 34.892857, 34.633926, 34.375, 34.25, 34.0625, 33.9375, 33.9375, 33.8125, 33.6875, 33.392857, 33.258926, 33.321426, 33.627975, 33.708332, 33.577381, 33.276787, 33.133926, 33, 32.9375, 32.75, 32.5625, 32.3125, 32.0625, 32, 32, 31.9375, 31.8125, 31.625, 31.375, 31.125, 30.767857, 30.6875, 30.625, 30.6875, 30.785713, 30.6875, 30.625, 30.5625, 30.6875, 30.5625, 30.4375, 30.3125, 30.0625, 30.0625, 30.0625, 29.875, 29.6875, 29.5625, 29.375, 29.25, 29.1875, 29.0625, 29, 29, 28.875, 28.625, 28.5625, 28.5625, 28.5, 28.5, 28.3125, 28.0625, 27.9375, 27.8125, 27.625, 27.4375, 27.25, 27.0625, 26.964287, 27, 26.910713, 26.776787, 26.75, 26.794643, 26.928572, 26.9375, 26.9375, 26.875, 26.75, 26.8125, 26.544643, 26.339287, 26.3125, 26.0625, 26.125, 26, 25.9375, 25.875, 25.8125, 25.625, 25.375, 25.1875, 25, 25, 25, 24.875, 24.625, 24.5, 24.25, 24.125, 24.125, 24, 24, 23.9375, 23.9375, 23.875, 23.8125, 23.625, 23.4375, 23.25, 23.0625, 23.0625, 22.9375, 22.875, 22.75, 22.5625, 22.5, 22.375, 22.3125, 22.25, 22.0625, 21.9375, 21.875, 21.875, 21.9375, 22, 21.9375, 21.875, 21.8125, 21.616072, 21.4375, 21.375, 21.169643, 20.979166, 20.696428, 20.5625, 20.4375, 20.25, 20.1875, 20.0625, 20, 19.9375, 19.75, 19.625, 19.5625, 19.4375, 19.375, 19.25, 19.0625, 19, 19, 18.9375, 18.875, 18.75, 18.5625, 18.25, 17.830357, 17.75, 17.625, 17.75, 17.875, 17.75, 17.5625, 17.3125, 17.125, 17.125, 17.1875, 17.1875, 17.1875, 17.0625, 17, 17, 16.9375, 16.6875, 16.5, 16.25, 16.0625, 16.0625, 16, 16, 15.9375, 15.9375, 15.8125, 15.75, 15.5625, 15.3125, 15.1875, 15, 15.25, 15.5, 15.75, 16, 16.1875, 16.4375, 16.6875, 16.90625, 17.03125, 17.21875, 17.388393, 17.4375, 17.4375, 17.375, 17.5, 17.6875, 18.0625, 18.4375, 18.6875, 18.9375, 19, 19, 19.1875, 19.4375, 19.6875, 19.9375, 20, 19.96875, 20.058037, 20.263393, 20.397322, 20.5, 20.5625, 20.625, 20.75, 20.875, 21.0625, 21.383928, 21.833334, 22.044643, 22.25, 22.3125, 22.5, 22.75, 22.875, 23, 23, 23.1875, 23.4375, 23.6875, 23.9375, 24, 24, 24, 24, 24.0625, 24.3125, 24.5625, 24.8125, 25, 24.75, 24.857143, 25.428572, 25.714285, 26, 26.125, 26.3125, 26.5625, 26.8125, 26.9375, 27, 26.9375, 27.089287, 27.348213, 27.5625, 27.9375, 28.125, 28.25, 28.25, 28.1875, 28.321428, 28.625, 28.8125, 29.0625, 29.25, 29.4375, 29.625, 29.875, 29.875, 29.9375, 30.25, 30.5, 30.6875, 30.8125, 30.5625, 30.3125, 30.145834, 8, 8, 8, 8.125, 8.229167, 8.3125, 8.3125, 8.3125, 8.3125, 8.25, 8.375, 8.375, 8.3125, 8.4375, 8.5, 8.5625, 8.5625, 8.5, 8.5, 8.375, 8.3125, 8.1875, 8, 8.125, 8.3125, 8.4375, 8.5625, 8.5, 8.4375, 8.3125, 8.1875, 8.125, 8, 8.0625, 8.1875, 8.25, 8.3125, 8.3125, 8.3125, 8.375, 8.4375, 8.5, 8.4375, 8.375, 8.3125, 8.25, 8.25, 8.25, 8.3125, 8.375, 8.375, 8.375, 8.4375, 8.4375, 8.375, 8.375
34.1875, 34.0625, 33.991074, 33.625, 33.4375, 33.1875, 33.25, 33.321426, 33.565475, 33.520832, 33.354168, 33.16964, 33.026787, 32.9375, 32.75, 32.625, 32.4375, 32.25, 32.0625, 32, 32, 32, 31.9375, 31.8125, 31.5625, 31.1875, 30.705357, 30.5, 30.4375, 30.5625, 30.723213, 30.625, 30.5, 30.375, 30.4375, 30.375, 30.3125, 30.25, 30.0625, 30.0625, 30.0625, 29.875, 29.75, 29.6875, 29.5, 29.375, 29.25, 29.0625, 29.0625, 29.035713, 28.901787, 28.75, 28.625, 28.616072, 28.375, 28.375, 28.1875, 28.0625, 27.875, 27.75, 27.5625, 27.375, 27.25, 27.0625, 27.026787, 27.0625, 26.910713, 26.741074, 26.6875, 26.732143, 26.928572, 26.875, 26.875, 26.8125, 26.625, 26.75, 26.482143, 26.276787, 26.3125, 26.0625, 26.125, 26, 25.9375, 25.875, 25.8125, 25.625, 25.4375, 25.25, 25.0625, 25.0625, 25, 24.8125, 24.5625, 24.4375, 24.1875, 24.125, 24.125, 24, 24, 23.9375, 23.9375, 23.9375, 23.9375, 23.75, 23.5625, 23.3125, 23.0625, 23.0625, 23, 22.875, 22.75, 22.5625, 22.375, 22.25, 22.25, 22.25, 22.1875, 22.1875, 22.0625, 22, 22, 22, 22, 22, 21.9375, 21.741072, 21.5625, 21.4375, 21.232143, 20.979166, 20.633928, 20.5, 20.375, 20.1875, 20.125, 20, 19.9375, 20, 19.875, 19.6875, 19.5625, 19.375, 19.25, 19.1875, 19.0625, 19, 19, 19, 19, 18.9375, 18.8125, 18.5625, 18.205357, 18.0625, 17.875, 17.875, 17.875, 17.75, 17.5625, 17.3125, 17.125, 17.125, 17.1875, 17.1875, 17.1875, 17.0625, 17, 17, 16.875, 16.625, 16.5, 16.25, 16.125, 16.125, 16, 16, 16, 16, 15.9375, 15.9375, 15.6875, 15.4375, 15.25, 15.0625, 15.3125, 15.5625, 15.8125, 16, 16.25, 16.5, 16.75, 16.90625, 16.96875, 17.15625, 17.388393, 17.5, 17.4375, 17.375, 17.4375, 17.625, 18, 18.375, 18.625, 18.875, 19, 19, 19.1875, 19.4375, 19.6875, 19.9375, 20, 19.96875, 20.058037, 20.263393, 20.459822, 20.625, 20.75, 20.8125, 20.875, 20.9375, 21.0625, 21.383928, 21.833334, 22.044643, 22.25, 22.375, 22.5625, 22.8125, 22.9375, 23, 23, 23.125, 23.375, 23.625, 23.875, 24, 24, 24, 24, 24, 24.25, 24.5, 24.75, 25, 24.8125, 24.955357, 25.44643, 25.723215, 26, 26.125, 26.3125, 26.5625, 26.8125, 27, 27.035713, 26.830357, 26.982143, 27.160713, 27.4375, 27.875, 28, 28.125, 28.125, 28.125, 28.321428, 28.6875, 28.875, 29.0625, 29.25, 29.5, 29.6875, 29.9375, 29.9375, 29.9375, 30.25, 30.5, 30.6875, 30.8125, 30.5625, 30.3125, 30.145834, 8, 8, 8, 8, 8.0625, 8.125, 8.125, 8.1875, 8.1875, 8.125, 8.1875, 8.125, 8.0625, 8.1875, 8.25, 8.3125, 8.375, 8.375, 8.4375, 8.375, 8.3125, 8.1875, 8.0625, 8.1875, 8.3125, 8.375, 8.375, 8.25, 8.1875, 8.125, 8.0625, 8.0625, 8, 8, 8.0625, 8.0625, 8.0625, 8.125, 8.1875, 8.25, 8.3125, 8.3125, 8.1875, 8.125, 8.0625, 8, 8, 8, 8.0625, 8.125, 8.125, 8.1875, 8.3125, 8.375, 8.375, 8.375, 8.25, 8.166667, -10, -10, -10, -10, -10, -10, -10, -10, -10, -10, -10, -10, -10, -10, -10, -10, -10, -10, -10, -10, -10, -10, -10, -10, -10, 35, 35, 34.9375, 34.839287, 35.00893, 35.214287, 35.232143, 35.25, 35.125, 34.9375, 34.6875, 34.5, 34.25, 34, 33.866074, 33.4375, 33.25, 33.0625, 33.1875, 33.25, 33.232143, 33.1875, 33.1875, 33.035713, 32.901787, 32.75, 32.4375, 32.3125, 32.1875, 32.0625, 32, 32, 32, 32, 32, 31.875, 31.625, 31.1875, 30.517857, 30.375, 30.25, 30.375, 30.4375, 30.3125, 30.25, 30.1875, 30.25, 30.25, 30.1875, 30.1875, 30.0625, 30.0625, 30.0625, 29.8125, 29.6875, 29.5625, 29.3125, 29.25, 29.125, 29, 29.0625, 29.035713, 28.901787, 28.8125, 28.6875, 28.616072, 28.375, 28.375, 28.1875, 28.125, 27.9375, 27.75, 27.5625, 27.3125, 27.1875, 27.125, 27.125, 27.1875, 27.035713, 26.678574, 26.5625, 26.544643, 26.678572, 26.625, 26.6875, 26.6875, 26.5625, 26.6875, 26.419643, 26.151787, 26.125, 25.9375, 26, 26, 26, 25.9375, 25.875, 25.625, 25.4375, 25.25, 25.0625, 25.0625, 25, 24.75, 24.5, 24.3125, 24.0625, 24.0625, 24.0625, 24, 24, 23.9375, 23.9375, 23.9375, 23.875, 23.6875, 23.5, 23.25, 23.0625, 23.0625, 23, 22.9375, 22.875, 22.6875, 22.4375, 22.25, 22.1875, 22.1875, 22.1875, 22.1875, 22.0625, 22, 21.9375, 21.875, 21.875, 21.8125, 21.75, 21.625, 21.5625, 21.4375, 21.294643, 20.916666, 20.508928, 20.3125, 20.1875, 20.125, 20.125, 20.0625, 20, 20, 19.9375, 19.6875, 19.5, 19.3125, 19.125, 19.125, 19.0625, 19, 19, 19, 19, 19, 18.9375, 18.8125, 18.517857, 18.3125, 18.0625, 17.9375, 17.875, 17.6875, 17.5625, 17.375, 17.25, 17.3125, 17.25, 17.1875, 17.125, 17, 17, 17, 16.875, 16.6875, 16.5625, 16.3125, 16.1875, 16.125, 16, 16, 16, 16, 16, 16, 15.75, 15.5, 15.25, 15.125, 15.375, 15.625, 15.875, 16.0625, 16.3125, 16.5625, 16.8125, 16.90625, 16.96875, 17.09375, 17.263393, 17.3125, 17.3125, 17.3125, 17.4375, 17.6875, 18, 18.375, 18.625, 18.875, 19, 19, 19.25, 19.5, 19.75, 20, 20, 19.96875, 20.120537, 20.325893, 20.522322, 20.75, 20.8125, 20.8125, 20.901787, 21.044643, 21.107143, 21.446428, 21.833334, 21.982143, 22.1875, 22.25, 22.4375, 22.6875, 22.875, 23, 23, 23.125, 23.3125, 23.5625, 23.8125, 23.9375, 24, 24, 24, 24.0625, 24.3125, 24.5625, 24.8125, 25, 24.875, 25.053574, 25.464287, 25.732143, 26, 26.0625, 26.1875, 26.4375, 26.6875, 27, 27.160713, 26.986607, 27.075893, 27.191963, 27.40625, 27.75, 27.875, 28, 28.0625, 28.1875, 28.446428, 28.8125, 28.9375, 29.125, 29.3125, 29.5625, 29.75, 29.9375, 29.9375, 29.9375, 30.1875, 30.4375, 30.625, 30.75, 30.5625, 30.3125, 30.145834, 8, 8, 8, 8, 8, 8, 8, 8, 8, 8, 8, 8, 8, 8.0625, 8.125, 8.125, 8.125, 8.125, 8.1875, 8.1875, 8.1875, 8.125, 8.0625, 8.1875, 8.25, 8.25, 8.1875, 8.0625, 8, 8, 8, 8, 8, 8, 8, 8, 8, 8.0625, 8.125, 8.125, 8.125, 8.0625, 8, 8, 8, 8, 8, 8, 8, 8, 8, 8.0625, 8.1875, 8.25, 8.25, 8.25
34.25, 33.875, 33.678574, 33.25, 33.0625, 32.9375, 33.0625, 33.125, 33.1875, 33.25, 33.25, 33.098213, 32.839287, 32.625, 32.25, 32.1875, 32.0625, 32, 31.9375, 31.875, 31.875, 31.875, 31.9375, 31.875, 31.625, 31.25, 30.580357, 30.375, 30.25, 30.375, 30.4375, 30.375, 30.375, 30.1875, 30.1875, 30.1875, 30.0625, 30.125, 30.0625, 30.0625, 30, 29.6875, 29.5625, 29.4375, 29.25, 29.25, 29.125, 28.9375, 29, 28.973213, 28.839287, 28.8125, 28.6875, 28.553572, 28.25, 28.25, 28.0625, 28.0625, 27.9375, 27.6875, 27.5625, 27.375, 27.25, 27.25, 27.1875, 27.125, 27, 26.714287, 26.5625, 26.607143, 26.678572, 26.5625, 26.5, 26.464287, 26.4375, 26.598213, 26.419643, 26.151787, 26.0625, 25.9375, 26, 26, 26, 25.9375, 25.8125, 25.5625, 25.375, 25.1875, 25.0625, 25.0625, 25, 24.75, 24.5, 24.25, 24, 24, 24, 24, 24, 24, 24, 23.9375, 23.8125, 23.625, 23.4375, 23.25, 23.125, 23.0625, 23, 22.9375, 22.875, 22.75, 22.5625, 22.4375, 22.375, 22.3125, 22.25, 22.1875, 22.0625, 22, 21.9375, 21.8125, 21.75, 21.625, 21.5625, 21.4375, 21.3125, 21.142857, 21.044643, 20.666666, 20.446428, 20.25, 20, 19.892857, 19.875, 19.875, 19.9375, 20, 20, 19.8125, 19.5625, 19.3125, 19.0625, 19, 19, 19, 19, 19, 19, 18.9375, 18.9375, 18.9375, 18.75, 18.5625, 18.25, 18, 17.875, 17.75, 17.6875, 17.5625, 17.5, 17.4375, 17.3125, 17.1875, 17.0625, 17, 17, 17, 16.8125, 16.625, 16.5, 16.25, 16.1875, 16.125, 16, 16, 16, 16, 16, 16, 15.75, 15.5, 15.25, 15.125, 15.375, 15.625, 15.875, 16.125, 16.375, 16.625, 16.875, 16.875, 16.875, 16.9375, 17.107143, 17.25, 17.375, 17.5, 17.625, 17.875, 18.125, 18.4375, 18.6875, 18.875, 19, 19.0625, 19.3125, 19.5625, 19.8125, 20, 20, 20.03125, 20.15625, 20.28125, 20.46875, 20.6875, 20.8125, 20.8125, 20.901787, 21.107143, 21.169643, 21.508928, 21.895834, 21.982143, 22.1875, 22.25, 22.4375, 22.6875, 22.875, 23, 23, 23.0625, 23.25, 23.5, 23.75, 23.9375, 24, 24, 24, 24.125, 24.375, 24.625, 24.875, 25, 24.9375, 25.151787, 25.482143, 25.741072, 26, 26.0625, 26.125, 26.375, 26.625, 27, 27.223213, 27.080357, 27.169643, 27.223213, 27.4375, 27.75, 27.9375, 28.125, 28.25, 28.4375, 28.633928, 28.9375, 29, 29.1875, 29.375, 29.625, 29.8125, 29.9375, 29.9375, 30, 30.25, 30.5, 30.6875, 30.8125, 30.625, 30.375, 30.145834, 29.482143, 28.785713, 8, 8, 8, 8, 8, 8, 8, 8, 8, 8, 8, 8, 8, 8, 8, 8, 8.0625, 8.0625, 8.0625, 8.0625, 8.0625, 8.1875, 8.1875, 8.1875, 8.125, 8, 8, 8, 8, 8, 8, 8, 8, 8, 8, 8, 8, 7.9375, 7.9375, 7.9375, 7.9375, 8, 8, 8, 8, 8, 8, 8, 8, 8.0625, 8.125, 8.125, 8.125, 8.0625, 8, 8, -10, -10, -10, -10, -10, -10, -10, -10, -10, -10, -10, -10, -10, -10, -10, -10, -10, -10, -10, -10, -10, -10, -10, -10, -10, 35, 35, 35, 34.9375, 34.9375, 35, 35, 35.0625, 35, 34.875, 34.625, 34.375, 34.1875, 33.875, 33.678574, 33.241074, 32.9375, 32.875, 32.9375, 33.0625, 33.125, 33.125, 33.0625, 32.848213, 32.526787, 32.3125, 32, 32, 31.9375, 31.9375, 31.9375, 31.8125, 31.75, 31.6875, 31.75, 31.75, 31.5625, 31.3125, 30.75, 30.5, 30.375, 30.4375, 30.4375, 30.375, 30.4375, 30.3125, 30.3125, 30.3125, 30.1875, 30.125, 30.125, 30.125, 30, 29.8125, 29.5625, 29.375, 29.1875, 29.125, 29, 28.8125, 28.875, 28.785713, 28.714287, 28.75, 28.5625, 28.428572, 28.125, 28.125, 28, 28.0625, 28, 27.8125, 27.75, 27.625, 27.4375, 27.375, 27.25, 27.125, 27.0625, 26.901787, 26.75, 26.6875, 26.75, 26.625, 26.455357, 26.348213, 26.3125, 26.410713, 26.3125, 26.1875, 26.0625, 25.9375, 25.9375, 25.9375, 25.9375, 25.875, 25.6875, 25.4375, 25.25, 25.125, 25.0625, 25.0625, 25, 24.75, 24.5, 24.25, 24, 24, 23.9375, 23.9375, 23.9375, 23.9375, 23.9375, 23.8125, 23.625, 23.5, 23.3125, 23.1875, 23.125, 23, 23, 22.9375, 22.875, 22.75, 22.5625, 22.5, 22.4375, 22.375, 22.3125, 22.1875, 22.0625, 22, 21.9375, 21.75, 21.625, 21.4375, 21.375, 21.3125, 21.1875, 20.955357, 20.875, 20.6875, 20.5625, 20.5, 20.1875, 20.017857, 19.9375, 19.875, 19.9375, 20, 20, 19.875, 19.625, 19.375, 19.125, 19, 19, 19, 19, 18.9375, 18.875, 18.75, 18.6875, 18.6875, 18.5625, 18.4375, 18.25, 18.0625, 18, 17.9375, 17.875, 17.8125, 17.75, 17.625, 17.4375, 17.25, 17.0625, 17, 17, 16.9375, 16.75, 16.5625, 16.375, 16.1875, 16.125, 16.0625, 16, 16, 15.9375, 15.9375, 15.875, 15.875, 15.6875, 15.4375, 15.25, 15.125, 15.375, 15.625, 15.875, 16.1875, 16.4375, 16.6875, 16.9375, 16.9375, 16.9375, 16.9375, 17, 17.1875, 17.375, 17.625, 17.8125, 18.0625, 18.3125, 18.5625, 18.8125, 18.9375, 19, 19.0625, 19.3125, 19.5625, 19.8125, 20, 20, 20, 20.0625, 20.1875, 20.375, 20.625, 20.8125, 20.8125, 20.901787, 21.107143, 21.232143, 21.5625, 21.75, 21.875, 22, 22.0625, 22.3125, 22.5625, 22.8125, 23, 23, 23.0625, 23.25, 23.5, 23.75, 23.9375, 24.0625, 24.0625, 24.125, 24.3125, 24.5, 24.75, 24.9375, 25, 25.0625, 25.3125, 25.5625, 25.8125, 26.0625, 26.125, 26.1875, 26.4375, 26.6875, 27.169643, 27.410713, 27.330357, 27.392857, 27.375, 27.5625, 27.8125, 28.0625, 28.25, 28.4375, 28.6875, 28.8125, 28.9375, 29, 29.1875, 29.4375, 29.6875, 29.9375, 30, 30, 30.0625, 30.1875, 30.4375, 30.6875, 30.875, 30.75, 30.5, 30.145834, 29.210318, 28.657143, 28.333334, 8, 8, 8, 8, 8, 8, 8, 8, 8, 8, 8, 8, 8, 8, 8, 8, 8, 8, 8, 8.0625, 8.1875, 8.1875, 8.1875, 8.125, 8, 8, 8, 8, 8, 8, 8, 8, 8, 8, 8, 8, 7.9375, 7.9375, 7.875, 7.8125, 7.8125, 7.75, 7.75, 7.8125, 7.875, 7.9375, 8, 8, 8, 8, 8, 8, 7.9375
34.125, 33.875, 33.6875, 33.366074, 32.9375, 32.875, 32.8125, 32.9375, 33.0625, 33.0625, 32.9375, 32.6875, 32.375, 32.125, 31.9375, 31.9375, 31.9375, 31.9375, 31.9375, 31.8125, 31.6875, 31.5625, 31.5625, 31.5, 31.375, 31.1875, 30.75, 30.625, 30.5, 30.625, 30.535713, 30.330357, 30.455357, 30.375, 30.5, 30.5, 30.3125, 30.1875, 30.125, 30.125, 30, 29.875, 29.5625, 29.375, 29.1875, 29.0625, 29, 28.8125, 28.8125, 28.75, 28.6875, 28.5625, 28.339287, 28.25, 28.232143, 28.3125, 28.25, 28.1875, 28.125, 27.9375, 27.9375, 27.875, 27.625, 27.5, 27.25, 27.0625, 27, 26.8125, 26.625, 26.5, 26.5, 26.4375, 26.267857, 26.160713, 26.1875, 26.223213, 26.1875, 26.125, 25.9375, 25.8125, 25.75, 25.75, 25.8125, 25.8125, 25.6875, 25.4375, 25.1875, 25.0625, 25, 25.0625, 25.0625, 24.8125, 24.517857, 24.25, 24, 24.0625, 24, 24, 24, 23.9375, 23.875, 23.6875, 23.5, 23.375, 23.25, 23.1875, 23.125, 23, 23, 23, 23, 22.9375, 22.75, 22.625, 22.4375, 22.25, 22.1875, 22.0625, 22, 22, 21.9375, 21.6875, 21.5, 21.25, 21.1875, 21.1875, 21.0625, 20.892857, 20.8125, 20.625, 20.625, 20.625, 20.3125, 20.205357, 20.0625, 19.9375, 20, 20, 20, 19.9375, 19.678572, 19.3125, 19.125, 18.875, 18.875, 18.8125, 18.75, 18.6875, 18.625, 18.5625, 18.5625, 18.625, 18.5, 18.375, 18.1875, 18, 18, 17.9375, 17.9375, 17.9375, 17.875, 17.75, 17.5, 17.25, 17.0625, 17, 16.9375, 16.8125, 16.625, 16.4375, 16.25, 16.125, 16.0625, 16, 16, 16, 15.9375, 15.9375, 15.875, 15.875, 15.6875, 15.4375, 15.25, 15.0625, 15.25, 15.5, 15.75, 16.1875, 16.5, 16.75, 17, 17, 17, 17, 17.0625, 17.25, 17.5, 17.75, 17.9375, 18.125, 18.3125, 18.5, 18.75, 18.875, 18.9375, 19.0625, 19.3125, 19.5625, 19.8125, 20, 20, 20, 20.0625, 20.25, 20.4375, 20.6875, 20.875, 20.875, 20.964287, 21.169643, 21.357143, 21.625, 21.8125, 21.9375, 22, 22, 22.25, 22.5, 22.75, 23, 23, 23.125, 23.3125, 23.5625, 23.8125, 23.9375, 24.0625, 24.0625, 24.1875, 24.4375, 24.625, 24.875, 25, 25, 25, 25.214287, 25.544643, 25.875, 26.1875, 26.25, 26.25, 26.4375, 26.625, 27.107143, 27.5, 27.5625, 27.6875, 27.6875, 27.75, 27.9375, 28.125, 28.25, 28.5, 28.75, 28.875, 29, 29, 29.25, 29.5, 29.75, 30, 30, 30, 30.0625, 30.1875, 30.4375, 30.6875, 30.875, 30.75, 30.5, 30.0625, 29.074404, 28.592857, 8, 8, 8, 7.9375, 7.875, 7.875, 7.875, 7.9375, 8, 8, 8, 8, 8, 8, 7.9375, 7.9375, 7.875, 7.875, 7.9375, 7.9375, 8, 8.0625, 8.0625, 8.0625, 8.0625, 8, 8, 8, 8, 8, 8, 8, 8, 8, 8, 8, 8, 7.9375, 7.9375, 7.875, 7.75, 7.6875, 7.5625, 7.5, 7.5625, 7.625, 7.75, 7.8125, 7.8125, 7.875, 7.875, 7.9375, 8, 7.875, 7.75, 7.666667, -10, -10, -10, -10, -10, -10, -10, -10, -10, -10, -10, -10, -10, -10, -10, -10, -10, -10, -10, -10, -10, -10, -10, -10, -10, 35.125, 35.166664, 35.25, 35.232143, 35.112499, 35.169643, 35, 35, 34.75, 34.5625, 34.25, 34, 33.9375, 33.75, 33.625, 33.366074, 32.875, 32.8125, 32.75, 32.875, 33, 32.9375, 32.8125, 32.5625, 32.3125, 32.125, 32, 32, 32, 32, 31.875, 31.75, 31.625, 31.4375, 31.4375, 31.375, 31.25, 31.1875, 31, 30.8125, 30.6875, 30.767857, 30.735714, 30.401785, 30.464285, 30.375, 30.5625, 30.625, 30.5, 30.3125, 30.1875, 30.125, 29.9375, 29.8125, 29.5, 29.375, 29.25, 29.125, 29.0625, 28.8125, 28.8125, 28.75, 28.6875, 28.5, 28.214287, 28.1875, 28.232143, 28.3125, 28.3125, 28.1875, 28.0625, 27.9375, 27.9375, 27.9375, 27.75, 27.625, 27.375, 27.125, 26.9375, 26.75, 26.5625, 26.4375, 26.5, 26.4375, 26.267857, 26.098213, 26.0625, 26.098213, 26.0625, 26.0625, 25.9375, 25.8125, 25.75, 25.6875, 25.6875, 25.625, 25.4375, 25.25, 25.0625, 25, 25, 25.0625, 25.0625, 24.875, 24.580357, 24.3125, 24.0625, 24.0625, 24, 24, 24.0625, 24, 23.9375, 23.6875, 23.4375, 23.3125, 23.1875, 23.1875, 23.125, 23, 23, 23, 23, 23, 22.8125, 22.6875, 22.4375, 22.1875, 22.125, 22, 22, 22, 22, 21.8125, 21.5625, 21.3125, 21.1875, 21.125, 21.0625, 20.892857, 20.75, 20.625, 20.6875, 20.75, 20.5625, 20.330357, 20.125, 19.9375, 19.9375, 20, 20, 20, 19.803572, 19.4375, 19.25, 18.875, 18.625, 18.5625, 18.4375, 18.4375, 18.375, 18.3125, 18.3125, 18.375, 18.3125, 18.25, 18.125, 18, 17.9375, 17.9375, 17.9375, 17.9375, 17.9375, 17.6875, 17.4375, 17.1875, 17, 17, 16.875, 16.75, 16.5625, 16.3125, 16.1875, 16.0625, 16, 16.0625, 16.035713, 15.964286, 15.875, 15.8125, 15.8125, 15.8125, 15.6875, 15.4375, 15.25, 15, 15.15625, 15.375, 15.625, 16.125, 16.46875, 16.75, 17, 17, 17, 17, 17.0625, 17.25, 17.4375, 17.6875, 17.875, 18.0625, 18.25, 18.4375, 18.625, 18.75, 18.875, 19.0625, 19.375, 19.625, 19.875, 20, 20, 20, 20, 20.25, 20.5, 20.6875, 20.9375, 20.9375, 20.9375, 21.125, 21.375, 21.625, 21.875, 22, 22, 22, 22.1875, 22.4375, 22.6875, 22.9375, 23.0625, 23.25, 23.5, 23.75, 23.9375, 24, 24.0625, 24.0625, 24.1875, 24.375, 24.5625, 24.8125, 24.9375, 25, 25.0625, 25.276787, 25.607143, 25.9375, 26.25, 26.375, 26.4375, 26.625, 26.75, 27.107143, 27.4375, 27.441963, 27.53125, 27.709822, 27.772322, 28, 28.125, 28.25, 28.4375, 28.625, 28.6875, 28.8125, 28.875, 29.125, 29.375, 29.5625, 29.75, 29.75, 29.8125, 30, 30.294643, 30.5625, 30.8125, 30.9375, 30.75, 30.5, 30, 28.8125, 28.414286, 8, 8, 8, 7.875, 7.75, 7.6875, 7.6875, 7.8125, 7.9375, 8, 8, 8, 8, 8, 7.9375, 7.9375, 7.875, 7.875, 7.9375, 7.9375, 8, 8, 7.9375, 7.9375, 7.9375, 7.9375, 8, 8, 7.9375, 7.9375, 7.875, 7.8125, 7.875, 7.875, 7.9375, 8, 8, 7.9375, 7.9375, 7.875, 7.75, 7.6875, 7.5625, 7.5, 7.5625, 7.625, 7.6875, 7.6875, 7.6875, 7.75, 7.8125, 7.9375, 8, 7.875
33.8125, 33.6875, 33.5625, 33.491074, 32.973213, 32.767857, 32.705357, 32.6875, 32.75, 32.6875, 32.5, 32.3125, 32.1875, 32, 31.8125, 31.714287, 31.6875, 31.6875, 31.75, 31.75, 31.6875, 31.5, 31.375, 31.25, 31.125, 31.196428, 31.3125, 31.1875, 31.125, 30.955357, 30.923214, 30.464285, 30.464285, 30.4375, 30.625, 30.6875, 30.625, 30.375, 30.1875, 30.0625, 29.875, 29.8125, 29.5, 29.4375, 29.375, 29.25, 29.1875, 29, 28.9375, 28.8125, 28.75, 28.5, 28.214287, 28.1875, 28.232143, 28.3125, 28.3125, 28.125, 27.9375, 27.875, 27.875, 27.9375, 27.8125, 27.6875, 27.4375, 27.1875, 27, 26.6875, 26.4375, 26.25, 26.3125, 26.375, 26.330357, 26.258928, 26.125, 26.0625, 26.0625, 26.125, 26.125, 26.0625, 25.9375, 25.75, 25.580357, 25.4375, 25.25, 25.1875, 25.0625, 25.0625, 25.0625, 25.0625, 25.0625, 24.9375, 24.705357, 24.4375, 24.1875, 24.125, 24, 24, 24.125, 24.0625, 23.9375, 23.642857, 23.4375, 23.25, 23.1875, 23.1875, 23.0625, 23, 23, 23, 22.9375, 22.875, 22.625, 22.4375, 22.25, 22.0625, 22.0625, 22, 22, 22, 22, 21.875, 21.625, 21.375, 21.25, 21.125, 21.125, 21.0625, 20.875, 20.8125, 20.8125, 20.8125, 20.6875, 20.5, 20.25, 20.0625, 20, 20, 20, 20, 19.866072, 19.5, 19.3125, 18.9375, 18.625, 18.5625, 18.4375, 18.4375, 18.375, 18.3125, 18.25, 18.25, 18.1875, 18.125, 18.0625, 18, 17.875, 17.8125, 17.75, 17.75, 17.8125, 17.6875, 17.5, 17.25, 17.0625, 17, 16.875, 16.75, 16.5625, 16.3125, 16.1875, 16.0625, 16, 16.0625, 16.035713, 15.964286, 15.875, 15.8125, 15.8125, 15.8125, 15.75, 15.5, 15.3125, 15.0625, 15.09375, 15.25, 15.5, 16, 16.450893, 16.75, 17, 17, 17, 17, 17.0625, 17.1875, 17.3125, 17.5, 17.6875, 17.875, 18.125, 18.3125, 18.4375, 18.5625, 18.625, 18.8125, 19.125, 19.4375, 19.75, 19.9375, 20, 20, 20, 20.25, 20.5, 20.625, 20.8125, 20.8125, 20.8125, 21, 21.3125, 21.5625, 21.8125, 22, 22, 22, 22.125, 22.375, 22.625, 22.875, 23.125, 23.375, 23.625, 23.875, 24, 24, 24.0625, 24.0625, 24.1875, 24.3125, 24.5, 24.75, 24.875, 25, 25.125, 25.339287, 25.669643, 26, 26.25, 26.375, 26.5, 26.6875, 26.8125, 27.107143, 27.375, 27.348213, 27.4375, 27.678572, 27.741072, 28, 28.0625, 28.125, 28.25, 28.375, 28.5, 28.6875, 28.8125, 29.0625, 29.25, 29.375, 29.5, 29.5625, 29.6875, 29.9375, 30.294643, 30.5625, 30.8125, 30.9375, 30.75, 30.5, 30, 28.8125, 28.485714, 28.333332, 8, 7.9166665, 7.75, 7.5625, 7.4375, 7.5, 7.6875, 7.8125, 7.875, 7.8125, 7.8125, 7.875, 7.9375, 7.9375, 7.9375, 7.875, 7.875, 7.9375, 7.9375, 8, 7.9375, 7.8125, 7.8125, 7.8125, 7.875, 7.9375, 7.875, 7.8125, 7.75, 7.6875, 7.625, 7.6875, 7.75, 7.875, 8, 8, 8, 8, 7.9375, 7.8125, 7.6875, 7.5625, 7.5, 7.5625, 7.5625, 7.5625, 7.5, 7.5, 7.5625, 7.625, 7.8125, 7.875, 7.8125, 7.75, 7.666667, -10, -10, -10, -10, -10, -10, -10, -10, -10, -10, -10, -10, -10, -10, -10, -10, -10, -10, -10, -10, -10, -10, -10, -10, -10, 34.875, 35, 35.125, 35.294643, 35.237499, 35.357143, 35.21875, 35.15625, 34.90625, 34.59375, 34.25, 33.9375, 33.8125, 33.625, 33.4375, 33.4375, 33.160713, 33.125, 33.125, 32.854168, 32.75, 32.5625, 32.375, 32.1875, 32.125, 31.9375, 31.6875, 31.589287, 31.5625, 31.625, 31.75, 31.8125, 31.8125, 31.6875, 31.5, 31.25, 31.0625, 31.071428, 31.3125, 31.3125, 31.25, 31.080357, 30.985714, 30.464285, 30.401785, 30.3125, 30.4375, 30.5, 30.4375, 30.25, 30.0625, 29.875, 29.6875, 29.625, 29.4375, 29.4375, 29.5, 29.4375, 29.375, 29.25, 29.125, 28.9375, 28.8125, 28.5, 28.214287, 28.1875, 28.232143, 28.3125, 28.3125, 28.125, 27.9375, 27.875, 27.875, 27.9375, 27.8125, 27.6875, 27.375, 27.125, 26.9375, 26.625, 26.5, 26.25, 26.25, 26.3125, 26.3125, 26.3125, 26.1875, 26.0625, 26.0625, 26.125, 26.125, 26.125, 26, 25.75, 25.517857, 25.3125, 25.125, 25.125, 25.0625, 25.0625, 25.0625, 25.0625, 25.0625, 25, 24.830357, 24.5625, 24.3125, 24.1875, 24.0625, 24.0625, 24.1875, 24.125, 23.9375, 23.642857, 23.5, 23.25, 23.1875, 23.1875, 23, 23, 23, 23, 22.9375, 22.8125, 22.5625, 22.3125, 22.1875, 22.0625, 22.0625, 22.0625, 22, 22, 22, 21.9375, 21.75, 21.5, 21.375, 21.1875, 21.125, 21.125, 20.9375, 20.875, 20.875, 20.75, 20.625, 20.4375, 20.1875, 20.0625, 20, 20, 20, 20, 19.928572, 19.5625, 19.375, 19, 18.625, 18.5625, 18.4375, 18.5, 18.5, 18.4375, 18.375, 18.3125, 18.1875, 18.125, 18.0625, 18, 17.875, 17.75, 17.625, 17.625, 17.6875, 17.625, 17.5, 17.25, 17.0625, 17, 16.875, 16.8125, 16.625, 16.4375, 16.375, 16.25, 16.1875, 16.1875, 16.098213, 15.964286, 15.9375, 15.875, 15.9375, 15.875, 15.8125, 15.5625, 15.3125, 15.125, 15.09375, 15.21875, 15.46875, 15.90625, 16.357143, 16.6875, 16.9375, 17, 17, 17, 17.0625, 17.125, 17.1875, 17.375, 17.5625, 17.75, 18, 18.125, 18.1875, 18.3125, 18.375, 18.625, 18.9375, 19.3125, 19.6875, 19.875, 20, 20, 20, 20.25, 20.5, 20.625, 20.8125, 20.8125, 20.8125, 21, 21.25, 21.5, 21.75, 22, 22.125, 22.125, 22.25, 22.4375, 22.625, 22.875, 23.125, 23.3125, 23.5, 23.75, 23.875, 23.9375, 24, 24, 24.0625, 24.125, 24.375, 24.625, 24.8125, 25, 25.125, 25.339287, 25.669643, 26, 26.1875, 26.3125, 26.5, 26.6875, 26.8125, 27, 27.1875, 27.160713, 27.25, 27.553572, 27.678572, 27.9375, 28, 28, 28.0625, 28.1875, 28.375, 28.625, 28.8125, 29, 29.125, 29.1875, 29.3125, 29.4375, 29.625, 29.9375, 30.294643, 30.5, 30.75, 30.9375, 30.8125, 30.517857, 30, 29.020832, 28.698215, 28.555555, 7.875, 7.833333, 7.625, 7.375, 7.25, 7.25, 7.4375, 7.5625, 7.625, 7.5625, 7.5625, 7.625, 7.6875, 7.6875, 7.75, 7.75, 7.8125, 7.875, 7.8125, 7.875, 7.8125, 7.75, 7.75, 7.6875, 7.6875, 7.6875, 7.625, 7.5625, 7.5, 7.4375, 7.375, 7.4375, 7.5, 7.625, 7.75, 7.75, 7.8125, 7.8125, 7.875, 7.8125, 7.6875, 7.625, 7.5625, 7.625, 7.5625, 7.5, 7.3125, 7.3125, 7.375, 7.4375, 7.625, 7.625, 7.625
33.8125, 33.5625, 33.375, 33.375, 33.160713, 33.1875, 33.25, 33.041668, 32.875, 32.625, 32.330357, 32.1875, 32.1875, 32.125, 31.875, 31.714287, 31.625, 31.625, 31.75, 31.8125, 31.875, 31.8125, 31.625, 31.375, 31.125, 31.071428, 31.3125, 31.3125, 31.1875, 30.892857, 30.762501, 30.383928, 30.321428, 30.25, 30.3125, 30.3125, 30.3125, 30.1875, 30.0625, 29.875, 29.6875, 29.625, 29.4375, 29.375, 29.4375, 29.375, 29.3125, 29.25, 29.125, 28.875, 28.75, 28.5, 28.25, 28.1875, 28.125, 28.125, 28.1875, 28.0625, 27.9375, 27.9375, 27.875, 27.9375, 27.875, 27.8125, 27.5625, 27.3125, 27.125, 26.8125, 26.6875, 26.5, 26.5, 26.5625, 26.5625, 26.5, 26.3125, 26.125, 26.0625, 26.125, 26.1875, 26.25, 26.1875, 25.875, 25.517857, 25.3125, 25.125, 25.25, 25.25, 25.25, 25.1875, 25.0625, 25.0625, 25, 24.9375, 24.75, 24.5, 24.25, 24.125, 24.0625, 24.1875, 24.1875, 23.9375, 23.705357, 23.5625, 23.3125, 23.25, 23.1875, 23, 23, 23, 22.9375, 22.8125, 22.625, 22.4375, 22.25, 22.25, 22.1875, 22.125, 22.125, 21.9375, 21.9375, 21.9375, 21.9375, 21.8125, 21.5625, 21.4375, 21.1875, 21.125, 21.125, 20.9375, 20.9375, 20.9375, 20.8125, 20.75, 20.5, 20.25, 20.125, 20, 20, 20, 20, 19.9375, 19.6875, 19.4375, 19.125, 18.75, 18.75, 18.6875, 18.75, 18.75, 18.5625, 18.375, 18.1875, 18, 18, 18, 18, 17.8125, 17.6875, 17.5625, 17.5625, 17.75, 17.75, 17.625, 17.375, 17.125, 17, 16.9375, 16.9375, 16.75, 16.625, 16.5625, 16.375, 16.3125, 16.25, 16.098213, 15.964286, 15.9375, 15.875, 15.9375, 15.875, 15.875, 15.625, 15.375, 15.1875, 15.165178, 15.40625, 15.59375, 15.96875, 16.294643, 16.625, 16.875, 17, 17, 17, 17, 17, 17.0625, 17.25, 17.5, 17.75, 18, 18.125, 18.1875, 18.3125, 18.3125, 18.5625, 18.8125, 19.1875, 19.625, 19.8125, 20, 20, 20, 20.1875, 20.375, 20.5, 20.6875, 20.75, 20.8125, 21, 21.1875, 21.4375, 21.6875, 22, 22.1875, 22.1875, 22.25, 22.3125, 22.4375, 22.6875, 23, 23.1875, 23.375, 23.625, 23.75, 23.875, 24, 24, 24, 24.0625, 24.3125, 24.5625, 24.8125, 25, 25.25, 25.5, 25.75, 26, 26.0625, 26.1875, 26.4375, 26.6875, 26.875, 27, 27.0625, 27.035713, 27.0625, 27.428572, 27.616072, 27.875, 28, 28, 28, 28.125, 28.3125, 28.5625, 28.8125, 28.9375, 29, 29, 29.125, 29.3125, 29.5625, 30, 30.357143, 30.5625, 30.8125, 31, 30.910713, 30.535713, 30.035713, 29.260416, 28.973213, 28.555555, 7.625, 7.645833, 7.5, 7.3125, 7.1875, 7.125, 7.25, 7.3125, 7.375, 7.3125, 7.3125, 7.375, 7.4375, 7.5, 7.625, 7.75, 7.8125, 7.8125, 7.6875, 7.6875, 7.625, 7.5625, 7.5625, 7.4375, 7.4375, 7.4375, 7.375, 7.3125, 7.25, 7.1875, 7.1875, 7.25, 7.3125, 7.4375, 7.5, 7.5, 7.5625, 7.5625, 7.625, 7.625, 7.5625, 7.625, 7.6875, 7.75, 7.6875, 7.5, 7.25, 7.25, 7.25, 7.3125, 7.4375, 7.375, 7.4375, 7.625, 7.666667, -10, -10, -10, -10, -10, -10, -10, -10, -10, -10, -10, -10, -10, -10, -10, -10, -10, -10, -10, -10, -10, -10, -10, -10, -10, 34.25, 34.533333, 35.125, 35.336311, 35.291668, 35.25, 35.09375, 34.96875, 34.90625, 34.59375, 34.375, 34.1875, 33.9375, 33.6875, 33.4375, 33.375, 33.223213, 33.25, 33.3125, 33.104168, 32.9375, 32.6875, 32.392857, 32.3125, 32.3125, 32.3125, 32.0625, 31.839287, 31.6875, 31.625, 31.8125, 31.875, 32, 32, 31.75, 31.455357, 31.1875, 31.133928, 31.4375, 31.5, 31.375, 30.892857, 30.6875, 30.4375, 30.375, 30.3125, 30.25, 30.125, 30.0625, 30, 29.9375, 29.8125, 29.75, 29.6875, 29.5, 29.375, 29.375, 29.375, 29.3125, 29.3125, 29.1875, 28.875, 28.678572, 28.3125, 28.125, 28, 28, 28, 28.125, 28.0625, 28, 28, 27.875, 27.9375, 27.875, 27.8125, 27.5625, 27.3125, 27.1875, 26.875, 26.8125, 26.6875, 26.6875, 26.8125, 26.75, 26.6875, 26.4375, 26.1875, 26.125, 26.125, 26.1875, 26.25, 26.125, 25.8125, 25.517857, 25.375, 25.3125, 25.4375, 25.375, 25.3125, 25.1875, 25.0625, 25.0625, 25, 25, 24.875, 24.6875, 24.4375, 24.25, 24.125, 24.125, 24.1875, 23.910713, 23.669643, 23.6875, 23.375, 23.375, 23.25, 23, 23, 22.9375, 22.8125, 22.625, 22.375, 22.3125, 22.1875, 22.3125, 22.3125, 22.1875, 22.1875, 21.9375, 21.9375, 21.9375, 21.9375, 21.8125, 21.5625, 21.4375, 21.1875, 21.125, 21.125, 21, 21, 21, 20.875, 20.6875, 20.4375, 20.1875, 20.0625, 20, 20, 20, 20, 19.875, 19.625, 19.375, 19.125, 19, 19, 19, 19, 19, 18.875, 18.660713, 18.330357, 18.071428, 18, 18, 17.9375, 17.75, 17.5625, 17.375, 17.375, 17.5, 17.625, 17.625, 17.5, 17.3125, 17.125, 17.0625, 17, 16.8125, 16.75, 16.6875, 16.5, 16.4375, 16.25, 16.0625, 15.9375, 15.9375, 15.9375, 15.9375, 15.875, 15.8125, 15.5625, 15.3125, 15.1875, 15.196428, 15.46875, 15.65625, 16.03125, 16.325893, 16.625, 16.875, 17, 17, 17, 17, 17, 17.125, 17.3125, 17.5625, 17.8125, 18, 18.0625, 18.1875, 18.3125, 18.3125, 18.5625, 18.6875, 19.0625, 19.5, 19.75, 19.9375, 19.875, 19.875, 20, 20.1875, 20.4375, 20.625, 20.75, 20.875, 20.9375, 21.0625, 21.25, 21.5, 21.875, 22.125, 22.1875, 22.25, 22.25, 22.3125, 22.5625, 22.8125, 23, 23.25, 23.5, 23.6875, 23.875, 24, 24, 24, 24.125, 24.375, 24.625, 24.875, 25, 25.125, 25.339287, 25.669643, 25.928572, 26, 26.125, 26.375, 26.625, 26.875, 27, 27, 27, 27.0625, 27.25, 27.5, 27.75, 27.9375, 28, 28, 28.1875, 28.4375, 28.75, 29, 29.0625, 29.125, 29.125, 29.3125, 29.5625, 29.75, 30.0625, 30.3125, 30.5, 30.75, 31.0625, 31.008928, 30.553572, 30.071428, 29.5, 29.183037, 7, 7.25, 7.3124995, 7.25, 7.1875, 7.125, 7.0625, 7.125, 7.125, 7.125, 7.0625, 7.0625, 7.125, 7.1875, 7.25, 7.4375, 7.5625, 7.625, 7.625, 7.4375, 7.4375, 7.375, 7.375, 7.375, 7.25, 7.25, 7.1875, 7.125, 7.125, 7.0625, 7.125, 7.25, 7.25, 7.3125, 7.3125, 7.25, 7.25, 7.3125, 7.3125, 7.375, 7.4375, 7.4375, 7.5, 7.625, 7.625, 7.5, 7.375, 7.125, 7.125, 7.125, 7.125, 7.1875, 7.125, 7.1875
