-10, -10, -10, -10, -10, -10, -10, -10, -10, -10, -10, -10, -10, -10, -10, -10, 31.125, 31.083334, 31.0625, 31, 31, 30.9375, 30.8125, 30.5625, 30.3125, 30.125, 29.8125, 29.625, 29.5, 29.3125, 29.25, 29.0625, 28.705357, 28.4375, 28.1875, 28, 27.75, 27.5625, 27.3125, 27, 26.642857, 26.4375, 26.25, 26.0625, 26, 25.875, 25.78125, 25.65625, 25.46875, 25.28125, 24.9375, 24.625, 24.375, 24.125, 24, 23.9375, 23.9375, 23.75, 23.5, 23.3125, 23.0625, 22.875, 22.625, 22.4375, 22.1875, 22.0625, 22.0625, 21.875, 21.6875, 21.357143, 20.848213, 20.508928, 20.3125, 20.1875, 20.0625, 20.0625, 20, 19.875, 19.625, 19.375, 19.0625, 18.9375, 18.8125, 18.678572, 18.458334, 18.263393, 17.885416, 17.665178, 17.375, 17.1875, 17.0625, 17, 16.875, 16.625, 16.375, 16.125, 16, 15.9375, 15.75, 15.5, 15.25, 15.0625, 15, 14.75, 14.5, 14.080357, 13.875, 13.6875, 13.4375, 13.3125, 13.0625, 13, 12.875, 12.625, 12.375, 12.125, 12, 12, 12, 12, 12, 12, 12, 12, 12, 12, 11.8125, 11.8125, 11.8125, 11.8125, 12, 12, 12, 12, 12, 11.875, 11.8125, 11.8125, 11.8125, 11.9375, 12.0625, 12, 11.9375, 11.9375, 11.875, 12, 12.0625, 11.9375, 11.875, 11.8125, 11.8125, 11.9375, 11.9375, 11.8125, 11.6875, 11.5625, 11.5, 11.4375, 11.5, 11.6875, 11.848214, 12, 12.0625, 11.9375, 11.875, 11.875, 11.875, 11.9375, 12, 12, 11.9375, 11.9375, 11.875, 11.8125, 11.8125, 11.934524, 12.288888, -10, -10, -10, -10, -10, -10, -10, -10, -10, -10, -10, -10, -10, 26.222221, 26.754166, 27.035715, 27.4375, 27.78125, 28.25, 28.864584, 29.433037, 30.205782, 31.230656, 31.75, 32.607143, 33.622025, 34.348213, 34.991074, 35.666664, 36.824409, 37.60714, 38.169643, 38.6875, 39.232143, 39.82143, 40.666668, 41.25, 41.455357, 40.776783, 40.291069, 40.580357, 40.424107, 40.8125, 40.9375, 41.035713, 41.3125, 41.34375, 41.3125, 41.3125, 41.366074, 41.854168, 42.017857, 41.674107, 39.658726, 38.82143, 38.327381, 38.083336, 38.020409, 38.138393, 37.995537, 37.90625, 37.625, 37.5, 37.375, 37.3125, 37.375, 37.553574, 37.729168, 37.78125, 37.84375, 37.90625, 38.03125, 37.955357, 37.821426, 37.5051, 37.753399, 38.645832, 38.857143, 38.77232, 38.5625, 38.267857, 38.1875, 38.375, 38.598213, 38.875, 38.872448, 38.721092, 38.761906, 38.891155, 39.142857, 39.2551, 39.330357, 39.455357, 39.4375, 39.4375, 39.5, 39.5, 39.491074, 39.285713, 39.029167, 39.178574, 39.241074, 39.4375, 39.375, 39.3125, 39.25, 39.229168, 39.083332, 39.083332, 39.166668, 39.111111, 38.732143, 38.25, -10, -10, -10, -10, -10, -10, -10, -10, -10, -10, -10, -10, -10, -10, -10, -10, -10, -10, -10, -10, -10, -10, -10, -10, -10, -10, -10, -10, -10, -10, -10, -10, -10, -10, -10, -10, -10, -10, -10, -10, -10, -10, -10, -10, -10, -10, -10, -10, -10, -10, -10, -10, -10, -10, -10, -10, -10, -10, -10, -10, -10, -10, -10, -10, -10, -10, -10, -10, -10, -10, -10, -10, -10, -10, -10, -10, -10, -10, -10, -10, -10, -10, -10, -10, -10, -10, -10, -10, -10, -10, -10, -10, -10, -10, -10, -10, -10, -10, -10, -10, -10, -10, 31, 31, 31, 31, 30.9375, 30.8125, 30.625, 30.375, 30.1875, 30.0625, 29.8125, 29.5625, 29.375, 29.1875, 29.125, 29.0625, 28.767857, 28.5, 28.25, 28.0625, 27.8125, 27.625, 27.375, 27, 26.705357, 26.5625, 26.375, 26.25, 26.1875, 26, 25.9375, 25.75, 25.5, 25.3125, 24.9375, 24.625, 24.375, 24.125, 24, 23.9375, 23.9375, 23.75, 23.5, 23.3125, 23.0625, 22.875, 22.625, 22.4375, 22.1875, 22, 21.9375, 21.75, 21.625, 21.357143, 20.910713, 20.571428, 20.3125, 20.1875, 20.0625, 20.0625, 20, 19.875, 19.625, 19.375, 19.125, 19, 18.875, 18.741072, 18.395834, 18.138393, 17.697916, 17.477678, 17.25, 17.125, 17.0625, 17, 16.875, 16.625, 16.375, 16.125, 16, 15.875, 15.6875, 15.4375, 15.1875, 15.0625, 15, 14.75, 14.4375, 14.017857, 13.8125, 13.625, 13.4375, 13.3125, 13.0625, 13, 12.875, 12.625, 12.375, 12.125, 12, 12, 12, 12, 12, 12, 12, 12, 12, 12, 11.8125, 11.8125, 11.8125, 11.8125, 12, 12, 12, 12, 12, 11.9375, 11.875, 11.875, 11.875, 11.9375, 12.0625, 12, 11.9375, 11.9375, 11.875, 12.0625, 12.125, 11.9375, 11.767857, 11.625, 11.625, 11.8125, 11.8125, 11.6875, 11.5, 11.3125, 11.25, 11.3125, 11.348214, 11.541667, 11.869047, 11.75, 11.955357, 11.8125, 11.8125, 11.875, 11.875, 11.9375, 12, 12, 11.9375, 11.9375, 11.8125, 11.75, 11.6875, 11.839286, 12.216666, -10, -10, -10, -10, -10, -10, -10, -10, -10, -10, -10, -10, -10, 26.680271, 27.254166, 27.410715, 27.767857, 28.208334, 28.647322, 29.208334, 29.758928, 31.061224, 31.636906, 32.14286, 32.857143, 33.943455, 34.598213, 35.196426, 35.85714, 36.782738, 37.48214, 38.044643, 38.5625, 39.044643, 39.469387, 40.238098, 40.714287, 40.945576, 40.276783, 39.907143, 40.151787, 39.924107, 40.28125, 40.46875, 40.598213, 40.875, 40.875, 40.8125, 40.883926, 41.220238, 41.800598, 42.080357, 41.79018, 40.888889, 40.32143, 39.511906, 37.8125, 37.477676, 37.34375, 37.40625, 37.086735, 36.726192, 36.510204, 36.403061, 36.44286, 36.377552, 36.632656, 36.916668, 37.09375, 37.15625, 37.21875, 37.34375, 37.205357, 37.071426, 36.90625, 37.013393, 37.273808, 37.448978, 37.515308, 37.357143, 37.486607, 37.285713, 37.6875, 37.910713, 38.0625, 38.107143, 37.854168, 37.979168, 38.145832, 38.5, 38.723213, 38.705357, 38.955357, 38.9375, 39.071426, 39.262501, 39.133926, 39.19643, 38.910713, 38.716667, 38.928574, 38.991074, 39.1875, 39.125, 38.9375, 38.705357, 38.6875, 38.6875, 38.8125, 38.9375, 38.895832, 38.57143, 38.166668, 38.125, 38, 37.982143, 37.666664, -10, -10, -10, -10, -10, -10, -10, -10, -10, -10, -10, -10, -10, -10, -10, -10, -10, -10, -10, -10, -10, -10, -10, -10, -10, -10, -10, -10, -10
-10, -10, -10, -10, -10, -10, -10, -10, -10, -10, -10, -10, -10, -10, -10, -10, 31.25, 31.166666, 31.125, 31, 30.8125, 30.625, 30.375, 30.1875, 30.0625, 30, 29.8125, 29.5625, 29.3125, 29.0625, 29, 29, 28.8125, 28.5625, 28.3125, 28.0625, 27.875, 27.625, 27.375, 27.0625, 26.8125, 26.75, 26.5625, 26.375, 26.25, 26, 25.9375, 25.75, 25.5, 25.3125, 24.9375, 24.625, 24.375, 24.125, 24, 23.9375, 23.9375, 23.8125, 23.5625, 23.375, 23.125, 22.9375, 22.6875, 22.4375, 22.1875, 21.9375, 21.8125, 21.6875, 21.5, 21.3125, 21.142857, 20.857143, 20.479166, 20.258928, 20.0625, 20.0625, 20, 19.8125, 19.5625, 19.3125, 19.0625, 19, 18.8125, 18.553572, 18.083334, 17.71875, 17.40625, 17.21875, 17.0625, 17, 17, 17, 16.875, 16.625, 16.375, 16.125, 16, 15.875, 15.75, 15.5, 15.25, 15.125, 14.9375, 14.6875, 14.4375, 14.125, 13.9375, 13.8125, 13.5625, 13.375, 13.125, 13, 12.9375, 12.6875, 12.4375, 12.1875, 12, 12, 12, 12, 12.0625, 12.0625, 12.0625, 12.0625, 12, 12, 11.875, 11.875, 11.875, 11.875, 12, 12, 12.0625, 12.0625, 12.0625, 12.0625, 11.9375, 11.9375, 11.9375, 11.9375, 12.0625, 12, 11.9375, 11.9375, 11.875, 11.9375, 12, 11.8125, 11.705357, 11.6875, 11.6875, 11.875, 11.8125, 11.75, 11.535714, 11.205357, 11.071428, 11.0625, 11.035714, 11.229167, 11.556547, 11.4375, 11.705357, 11.625, 11.6875, 11.75, 11.75, 11.8125, 11.875, 11.875, 11.875, 11.875, 11.660714, 11.526786, 11.4375, 11.526786, 12.133333, -10, -10, -10, -10, -10, -10, -10, -10, -10, -10, 32, 31.700001, 30.785713, 28.642859, 28.064623, 27.919643, 28.142857, 28.583334, 29.313988, 29.696428, 30.196428, 31.571428, 32.303574, 32.839287, 33.544643, 34.568455, 35.013393, 35.361607, 35.83482, 36.510418, 37.05357, 37.854168, 38.455357, 38.964287, 39.419643, 39.880955, 39.111111, 39.146824, 39.234692, 39.444641, 39.5, 39.642857, 39.875, 40.125, 40.285713, 40.5, 40.4375, 40.339287, 40.625, 41.175594, 41.979168, 42.330357, 42.454082, 41.857143, 41.377556, 40.545921, 37.916668, 37.30357, 36.958332, 36.46875, 36.325893, 36.041668, 35.883926, 35.758926, 35.825001, 35.767857, 35.991074, 36.229168, 36.4375, 36.5, 36.633926, 36.825001, 36.526787, 36.455357, 36.28125, 36.352676, 36.297619, 36.316326, 36.285713, 36.214287, 36.486607, 36.6875, 36.973213, 37.160713, 37.3125, 37.3125, 37.3125, 37.5625, 37.669643, 37.9375, 38.1875, 38.25, 38.4375, 38.375, 38.383926, 38.575001, 38.446426, 38.44643, 38.241074, 38.297619, 38.357143, 38.5, 38.645832, 38.625, 38.4375, 37.872025, 37.758926, 37.75, 38.214287, 38.133926, 38.395832, 38.357143, 38.125, 38.083332, 38, 37.904762, 37.694443, 37.5, 37.589287, 37.75, 37.958336, -10, -10, -10, -10, -10, -10, -10, -10, -10, -10, -10, -10, -10, -10, -10, -10, -10, -10, -10, -10, -10, -10, -10, -10, -10, -10, -10, -10, -10, -10, -10, -10, -10, -10, -10, -10, -10, -10, -10, -10, -10, -10, -10, -10, -10, -10, -10, -10, -10, -10, -10, -10, -10, -10, -10, -10, -10, -10, -10, -10, -10, -10, -10, -10, -10, -10, -10, -10, -10, -10, -10, -10, -10, -10, -10, -10, -10, -10, -10, -10, -10, -10, -10, -10, -10, -10, -10, -10, -10, -10, -10, -10, -10, -10, 31.125, 31, 30.9375, 30.75, 30.625, 30.4375, 30.25, 30.125, 30, 30, 29.75, 29.5, 29.25, 29, 29, 29, 28.875, 28.625, 28.375, 28.125, 27.875, 27.625, 27.375, 27.125, 26.9375, 26.9375, 26.6875, 26.4375, 26.25, 26.0625, 26.125, 25.919643, 25.541666, 25.258928, 24.875, 24.625, 24.375, 24.125, 24, 24, 24, 23.875, 23.6875, 23.4375, 23.1875, 22.9375, 22.625, 22.375, 22.125, 21.9375, 21.8125, 21.625, 21.4375, 21.375, 21.375, 21.151787, 20.666666, 20.383928, 20.0625, 20.0625, 20, 19.8125, 19.5625, 19.3125, 19.0625, 19, 18.75, 18.5, 18.1875, 17.75, 17.5, 17.25, 17.0625, 17, 17, 17, 16.8125, 16.5625, 16.3125, 16.0625, 16, 15.875, 15.75, 15.4375, 15.080357, 15, 14.75, 14.5625, 14.375, 14.125, 14, 13.875, 13.625, 13.375, 13.125, 13, 13, 12.75, 12.5, 12.25, 12, 12, 11.9375, 11.875, 11.9375, 12, 12.098214, 12.125, 12.0625, 12, 11.9375, 11.9375, 11.9375, 11.9375, 12, 12, 12.125, 12.125, 12.125, 12.125, 11.9375, 11.9375, 11.9375, 11.9375, 12.0625, 12.0625, 12.0625, 12.0625, 12, 11.9375, 11.875, 11.75, 11.642857, 11.6875, 11.75, 11.875, 11.875, 11.9375, 11.767858, 11.226191, 11.071428, 11, 10.973214, 11.166667, 11.431547, 11.25, 11.455357, 11.3125, 11.401786, 11.607143, 11.607143, 11.6875, 11.6875, 11.6875, 11.75, 11.8125, 11.660714, 11.495536, 11.34375, 11.339286, 12.066667, -10, -10, -10, -10, -10, -10, -10, -10, -10, -10, 32, 31.800001, 31.047617, 29.336735, 28.887756, 28.544643, 28.767857, 29.333334, 30.320578, 30.795918, 31.1875, 32.404762, 33.032738, 33.5625, 34.2449, 34.839287, 35.183037, 35.486607, 35.950893, 36.34375, 36.919643, 37.782738, 38.375, 38.857143, 39.294643, 39.577381, 38.523808, 38.40136, 38.607143, 38.901787, 39.125, 39.285713, 39.4375, 39.625, 39.75, 39.9375, 39.875, 39.910713, 40.458332, 41.166668, 42.148811, 42.747025, 42.763393, 42.455357, 42.053574, 41.32143, -10, -10, -10, 35.857143, 35.877975, 35.604168, 35.321426, 35.133926, 35.137501, 34.892857, 35.053574, 35.291668, 35.285713, 35.42857, 35.617348, 35.799999, 35.591835, 35.551018, 35.65625, 35.71875, 35.71875, 35.75, 35.515308, 35.5, 35.642857, 36.0625, 36.285713, 36.375, 36.5, 36.5, 36.625, 36.875, 37.044643, 37.535713, 37.75, 37.5625, 37.625, 37.5625, 37.367344, 37.514286, 37.438774, 37.63393, 37.5, 37.454082, 37.170071, 37.452381, 38.208332, 38.267857, 38.1875, 37.460884, 37.188774, 37.102043, 37.309525, 37.642857, 38.145832, 38.178574, 38.125, 38.0625, 38, 37.866074, 37.708332, 37.583332, 37.559525, 37.666668, 37.722225, 37.5, 37.125, -10, -10, -10, -10, -10, -10, -10, -10, -10, -10, -10, -10, -10, -10, -10, -10, -10, -10, -10, -10, -10, -10, -10
-10, -10, -10, -10, -10, -10, -10, -10, -10, -10, -10, -10, -10, -10, -10, -10, 31.375, 31.166666, 31.0625, 30.75, 30.5625, 30.4375, 30.3125, 30.25, 30.125, 30.0625, 29.75, 29.5, 29.25, 29, 29, 29, 28.8125, 28.5625, 28.3125, 28.0625, 27.875, 27.6875, 27.4375, 27.1875, 27.0625, 27, 26.75, 26.5, 26.25, 26, 26, 25.794643, 25.479166, 25.258928, 24.9375, 24.642857, 24.375, 24.125, 23.9375, 23.9375, 23.9375, 23.875, 23.75, 23.5, 23.25, 22.9375, 22.625, 22.375, 22.125, 21.9375, 21.8125, 21.625, 21.4375, 21.375, 21.375, 21.214287, 20.729166, 20.446428, 20.125, 20.0625, 20, 19.875, 19.625, 19.375, 19.125, 19, 18.8125, 18.5625, 18.25, 17.875, 17.625, 17.4375, 17.25, 17.125, 17.0625, 17, 16.8125, 16.5625, 16.3125, 16.0625, 16, 15.9375, 15.75, 15.4375, 15.017857, 14.6875, 14.5, 14.3125, 14.25, 14.0625, 14, 13.9375, 13.6875, 13.4375, 13.1875, 13, 12.9375, 12.6875, 12.4375, 12.1875, 12, 12, 11.9375, 11.875, 11.9375, 12, 12.098214, 12.125, 12.0625, 12, 12, 11.9375, 11.9375, 11.9375, 11.9375, 12, 12.1875, 12.1875, 12.1875, 12.1875, 12, 12, 12, 12, 12, 12, 12, 12, 12, 11.875, 11.75, 11.6875, 11.642857, 11.6875, 11.75, 11.75, 11.625, 11.75, 11.642858, 11.163691, 11.071428, 10.9375, 10.848214, 10.916667, 11.083333, 10.9375, 11.080357, 11, 11.169642, 11.565476, 11.660714, 11.6875, 11.625, 11.625, 11.6875, 11.8125, 11.723214, 11.558036, 11.40625, 11.363095, -10, -10, -10, -10, -10, -10, -10, -10, -10, -10, 32, 32, 31.85, 31.223213, 30.169643, 29.544643, 29.3125, 29.508928, 30.3125, 31.130953, 31.867346, 32.265308, 32.914967, 33.568027, 34.207481, 34.553574, 35.089287, 35.28125, 35.486607, 35.888393, 36.15625, 36.633926, 37.678574, 38.375, 38.982143, 39.3125, 39.160713, 38.083332, 37.833336, 37.940475, 38.285713, 38.5625, 38.75, 38.9375, 39.125, 39.3125, 39.4375, 39.4375, 39.607143, 40.416664, 41.166668, 41.964287, 42.806549, 42.848213, 42.598213, 42.209824, 41.601189, -10, -10, -10, 35.625, 35.523808, 35.229168, 34.883926, 34.696426, 34.637501, 34.392857, 34.214287, 34.17857, 34.32143, 34.464287, 34.688774, 34.907143, 35.008926, 35.071426, 35.125, 35.205357, 34.962502, 35.102676, 34.891369, 34.870537, 35.03125, 35.3125, 35.598213, 35.625, 35.6875, 35.5625, 35.5625, 35.637756, 36.151787, 36.32143, 36.291668, 36.75, 36.642857, 36.5, 36.469387, 36.542858, 36.540813, 36.724487, 37.125, 36.954082, 36.619049, 36.738094, 37.238094, 37.642857, 37.625, 37.122025, 36.946426, 36.839287, 37.107143, 37.25, 37.520832, 37.616074, 37.625, 37.6875, 37.75, 37.553574, 37.375, 37.4375, 37.419643, 37.5, 37.541668, 37.333332, 37.083332, 36.875, 36.875, 36.875, 36.833336, -10, -10, -10, -10, -10, -10, -10, -10, -10, -10, -10, -10, -10, -10, -10, -10, -10, -10, -10, -10, -10, -10, -10, -10, -10, -10, -10, -10, -10, -10, -10, -10, -10, -10, -10, -10, -10, -10, -10, -10, -10, -10, -10, -10, -10, -10, -10, -10, -10, -10, -10, -10, -10, -10, -10, -10, -10, -10, -10, -10, -10, -10, -10, -10, -10, -10, -10, -10, -10, -10, -10, -10, -10, -10, -10, -10, -10, -10, -10, -10, -10, -10, -10, -10, -10, -10, -10, -10, 31.5, 31.25, 31.125, 30.75, 30.5625, 30.5, 30.4375, 30.4375, 30.25, 30.125, 29.75, 29.5, 29.25, 29, 29, 29, 28.8125, 28.5625, 28.3125, 28.0625, 27.875, 27.6875, 27.4375, 27.1875, 27.0625, 27, 26.75, 26.5, 26.25, 26, 26, 25.857143, 25.541666, 25.321428, 25, 24.642857, 24.375, 24.125, 23.9375, 23.9375, 23.9375, 23.875, 23.75, 23.4375, 23.1875, 22.9375, 22.625, 22.4375, 22.1875, 22, 21.9375, 21.8125, 21.5625, 21.4375, 21.375, 21.151787, 20.729166, 20.446428, 20.125, 20.0625, 20, 19.875, 19.625, 19.375, 19.125, 19, 18.875, 18.625, 18.375, 18.0625, 17.8125, 17.6875, 17.4375, 17.1875, 17.026787, 16.9375, 16.8125, 16.6875, 16.4375, 16.1875, 16.0625, 16, 15.8125, 15.5, 15.017857, 14.4375, 14.25, 14.0625, 14.125, 14, 14, 14, 13.75, 13.5, 13.25, 13, 12.9375, 12.6875, 12.4375, 12.1875, 12, 12, 12, 11.910714, 11.901786, 12, 12.035714, 12.125, 12.0625, 12, 12, 11.875, 11.875, 11.875, 11.875, 12, 12.1875, 12.1875, 12.1875, 12.25, 12.0625, 12.0625, 12.0625, 12, 12, 12, 12, 12, 12, 11.75, 11.625, 11.625, 11.6875, 11.875, 11.9375, 11.8125, 11.625, 11.6875, 11.580358, 11.163691, 11.071428, 10.875, 10.8125, 10.875, 10.875, 10.9375, 10.9375, 10.875, 10.982142, 11.315476, 11.410714, 11.4375, 11.375, 11.4375, 11.5625, 11.71875, 11.723214, 11.651786, 11.5625, 11.541667, -10, -10, -10, -10, -10, -10, -10, -10, -10, -10, 31.666666, 31.75, 31.765625, 31.457588, 30.515625, 30.060268, 29.875, 30.147322, 31.190477, 31.97279, 32.32143, 32.741074, 33.217262, 33.809525, 34.342262, 34.616074, 35, 35.21875, 35.46875, 35.71875, 35.96875, 36.446426, 37.535717, 38.1875, 38.732143, 38.9375, 38.808037, 37.989582, 37.71875, 37.638393, 37.857143, 38.125, 38.375, 38.625, 38.8125, 38.9375, 39.0625, 39.125, 39.535713, 40.452377, 40.9375, 41.75, 42.719048, 42.669643, 42.669643, 42.209824, 41.875, -10, -10, -10, 35.333332, 35.222221, 35.083332, 34.75, 34.5, 33.875, 33.708332, 33.65625, 33.5, 33.875, 33.982143, 34.071426, 34.262501, 34.196426, 34.321426, 34.446426, 34.655357, 34.346428, 34.517857, 34.235119, 34.276787, 34.375, 34.5625, 34.723213, 34.651787, 34.42857, 34.32143, 34.357143, 34.540817, 35.040817, 35.32143, 35.5, 35.535713, 36.035713, 35.625, 35.5625, 35.625, 35.875, 36.0625, 36.32653, 36.275509, 35.904762, 35.877975, 36.458332, 36.830357, 36.9375, 36.604168, 36.446426, 36.339287, 36.544643, 36.6875, 37.020832, 37.178574, 37.3125, 37.4375, 37.5, 37.375, 37.375, 37.375, 37.3125, 37.375, 37.3125, 37.0625, 36.705357, 36.333332, 36.291668, 36.375, 36.430557, 36.4375, 36.375, 36.333336, -10, -10, -10, -10, -10, -10, -10, -10, -10, -10, -10, -10, -10, -10, -10, -10
-10, -10, -10, -10, -10, -10, -10, -10, -10, -10, -10, -10, -10, -10, -10, -10, 31.25, 31.083334, 31, 30.75, 30.6875, 30.6875, 30.6875, 30.625, 30.375, 30.125, 29.6875, 29.4375, 29.1875, 29, 29, 29, 28.875, 28.625, 28.375, 28.0625, 27.75, 27.5625, 27.3125, 27.125, 27.0625, 27, 26.75, 26.5, 26.25, 26, 25.9375, 25.794643, 25.479166, 25.258928, 25, 24.642857, 24.375, 24.125, 23.9375, 23.9375, 23.9375, 23.875, 23.75, 23.375, 23.017857, 22.6875, 22.375, 22.25, 22.0625, 22, 22, 21.9375, 21.6875, 21.5, 21.3125, 20.982143, 20.6875, 20.4375, 20.125, 20.0625, 20, 19.875, 19.625, 19.375, 19.125, 19, 18.9375, 18.6875, 18.4375, 18.1875, 17.9375, 17.8125, 17.5625, 17.25, 16.964287, 16.8125, 16.6875, 16.5625, 16.375, 16.1875, 16.0625, 16, 15.75, 15.4375, 14.955357, 14.3125, 14.1875, 14, 14.0625, 14, 14, 14, 13.75, 13.5, 13.25, 13, 12.9375, 12.6875, 12.4375, 12.1875, 12, 12, 11.9375, 11.848214, 11.839286, 12.044643, 12.098214, 12.1875, 12.125, 12, 12, 11.875, 11.875, 11.875, 11.875, 12, 12.125, 12.125, 12.125, 12.1875, 12.0625, 12.0625, 12.0625, 12, 12, 12, 12, 12, 12, 11.8125, 11.6875, 11.6875, 11.6875, 11.8125, 11.875, 11.75, 11.5625, 11.5, 11.419643, 11.145833, 11.125, 11.0625, 11, 11, 11, 11.0625, 11, 10.875, 10.919642, 11.190476, 11.285714, 11.3125, 11.3125, 11.375, 11.5625, 11.71875, 11.75, 11.830357, 11.895833, 11.970239, -10, -10, -10, -10, -10, -10, -10, -10, -10, -10, 31.3125, 31.375, 31.390625, 31.158482, 30.671875, 30.430803, 30.4375, 30.834822, 31.666668, 32.267857, 32.6875, 33.116074, 33.520832, 33.830357, 34.270832, 34.428574, 34.6875, 34.9375, 35.3125, 35.669643, 36.0625, 36.602676, 37.400299, 37.950893, 38.34375, 38.5, 38.352676, 37.78125, 37.459824, 37.3125, 37.482143, 37.75, 38.0625, 38.34375, 38.5, 38.59375, 38.71875, 38.90625, 39.477676, 40.380951, 40.732143, 41.42857, 42.683334, 42.648811, 42.523811, 42.03125, 41.791668, -10, -10, -10, -10, -10, -10, -10, -10, 33.3125, 33.104164, 33.03125, 32.9375, 33.125, 33.232143, 33.25, 33.3125, 33.375, 33.5, 33.696426, 33.905357, 33.658928, 33.955357, 33.488094, 33.4949, 33.6875, 33.625, 33.6875, 33.387756, 33.357143, 33.285713, 33.17857, 33.535713, 34.265308, 34.294643, 34.5, 34.357143, 34.125, 34.285713, 34.357143, 34.642857, 35.160713, 35.4375, 34.970238, 34.744049, 34.726192, 35.034225, 35.25, 35.653061, 35.82143, 35.92857, 36.125, 36.089287, 36.294643, 36.428574, 36.5625, 36.6875, 36.75, 36.8125, 36.875, 36.8125, 36.875, 36.9375, 36.875, 36.875, 36.8125, 36.6875, 36.5, 36.166668, 36.111607, 36.15625, 36.260418, 36.291668, 36.166668, 35.972225, 35.5, 35.714287, 35.857143, 36, -10, -10, -10, -10, -10, -10, -10, -10, -10, -10, -10, -10, -10, -10, -10, -10, -10, -10, -10, -10, -10, -10, -10, -10, -10, -10, -10, -10, -10, -10, -10, -10, -10, -10, -10, -10, -10, -10, -10, -10, -10, -10, -10, -10, -10, -10, -10, -10, -10, -10, -10, -10, -10, -10, -10, -10, -10, -10, -10, -10, -10, -10, -10, -10, -10, -10, -10, -10, -10, -10, -10, -10, -10, -10, -10, -10, -10, -10, -10, -10, -10, 31.375, 31.25, 31.1875, 31, 30.875, 30.875, 30.875, 30.75, 30.5, 30.1875, 29.75, 29.5, 29.25, 29.0625, 29, 29, 28.8125, 28.5625, 28.3125, 28, 27.6875, 27.5, 27.25, 27.0625, 27.0625, 27, 26.75, 26.5, 26.25, 25.9375, 25.75, 25.5625, 25.375, 25.1875, 25, 24.642857, 24.375, 24.125, 23.9375, 23.9375, 23.9375, 23.9375, 23.75, 23.145834, 22.75, 22.4375, 22.25, 22.1875, 22.0625, 22, 22, 22, 21.75, 21.5, 21.25, 20.8125, 20.625, 20.4375, 20.1875, 20.125, 20, 19.75, 19.5, 19.25, 19.0625, 19, 19, 18.75, 18.5, 18.25, 18, 17.875, 17.625, 17.3125, 16.964287, 16.8125, 16.6875, 16.5625, 16.375, 16.1875, 16.0625, 16, 15.75, 15.5, 15.125, 14.4375, 14.375, 14.125, 14.125, 14.0625, 14, 14, 13.75, 13.5, 13.25, 13, 12.9375, 12.6875, 12.4375, 12.1875, 12, 12, 12.0625, 12.098214, 12.089286, 12.232143, 12.125, 12.125, 12, 11.875, 11.875, 11.75, 11.8125, 11.875, 11.875, 12, 12.0625, 12, 12, 12.0625, 12, 12.0625, 12.0625, 12, 12, 12, 12, 12, 12, 11.875, 11.8125, 11.8125, 11.8125, 11.875, 11.875, 11.75, 11.5, 11.375, 11.25, 11.25, 11.25, 11.1875, 11.1875, 11.125, 11.1875, 11.3125, 11.1875, 11.0625, 11.017857, 11.083333, 11.241072, 11.3125, 11.4375, 11.5625, 11.6875, 11.71875, 11.6875, 11.736607, 11.802083, 11.988095, 12.5, -10, -10, -10, -10, -10, -10, -10, -10, -10, 30.8125, 30.958334, 31.015625, 30.953125, 30.921875, 30.814732, 30.9375, 31.272322, 32.041668, 32.535713, 32.875, 33.1875, 33.375, 33.642857, 34.020832, 34.303574, 34.4375, 34.71875, 35.09375, 35.388393, 35.78125, 36.27232, 37.221725, 37.736607, 38.09375, 38.053574, 37.697918, 37.424107, 37.15625, 37.09375, 37.21875, 37.40625, 37.71875, 37.96875, 38.0625, 38.15625, 38.290176, 38.806252, 39.65625, 40.476192, 40.910713, 41.82143, 42.724998, 42.470238, 42.380951, 41.825893, 41.708336, -10, -10, -10, -10, -10, -10, -10, -10, 32.625, 32.5, 32.40625, 32.1875, 32.3125, 32.375, 32.387501, 32.163265, 32.32143, 32.479591, 32.760204, 32.988773, 32.815178, 32.986607, 32.739582, 32.776787, 32.875, 32.714287, 32.714287, 32.602043, 32.57143, 32.535713, 32.464287, 32.561226, 32.738094, 33.193878, 33.392857, 33.357143, 33.413265, 33.595238, 33.775509, 34.241074, 34.264881, 34.455357, 34.010204, 33.892857, 34.035713, 34.122448, 34.32143, 34.607143, 34.642857, 34.785713, 34.964287, 35.035713, 35.17857, 35.5625, 35.6875, 35.875, 36, 36, 36, 36.017857, 36.270832, 36.428574, 36.5, 36.5625, 36.625, 36.5625, 36.3125, 35.943455, 35.861607, 35.90625, 36.09375, 36.147324, 35.791668, 35.550594, 35.083332, 35.309525, 35.488094, 35.666668, 35.375, 35.125, 35.333332, -10, -10, -10, -10, -10, -10, -10, -10, -10
-10, -10, -10, -10, -10, -10, -10, -10, -10, -10, -10, -10, -10, -10, -10, -10, 31.208334, 31.033333, 31.0625, 30.9375, 30.9375, 30.9375, 30.866072, 30.479166, 30.267857, 30, 29.75, 29.625, 29.375, 29.1875, 29.0625, 29, 28.8125, 28.5625, 28.25, 27.875, 27.5625, 27.3125, 27.125, 27, 27, 27, 26.75, 26.5, 26.25, 26, 25.8125, 25.625, 25.375, 25.125, 24.9375, 24.625, 24.375, 24.125, 24, 24, 24, 23.928572, 23.479166, 22.842262, 22.5, 22.25, 22.125, 22.125, 22, 22, 22, 21.9375, 21.6875, 21.4375, 21.1875, 20.8125, 20.6875, 20.5, 20.25, 20.1875, 19.9375, 19.625, 19.375, 19.125, 19, 19, 18.9375, 18.6875, 18.4375, 18.1875, 18, 17.875, 17.625, 17.3125, 16.964287, 16.8125, 16.6875, 16.5625, 16.375, 16.1875, 16.0625, 16, 15.75, 15.5, 15.1875, 14.6875, 14.625, 14.375, 14.25, 14.125, 14, 13.9375, 13.6875, 13.4375, 13.1875, 13, 13, 12.75, 12.5, 12.25, 12, 12, 12.125, 12.160714, 12.151786, 12.294643, 12.125, 12.125, 12, 11.875, 11.875, 11.875, 11.9375, 12, 12, 12, 12, 11.9375, 11.9375, 12, 12, 12.0625, 12.0625, 12, 12, 12.0625, 12.125, 12.125, 12.0625, 11.830357, 11.75, 11.6875, 11.75, 11.875, 11.9375, 11.9375, 11.75, 11.625, 11.5, 11.5, 11.4375, 11.375, 11.375, 11.3125, 11.375, 11.4375, 11.3125, 11.25, 11.25, 11.1875, 11.25, 11.25, 11.3125, 11.375, 11.5625, 11.59375, 11.5625, 11.611607, 11.75744, 12.154762, 12.533333, -10, -10, -10, -10, -10, -10, -10, -10, -10, 30.3125, 30.541668, 30.640625, 30.703125, 30.859375, 30.921875, 31.125, 31.46875, 31.875, 32.32143, 32.669643, 33.089287, 33.375, 33.625, 33.875, 34.15625, 34.3125, 34.5625, 34.875, 35.107143, 35.5, 36.129463, 36.995537, 37.424107, 37.6875, 37.584824, 37.166668, 37.017857, 36.84375, 36.90625, 37.09375, 37.21875, 37.46875, 37.59375, 37.625, 37.65625, 37.861607, 38.722916, 39.65625, 40.330357, 40.875, 42.130955, 42.724998, 42.208336, 42.023808, 41.482143, 41.500004, -10, -10, -10, -10, -10, -10, -10, -10, 32.1875, 32.0625, 31.96875, 31.5, 31.357143, 31.295918, 31.228573, 31.234694, 31.625, 31.794643, 32.071426, 32.293751, 32.165176, 32.165176, 32.03125, 32.0625, 32.125, 32.125, 32.0625, 32.026787, 32, 32, 32, 32.008926, 32.07143, 32.482143, 32.392857, 32.5625, 32.517857, 32.988094, 33.204082, 33.303574, 33.19558, 33.306122, 33.321426, 33.34375, 33.59375, 33.700893, 33.90625, 33.785713, 33.7449, 34.015308, 34.158165, 34.34375, 34.447918, 34.833332, 35.0625, 35.3125, 35.375, 35.07143, 35, 35.020409, 35.520832, 35.741074, 35.875, 35.9375, 36.0625, 36, 35.75, 35.443455, 35.424107, 35.53125, 35.78125, 35.834824, 35.447918, 35.102676, 34.991074, 35.30357, 35.544643, 35.6875, 35.333332, 34.940475, 34.599998, 34.464287, 34.732143, 35, 35.125, -10, -10, -10, -10, -10, -10, -10, -10, -10, -10, -10, -10, -10, -10, -10, -10, -10, -10, -10, -10, -10, -10, -10, -10, -10, -10, -10, -10, -10, -10, -10, -10, -10, -10, -10, -10, -10, -10, -10, -10, -10, -10, -10, -10, -10, -10, -10, -10, -10, -10, -10, -10, -10, -10, -10, -10, -10, -10, -10, -10, -10, -10, -10, -10, -10, -10, -10, -10, -10, -10, -10, -10, -10, -10, 31.166668, 30.9, 31, 30.875, 30.9375, 30.8125, 30.678572, 30.291666, 30.035713, 29.9375, 29.75, 29.75, 29.5, 29.3125, 29.125, 28.9375, 28.75, 28.5, 28.1875, 27.8125, 27.5, 27.25, 27.0625, 27, 27, 26.9375, 26.6875, 26.4375, 26.1875, 25.9375, 25.75, 25.5, 25.25, 25.0625, 24.9375, 24.6875, 24.4375, 24.1875, 24, 24, 23.928572, 23.741072, 23.291666, 22.717262, 22.5, 22.25, 22.1875, 22.125, 22, 22, 22, 21.875, 21.625, 21.375, 21.125, 20.875, 20.8125, 20.625, 20.375, 20.25, 19.875, 19.5625, 19.3125, 19.0625, 19, 19, 18.875, 18.625, 18.375, 18.125, 18, 17.8125, 17.5625, 17.3125, 17, 16.875, 16.75, 16.5, 16.3125, 16.125, 16, 16, 15.75, 15.5, 15.25, 14.9375, 14.875, 14.625, 14.375, 14.1875, 14, 13.875, 13.625, 13.375, 13.125, 13, 13, 12.75, 12.5, 12.25, 12, 11.9375, 12.026786, 12.160714, 12.1875, 12.357143, 12.258928, 12.275, 12, 11.875, 11.875, 12, 12.0625, 12.125, 12.0625, 12, 12, 11.9375, 11.9375, 11.9375, 11.9375, 12, 12, 12, 12, 12.125, 12.25, 12.25, 12.1875, 11.955357, 11.75, 11.625, 11.6875, 11.75, 11.875, 11.9375, 11.75, 11.625, 11.5625, 11.625, 11.544643, 11.291667, 11.291667, 11.395833, 11.482143, 11.5625, 11.375, 11.3125, 11.375, 11.375, 11.4375, 11.375, 11.4375, 11.4375, 11.625, 11.6875, 11.625, 11.642857, 11.72619, 12.092262, 12.316667, -10, -10, -10, -10, -10, -10, -10, -10, -10, 29.9375, 30.291668, 30.4375, 30.625, 30.90625, 30.96875, 31.25, 31.5625, 31.90625, 32.308037, 32.638393, 32.979912, 33.21875, 33.40625, 33.65625, 33.953125, 34.1875, 34.4375, 34.625, 34.857143, 35.1875, 35.870537, 36.745537, 37.174107, 37.375, 37.147324, 36.697918, 36.64732, 36.5, 36.75, 36.96875, 37.09375, 37.34375, 37.34375, 37.3125, 37.34375, 37.59375, 38.785416, 39.691963, 40.348213, 40.973213, 42.523811, 42.875, 42.208336, 41.809525, 41.294643, 41.333336, -10, -10, -10, -10, -10, -10, -10, 32, 32, 31.354168, 31.333334, 31, 30.8125, 30.767857, 30.514286, 30.705357, 30.9375, 31.044643, 31.25, 31.34375, 31.34375, 31.107143, 31.28125, 31.25, 31.178572, 31.049999, 31.178572, 31.133928, 31.276787, 31.4375, 31.214287, 31.258928, 31.383928, 31.682144, 31.705357, 31.8125, 31.705357, 31.833332, 32.102043, 32.505104, 32.353741, 32.341835, 32.612247, 32.658165, 33.005104, 33.21875, 33.441963, 33.446426, 33.189285, 33.409225, 33.556126, 33.361607, 33.447918, 33.940475, 34.1875, 34.4375, 34.4375, 34.375, 34.3125, 34.392857, 34.708332, 34.928574, 35.1875, 35.25, 35.4375, 35.5, 35.357143, 35.193455, 35.17857, 35.080357, 35.510204, 35.525509, 35.055061, 34.852676, 34.803574, 35.11607, 35.357143, 35.4375, 35.25, 34.892857, 34.75, 34.392857, 34.488094, 34.666668, 34.75, 34.571426, 34.285713, 34.200001, -10, -10
-10, -10, -10, -10, -10, -10, -10, -10, -10, -10, -10, -10, -10, -10, -10, -10, 31.250002, 30.849998, 30.9375, 30.75, 30.8125, 30.625, 30.491072, 30.041666, 29.848213, 29.875, 29.8125, 29.9375, 29.678572, 29.229166, 28.946428, 28.6875, 28.5, 28.3125, 28.0625, 27.75, 27.5, 27.25, 27.0625, 27, 27, 26.9375, 26.6875, 26.4375, 26.1875, 25.9375, 25.8125, 25.5625, 25.3125, 25.125, 24.9375, 24.75, 24.5, 24.25, 24, 23.875, 23.741072, 23.491072, 23.104166, 22.592262, 22.544643, 22.4375, 22.4375, 22.375, 22.1875, 22, 21.875, 21.6875, 21.4375, 21.25, 21.0625, 20.9375, 20.9375, 20.75, 20.5, 20.3125, 19.875, 19.5625, 19.3125, 19.0625, 19, 19, 18.8125, 18.5625, 18.3125, 18.0625, 18, 17.8125, 17.5625, 17.3125, 17.0625, 17, 16.9375, 16.6875, 16.4375, 16.1875, 16, 16, 15.75, 15.5, 15.25, 15, 15, 14.75, 14.5, 14.25, 14, 13.875, 13.625, 13.375, 13.125, 13, 12.9375, 12.6875, 12.4375, 12.1875, 12, 11.9375, 12.089286, 12.285714, 12.3125, 12.375, 12.348214, 12.4, 12.008928, 11.946428, 11.9375, 12.0625, 12.125, 12.125, 12.026786, 12.035714, 12, 12.0625, 12, 12, 11.9375, 11.9375, 11.9375, 11.9375, 12, 12.125, 12.25, 12.25, 12.1875, 12.017857, 11.875, 11.732143, 11.6875, 11.75, 11.8125, 11.9375, 11.75, 11.625, 11.5, 11.5, 11.419643, 11.041667, 11.041667, 11.226191, 11.419643, 11.5, 11.375, 11.25, 11.3125, 11.4375, 11.5625, 11.5625, 11.625, 11.625, 11.75, 11.8125, 11.8125, 11.6875, 11.580357, 11.851191, 11.983334, -10, -10, -10, -10, -10, -10, -10, -10, -10, 29.625, 29.916668, 30.0625, 30.352678, 30.833334, 30.991072, 31.25, 31.5, 31.75, 32.026787, 32.379463, 32.720985, 32.9375, 33.1875, 33.4375, 33.8125, 34.1875, 34.5, 34.5625, 34.75, 35.145832, 35.714287, 36.526787, 36.767857, 36.90625, 36.709824, 36.296131, 36.236607, 36.1875, 36.40625, 36.65625, 36.71875, 36.90625, 36.875, 36.875, 36.9375, 37.285713, 38.816666, 39.67857, 40.241074, 40.92857, 42.566666, 42.510204, 41.630955, 41.267857, 41.044643, 41.25, -10, -10, -10, -10, -10, -10, -10, -10, -10, 30.770834, 30.670834, 30.166666, 29.955357, 29.892857, 29.887501, 29.955357, 30.125, 30.169643, 30.25, 30.535715, 30.227678, 30.427084, 30.522322, 30.625, 30.382654, 30.271427, 30.418367, 30.260204, 30.561228, 31.0625, 30.561228, 30.892857, 30.883928, 31.075001, 31.017857, 31.125, 30.795918, 31.119047, 31.316328, 31.602039, 31.791668, 31.589285, 30.928572, 30.827383, 31.220238, 32.704082, 32.933674, 32.867348, 32.314285, 32.471725, 31.895834, 32.262753, 32.529762, 33.127975, 33.375, 33.5, 33.285713, 33.5, 33.5, 33.642857, 33.958332, 34.241074, 34.5, 34.32143, 34.42857, 34.357143, 34.25, 34.526787, 34.535713, 34.341835, 34.232143, 34.454082, 34.492561, 34.415176, 34.491074, 34.758926, 34.928574, 34.9375, 34.75, 34.330357, 34.1875, 34.232143, 34.303574, 34.5, 34.5625, 34.380951, 34.190475, 34.133335, 34.125, 34.125, 34.125, -10, -10, -10, -10, -10, -10, -10, -10, -10, -10, -10, -10, -10, -10, -10, -10, -10, -10, -10, -10, -10, -10, -10, -10, -10, -10, -10, -10, -10, -10, -10, -10, -10, -10, -10, -10, -10, -10, -10, -10, -10, -10, -10, -10, -10, -10, -10, -10, -10, -10, -10, -10, -10, -10, -10, -10, -10, -10, -10, -10, -10, -10, -10, -10, -10, -10, -10, -10, 31.250002, 30.849998, 30.9375, 30.6875, 30.6875, 30.4375, 30.241072, 29.791666, 29.660713, 29.75, 29.75, 30, 29.741072, 29.291666, 28.946428, 28.5625, 28.375, 28.1875, 28, 27.6875, 27.4375, 27.25, 27.125, 27.125, 27.125, 27, 26.6875, 26.4375, 26.1875, 25.9375, 25.8125, 25.5625, 25.3125, 25.125, 24.9375, 24.8125, 24.5625, 24.3125, 24.0625, 23.8125, 23.616072, 23.241072, 22.854166, 22.571428, 22.5625, 22.5625, 22.5, 22.4375, 22.25, 21.9375, 21.75, 21.5, 21.25, 21.125, 21, 21, 21, 20.75, 20.5, 20.25, 19.875, 19.6875, 19.4375, 19.1875, 19.0625, 18.9375, 18.6875, 18.4375, 18.1875, 18, 18, 17.875, 17.625, 17.375, 17.125, 17, 17, 16.75, 16.5, 16.25, 16, 15.9375, 15.6875, 15.4375, 15.1875, 15, 15, 14.75, 14.5, 14.25, 14, 13.875, 13.625, 13.375, 13.125, 13, 12.9375, 12.6875, 12.4375, 12.1875, 12, 11.9375, 12.026786, 12.223214, 12.3125, 12.375, 12.473214, 12.5875, 12.258928, 12.25, 11.979167, 12.080357, 12.0625, 12.0625, 12.089286, 12.098214, 12.0625, 12.25, 12.125, 12.125, 12, 11.875, 11.875, 11.875, 12, 12.125, 12.25, 12.25, 12.1875, 12.017857, 11.9375, 11.794643, 11.6875, 11.714286, 11.6875, 11.75, 11.5625, 11.4375, 11.348214, 11.205357, 11.116072, 10.791667, 10.729167, 10.913691, 11.107143, 11.1875, 11.294643, 11.25, 11.4375, 11.625, 11.6875, 11.6875, 11.6875, 11.625, 11.75, 11.875, 11.875, 11.8125, 11.767857, 11.958333, 11.983334, -10, -10, -10, -10, -10, -10, -10, -10, -10, 29.375, 29.583334, 29.75, 30.040178, 30.458334, 30.616072, 30.875, 31.169643, 31.4375, 31.776787, 32.129463, 32.470985, 32.625, 32.8125, 33.071426, 33.5, 33.875, 34.21875, 34.227676, 34.59375, 34.998512, 35.714287, 36.205357, 36.375, 36.359375, 36.234375, 36.020088, 35.921875, 35.9375, 36.0625, 36.25, 36.375, 36.5, 36.4375, 36.526787, 36.732143, 37.114285, 38.888889, 39.571426, 40.083332, 40.761906, 42.647617, 42.041908, 41.630955, 41.19643, 41.0625, 41.270832, -10, -10, -10, -10, -10, -10, -10, -10, -10, 30.3125, 30.108334, 29.425169, 29.392857, 29.25, 29.1875, 29.3125, 29.375, 29.25, 29.285715, 29.166666, 29.367346, 29.864584, 29.991072, 30.125, 30.053572, 29.893749, 29.991072, 29.758928, 29.897324, 30.21875, 29.897324, 30.080357, 30.196428, 30.325001, 30.267857, 30.375, 30.125, 30.3125, 30.4375, 30.6875, 31.142857, 30.696428, 30.153061, 30.102041, 30.510204, 31.190475, 31.440475, 31.380951, 31.644897, 31.515871, 31.166666, 31.464285, 31.836309, 32.252975, 32.5, 32.32143, 32.285713, 32.357143, 32.6875, 32.9375, 33.232143, 33.4375, 33.625, 33.625, 33.625, 33.625, 33.625, 33.57143, 33.647957, 33.591835, 33.627552, 33.67857, 34.075893, 34.15625, 34.303574, 34.571426, 34.741074, 34.6875, 34.5, 34.142857, 34, 33.90625, 33.96875, 34.15625, 34.28125, 34.285713, 34.142857, 34.037498, 33.916668, 33.916668
-10, -10, -10, -10, -10, -10, -10, -10, -10, -10, -10, -10, -10, -10, -10, -10, 31.291668, 30.983334, 31, 30.75, 30.6875, 30.375, 30.1875, 29.875, 29.642857, 29.75, 29.6875, 29.9375, 29.741072, 29.291666, 28.946428, 28.5625, 28.375, 28.1875, 28.0625, 27.8125, 27.625, 27.4375, 27.25, 27.1875, 27.125, 26.9375, 26.625, 26.375, 26.125, 25.9375, 25.8125, 25.5625, 25.3125, 25.125, 25, 24.9375, 24.6875, 24.4375, 24.125, 23.75, 23.491072, 23.125, 22.9375, 22.6875, 22.625, 22.5625, 22.5, 22.4375, 22.3125, 22, 21.75, 21.5, 21.25, 21.125, 21, 20.9375, 20.875, 20.625, 20.375, 20.1875, 19.9375, 19.75, 19.5, 19.25, 19.0625, 18.875, 18.625, 18.375, 18.125, 18, 18, 17.875, 17.625, 17.375, 17.125, 17, 16.9375, 16.6875, 16.4375, 16.1875, 16, 15.875, 15.625, 15.375, 15.125, 15, 15, 14.75, 14.5, 14.25, 14, 13.875, 13.625, 13.375, 13.125, 13, 12.9375, 12.6875, 12.4375, 12.1875, 12, 12, 12.089286, 12.285714, 12.375, 12.375, 12.473214, 12.525, 12.223214, 12.25, 11.895834, 12.125, 12, 12.0625, 12.026786, 12.098214, 12.0625, 12.3125, 12.1875, 12.1875, 12.0625, 11.875, 11.875, 11.875, 12, 12.0625, 12.125, 12.0625, 12.0625, 12.0625, 12.0625, 12.044643, 11.875, 11.776786, 11.625, 11.5625, 11.4375, 11.375, 11.348214, 11.196428, 10.845238, 10.559524, 10.479167, 10.726191, 10.982143, 11.125, 11.357143, 11.375, 11.5625, 11.6875, 11.75, 11.8125, 11.875, 11.9375, 12.0625, 12.1875, 12.1875, 12.0625, 11.9375, 11.875, 11.833334, -10, -10, -10, -10, -10, -10, -10, -10, -10, 29.0625, 29.208334, 29.34375, 29.665178, 30.083334, 30.334822, 30.625, 30.919643, 31.25, 31.59375, 31.897322, 32.194199, 32.3125, 32.4375, 32.696426, 33.09375, 33.4375, 33.8125, 33.883926, 34.375, 34.958332, 35.642857, 36.035713, 36.116074, 35.848957, 35.796875, 35.582588, 35.546875, 35.625, 35.75, 35.9375, 36.0625, 36.125, 36.03125, 36.151787, 36.450893, 36.834522, -10, -10, -10, -10, 43.371429, 42.881634, 41.714287, 41.267857, 41.1875, 41.395832, 41.875, -10, -10, -10, -10, -10, -10, -10, -10, 29.625, 29.133333, 28.800594, 28.484694, 28.464285, 28.37755, 28.367346, 28.5625, 28.625, 28.6875, 28.75, 28.821428, 29.114584, 29.209822, 29.28125, 29.400511, 29.217855, 29.346939, 28.883928, 29.084824, 29.46875, 29.241074, 29.611607, 29.790178, 29.918751, 29.830357, 29.8125, 29.5625, 29.6875, 29.5, 29.653061, 29.5, 29.403061, 29.321428, 29.276787, 29.633928, 30.234694, 30.591837, 30.591837, 29.788889, 29.650793, 29.464287, 30.339285, 30.901787, 31.232143, 31.5625, 31.428572, 31.428572, 31.464285, 31.607143, 32.0625, 32.419643, 32.625, 32.6875, 32.75, 32.635715, 32.770836, 33.044643, 33.0625, 33.223213, 33.080357, 33.142857, 33.1875, 33.357143, 33.625, 33.875, 34.107143, 34.25, 34.1875, 34.0625, 33.8125, 33.625, 33.46875, 33.495537, 33.65625, 33.611607, 33.6875, 33.5625, 33.5, 33.5, 33.5625, 33.5625, 33.416668, 33.166668, 32.916668, 32.666668, 32.25, 32.125, -10, -10, -10, -10, -10, -10, -10, -10, -10, -10, -10, -10, -10, -10, -10, -10, -10, -10, -10, -10, -10, -10, -10, -10, -10, -10, -10, -10, -10, -10, -10, -10, -10, -10, -10, -10, -10, -10, -10, -10, -10, -10, -10, -10, -10, -10, -10, -10, -10, -10, -10, -10, -10, -10, -10, -10, -10, -10, -10, -10, -10, -10, 31.333334, 31.116669, 31.0625, 30.8125, 30.75, 30.5625, 30.375, 29.9375, 29.714287, 29.6875, 29.6875, 29.9375, 29.741072, 29.291666, 28.946428, 28.625, 28.5, 28.3125, 28.1875, 27.9375, 27.6875, 27.5, 27.3125, 27.1875, 27.125, 26.9375, 26.625, 26.375, 26.125, 26, 25.875, 25.625, 25.375, 25.125, 25, 25, 24.75, 24.5, 24.1875, 23.75, 23.5625, 23.3125, 23.125, 22.8125, 22.5625, 22.4375, 22.3125, 22.3125, 22.25, 22, 21.75, 21.5625, 21.375, 21.25, 21.125, 21, 20.8125, 20.5625, 20.3125, 20.125, 20, 19.8125, 19.5625, 19.3125, 19.0625, 18.875, 18.625, 18.375, 18.125, 18, 17.9375, 17.875, 17.6875, 17.4375, 17.25, 17.0625, 16.875, 16.625, 16.375, 16.125, 16, 15.8125, 15.5625, 15.3125, 15.0625, 15, 15, 14.75, 14.5, 14.25, 14, 13.875, 13.625, 13.375, 13.125, 13, 12.9375, 12.6875, 12.4375, 12.1875, 12, 12.0625, 12.125, 12.3125, 12.5, 12.5, 12.589286, 12.5625, 12.410714, 12.357143, 11.8125, 11.955357, 11.8125, 11.9375, 11.964286, 12.035714, 12, 12.3125, 12.25, 12.25, 12.125, 11.875, 11.875, 11.875, 12, 12, 12, 11.9375, 11.9375, 12, 12.125, 12.169643, 12, 11.901786, 11.625, 11.5, 11.455357, 11.5625, 11.473214, 11.214285, 10.800595, 10.642857, 10.5625, 10.642857, 10.9375, 11.125, 11.482143, 11.5625, 11.6875, 11.75, 11.8125, 11.9375, 12, 12.0625, 12.1875, 12.3125, 12.294643, 11.979167, 11.892857, 11.8125, 11.833334, -10, -10, -10, -10, -10, -10, -10, -10, -10, 28.6875, 28.791668, 28.90625, 29.133928, 29.583334, 30.084822, 30.348213, 30.638393, 30.875, 31.125, 31.491072, 31.866072, 32.03125, 32.28125, 32.540176, 32.984375, 33.223213, 33.401787, 33.571426, 34.044643, 34.708332, 35.339287, 35.616074, 35.616074, 35.348957, 35.421875, 35.270088, 35.261162, 35.375, 35.375, 35.5625, 35.5625, 35.589287, 35.638393, 35.83036, 36.200893, 36.477379, -10, -10, -10, -10, 43.514286, 43.072113, 42.035713, 41.410713, 41.366074, 41.520832, 41.916668, 42.166664, -10, -10, -10, -10, -10, -10, -10, 29.5, 28.560001, 28.317459, 27.767857, 27.75, 27.705357, 27.696428, 27.8125, 27.875, 27.901787, 28.0625, 28.178572, 28.552084, 28.709822, 28.607143, 28.291666, 28.270834, 28.375, 28.598213, 28.683037, 28.75, 28.776787, 28.831844, 29.209183, 29.188776, 29.275511, 28.919643, 28.901787, 29.035713, 28.9375, 28.867346, 28.785715, 28.540817, 28.464285, 28.71875, 28.96875, 29.361607, 29.6875, 29.669643, 28.940475, 28.795918, 28.642857, 29.040817, 29.637756, 29.979593, 30.25, 30.5625, 30.5625, 30.625, 30.875, 30.928572, 31.37245, 31.571428, 31.5, 31.642857, 31.86875, 31.770834, 32.372448, 32.32143, 32.57143, 32.4375, 32.625, 32.607143, 32.549999, 32.803574, 33.0625, 33.482143, 33.6875, 33.580357, 33.383926, 33.1875, 33.125, 33.09375, 33.245537, 33.40625, 33.361607, 33.375, 33.1875, 33.0625, 32.82143, 33
-10, -10, -10, -10, -10, -10, -10, -10, -10, -10, -10, -10, -10, -10, -10, -10, 31.25, 31.166668, 31.125, 30.9375, 30.875, 30.75, 30.5, 30.125, 29.839287, 29.75, 29.75, 29.875, 29.6875, 29.4375, 29.125, 28.8125, 28.625, 28.375, 28.1875, 28, 27.8125, 27.625, 27.4375, 27.25, 27.125, 26.875, 26.5625, 26.3125, 26.0625, 26, 25.8125, 25.5625, 25.3125, 25.0625, 25, 25, 24.75, 24.5, 24.25, 23.875, 23.75, 23.5, 23.25, 22.9375, 22.625, 22.4375, 22.25, 22.1875, 22.125, 22, 21.8125, 21.625, 21.5, 21.375, 21.25, 21.125, 20.8125, 20.5, 20.25, 20.0625, 20, 19.8125, 19.5625, 19.3125, 19.0625, 18.875, 18.625, 18.375, 18.125, 17.9375, 17.8125, 17.8125, 17.6875, 17.5, 17.375, 17.125, 16.8125, 16.5625, 16.3125, 16.0625, 16, 15.75, 15.5, 15.25, 15, 15, 14.9375, 14.6875, 14.4375, 14.1875, 14, 13.875, 13.6875, 13.4375, 13.1875, 13.0625, 13, 12.75, 12.5, 12.25, 12, 12.0625, 12.125, 12.25, 12.4375, 12.5, 12.5, 12.4375, 12.401786, 12.285715, 11.75, 11.955357, 11.8125, 12, 12.0625, 12, 12, 12.1875, 12.1875, 12.1875, 12.125, 11.9375, 11.9375, 11.9375, 12, 12, 11.9375, 11.875, 11.875, 11.875, 12, 12.0625, 12, 11.901786, 11.6875, 11.5, 11.580357, 11.723214, 11.553572, 11.285713, 10.800595, 10.767857, 10.75, 10.8125, 11, 11.125, 11.419643, 11.5625, 11.75, 11.8125, 11.875, 12, 12, 12.0625, 12.1875, 12.25, 12.169643, 11.854167, 11.767857, 11.75, 11.916667, -10, -10, -10, -10, -10, -10, -10, -10, -10, 28.4375, 28.541668, 28.71875, 28.875, 29.125, 29.65625, 29.955357, 30.263393, 30.53125, 30.78125, 31.125, 31.5, 31.866072, 32.098213, 32.321426, 32.6875, 32.723213, 32.839287, 33.071426, 33.544643, 34.333332, 35.017857, 35.303574, 35.303574, 34.973957, 34.859375, 34.698662, 34.832588, 34.9375, 35.125, 35.1875, 35.1875, 35.232143, 35.471725, 35.76786, 36.492561, 36.545574, -10, -10, -10, -10, 43.75, 43.533337, 42.642857, 41.702381, 41.449406, 41.616074, 41.9375, 42.222218, -10, -10, -10, -10, -10, -10, -10, -10, -10, -10, 27.25, 27.208334, 27.080357, 26.946428, 27.125, 27.1875, 27.214287, 27.678572, 27.755102, 27.81875, 28.035715, 27.947916, 27.714285, 27.875, 27.892857, 27.879463, 27.90625, 28.200893, 28.169643, 28.010416, 27.633928, 27.502975, 28.051022, 28.107143, 28.214287, 28.348213, 28.232143, 28.104166, 27.955357, 27.78125, 27.796875, 28.046875, 28.053572, 28.359694, 28.642857, 28.763393, 28.260416, 28.133928, 28, 28.035715, 28.515305, 28.958164, 29.091837, 29.357143, 29.285715, 29.5, 30, 30.158163, 30.469389, 30.488096, 30.446428, 30.703125, 30.728125, 30.34524, 30.375, 30.694445, 30.934525, 31.357143, 31.8125, 31.830357, 31.799999, 32.116074, 32.3125, 32.732143, 33.214287, 32.892857, 32.758926, 32.6875, 32.6875, 32.65625, 32.808037, 32.96875, 32.986607, 32.982143, 32.604168, 32.455357, 32.3125, 32.3125, 32.401787, 32.607143, 32.616074, 32.625, 32.4375, 32.25, 32.125, 31.916666, 31.833334, 31.833334, 31.944443, 32, 32.125, 32.25, 32.166664, -10, -10, -10, -10, -10, -10, -10, -10, -10, -10, -10, -10, -10, -10, -10, -10, -10, -10, -10, -10, -10, -10, -10, -10, -10, -10, -10, -10, -10, -10, -10, -10, -10, -10, -10, -10, -10, -10, -10, -10, -10, -10, -10, -10, -10, -10, -10, -10, -10, -10, -10, -10, -10, -10, 31.125, 31, 31, 30.875, 30.9375, 30.9375, 30.6875, 30.3125, 29.964287, 29.8125, 29.8125, 29.8125, 29.625, 29.375, 29.0625, 28.8125, 28.625, 28.4375, 28.25, 28.125, 27.9375, 27.625, 27.375, 27.125, 27, 26.75, 26.5, 26.25, 26, 26, 25.875, 25.625, 25.375, 25.125, 25, 25, 24.75, 24.5, 24.25, 23.9375, 23.875, 23.625, 23.375, 23.0625, 22.75, 22.5, 22.375, 22.3125, 22.1875, 22.125, 21.830357, 21.625, 21.5625, 21.5, 21.375, 21.25, 20.8125, 20.4375, 20.1875, 20, 20, 19.75, 19.5, 19.25, 19, 18.9375, 18.6875, 18.4375, 18.1875, 17.9375, 17.75, 17.6875, 17.5625, 17.375, 17.3125, 17.125, 16.75, 16.5, 16.25, 16, 16, 15.75, 15.5, 15.25, 15, 15, 14.875, 14.625, 14.375, 14.125, 14, 13.875, 13.75, 13.5, 13.25, 13.125, 13, 12.8125, 12.5625, 12.3125, 12.0625, 12.0625, 12.125, 12.1875, 12.3125, 12.4375, 12.375, 12.3125, 12.276786, 12.107143, 11.833334, 12.125, 12, 12.125, 12.0625, 11.9375, 11.9375, 12.0625, 12.125, 12.125, 12.125, 12, 12, 12, 12, 12, 11.9375, 11.875, 11.875, 11.875, 11.9375, 12, 12, 11.9375, 11.8125, 11.6875, 11.767857, 11.848214, 11.642857, 11.455357, 10.979167, 10.955357, 10.9375, 11, 11.125, 11.1875, 11.3125, 11.5, 11.6875, 11.8125, 11.9375, 12, 12, 12.0625, 12.1875, 12.25, 12.169643, 11.854167, 11.705357, 11.6875, 11.916667, 12.266666, -10, -10, -10, -10, -10, -10, -10, 27.75, 28.104166, 28.260418, 28.46875, 28.625, 28.9375, 29.5, 29.830357, 30.09375, 30.28125, 30.40625, 30.75, 31.125, 31.616072, 31.973213, 32.1875, 32.4375, 32.473213, 32.589287, 32.9375, 33.401787, 34.199406, 34.660713, 34.875, 34.803574, 34.520832, 34.34375, 34.272324, 34.540176, 34.5625, 34.8125, 34.75, 34.6875, 34.80357, 35.367558, 35.803574, 36.572918, 37.189682, 38.666668, -10, -10, -10, 43.625, 43.51667, 42.85714, 41.565475, 41.252975, 41.303574, 41.6875, 41.999996, -10, -10, -10, -10, -10, -10, -10, -10, -10, -10, 26.916666, 26.833334, 26.580357, 26.267857, 26.205357, 26.1875, 25.887756, 25.791666, 25.964287, 26.7875, 26.571428, 26.885416, 26.84375, 26.78125, 26.830357, 26.910713, 27.125, 27.658163, 27.388393, 26.994047, 26.864796, 26.823978, 27.12245, 27.051022, 27.535713, 27.798214, 27.553572, 27.425594, 27.205357, 27.03125, 27.046875, 27.305803, 27.478125, 27.588541, 27.821428, 27.811224, 27.854166, 27.727678, 27.59375, 27.59375, 27.678572, 28.244644, 28.12755, 28.428572, 28.5, 28.857143, 29.3125, 29.63393, 29.857143, 29.686012, 29.720982, 29.446428, 29.532145, 29.511906, 29.765305, 30.059525, 30.229593, 30.357143, 30.535715, 30.62755, 30.699999, 31.025511, 31.214285, 31.561224, 31.458334, 31.698978, 31.724489, 32, 32.125, 32.125, 32.214287, 32.375, 32.330357, 32.294643, 31.916666, 31.767857, 31.6875, 31.6875
-10, -10, -10, -10, -10, -10, -10, -10, -10, -10, -10, -10, -10, -10, -10, -10, 31, 30.833334, 30.8125, 30.75, 30.8125, 30.9375, 30.75, 30.4375, 30.151787, 29.9375, 29.9375, 29.8125, 29.5625, 29.3125, 28.9375, 28.6875, 28.5, 28.3125, 28.1875, 28.125, 27.9375, 27.625, 27.375, 27.125, 27, 26.8125, 26.5625, 26.3125, 26.0625, 25.9375, 25.875, 25.6875, 25.4375, 25.25, 25.0625, 25, 24.75, 24.5, 24.25, 24, 24, 23.75, 23.5, 23.1875, 22.875, 22.6875, 22.5625, 22.5, 22.303572, 21.979166, 21.651787, 21.4375, 21.4375, 21.4375, 21.375, 21.25, 20.8125, 20.4375, 20.1875, 20, 19.9375, 19.6875, 19.4375, 19.1875, 19, 19, 18.75, 18.5, 18.25, 17.9375, 17.75, 17.6875, 17.5625, 17.3125, 17.142857, 17, 16.6875, 16.5, 16.3125, 16.0625, 16, 15.75, 15.5, 15.25, 15, 15, 14.8125, 14.5625, 14.3125, 14.0625, 14, 13.9375, 13.875, 13.625, 13.375, 13.1875, 13, 12.8125, 12.5625, 12.3125, 12.0625, 12, 12, 12.0625, 12.1875, 12.375, 12.375, 12.375, 12.3125, 12.107143, 11.916667, 12.017857, 12, 12.0625, 12.0625, 11.9375, 11.9375, 12, 12.0625, 12.0625, 12.0625, 12, 12, 12, 12.0625, 12.0625, 12, 12, 11.9375, 11.9375, 12, 12, 12, 12, 11.9375, 11.875, 11.955357, 11.910714, 11.642857, 11.401785, 11.125, 11.125, 11.0625, 11.0625, 11.1875, 11.3125, 11.473214, 11.625, 11.75, 11.8125, 11.9375, 12, 12, 11.9375, 12, 11.9375, 11.857143, 11.666667, 11.642857, 11.75, 12.041667, 12.400001, -10, -10, -10, -10, -10, -10, -10, 27.5, 27.75, 27.927084, 28.15625, 28.21875, 28.491072, 29.102678, 29.44643, 29.78125, 29.96875, 30.0625, 30.4375, 30.875, 31.366072, 31.723213, 32.053574, 32.241074, 32.285713, 32.401787, 32.8125, 33.321426, 33.958332, 34.303574, 34.375, 34.25, 34.0625, 33.8125, 33.866074, 34.17857, 34.25, 34.4375, 34.25, 34.205357, 34.511906, 35.273808, 35.803574, 36.604168, 36.954762, -10, -10, -10, -10, 43.375, 43.375, 42.815475, 41.565475, 41.190475, 41.116074, 41.464287, 41.799999, -10, -10, -10, -10, -10, -10, -10, -10, -10, -10, -10, 26.416668, 25.9375, 25.625, 25.234694, 25.071428, 24.943878, 24.964285, 25.183674, 25.65, 25.678572, 25.976191, 26.035715, 25.892857, 25.87755, 25.87755, 26.035715, 26.154762, 26.408163, 26.354166, 26.178572, 26.142857, 26.419643, 26.482143, 26.848213, 27.110714, 26.928572, 26.800594, 26.520407, 26.59375, 26.609375, 26.805803, 26.790625, 26.776041, 27.03125, 27.03125, 27.1875, 27.263393, 27.15625, 27.09375, 27.227678, 27.494644, 27.580357, 27.75, 27.839287, 28.294643, 28.616072, 28.94643, 29.107143, 28.659014, 29.033482, 28.714285, 28.953125, 29, 29.053572, 29.395834, 29.544643, 29.71875, 29.642857, 29.816328, 30.112499, 30.366072, 30.285715, 30.392857, 30.428572, 30.581633, 30.883928, 31.0625, 31.25, 31.3125, 31.214285, 31.5625, 31.75, 31.732143, 31.479166, 31.330357, 31.25, 31.1875, 31.401787, 31.607143, 31.678572, 31.892857, 31.887501, 31.767857, 31.8125, 31.5625, 31.5, 31.375, 31.4375, 31.625, 31.6875, 31.75, 31.645832, 31.333334, 31.333334, 31.333334, 30.875, 30.875, 30.875, -10, -10, -10, -10, -10, -10, -10, -10, -10, -10, -10, -10, -10, -10, -10, -10, -10, -10, -10, -10, -10, -10, -10, -10, -10, -10, -10, -10, -10, -10, -10, -10, -10, -10, -10, -10, -10, -10, -10, -10, -10, -10, -10, -10, -10, -10, -10, -10, 30.875, 30.75, 30.75, 30.6875, 30.75, 30.8125, 30.625, 30.4375, 30.1875, 29.9375, 29.875, 29.625, 29.375, 29.1875, 28.875, 28.625, 28.375, 28.1875, 28.0625, 28, 27.9375, 27.6875, 27.4375, 27.25, 27.0625, 26.875, 26.6875, 26.4375, 26.1875, 25.9375, 25.75, 25.5625, 25.3125, 25.1875, 25.0625, 24.9375, 24.6875, 24.4375, 24.1875, 24, 24, 23.8125, 23.5625, 23.3125, 23.0625, 22.875, 22.8125, 22.6875, 22.428572, 22.041666, 21.651787, 21.4375, 21.375, 21.375, 21.3125, 21.125, 20.75, 20.375, 20.125, 20, 19.9375, 19.6875, 19.4375, 19.1875, 19, 19, 18.75, 18.5, 18.25, 17.9375, 17.8125, 17.6875, 17.5625, 17.294643, 16.982143, 16.9375, 16.625, 16.5, 16.3125, 16.0625, 16, 15.75, 15.5, 15.25, 15, 15, 14.8125, 14.5625, 14.3125, 14.0625, 14, 14, 13.9375, 13.6875, 13.4375, 13.125, 12.875, 12.6875, 12.4375, 12.25, 12.0625, 12, 12, 12, 12.0625, 12.25, 12.25, 12.25, 12.1875, 12, 12, 12.125, 12.125, 12.125, 12.125, 11.9375, 11.875, 11.875, 11.8125, 11.875, 11.9375, 11.9375, 12, 12, 12.0625, 12.0625, 12, 12, 11.875, 11.875, 11.9375, 11.9375, 12.0625, 12.0625, 12.0625, 12.0625, 12.0625, 11.910714, 11.705357, 11.508928, 11.3125, 11.375, 11.25, 11.1875, 11.25, 11.3125, 11.473214, 11.625, 11.75, 11.8125, 11.9375, 12, 12, 11.9375, 11.9375, 11.75, 11.714286, 11.785714, 11.75, 11.9375, 12.1875, 12.383333, -10, -10, -10, -10, -10, -10, -10, 27.5, 27.5, 27.677084, 27.84375, 27.96875, 28.178572, 28.602678, 29.035715, 29.375, 29.6875, 29.8125, 30.125, 30.5625, 31.053572, 31.348213, 31.741072, 31.803572, 31.875, 32.125, 32.5, 33.151787, 33.815475, 34.053574, 34.0625, 33.875, 33.625, 33.375, 33.428574, 33.67857, 33.8125, 34, 33.875, 34.017857, 34.404762, 35.166664, 35.708332, 36.805557, 37.273014, -10, -10, -10, 42.5, 43.333332, 43.458332, 42.844048, 41.565475, 41.119045, 41.053574, 41.339287, 41.654167, -10, -10, -10, -10, -10, -10, -10, -10, -10, -10, -10, 26.388891, 25.75, 25.333334, 24.642857, 24.520834, 24.4375, 24.40625, 24.607143, 24.975, 25, 25.322916, 25.25, 25.12755, 25.142857, 25.1875, 25.239796, 25.530611, 25.919643, 25.875, 25.75, 25.8125, 25.9375, 26.0625, 26.321428, 26.450001, 26.241072, 25.925594, 25.892857, 25.90625, 25.988838, 26.29241, 26.384375, 26.128719, 26.290178, 26.21875, 26.40625, 26.575893, 26.65625, 26.59375, 26.633928, 26.762501, 26.830357, 27, 27.089287, 27.450893, 27.936224, 28.24235, 28.080357, 28.029762, 28.189732, 28.109375, 28.180803, 28.4375, 28.428572, 28.726191, 28.732143, 28.75, 28.84375, 29.066963, 29.34375, 29.5625, 29.6875, 29.5, 29.530613, 29.831633, 29.892857, 30.142857, 30.178572, 30.142857, 30.214285, 30.321428, 30.581633, 30.944641, 30.645832, 30.767857, 30.75, 30.875
-10, -10, -10, -10, -10, -10, -10, -10, -10, -10, -10, -10, -10, -10, -10, -10, 31, 30.833334, 30.8125, 30.6875, 30.6875, 30.6875, 30.5625, 30.375, 30.1875, 30, 29.875, 29.625, 29.375, 29.1875, 28.875, 28.6875, 28.5, 28.3125, 28.1875, 28.0625, 27.875, 27.6875, 27.5, 27.3125, 27.1875, 27, 26.75, 26.5, 26.1875, 25.8125, 25.625, 25.4375, 25.25, 25.1875, 25, 24.8125, 24.5625, 24.3125, 24.125, 23.9375, 23.9375, 23.8125, 23.5625, 23.375, 23.125, 22.875, 22.8125, 22.6875, 22.428572, 22.041666, 21.651787, 21.5, 21.4375, 21.375, 21.3125, 21, 20.625, 20.3125, 20.0625, 20, 19.9375, 19.6875, 19.4375, 19.1875, 19, 19, 18.75, 18.5, 18.25, 18, 17.875, 17.6875, 17.5625, 17.232143, 16.919643, 16.875, 16.5625, 16.4375, 16.25, 16.0625, 16, 15.75, 15.5, 15.25, 15, 15, 14.8125, 14.5625, 14.3125, 14.0625, 14, 13.9375, 13.8125, 13.5625, 13.3125, 13, 12.75, 12.5625, 12.3125, 12.1875, 12, 11.875, 11.8125, 11.78125, 11.84375, 12.03125, 12.09375, 12.125, 12.125, 12, 12, 12.0625, 12.0625, 12.0625, 12.0625, 11.9375, 11.875, 11.875, 11.8125, 11.875, 11.9375, 11.9375, 12, 12, 12, 12, 12, 12, 11.9375, 11.9375, 11.9375, 11.9375, 12.125, 12.1875, 12.1875, 12.1875, 12.0625, 11.875, 11.8125, 11.625, 11.5, 11.5, 11.375, 11.375, 11.4375, 11.5625, 11.723214, 11.875, 11.9375, 11.9375, 12, 12, 12, 11.9375, 11.9375, 11.8125, 11.776786, 11.848214, 11.8125, 11.9375, 12.1875, 12.383333, -10, -10, -10, -10, -10, -10, -10, -10, 27.1875, 27.385418, 27.5625, 27.71875, 27.928572, 28.290178, 28.616072, 29, 29.375, 29.669643, 30, 30.375, 30.6875, 30.9375, 31.366072, 31.428572, 31.589287, 31.919643, 32.375, 33.026787, 33.482143, 33.6875, 33.625, 33.5, 33.25, 33.125, 33.214287, 33.392857, 33.5, 33.5625, 33.5625, 33.830357, 34.440475, 35.190475, 35.625, -10, -10, -10, -10, -10, -10, -10, 43.166664, 42.522621, 41.541668, 41.098213, 40.875, 41.151787, 41.445831, 42.0625, 42.4375, 42.625, -10, -10, -10, -10, -10, -10, -10, -10, -10, -10, -10, 24.017857, 23.916668, 23.875, 23.90625, 24.09375, 24.21875, 24.40625, 24.5625, 24.65625, 24.642857, 24.5, 24.5625, 24.803572, 25.035713, 25.25, 25.375, 25.3125, 25.40625, 25.40625, 25.553572, 25.675594, 25.575001, 25.383928, 25.196428, 25.25, 25.3125, 25.410713, 25.651785, 25.658928, 25.343536, 25.428572, 25, 25.276787, 25.342688, 26.025511, 26.035715, 26, 26, 25.875, 26, 25.959185, 26.229593, 26.160715, 26.309525, 26.7551, 27.133928, 27.392857, 27.5, 27.571428, 27.90625, 27.919643, 27.92857, 27.642857, 27.729593, 27.90625, 28.21875, 28.40625, 28.6875, 28.9375, 28.973213, 28.964287, 29.265306, 29.010416, 29.364584, 29.40625, 29.214285, 29.214285, 29.25, 29.696428, 29.8375, 29.593536, 30.125, 30.196428, 30.5, 30.428572, 30.383928, 30.28125, 30.056122, 30.121429, 30.183672, 30.7875, 30.696428, 30.9375, 30.8125, 31.026785, 31.325001, 31.196428, 31.258928, 31.0625, 30.875, 30.8125, 30.8125, 30.6875, 30.75, 30.678572, 30.055555, 30.138887, 30.444445, 30.619049, 30.625, 30.5, 30.208332, -10, -10, -10, -10, -10, -10, -10, -10, -10, -10, -10, -10, -10, -10, -10, -10, -10, -10, -10, -10, -10, -10, -10, -10, -10, -10, -10, -10, -10, -10, -10, -10, -10, -10, -10, -10, -10, -10, -10, -10, -10, 31.375, 31.166666, 31.0625, 30.875, 30.6875, 30.5625, 30.4375, 30.25, 30.125, 30, 29.875, 29.625, 29.375, 29.1875, 28.9375, 28.8125, 28.625, 28.375, 28.1875, 28, 27.875, 27.8125, 27.625, 27.4375, 27.25, 27.0625, 26.8125, 26.5625, 26.25, 25.75, 25.4375, 25.214287, 25.0625, 25.0625, 24.9375, 24.6875, 24.4375, 24.1875, 24.0625, 23.875, 23.875, 23.75, 23.5, 23.375, 23.125, 22.9375, 22.8125, 22.625, 22.366072, 21.979166, 21.758928, 21.6875, 21.5625, 21.375, 21.25, 20.8125, 20.5, 20.25, 20, 20, 19.9375, 19.6875, 19.4375, 19.1875, 19, 19, 18.75, 18.5, 18.25, 18, 17.875, 17.6875, 17.5625, 17.232143, 16.919643, 16.8125, 16.5, 16.375, 16.1875, 16.0625, 16, 15.75, 15.5, 15.25, 15, 15, 14.8125, 14.5625, 14.3125, 14.0625, 14, 13.875, 13.6875, 13.4375, 13.1875, 12.9375, 12.6875, 12.4375, 12.1875, 12.0625, 11.9375, 11.875, 11.75, 11.65625, 11.65625, 11.78125, 11.90625, 11.9375, 12, 11.9375, 11.9375, 12, 12, 12, 12, 11.9375, 11.875, 11.875, 11.8125, 11.875, 11.9375, 11.9375, 12, 12, 12, 11.9375, 11.9375, 11.9375, 11.875, 11.9375, 11.9375, 11.9375, 12.125, 12.1875, 12.1875, 12.1875, 12.0625, 11.9375, 11.9375, 11.8125, 11.75, 11.75, 11.6875, 11.75, 11.8125, 11.9375, 12.035714, 12.0625, 12, 11.9375, 11.9375, 11.9375, 12, 11.9375, 11.9375, 11.8125, 11.776786, 11.848214, 11.875, 12, 12.25, 12.416666, -10, -10, -10, -10, -10, -10, -10, -10, 26.770834, 27.000002, 27.125, 27.28125, 27.491072, 27.821428, 28.116072, 28.5, 28.9375, 29.294643, 29.6875, 30.125, 30.375, 30.625, 31.022322, 31.022322, 31.267857, 31.714287, 32.1875, 32.794643, 33.232143, 33.40625, 33.3125, 33.1875, 32.875, 32.8125, 32.9375, 33.044643, 33.1875, 33.1875, 33.3125, 33.747025, 34.744049, 35.42857, 35.791668, -10, -10, -10, -10, -10, -10, -10, 43.020832, 42.391666, 41.875, 41.544643, 41.40625, 41.651787, 41.862499, 42.291668, 42.5, 42.541668, 42.583336, 43, -10, -10, -10, -10, -10, -10, -10, -10, -10, 23.625, 23.458334, 23.40625, 23.34375, 23.40625, 23.46875, 23.6875, 23.9375, 24.200893, 24.236607, 24.09375, 24.15625, 24.334822, 24.598213, 24.75, 24.75, 24.6875, 24.71875, 24.799107, 25.232143, 25.270832, 24.761904, 24.642857, 24.357143, 24.535715, 24.607143, 24.719387, 25.142857, 25.008928, 23.783731, 23.416666, 23.083334, 23.357141, 24.32313, 24.285715, 24.494049, 24.589285, 24.541666, 24.857143, 24.821428, 24.908163, 25.025511, 25.209185, 25.357143, 25.5051, 25.698978, 26.261904, 26.273809, 26.352039, 26.625, 26.464285, 26.346937, 26.285715, 26.426022, 26.607143, 27.238096, 27.489796, 27.75, 28.09375, 28.129463, 28.120537, 28.015306, 27.976191, 28.489584, 28.46875, 28.5, 28.5, 28.375, 28.331633, 28.52857, 28.690475, 29.482143, 29.553572, 29.799999
-10, -10, -10, -10, -10, -10, -10, -10, -10, -10, -10, -10, -10, -10, -10, -10, 31.375, 31.25, 31.1875, 30.9375, 30.6875, 30.4375, 30.25, 30.125, 30.0625, 30, 29.8125, 29.5625, 29.3125, 29.125, 28.9375, 28.8125, 28.625, 28.375, 28.1875, 28, 27.875, 27.875, 27.75, 27.625, 27.5, 27.25, 26.9375, 26.580357, 26.25, 25.75, 25.375, 25.089287, 24.9375, 24.9375, 24.875, 24.625, 24.375, 24.125, 24, 23.8125, 23.75, 23.625, 23.375, 23.3125, 23.125, 22.875, 22.6875, 22.4375, 22.1875, 22.0625, 21.9375, 21.9375, 21.75, 21.5, 21.3125, 20.875, 20.5625, 20.3125, 20.0625, 20, 19.9375, 19.6875, 19.4375, 19.1875, 18.9375, 18.875, 18.625, 18.375, 18.1875, 18, 17.875, 17.6875, 17.5625, 17.294643, 17.089287, 16.9375, 16.5625, 16.375, 16.125, 16, 16, 15.8125, 15.5625, 15.3125, 15.0625, 15, 14.875, 14.625, 14.375, 14.125, 14, 13.8125, 13.5625, 13.3125, 13.0625, 12.875, 12.6875, 12.4375, 12.1875, 12.0625, 11.9375, 11.875, 11.75, 11.59375, 11.53125, 11.59375, 11.71875, 11.8125, 11.9375, 11.9375, 11.9375, 12, 12, 12, 12, 11.9375, 11.875, 11.875, 11.8125, 11.8125, 11.875, 11.875, 11.9375, 12, 11.9375, 11.8125, 11.8125, 11.8125, 11.8125, 11.9375, 11.9375, 11.9375, 12.125, 12.1875, 12.1875, 12.1875, 12.0625, 12, 12, 11.9375, 11.875, 11.875, 11.875, 11.9375, 12, 12, 12, 12, 11.875, 11.875, 11.875, 11.875, 12, 12, 12, 11.9375, 11.901786, 11.910714, 11.875, 11.9375, 12.1875, 12.333333, -10, -10, -10, -10, -10, -10, -10, -10, 26.4375, 26.687502, 26.78125, 26.9375, 27.1875, 27.375, 27.6875, 28.0625, 28.5, 28.919643, 29.1875, 29.580357, 30.017857, 30.410713, 30.75, 30.8125, 31.080357, 31.526787, 31.9375, 32.4375, 32.794643, 32.90625, 32.875, 32.8125, 32.625, 32.625, 32.6875, 32.6875, 32.75, 32.75, 33.044643, 33.9375, 34.875, 35.57143, 36.095238, -10, -10, -10, -10, -10, -10, -10, 42.9375, 42.558334, 42.111607, 41.825893, 41.71875, 41.9375, 42.125, 42.28125, 42.46875, 42.5, 42.444447, -10, -10, -10, -10, -10, -10, -10, -10, -10, -10, 23.416666, 22.958334, 22.90625, 22.84375, 22.678572, 22.678572, 23, 23.258928, 23.600893, 23.477678, 23.484694, 23.515306, 23.760204, 23.897959, 23.767857, 23.869047, 24.133928, 24.071428, 24.236607, 24.704082, 24.666666, 24.041666, 24, 23.8125, 23.9375, 24, 24.098213, 24.330357, 24.081633, 23.278913, 22.928572, 22.642857, 22.806122, 23.666668, 23.602041, 23.964287, 24.035713, 24, 24.125, 23.892857, 23.964285, 24.21875, 24.34375, 24.46875, 24.37755, 24.448978, 24.452383, 25.145237, 25.071428, 25.224489, 25.035715, 24.979593, 25, 25.283163, 25.553572, 26.364584, 26.647322, 26.9375, 26.910715, 26.951529, 26.811224, 26.780613, 26.970236, 27.363096, 27.65625, 27.625, 27.5625, 27.214285, 27.326532, 27.514286, 27.979166, 28.607143, 28.678572, 28.771427, 28.666668, 28.142859, 28.434525, 28.69375, 28.665178, 29.017857, 29.2875, 29.446428, 29.75, 29.821428, 30.214285, 30.450001, 30.321428, 30.383928, 30.223213, 30.026787, 30.125, 30.0625, 30.0625, 30.0625, 29.928572, 29.604166, 29.639881, 29.895834, 29.901787, 29.9375, 29.9375, 29.836309, 29.583334, 29.666666, 29.513887, 29.3125, 29.3125, 29.0625, 29, -10, -10, -10, -10, -10, -10, -10, -10, -10, -10, -10, -10, -10, -10, -10, -10, -10, -10, -10, -10, -10, -10, -10, -10, -10, -10, -10, -10, -10, -10, -10, -10, -10, -10, 31.375, 31.25, 31.1875, 30.9375, 30.625, 30.375, 30.1875, 30.0625, 30.0625, 30.0625, 29.9375, 29.6875, 29.4375, 29.1875, 28.875, 28.75, 28.5625, 28.3125, 28.1875, 28.0625, 27.9375, 27.9375, 27.8125, 27.6875, 27.625, 27.375, 27, 26.535713, 26.1875, 25.6875, 25.4375, 25.133928, 24.901787, 24.9375, 24.8125, 24.625, 24.375, 24.125, 24, 23.8125, 23.75, 23.5625, 23.3125, 23.25, 23.0625, 22.8125, 22.5625, 22.3125, 22.0625, 22, 21.9375, 21.875, 21.6875, 21.4375, 21.25, 20.9375, 20.625, 20.375, 20.125, 20, 19.9375, 19.6875, 19.375, 19.017857, 18.8125, 18.75, 18.5625, 18.375, 18.1875, 18, 17.875, 17.75, 17.5625, 17.3125, 17.1875, 16.9375, 16.625, 16.375, 16.125, 16, 16, 15.875, 15.625, 15.375, 15.125, 15, 14.875, 14.625, 14.375, 14.125, 14, 13.75, 13.5, 13.25, 13, 12.9375, 12.8125, 12.5625, 12.3125, 12.0625, 11.6875, 11.625, 11.4375, 11.34375, 11.28125, 11.28125, 11.40625, 11.5625, 11.75, 11.875, 11.9375, 12, 12, 12, 12, 12, 12, 12, 12, 11.9375, 11.9375, 11.9375, 11.9375, 12, 11.9375, 11.8125, 11.8125, 11.8125, 11.875, 12, 12, 12, 12.0625, 12.125, 12.1875, 12.25, 12.1875, 12.125, 12.0625, 11.9375, 11.875, 11.875, 11.9375, 12.0625, 12.125, 12.125, 12.0625, 12, 11.875, 11.875, 11.875, 11.8125, 11.875, 11.875, 11.875, 11.9375, 11.9375, 11.8125, 11.75, 11.6875, 11.946428, 12.249999, -10, -10, -10, -10, -10, -10, -10, 26, 26.1875, 26.354168, 26.46875, 26.625, 26.875, 27.0625, 27.25, 27.5625, 27.90625, 28.325893, 28.65625, 29.080357, 29.595982, 30.051338, 30.328125, 30.446428, 30.8125, 31.339287, 31.8125, 32.107143, 32.1875, 32.28125, 32.1875, 32.25, 32.1875, 32.25, 32.375, 32.4375, 32.4375, 32.5, 32.848213, 33.979168, 35.01786, 35.904762, 36.440475, 37, -10, -10, -10, -10, 42.5, -10, 42.6875, 42.395832, 42.236607, 42.03125, 41.90625, 42.0625, 42.25, 42.285713, 42.339287, 42.3125, 42.166668, -10, -10, -10, -10, -10, -10, -10, -10, -10, -10, -10, 22.666666, 22.583334, 22.5, 22.458334, 22.458334, 22.21875, 22.415178, 22.694643, 22.382654, 21.901785, 21.842262, 22.074404, 22.095238, 22.821428, 23.180271, 23.526785, 23.464285, 23.389456, 22.873014, 23.055555, 23.291666, 23.375, 23.375, 23.4375, 23.375, 23.375, 23.4375, 23.321428, 22.770834, 22.464287, 22.25, 22.392857, 22.854168, 22.964287, 23.151787, 23.223213, 23.1875, 23.3125, 23.25, 23.375, 23.5, 23.65625, 23.535715, 23.428572, 23.341837, 23.530613, 24.00238, 23.9949, 24.045918, 23.892857, 23.87755, 23.964285, 24.275511, 24.8125, 25.273809, 25.741072, 25.892857, 26.053572, 25.966837, 25.709183, 25.627552, 26.020832, 26.395834, 26.5625, 26.392857, 26.357143, 26.285715, 26.6875, 26.982143, 27.294643, 27.465305, 27.54422, 27.353062
-10, -10, -10, -10, -10, -10, -10, -10, -10, -10, -10, -10, -10, -10, -10, -10, 31.25, 31.166666, 31.125, 30.875, 30.625, 30.375, 30.125, 30.0625, 30, 29.9375, 29.875, 29.625, 29.375, 29.1875, 28.875, 28.75, 28.5, 28.25, 28.125, 28, 28, 27.9375, 27.75, 27.625, 27.5625, 27.348213, 26.955357, 26.55357, 26.25, 25.875, 25.6875, 25.3125, 24.901787, 24.9375, 24.75, 24.625, 24.375, 24.125, 24, 23.875, 23.8125, 23.625, 23.375, 23.25, 23.0625, 22.875, 22.625, 22.375, 22.125, 22, 22, 21.875, 21.625, 21.375, 21.125, 20.9375, 20.6875, 20.4375, 20.1875, 20, 19.9375, 19.6875, 19.3125, 18.919643, 18.75, 18.6875, 18.625, 18.4375, 18.25, 18.0625, 17.9375, 17.875, 17.625, 17.375, 17.1875, 16.875, 16.625, 16.375, 16.125, 16, 16, 15.875, 15.625, 15.375, 15.125, 15, 14.9375, 14.6875, 14.4375, 14.1875, 14, 13.8125, 13.5625, 13.3125, 13.0625, 13, 12.9375, 12.6875, 12.4375, 12.0625, 11.625, 11.5625, 11.375, 11.3125, 11.1875, 11.125, 11.1875, 11.375, 11.625, 11.8125, 11.9375, 12, 12, 12, 12, 12, 12, 12, 12, 11.9375, 11.9375, 11.9375, 11.9375, 12, 12, 11.875, 11.875, 11.875, 11.875, 12, 11.9375, 11.9375, 11.9375, 12, 12.1875, 12.25, 12.25, 12.1875, 12.0625, 12, 11.9375, 11.9375, 12, 12.0625, 12.125, 12.125, 12.0625, 12, 11.875, 11.875, 11.875, 11.75, 11.75, 11.6875, 11.65625, 11.75, 11.875, 11.8125, 11.71875, 11.705357, 12.029761, 12.316666, -10, -10, -10, -10, -10, -10, 25.625, 25.722221, 25.78125, 25.967262, 26.270834, 26.491072, 26.6875, 26.75, 26.875, 27, 27.28125, 27.65625, 28.075893, 28.580357, 29.158482, 29.613838, 29.953125, 30.196428, 30.705359, 31.169643, 31.5625, 31.732143, 31.6875, 31.71875, 31.464285, 31.75, 31.75, 31.8125, 31.9375, 31.9375, 31.9375, 32.07143, 32.685715, 34.041668, 35.089287, 36.130951, 36.702381, 37, -10, -10, -10, -10, 42.666668, 43, 42.8125, 42.645832, 42.59375, 42.46875, 42.40625, 42.4375, 42.5625, 42.410713, 42.276787, 42.1875, 41.916668, -10, -10, -10, 42.5, 42.5, -10, -10, -10, 42, -10, -10, -10, -10, -10, -10, -10, 21.75, 22.011904, 21.518368, 21.293367, 21.058672, 21.079082, 21.313776, 21.367346, 22.1875, 22.407738, 22.659182, 21.791666, 21.652779, 22.074829, 22.166666, 22.541666, 22.875, 22.973213, 23.03125, 22.90625, 22.8125, 22.535715, 22.428572, 22.333334, 22.107143, 22, 22.071428, 22.270834, 22.419643, 22.651787, 22.723213, 22.75, 22.607143, 22.607143, 22.479166, 22.795918, 22.928572, 22.754463, 22.71875, 22.736607, 22.875, 23.283333, 23.276787, 23.258928, 23.1875, 23.25, 23.46875, 23.8125, 24.125, 24.404764, 24.602041, 25.25, 25.303572, 25.160715, 24.405611, 24.584185, 24.90476, 25.107143, 25.178572, 25.107143, 25.375, 25.357143, 25.854166, 26.232143, 26.535715, 26.404083, 26.442179, 26.181631, 26.353743, 26.446428, 27.187502, 27.394644, 27.446428, 27.357143, 27.625, 27.714285, 27.862244, 28.112244, 28.598213, 28.214285, 28.535715, 28.478573, 28.544641, 28.693453, 29.083334, 29.107143, 29.1875, 29.0625, 28.875, 28.8125, 28.848213, 28.9375, 28.919643, 28.9375, 28.9375, 28.88393, 28.9375, 29.0625, 29.09375, 29.09375, 29.022322, 28.65625, 28.625, 28.25, 28.119049, 28.111113, 27.875, 28, 28, -10, -10, -10, -10, -10, -10, -10, -10, -10, -10, -10, -10, -10, -10, -10, -10, -10, -10, -10, -10, -10, -10, -10, -10, -10, -10, -10, -10, 31, 31, 31, 30.8125, 30.625, 30.375, 30.125, 30.0625, 30, 29.9375, 29.8125, 29.5625, 29.3125, 29.125, 28.875, 28.75, 28.5, 28.25, 28.125, 28, 27.9375, 27.8125, 27.625, 27.5, 27.5, 27.285713, 26.892857, 26.49107, 26.1875, 25.9375, 25.8125, 25.473215, 25.026787, 25, 24.75, 24.625, 24.375, 24.125, 24, 23.9375, 23.875, 23.6875, 23.4375, 23.25, 23.0625, 22.8125, 22.5625, 22.3125, 22.0625, 22, 22, 21.8125, 21.5625, 21.3125, 21.0625, 21, 20.75, 20.5, 20.25, 20, 19.9375, 19.6875, 19.3125, 18.919643, 18.75, 18.625, 18.5625, 18.375, 18.1875, 18.0625, 18, 18, 17.75, 17.5, 17.25, 16.9375, 16.6875, 16.4375, 16.1875, 16, 16, 15.875, 15.625, 15.375, 15.125, 15, 14.9375, 14.6875, 14.4375, 14.1875, 14, 13.875, 13.6875, 13.5, 13.25, 13.125, 13.0625, 12.75, 12.5, 12.0625, 11.5, 11.375, 11.1875, 11.1875, 11.125, 11.0625, 11.125, 11.4375, 11.723214, 11.9375, 12.0625, 12, 12, 12, 12, 12, 12, 12.0625, 12.0625, 12, 12, 11.9375, 11.9375, 12, 12, 11.9375, 11.9375, 11.9375, 11.9375, 12, 11.875, 11.875, 11.875, 11.9375, 12.1875, 12.25, 12.1875, 12.125, 12, 11.9375, 11.9375, 11.9375, 11.9375, 11.9375, 12, 12, 12, 12, 11.9375, 11.9375, 11.9375, 11.8125, 11.75, 11.625, 11.53125, 11.5625, 11.6875, 11.75, 11.825893, 11.892857, 12.217261, 12.483334, -10, -10, -10, -10, -10, -10, 25.5, 25.583332, 25.5625, 25.602678, 25.833334, 26.132654, 26.295918, 26.330357, 26.571428, 26.8125, 27.03125, 27.28125, 27.54018, 27.955357, 28.76265, 29.22991, 29.640625, 29.946428, 30.495537, 30.90625, 31.25, 31.294643, 31.1875, 31.1875, 31.125, 31.3125, 31.375, 31.4375, 31.5, 31.5, 31.5, 31.741072, 32.769047, 34.232143, 35.071426, 36.059521, 36.952381, 37.321426, -10, -10, -10, -10, 42.625, 42.916668, 42.875, 42.8125, 42.71875, 42.59375, 42.5, 42.4375, 42.5625, 42.473213, 42.370537, 42.34375, 42.0625, -10, -10, -10, 42.5, 42.583332, -10, -10, -10, 42.333332, -10, -10, -10, -10, -10, -10, -10, -10, -10, 20.561905, 20.728571, 20.473213, 20.491072, 20.633928, 20.696428, 21.1875, 21.470238, 20.859522, 21.083334, 20.692179, 21.101191, 21.25, 21.5625, 21.96875, 22.129463, 22.375, 22, 21.9375, 21.875, 21.875, 21.875, 21.75, 21.75, 21.75, 21.6875, 21.8125, 22, 22, 22.142857, 22.357143, 22.169643, 21.619047, 21.593254, 21.657738, 22.129463, 22.15625, 22.308037, 22.517857, 22.637501, 22.526787, 22.383928, 22.3125, 22.4375, 22.696428, 23.270834, 23.482143, 23.6875, 23.75, 23.291666, 23.28125, 23.197916, 23.382654, 23.745537, 24.135416, 24.178572, 24.25, 24.214285, 23.958334, 24.265306, 25.041666, 25.419643, 25.575893, 25.342855, 25.309525, 25.045918
-10, -10, -10, -10, -10, -10, -10, -10, -10, -10, -10, -10, -10, -10, -10, -10, 31, 31, 30.9375, 30.8125, 30.625, 30.375, 30.1875, 30.0625, 30, 29.9375, 29.8125, 29.5625, 29.3125, 29.125, 28.9375, 28.875, 28.625, 28.375, 28.1875, 28, 27.875, 27.6875, 27.4375, 27.25, 27.25, 27.098213, 26.767857, 26.473213, 26.1875, 26, 25.875, 25.535715, 25.089287, 25, 24.75, 24.625, 24.375, 24.125, 24, 24, 23.9375, 23.75, 23.5, 23.25, 23.0625, 22.8125, 22.5625, 22.3125, 22.0625, 22, 22, 21.8125, 21.5625, 21.3125, 21.0625, 21, 20.8125, 20.5625, 20.3125, 20.0625, 19.9375, 19.75, 19.4375, 19.107143, 18.991072, 18.666666, 18.571428, 18.375, 18.1875, 18.0625, 17.9375, 17.875, 17.625, 17.375, 17.1875, 16.9375, 16.75, 16.5, 16.1875, 15.964286, 15.9375, 15.75, 15.5625, 15.3125, 15.0625, 15, 14.9375, 14.6875, 14.4375, 14.1875, 14, 13.9375, 13.8125, 13.6875, 13.4375, 13.25, 13.125, 12.75, 12.5, 12.0625, 11.5, 11.375, 11.125, 11.125, 11.0625, 11, 11.0625, 11.375, 11.660714, 11.8125, 11.9375, 11.8125, 11.8125, 11.875, 11.9375, 12, 12, 12.125, 12.125, 12.125, 12.125, 12, 12, 12, 12, 12, 12, 12, 12, 12, 11.875, 11.875, 11.875, 11.9375, 12.1875, 12.25, 12.1875, 12.125, 12, 11.9375, 12, 12, 12, 12, 12, 12, 12, 12, 12, 12, 12, 11.875, 11.75, 11.625, 11.53125, 11.5625, 11.6875, 11.75, 11.825893, 11.892857, 12.217261, 12.483334, -10, -10, -10, -10, -10, -10, 25.291666, 25.270832, 25.3125, 25.290178, 25.458334, 25.316326, 25.413265, 25.892857, 26.25, 26.473213, 26.65625, 26.78125, 26.97768, 27.419643, 28.286457, 28.694197, 29.109375, 29.415178, 30.111609, 30.638393, 30.9375, 30.919643, 30.75, 30.6875, 30.625, 30.8125, 30.9375, 31.0625, 31.1875, 31.25, 31.25, 31.598215, 32.995239, 34.255951, 35.285713, 36.345238, 37.202381, 37.714287, 38.9375, 39.642857, 41.125, 41.785713, 42.625, 42.6875, 42.75, 42.6875, 42.625, 42.5625, 42.5, 42.5, 42.625, 42.535713, 42.401787, 42.3125, 42.083332, 42.5, 42.625, 42.625, 42.625, 42.625, 42.75, 42.875, 42.875, 42.5, 43, -10, -10, -10, -10, -10, -10, -10, -10, 19.916666, 20.049999, 19.9375, 20.026787, 20.098213, 20.196428, 20.275511, 20.2449, 19.981632, 19.75, 20.136906, 20.494047, 20.5, 20.785715, 21.071428, 21.147959, 20.979166, 21.142857, 21.25, 21.1875, 21.1875, 21.125, 21.0625, 21.0625, 21.125, 21.035713, 21.026787, 21.25, 21.1875, 21.392857, 21.836735, 21.586735, 20.916666, 21.22279, 21.260204, 21.4949, 21.50625, 21.739796, 21.897959, 21.857143, 21.633928, 21.8125, 21.678572, 21.821428, 22.102678, 22.520834, 22.607143, 22.8125, 22.714285, 22.642857, 22.484694, 22.448978, 22.403061, 22.888393, 23.15625, 23.34375, 23.4375, 23.375, 23.28125, 23.229593, 23.848639, 24.275511, 24.454082, 24.385714, 24.333334, 24.258928, 24.455357, 24.970238, 25.870239, 26.12245, 26.102041, 25.857143, 25.25, 25.571428, 26.452381, 26.63393, 26.785713, 26.5625, 26.598215, 26.700001, 26.633928, 26.619047, 26.680555, 26.904762, 27.428572, 27.785713, 27.785713, 27.6875, 27.625, 27.625, 27.732143, 28.071428, 27.6875, 27.589287, 27.6875, 27.8125, 28.125, 28.25, 28.178572, 27.9375, 27.875, 27.75, 27.714287, 27.8125, 27.75, 27.8125, 27.8125, 27.75, 27.833334, 27.916666, 28, 28, -10, -10, -10, -10, -10, -10, -10, -10, -10, -10, -10, -10, -10, -10, -10, -10, -10, -10, -10, -10, -10, -10, -10, 30.875, 30.916666, 30.875, 30.8125, 30.75, 30.5, 30.3125, 30.125, 30, 29.9375, 29.8125, 29.5625, 29.3125, 29.125, 28.9375, 28.875, 28.625, 28.375, 28.1875, 28, 27.8125, 27.5625, 27.3125, 27.0625, 27.0625, 26.973213, 26.642857, 26.455357, 26.1875, 26.0625, 25.866072, 25.428572, 25.125, 24.9375, 24.8125, 24.625, 24.375, 24.125, 24, 24, 23.9375, 23.75, 23.5, 23.25, 23.0625, 22.8125, 22.5625, 22.3125, 22.0625, 22, 21.9375, 21.75, 21.5, 21.25, 21.0625, 21, 20.875, 20.625, 20.375, 20.125, 19.9375, 19.8125, 19.625, 19.464287, 19.294643, 18.708332, 18.517857, 18.25, 18.125, 18.0625, 17.875, 17.75, 17.5, 17.25, 17.125, 16.9375, 16.8125, 16.5625, 16.1875, 15.928572, 15.875, 15.6875, 15.5625, 15.3125, 15.0625, 14.9375, 14.8125, 14.5625, 14.3125, 14.125, 14, 13.9375, 13.8125, 13.6875, 13.4375, 13.25, 13.125, 12.75, 12.5, 12.125, 11.75, 11.625, 11.4375, 11.3125, 11.25, 11.1875, 11.1875, 11.5, 11.723214, 11.75, 11.8125, 11.6875, 11.6875, 11.8125, 11.9375, 12, 12, 12.125, 12.125, 12.125, 12.125, 12, 12, 12, 12, 12, 12, 12, 12, 12, 11.875, 11.875, 11.875, 11.9375, 12.125, 12.125, 12.0625, 12, 11.9375, 11.9375, 11.9375, 11.9375, 12, 12.035714, 12.0625, 12.0625, 12, 12, 12, 12, 12, 11.9375, 11.875, 11.75, 11.71875, 11.6875, 11.75, 11.875, 11.950893, 12.080357, 12.489583, 12.608334, -10, -10, -10, -10, -10, 24.5, 24.791666, 24.770832, 24.875, 24.915178, 25.145834, 24.959183, 24.984694, 25.392857, 25.776787, 26.142857, 26.366072, 26.5, 26.63393, 27.044643, 27.940475, 28.303572, 28.78125, 29.15625, 29.861609, 30.325893, 30.5, 30.5, 30.4375, 30.375, 30.4375, 30.5625, 30.6875, 30.8125, 30.9375, 31.0625, 31.178572, 31.827381, 33.316666, 34.401787, 35.464287, 36.440475, 37.452381, 38.14286, 39.19643, 39.904758, 41, 41.523808, 42.1875, 42.3125, 42.4375, 42.5, 42.5, 42.5, 42.5, 42.5, 42.5625, 42.5, 42.4375, 42.375, 42.25, 42.416668, 42.583332, 42.583332, 42.625, 42.53125, 42.444443, 42.875, 42.875, 42.666668, 43, -10, -10, -10, -10, -10, -10, -10, -10, 19.555555, 19.295238, 19.15, 19.241072, 19.3125, 19.375, 19.178572, 19.214285, 19.2875, 19.5, 19.678572, 19.879463, 19.84375, 20.053572, 20.188776, 20.25, 20.232143, 20.330357, 20.535715, 20.5, 20.294643, 20.479166, 20.5, 20.5, 20.4375, 20.348213, 20.276787, 20.4375, 20.4375, 20.642857, 20.632654, 20.408163, 20.041666, 19.853743, 19.826529, 20.12755, 20.6625, 20.214285, 20.285713, 20.166666, 20.484694, 20.9625, 21.025511, 21.107143, 21.239796, 21.190477, 21.37755, 21.571428, 21.8125, 21.928572, 21.580357, 21.642857, 21.71875, 22.138393, 22.357143, 22.571428, 22.642857, 22.446428, 22.34375, 22.544643, 22.860546, 23.214285, 23.357143, 23.5, 23.464287, 23.336735
-10, -10, -10, -10, -10, -10, -10, -10, -10, -10, -10, -10, -10, -10, -10, -10, 30.875, 30.916666, 30.875, 30.875, 30.8125, 30.5625, 30.375, 30.125, 30, 30, 29.875, 29.625, 29.375, 29.125, 28.9375, 28.8125, 28.5625, 28.3125, 28.125, 28, 27.75, 27.5, 27.25, 27, 27, 26.9375, 26.6875, 26.4375, 26.1875, 26, 25.741072, 25.3125, 25.089287, 24.875, 24.875, 24.6875, 24.4375, 24.1875, 24, 24, 23.875, 23.625, 23.375, 23.125, 23, 22.8125, 22.5625, 22.3125, 22.0625, 22, 21.9375, 21.75, 21.5, 21.25, 21.0625, 21, 20.875, 20.625, 20.375, 20.125, 19.9375, 19.875, 19.8125, 19.75, 19.544643, 18.895832, 18.580357, 18.25, 18.125, 18.0625, 17.8125, 17.625, 17.375, 17.125, 17.0625, 17, 16.9375, 16.6875, 16.3125, 15.991072, 15.875, 15.75, 15.6875, 15.4375, 15.1875, 15, 14.75, 14.5, 14.25, 14.0625, 14, 13.9375, 13.8125, 13.6875, 13.4375, 13.25, 13.0625, 12.6875, 12.4375, 12.125, 11.8125, 11.75, 11.625, 11.5, 11.4375, 11.3125, 11.3125, 11.5625, 11.785714, 11.75, 11.75, 11.625, 11.625, 11.8125, 11.9375, 12, 11.9375, 12.089286, 12.160714, 12.125, 12.1875, 12, 12, 12, 12, 12, 12, 12.0625, 12.0625, 12.0625, 12, 11.9375, 11.9375, 11.9375, 12, 12, 11.9375, 11.9375, 11.9375, 11.9375, 11.9375, 11.9375, 12, 12.035714, 12.0625, 12.0625, 12, 12, 12, 12, 12, 12, 12, 11.9375, 11.96875, 11.96875, 11.96875, 12.09375, 12.232143, 12.3125, 12.65625, 12.791666, -10, -10, -10, -10, -10, -10, 24.479166, 24.479166, 24.59375, 24.65625, 24.6875, 24.71875, 24.861607, 25.174107, 25.683037, 26.142857, 26.303572, 26.3125, 26.276787, 26.616072, 27.565475, 27.928572, 28.40625, 28.71875, 29.441965, 29.924107, 30.0625, 30.0625, 29.9375, 29.946428, 30.1875, 30.25, 30.517857, 30.833334, 31.053572, 31.3125, 31.5, 32.255951, 33.555553, 34.651787, 35.714287, 36.535713, 37.690475, 38.726192, 39.433037, 40.08482, 40.96875, 41.392857, 41.6875, 41.8125, 42, 42.125, 42.1875, 42.25, 42.25, 42.3125, 42.375, 42.375, 42.375, 42.3125, 42.25, 42.3125, 42.4375, 42.40625, 42.46875, 42.34375, 42.25, -10, -10, -10, -10, -10, -10, -10, -10, -10, -10, -10, -10, -10, 17.588888, 18.171429, 18.442179, 18.625, 18.651787, 18.5625, 18.625, 18.6875, 18.75, 19.0625, 19.191963, 19.21875, 19.366072, 19.486607, 19.650894, 19.477678, 19.441963, 19.125, 19.214285, 19.551022, 19.979166, 20, 20, 19.9375, 19.848213, 19.530613, 19.607143, 19.607143, 19.724489, 19.846939, 19.714285, 19.5, 19.511906, 19.433672, 19.62245, 19.828571, 19.612244, 19.653061, 19.535715, 19.724489, 20.248215, 19.258928, 19.014881, 18.973215, 20.09524, 20.428572, 20.642857, 20.714285, 20.5, 20.830357, 20.955357, 21, 21.28125, 21.59375, 22.035715, 21.767857, 21.438776, 21.482143, 21.875, 22.169643, 22.4375, 22.53125, 22.285715, 22.464287, 22.607143, 22.9375, 23.595238, 23.844896, 23.785715, 23.596939, 23.357143, 23.306122, 23.904762, 24.72024, 24.62245, 25.026787, 25.035713, 24.642857, 24.714285, 24.836735, 25.116072, 25.375, 25.5625, 25.78125, 25.523809, 25.523809, 25.541666, 25.458334, 25.714285, 25.75, 25.785715, 26.125, 26.1875, 25.964285, 26.276787, 26.678572, 27.074406, 27.169643, 27.1875, 27.125, 27.125, 27.1875, 27.3125, 27.3125, 27.3125, 27.4375, 27.4375, 27.5, 27.625, 27.625, 27.666666, -10, -10, -10, -10, -10, -10, -10, -10, -10, -10, -10, -10, -10, -10, -10, -10, -10, -10, -10, -10, -10, -10, -10, 30.875, 31, 30.9375, 30.875, 30.767857, 30.5, 30.3125, 30.125, 30, 30, 29.9375, 29.6875, 29.4375, 29.1875, 28.9375, 28.75, 28.5, 28.25, 28.0625, 28, 27.75, 27.5, 27.25, 27, 27, 27, 26.75, 26.5, 26.25, 26, 25.803572, 25.375, 25.151787, 24.9375, 24.9375, 24.75, 24.5, 24.1875, 23.9375, 23.9375, 23.75, 23.5625, 23.3125, 23.0625, 23, 22.875, 22.625, 22.375, 22.125, 22, 21.9375, 21.75, 21.5, 21.25, 21.0625, 21, 20.875, 20.625, 20.375, 20.125, 19.9375, 19.9375, 19.875, 19.875, 19.669643, 18.958332, 18.598215, 18.25, 18.125, 18.0625, 17.8125, 17.5625, 17.3125, 17.0625, 17, 17, 16.9375, 16.6875, 16.3125, 15.991072, 15.875, 15.75, 15.6875, 15.4375, 15.116072, 14.75, 14.5625, 14.3125, 14.1875, 14.0625, 14, 13.9375, 13.8125, 13.625, 13.375, 13.1875, 13, 12.6875, 12.4375, 12.1875, 11.866072, 11.6875, 11.625, 11.5, 11.5, 11.375, 11.375, 11.4375, 11.5625, 11.5625, 11.5625, 11.5625, 11.625, 11.8125, 11.9375, 11.9375, 11.8125, 11.839286, 11.910714, 11.9375, 12.0625, 12, 12, 12, 12, 12, 12, 12, 12, 12, 12, 12, 12, 12, 12, 12.0625, 12.0625, 12, 11.964286, 11.9375, 11.875, 11.9375, 12, 12.035714, 12, 12, 11.9375, 11.9375, 12, 12, 12, 12, 12, 12, 12.09375, 12.15625, 12.15625, 12.21875, 12.160714, 12.017857, 12.299107, 12.523809, -10, -10, -10, -10, -10, -10, 24.166666, 24.1875, 24.25, 24.3125, 24.375, 24.46875, 24.71875, 24.90625, 25.330357, 25.736607, 25.897322, 26.03125, 26.0625, 26.366072, 27.023809, 27.321428, 28, 28.375, 29.098215, 29.517857, 29.59375, 29.625, 29.5, 29.580357, 30, 30, 30.330357, 30.645834, 30.991072, 31.419643, 31.666666, 32.531746, -10, 34.919643, 35.857143, 36.702381, 37.898811, 38.976192, 39.683037, 40.22768, 40.71875, 40.991074, 41.1875, 41.375, 41.75, 41.875, 42, 42, 42, 42.0625, 42.125, 42.125, 42.125, 42, 41.9375, 42.0625, 42.1875, 42.21875, 42.21875, 41.96875, 41.8125, -10, -10, -10, -10, -10, -10, -10, -10, -10, -10, -10, -10, -10, 16.761904, 17.266666, 17.761906, 17.8125, 17.901787, 17.875, 17.96875, 18.1875, 18.375, 18.6875, 18.785713, 18.5, 18.382654, 18.684523, 19.015476, 18.8125, 18.74107, 18.6875, 18.776787, 19.273809, 19.5625, 19.416666, 19.321428, 19.25, 19.160713, 19.058037, 19.15625, 19.15625, 19.28125, 19.25, 19.1875, 19.09375, 19, 18.9375, 18.919643, 19.095535, 19.035713, 19.107143, 19.125, 19.25, 19.560715, 18.650511, 18.334185, 18.221939, 19.166668, 19.508928, 19.71875, 19.607143, 19.642857, 19.724489, 20.142857, 20.1875, 20.4375, 20.625, 20.535715, 20.520407, 20.696428, 20.875, 21.291666, 21.482143, 21.448978, 21.392857, 21.25, 21.352041, 21.794643
-10, -10, -10, -10, -10, -10, -10, -10, -10, -10, -10, -10, -10, -10, -10, -10, 30.875, 31.083334, 31.035713, 30.830357, 30.714287, 30.4375, 30.25, 30.125, 30, 30, 29.9375, 29.6875, 29.5, 29.25, 28.9375, 28.642857, 28.375, 28.125, 28, 28, 27.8125, 27.5625, 27.3125, 27.0625, 27, 27, 26.75, 26.5, 26.25, 26, 25.866072, 25.4375, 25.214287, 25, 24.9375, 24.75, 24.5, 24.1875, 23.9375, 23.875, 23.6875, 23.5, 23.25, 23.0625, 23, 22.9375, 22.6875, 22.4375, 22.1875, 22, 21.9375, 21.6875, 21.4375, 21.1875, 21, 21, 20.875, 20.625, 20.375, 20.125, 20, 19.9375, 19.8125, 19.75, 19.491072, 18.979166, 18.714285, 18.375, 18.1875, 18.125, 17.875, 17.6875, 17.4375, 17.1875, 17.0625, 17, 16.875, 16.625, 16.3125, 16.026787, 15.9375, 15.8125, 15.6875, 15.4375, 15.116072, 14.6875, 14.4375, 14.1875, 14.0625, 14, 14, 13.9375, 13.75, 13.5, 13.25, 13.0625, 12.9375, 12.6875, 12.4375, 12.1875, 11.794643, 11.354167, 11.330357, 11.25, 11.375, 11.375, 11.4375, 11.4375, 11.5625, 11.625, 11.625, 11.75, 11.8125, 11.875, 11.9375, 11.9375, 11.848214, 11.839286, 11.910714, 11.875, 11.9375, 11.875, 11.875, 11.875, 11.9375, 12, 12, 11.9375, 11.875, 11.8125, 11.8125, 11.875, 11.9375, 12, 12, 12.0625, 12.0625, 11.9375, 11.839286, 11.8125, 11.75, 11.875, 12, 12.035714, 12, 12, 11.9375, 11.9375, 12, 12, 12, 12, 12, 12, 12.09375, 12.15625, 12.15625, 12.21875, 12.160714, 12.017857, 12.299107, 12.238095, -10, -10, -10, -10, -10, -10, 24, 24, 23.9375, 23.875, 23.901787, 24.03125, 24.34375, 24.5625, 24.745537, 25.075893, 25.454082, 25.660715, 25.65625, 25.946428, 26.388393, 26.714287, 27.6875, 28.169643, 28.794643, 29.035713, 29.125, 29.125, 29.0625, 29.267857, 29.75, 29.875, 30.267857, 30.645834, 30.991072, 31.419643, 31.888887, -10, -10, 35.1875, 35.928574, 36.702381, 37.898811, 39.011906, 39.75893, 40.200893, 40.40625, 40.625, 40.8125, 41.125, 41.75, 41.875, 42.0625, 42, 42, 42, 42, 41.9375, 41.875, 41.6875, 41.53125, 41.59375, 41.71875, 41.75, 41.78125, 41.59375, 41.4375, -10, -10, -10, -10, -10, -10, -10, -10, -10, -10, -10, -10, -10, 16.388887, 16.358334, 16.711905, 16.919643, 17.080357, 17.125, 17.21875, 17.4375, 17.5625, 17.75, 17.8125, 17.78125, 17.678572, 17.741497, 18.315475, 17.895834, 17.92857, 17.875, 18.151787, 18.818453, 19.169643, 18.916666, 18.821428, 18.6875, 18.6875, 18.65625, 18.71875, 18.71875, 18.71875, 18.65625, 18.625, 18.59375, 18.625, 18.59375, 18.5, 18.495537, 18.565475, 18.528572, 18.75, 18.75, 18.779465, 18.084822, 17.714287, 17.660715, 18.416668, 18.758928, 18.75, 18.84375, 18.8125, 18.9375, 19.1875, 19.34375, 19.403061, 19.773809, 19.87245, 19.867346, 20.133928, 20.375, 20.827381, 20.90625, 20.861607, 20.65625, 20.46875, 20.558037, 20.888393, 20.928572, 21.25, 21.166666, 21.279762, 21.9375, 21.571428, 22.059523, 22.738096, 23.169643, 23.354166, 23.744049, 23.755951, 23.35, 22.964285, 22.710318, 22.900793, 24.5, -10, -10, -10, 24.125, 23.927084, 23.9375, 24.125, 24.3125, 24.375, 24.4375, 24.2449, 24.5, 24.639286, 25.460318, -10, -10, -10, 26.75, 26.875, 26.9375, 27.03125, 27.0625, 27, 27.1875, 27.1875, 27.125, 27.0625, 26.875, 26.833332, -10, -10, -10, -10, -10, -10, -10, -10, -10, -10, -10, -10, -10, -10, -10, -10, -10, -10, -10, -10, -10, -10, -10, 31, 31.25, 31.133928, 30.785713, 30.535715, 30.25, 30.125, 30.0625, 30, 30, 29.9375, 29.6875, 29.5, 29.25, 29, 28.705357, 28.4375, 28.1875, 28, 27.9375, 27.75, 27.5, 27.25, 27.0625, 26.9375, 26.9375, 26.6875, 26.4375, 26.25, 26, 25.875, 25.5625, 25.276787, 25, 24.8125, 24.6875, 24.4375, 24.1875, 24, 23.8125, 23.5625, 23.375, 23.125, 22.9375, 22.9375, 22.9375, 22.6875, 22.5, 22.25, 22, 22, 21.75, 21.5, 21.25, 21, 21, 20.875, 20.625, 20.375, 20.125, 20, 19.875, 19.6875, 19.5625, 19.3125, 19.0625, 18.830357, 18.5, 18.25, 18.125, 17.9375, 17.8125, 17.5625, 17.3125, 17.125, 17, 16.8125, 16.5625, 16.3125, 16.0625, 16, 15.875, 15.75, 15.5, 15.178572, 14.75, 14.4375, 14.1875, 14.0625, 14, 14, 13.9375, 13.75, 13.5, 13.25, 13.0625, 12.875, 12.625, 12.375, 12.0625, 11.732143, 11.291667, 11.1875, 11.0625, 11.1875, 11.125, 11.3125, 11.25, 11.4375, 11.625, 11.6875, 11.875, 11.9375, 11.9375, 11.9375, 11.9375, 11.910714, 11.901786, 11.973214, 12, 12.0625, 11.982143, 11.791667, 11.767857, 11.8125, 11.9375, 12, 11.9375, 11.8125, 11.75, 11.75, 11.875, 12, 12.0625, 12.0625, 12.0625, 12.0625, 11.875, 11.776786, 11.75, 11.6875, 11.875, 11.9375, 11.9375, 11.9375, 11.9375, 11.9375, 11.9375, 12, 12, 12, 12, 12, 12, 12.03125, 12.09375, 12.09375, 12.15625, 12.160714, 12.017857, 12.267857, 12.333333, -10, -10, -10, -10, -10, -10, 23.875, 23.833334, 23.6875, 23.4375, 23.401787, 23.267857, 23.553572, 23.982143, 24.196428, 24.392857, 24.270834, 24.354166, 24.915178, 25.342262, 25.709822, 26.133928, 27.458334, 27.94643, 28.5, 28.660713, 28.75, 28.75, 28.75, 29.017857, 29.46875, 29.71875, 30.142857, 30.583334, 30.959822, 31.315477, -10, -10, -10, 35.5, 36.099998, 36.898811, 38.005955, 38.989582, 39.549107, 39.859375, 40.015625, 40.265625, 40.515625, 40.875, 41.598213, 41.875, 42.0625, 42.0625, 42, 42, 41.9375, 41.75, 41.517857, 41.25, 41.09375, 41.15625, 41.28125, 41.375, 41.40625, 41.3125, 41.291668, 41.291664, -10, -10, -10, -10, -10, -10, -10, -10, -10, -10, -10, -10, -10, 15.380953, 15.585714, 15.729592, 15.89796, 16.25, 16.40625, 16.5, 16.642857, 16.821428, 16.857143, 17, 16.875, 16.925594, 17.270832, 16.895834, 17.098213, 17.1875, 17.852041, 18.52721, 18.610544, 18.041666, 18.008928, 18, 18.0625, 18.15625, 18.325893, 18.28125, 18.28125, 18.15625, 18.125, 18.21875, 18.3125, 18.28125, 18.1875, 18.102678, 17.958334, 17.921429, 18.0625, 17.991072, 18.004463, 17.602678, 17.401787, 17.44643, 17.895834, 18.098213, 18.15625, 17.875, 17.857143, 17.928572, 18.107143, 18.196428, 18.571428, 19.113096, 19.211735, 19.09375, 19.348213, 19.895834, 20.309525, 20.34375, 20.111607, 19.78125, 19.65625, 19.71875, 19.96875
-10, -10, -10, -10, -10, -10, -10, -10, -10, -10, -10, -10, -10, -10, -10, -10, 31.25, 31.5, 31.3125, 30.702379, 30.357143, 30.0625, 30, 30, 30, 30, 29.875, 29.625, 29.4375, 29.1875, 29, 28.705357, 28.4375, 28.1875, 28, 27.875, 27.6875, 27.4375, 27.1875, 27.0625, 26.875, 26.875, 26.625, 26.375, 26.25, 25.9375, 25.875, 25.6875, 25.4375, 25.1875, 24.9375, 24.75, 24.5, 24.25, 24.0625, 23.8125, 23.625, 23.4375, 23.1875, 22.9375, 22.8125, 22.8125, 22.625, 22.5, 22.3125, 22.0625, 22, 21.8125, 21.625, 21.375, 21.125, 21.0625, 20.9375, 20.6875, 20.4375, 20.1875, 20, 19.8125, 19.5625, 19.375, 19.125, 18.875, 18.642857, 18.375, 18.125, 18, 17.875, 17.75, 17.5, 17.3125, 17.125, 17, 16.75, 16.5, 16.25, 16, 16, 15.875, 15.6875, 15.4375, 15.116072, 14.6875, 14.4375, 14.1875, 14.0625, 14, 13.9375, 13.8125, 13.625, 13.375, 13.1875, 13.0625, 12.875, 12.625, 12.375, 12.0625, 11.794643, 11.416667, 11.25, 10.833333, 10.928572, 10.9375, 11.294643, 11.3125, 11.5, 11.6875, 11.75, 11.9375, 12, 11.875, 11.8125, 11.75, 11.723214, 11.75, 11.8125, 12, 12.125, 12.107143, 11.916667, 11.830357, 11.8125, 11.9375, 12, 11.875, 11.75, 11.6875, 11.6875, 11.875, 12, 12.0625, 12.125, 12.125, 12.125, 11.875, 11.714286, 11.75, 11.794643, 12.0625, 12.125, 12.0625, 12, 11.9375, 11.9375, 11.9375, 12, 12, 12, 12, 12, 12, 12, 12, 12, 12.0625, 12.035714, 11.830357, 11.982142, 12.107143, -10, -10, -10, -10, -10, -10, 23.833334, 23.583334, 23.354166, 23, 22.901787, 22.875, 23.125, 23.53125, 23.6875, 23.84375, 23.660715, 23.732143, 23.974489, 24.645834, 24.897322, 25.464285, 27.1875, 27.732143, 28.25, 28.3125, 28.4375, 28.5625, 28.6875, 28.946428, 29.21875, 29.46875, 29.8125, 30.1875, 30.602678, 30.940477, -10, -10, -10, 35.75, 36.183334, 36.907738, 37.94643, 38.59375, 39.044643, 39.265625, 39.421875, 39.765625, 40.171875, 40.732143, 41.535713, 42.083332, 42.232143, 42.1875, 42.0625, 41.9375, 41.8125, 41.5, 41.142857, 40.875, 40.71875, 40.84375, 41.03125, 41.15625, 41.125, 41.0625, 41.0625, 41.111111, 41.166664, -10, -10, -10, -10, -10, -10, -10, -10, -10, -10, -10, -10, 14.833334, 14.585714, 14.765306, 14.882653, 15.035714, 15.53125, 15.875, 16.169643, 16.3125, 16.125, 16.035715, 16, 16.041666, 16.104763, 15.962585, 16.153061, 16.285715, 16.596939, 16.849207, 17.04365, 17.095238, 17.258928, 17.25, 17.3125, 17.40625, 17.513393, 17.678572, 17.642857, 17.464285, 17.232143, 17.65625, 17.71875, 17.520834, 17.34375, 17.258928, 17.208334, 16.951019, 17.071428, 16.954082, 17.035715, 16.96875, 16.8125, 16.857143, 17, 17.125, 17.21875, 17.1875, 17.1875, 17.25, 17.3125, 17.375, 17.313776, 17.636906, 17.900511, 18.265625, 18.441963, 19.202381, 19.506804, 19.474489, 19.318026, 18.709822, 18.727678, 19.052084, 19.334822, 19.5625, 19.65625, 19.71875, 19.928572, 20.419643, 20.4375, 20.688988, 20.361113, 20.255953, 20.277777, -10, -10, -10, 22.03125, 21.733332, 21.690475, -10, -10, -10, -10, -10, -10, 22.375, 22.479166, 22.6875, 22.8125, 22.75, 22.683037, 22.700001, 23.455557, -10, -10, -10, -10, 26.5, 26.75, 26.8125, 26.9375, 27.0625, 26.9375, 26.803572, 26.455357, 26.3125, 26, 25.9375, 25.833332, -10, -10, -10, -10, -10, -10, -10, -10, -10, -10, -10, -10, -10, -10, -10, -10, -10, -10, -10, -10, -10, -10, -10, 31.25, 31.416668, 31.1875, 30.577379, 30.339285, 30.0625, 30.0625, 30.0625, 30.0625, 30.035713, 29.767857, 29.508928, 29.3125, 29.125, 28.9375, 28.642857, 28.375, 28.125, 28, 27.875, 27.6875, 27.4375, 27.1875, 27.0625, 26.875, 26.875, 26.625, 26.375, 26.25, 25.9375, 25.875, 25.6875, 25.4375, 25.1875, 24.9375, 24.8125, 24.5625, 24.375, 24.1875, 23.875, 23.75, 23.5, 23.25, 23, 22.75, 22.75, 22.625, 22.5, 22.375, 22.125, 21.9375, 21.8125, 21.625, 21.375, 21.1875, 21.0625, 21, 20.75, 20.5, 20.25, 20, 19.75, 19.5, 19.25, 19, 18.875, 18.6875, 18.4375, 18.25, 18.035713, 17.767857, 17.705357, 17.4375, 17.3125, 17.1875, 17, 16.75, 16.5, 16.25, 16, 16, 15.875, 15.6875, 15.4375, 15.1875, 14.9375, 14.6875, 14.4375, 14.1875, 14.0625, 13.875, 13.6875, 13.4375, 13.1875, 13.0625, 13, 12.875, 12.625, 12.375, 12.0625, 11.803572, 11.630953, 11.535715, 11.083333, 11.178572, 11.125, 11.419643, 11.5, 11.6875, 11.8125, 11.875, 12, 12, 11.875, 11.8125, 11.8125, 11.848214, 11.9375, 12, 12.1875, 12.25, 12.169643, 11.979167, 11.830357, 11.8125, 11.9375, 12, 11.9375, 11.8125, 11.75, 11.75, 11.875, 12, 12.125, 12.1875, 12.125, 12.125, 11.9375, 11.875, 11.9375, 11.982143, 12.125, 12.125, 12.0625, 12.0625, 12, 12, 12, 12, 12, 12, 12, 12, 12, 12, 12, 12, 12, 12, 11.875, 11.964286, 12.148809, 12.05, -10, -10, -10, -10, -10, -10, 23.444445, 23.222221, 22.833334, 22.702383, 22.666666, 22.75, 23.072916, 23.21875, 23.333334, 23.333334, 23.375, 23.636904, 24.194445, 24.529762, 25.190475, 27.3125, 27.648808, 28.0625, 28.0625, 28.09375, 28.1875, 28.3125, 28.5, 28.65625, 29.040178, 29.583334, 30.053572, 30.415178, 30.645834, -10, -10, -10, 35.833332, 36.244446, 37.116074, 37.738094, 38.209824, 38.622768, 38.859375, 39.140625, 39.484375, 39.957588, 40.589287, 41.214287, 41.895832, 41.982143, 42, 41.875, 41.6875, 41.5625, 41.25, 40.830357, 40.625, 40.46875, 40.59375, 40.84375, 40.90625, 40.875, 40.892857, 41.0625, 41.083332, 41.194443, -10, -10, -10, -10, -10, -10, -10, -10, -10, -10, -10, -10, 14.333333, 14.075, 14.273809, 14.366072, 14.285714, 14.8125, 15.0625, 15.294643, 15.4375, 15.4375, 15.375, 15.25, 15, 15.099999, 15.190477, 15.401786, 15.669643, 15.739797, 16.061224, 16.275511, 16.357143, 16.5, 16.5, 16.535715, 16.607143, 16.586735, 16.25, 15.958333, 15.645833, 15.908164, 16.892857, 17.071428, 16.614584, 16.625, 16.336735, 16.351191, 16.242857, 16, 16.205357, 16.450893, 16.325893, 16.28125, 16.294643, 16.142857, 16.214285, 16.285715, 16.40625, 16.375, 16.375, 16.178572, 16.196428, 16.308674, 16.565477, 16.864796, 17.089285, 17.255102, 17.180555, 16.952379, 16.961309, 17.111113, 17.418367, 17.868303, 18.192709, 18.491072
