-10, -10, -10, -10, -10, -10, -10, 19.75, 19.535713, 19.4375, 19, 18.5, 18.25, 17.9375, 17.678572, 17.25, 16.767857, 16.375, 16, 15.5625, 15.3125, 15.0625, 14.9375, 14.75, 14.5625, 14.375, 14.25, 14.1875, 14.0625, 14, 13.875, 13.875, 13.875, 13.8125, 13.8125, 13.75, 13.75, 13.6875, 13.5625, 13.4375, 13.25, 13.125, 13.0625, 13, 13, 13.1875, 13.1875, 13.1875, 13.125, 12.9375, 12.9375, 12.9375, 12.9375, 12.9375, 12.8125, 12.6875, 12.6875, 12.4375, 12.25, 12.151786, 12.125, 12.1875, 12.375, 12.375, 12.3125, 12.25, 12.125, 12.125, 12.0625, 12.125, 12.125, 11.875, 11.75, 11.625, 11.5, 11.5, 11.5, 11.4375, 11.375, 11.580357, 12.166666, 12.526786, 12.8125, 12.8125, 12.901786, 12.752976, 12.357143, 12.392857, 12.196428, 12.428572, 12.5, 12.625, 12.625, 12.75, 12.723214, 12.383928, 12.25, 11.693878, 11.589286, 11.75, 11.513393, 11.65625, 11.767857, 12.229167, 12.976191, 13.4, -10, -10, -10, -10, -10, -10, -10, -10, -10, 32.166668, 32.5, 32.5625, 32.473213, 32.041664, 31.901785, 31.4375, 31.375, 31.1875, 31.1875, 31.09375, 31.25, 31.1875, 31.0625, 31.0625, 31, 31.125, 31.0625, 31, 30.9375, 30.9375, 31.107143, 30.919643, 30.604166, 30.258928, 30.0625, 30.125, 29.973213, 29.839287, 29.714287, 29.6875, 29.794643, 29.598215, 29.104166, 28.955357, 28.8125, 29, 29.125, 29.1875, 29.035715, 28.458332, 28.205357, 28, 28, 27.834822, 27.375, 27.276787, 27.303572, 27.541666, 27.8125, 27.875, 27.616072, 27.354166, 27.354166, 27.375, 27.4375, 27.3125, 26.928572, 26.6875, 26.625, 26.6875, 26.875, 26.9375, 27, 27, 9.375, 9.416667, 9.5, 9.5625, 9.75, 9.84375, 9.895833, 10, 10, 9.8125, 9.932292, 10.125, 10.419643, 10.6875, 10.796875, 10.875, 10.875, 11.1875, 11.75, 12.714286, 13.428572, 14, 14.5, 14.75, 15, 15, 15, 15, 15, 15, 15, 14.9375, 15.089286, 15.419643, 15.678572, 15.9375, 16, 16, 16, 16, 16, 16, 16.1875, 16.3125, 16.5, 16.75, 16.8125, 16.9375, 17, 16.9375, -10, -10, -10, -10, -10, -10, -10, -10, -10, -10, -10, -10, -10, 39.125, 39.083332, 39.0625, 39, 39.0625, 39.3125, 39.5625, 39.8125, 40.25, 40.4375, 40.875, 41.375, 41.669643, 42.1875, 42.5, 42.8125, 43.3125, 43.5625, 43.8125, 44.25, 44.5, 44.8125, 45.3125, 45.5625, 46.0625, 46.5, 46.75, 47.25, 47.5, 48, 48.5, 48.9375, 49.4375, 49.8125, 50.3125, 50.75, 51.125, 51.5, 51.946426, 52.502975, 52.928574, 53.3125, 53.75, 54.419643, 54.825893, 55.34375, 55.65625, 56.200893, 56.625, 57.125, 57.625, 58.125, 58.5625, 59, 59.4375, 59.8125, 60.392857, 60.901787, 61.25, 61.678574, 62, 62.1875, 62.401787, 63.083332, 63.761906, 64.357147, 64.8125, 65.25, 65.5625, 66.080353, 66.758926, 67.151787, 67.741074, 68.333336, 68.746025, 69.166672, -10, -10, -10, -10, -10, -10, -10, -10, -10, -10, -10, -10, -10, -10, -10, -10, -10, -10, -10, -10, -10, -10, -10, -10, -10, -10, -10, -10, -10, -10, -10, -10, -10, -10, -10, -10, -10, -10, -10, -10, -10, -10, -10, -10, -10, -10, -10, -10, -10, -10, -10, -10, -10, -10, -10, -10, -10, -10, -10, -10, -10, -10, -10, 18.5, 19.5, 19.369045, 19.3125, 18.9375, 18.5, 18.25, 17.9375, 17.616072, 17.151787, 16.705357, 16.3125, 16.0625, 15.625, 15.375, 15.125, 14.9375, 14.678572, 14.291667, 14.142857, 14.0625, 14.125, 14.0625, 13.9375, 13.75, 13.6875, 13.6875, 13.598214, 13.455357, 13.392857, 13.4375, 13.473214, 13.3125, 13.151786, 13, 12.9375, 13, 13, 13, 13.1875, 13.1875, 13.1875, 13.125, 12.9375, 12.9375, 12.9375, 12.9375, 12.9375, 12.875, 12.75, 12.6875, 12.4375, 12.25, 12.1875, 12.1875, 12.25, 12.375, 12.375, 12.3125, 12.25, 12.125, 12.0625, 12, 12, 11.9375, 11.75, 11.625, 11.625, 11.5625, 11.5625, 11.5, 11.3125, 11.25, 11.517857, 12.273809, 12.651786, 12.9375, 12.8125, 12.776786, 12.627976, 12.205357, 12.267857, 12.3125, 12.544643, 12.5625, 12.5625, 12.375, 12.4375, 12.473214, 12.205357, 12.125, 11.716518, 11.464286, 11.625, 11.497768, 11.78125, 11.848214, 12.273809, 12.998511, 13.25, -10, -10, -10, -10, -10, -10, -10, -10, -10, -10, 32.75, 32.8125, 32.785713, 32.282738, 31.880953, 31.25, 31.1875, 31.2125, 31.0625, 31.102678, 31.294643, 31.4375, 31.160713, 31.232143, 31.169643, 31.1875, 31.125, 31, 30.875, 31, 31.232143, 31.089287, 30.645832, 30.330357, 30.125, 30.1875, 30.035713, 29.776787, 29.589287, 29.5625, 29.669643, 29.517857, 28.895832, 28.785713, 28.6875, 28.9375, 29.25, 29.375, 29.285715, 28.770832, 28.392857, 28.1875, 28.1875, 27.959822, 27.5, 27.232143, 27.241072, 27.479166, 27.6875, 27.75, 27.5, 27.5, 27.5, 27.4375, 27.5, 27.3125, 26.991072, 26.75, 26.6875, 26.75, 26.9375, 27, 27.0625, 27, 9.25, 9.333333, 9.4375, 9.5625, 9.75, 9.875, 9.9375, 10, 10.0625, 10.125, 10.444197, 10.625, 10.705357, 10.75, 10.671875, 10.75, 10.75, 11.125, 11.741072, 12.827381, 13.5, 14.0625, 14.5, 14.75, 15, 15, 15, 15, 15, 15.0625, 15.0625, 15, 15.214286, 15.482143, 15.741072, 16, 16, 16, 16.0625, 16.0625, 16.0625, 16.0625, 16.125, 16.28125, 16.4375, 16.6875, 16.8125, 16.90625, 17, 17, -10, -10, -10, -10, -10, -10, -10, -10, -10, -10, -10, -10, -10, 39, 39, 39, 39, 39, 39.1875, 39.375, 39.625, 40.125, 40.419643, 40.8125, 41.3125, 41.607143, 42.0625, 42.4375, 42.6875, 43.1875, 43.4375, 43.6875, 44.1875, 44.482143, 44.75, 45.25, 45.5, 45.9375, 46.4375, 46.6875, 47.1875, 47.5, 47.9375, 48.4375, 48.8125, 49.3125, 49.6875, 50.1875, 50.625, 51, 51.3125, 51.696426, 52.315475, 52.785713, 53.25, 53.6875, 54.3125, 54.763393, 55.28125, 55.59375, 56.0625, 56.46875, 56.90625, 57.40625, 57.875, 58.375, 58.875, 59.419643, 59.75, 60.267857, 60.732143, 61.241074, 61.714287, 62, 62.1875, 62.258926, 62.797619, 63.595238, 64.160713, 64.625, 65.0625, 65.419647, 65.892853, 66.526787, 66.901787, 67.491074, 68.1875, 68.666672, 69, -10, -10, -10, -10, -10, -10, -10, -10, -10, -10, -10, -10, -10, -10, -10, -10, -10, -10, -10, -10, -10, -10, -10, -10, -10, -10
-10, -10, -10, -10, -10, -10, -10, 19.25, 19.202381, 19.116072, 18.6875, 18.3125, 18, 17.75, 17.428572, 17.026787, 16.6875, 16.3125, 16.0625, 15.625, 15.375, 15.125, 14.9375, 14.616072, 14.059524, 13.830357, 13.6875, 13.8125, 13.875, 13.875, 13.8125, 13.6875, 13.6875, 13.598214, 13.330357, 13.267857, 13.25, 13.285714, 13.160714, 12.919642, 12.830357, 12.8125, 12.9375, 13, 13, 13.0625, 13.0625, 13.0625, 13, 12.9375, 12.9375, 12.9375, 12.9375, 12.9375, 12.875, 12.75, 12.625, 12.375, 12.1875, 12.0625, 12.125, 12.1875, 12.3125, 12.375, 12.3125, 12.25, 12.125, 12.0625, 12, 12, 11.9375, 11.8125, 11.6875, 11.6875, 11.6875, 11.625, 11.5, 11.3125, 11.3125, 11.6875, 12.461309, 12.794643, 12.9375, 12.6875, 12.589286, 12.440476, 12.080357, 12.142857, 12.1875, 12.294643, 12.276786, 12.3125, 11.946428, 11.946428, 12.008928, 12.217262, 12.303572, 12.078125, 11.901786, 11.821428, 11.734375, 11.96875, 11.982143, 12.202381, 12.602678, 12.912499, -10, -10, -10, -10, -10, -10, -10, -10, -10, -10, 32.916668, 32.9375, 32.866074, 32.491074, 31.988094, 31.25, 31.205357, 31.420834, 31.366072, 31.540178, 31.732143, 31.84375, 31.598213, 31.607143, 31.419643, 31.34375, 31.1875, 31, 30.875, 31, 31.232143, 31.089287, 30.583332, 30.267857, 30, 30.0625, 29.973213, 29.651787, 29.464287, 29.4375, 29.544643, 29.526787, 29.229166, 29.142857, 29.0625, 29.125, 29.25, 29.25, 29.107143, 28.854166, 28.508928, 28.34375, 28.34375, 28.1875, 27.892857, 27.419643, 27.383928, 27.416666, 27.5625, 27.5625, 27.3125, 27.3125, 27.3125, 27.25, 27.3125, 27.125, 26.875, 26.8125, 26.6875, 26.875, 27.0625, 27.125, 27.1875, 27.083334, 9.25, 9.416666, 9.5848217, 9.958333, 10.0625, 10.151786, 10.15625, 10.25, 10.4375, 10.625, 10.991072, 11.0625, 11.017857, 10.875, 10.6875, 10.8125, 10.875, 11.3125, 11.991072, 13.005953, 13.580359, 14.125, 14.5, 14.75, 15, 15, 15, 15, 15, 15.125, 15.1875, 15.1875, 15.401786, 15.607143, 15.803572, 16, 16, 16, 16.0625, 16.0625, 16.0625, 16.0625, 16.0625, 16.21875, 16.375, 16.625, 16.8125, 16.90625, 17, 17, -10, -10, -10, -10, -10, -10, -10, -10, -10, -10, -10, -10, -10, 39, 39, 39, 39, 39, 39.125, 39.25, 39.5, 40, 40.401787, 40.8125, 41.3125, 41.607143, 42, 42.375, 42.625, 43.125, 43.4375, 43.75, 44.25, 44.544643, 44.8125, 45.25, 45.5, 45.875, 46.375, 46.625, 47.125, 47.5, 47.875, 48.375, 48.6875, 49.1875, 49.625, 50.169643, 50.625, 50.9375, 51.25, 51.571426, 52.190475, 52.660713, 53.125, 53.5625, 54.1875, 54.638393, 55.15625, 55.53125, 55.9375, 56.40625, 56.78125, 57.21875, 57.625, 58, 58.482143, 59.294643, 59.642857, 60.080357, 60.544643, 61.116074, 61.535713, 61.875, 62.125, 62.290176, 62.828869, 63.572914, 64.022324, 64.4375, 64.875, 65.339287, 65.767853, 66.401787, 66.669647, 67.178574, 67.919647, 68.75, 69.071426, -10, -10, -10, -10, -10, -10, -10, -10, -10, -10, -10, -10, -10, -10, -10, -10, -10, -10, -10, -10, -10, -10, -10, -10, -10, -10, -10, -10, -10, -10, -10, -10, -10, -10, -10, -10, -10, -10, -10, -10, -10, -10, -10, -10, -10, -10, -10, -10, -10, -10, -10, -10, -10, -10, -10, -10, -10, -10, -10, -10, -10, -10, -10, -10, 19, 19.035713, 18.928572, 18.5625, 18.1875, 17.8125, 17.5625, 17.241072, 16.839287, 16.5625, 16.25, 16, 15.625, 15.3125, 15, 14.75, 14.428572, 13.934524, 13.767857, 13.75, 13.848214, 13.767857, 13.767857, 13.6875, 13.5625, 13.5625, 13.473214, 13.205357, 13.205357, 13.1875, 13.223214, 13.098214, 12.794642, 12.767857, 12.8125, 13.044643, 13.125, 13.125, 13, 12.9375, 12.9375, 12.9375, 13.0625, 13.0625, 13.0625, 13.0625, 13, 12.9375, 12.875, 12.6875, 12.4375, 12.3125, 12.125, 12.125, 12.125, 12.125, 12.1875, 12.1875, 12.1875, 12.125, 12.0625, 12, 12, 11.9375, 11.875, 11.8125, 11.8125, 11.8125, 11.6875, 11.5625, 11.4375, 11.5625, 11.991072, 12.565476, 12.866072, 12.875, 12.625, 12.464286, 12.333333, 12.1875, 12.3125, 12.3125, 12.25, 12.214286, 12.098214, 11.651785, 11.738095, 12.029761, 12.386905, 12.553572, 12.453125, 12.3125, 12.107143, 11.953125, 12.1875, 12.125, 12.098214, 12.40625, 12.579166, -10, -10, -10, -10, -10, -10, -10, -10, -10, -10, 33, 33, 32.875, 32.616074, 32.050594, 31.375, 31.330357, 31.670834, 31.678572, 31.992346, 32.044643, 32.066963, 31.678572, 31.544643, 31.357143, 31.28125, 31.125, 31, 30.875, 31, 31.232143, 31.089287, 30.520832, 30.098213, 29.875, 29.875, 29.875, 29.6875, 29.464287, 29.5, 29.607143, 29.651787, 29.416666, 29.392857, 29.241072, 29.125, 29.1875, 28.982143, 28.75, 28.75, 28.544643, 28.53125, 28.53125, 28.375, 28.142857, 27.705357, 27.696428, 27.729166, 27.75, 27.6875, 27.375, 27.3125, 27.1875, 27.125, 27.25, 27.125, 26.964287, 26.9375, 26.8125, 27.0625, 27.1875, 27.25, 27.25, 27.083334, 9.5714283, 9.8095236, 10.178572, 10.583333, 10.75, 10.776786, 10.75, 10.8125, 10.90625, 11.03125, 11.366072, 11.40625, 11.330357, 11.1875, 11.03125, 11.1875, 11.3125, 11.75, 12.366072, 13.202381, 13.660715, 14.1875, 14.5, 14.75, 15, 15, 15, 14.9375, 14.9375, 15.125, 15.294643, 15.375, 15.589286, 15.732143, 15.803572, 15.875, 15.8125, 15.8125, 16, 16.098213, 16.125, 16.125, 16.0625, 16.15625, 16.25, 16.5, 16.6875, 16.84375, 17, 17, 17, -10, -10, -10, -10, -10, -10, -10, -10, -10, -10, -10, -10, 39, 39, 39, 39, 39, 39.0625, 39.1875, 39.46875, 39.96875, 40.433037, 40.84375, 41.3125, 41.607143, 41.9375, 42.3125, 42.5625, 43, 43.375, 43.625, 44.080357, 44.526787, 44.803574, 45.25, 45.5, 45.8125, 46.3125, 46.5625, 47, 47.4375, 47.75, 48.25, 48.5625, 49.03125, 49.53125, 50.013393, 50.535713, 51.083332, 51.366074, 51.633926, 52.145832, 52.535713, 53, 53.4375, 53.9375, 54.482143, 54.9375, 55.4375, 55.8125, 56.3125, 56.6875, 57.129463, 57.625, 57.9375, 58.482143, 59.276787, 59.580357, 59.955357, 60.419643, 60.928574, 61.410713, 61.8125, 62.0625, 62.290176, 62.828869, 63.501484, 63.897324, 64.3125, 64.75, 65.276787, 65.705353, 66.223213, 66.375, 66.821426, 67.651787, 68.5, 68.863098, 69.166664, -10, -10, -10, -10, -10, -10, -10, -10, -10, -10, -10, -10, -10, -10, -10, -10, -10, -10, -10, -10, -10, -10, -10, -10, -10
-10, -10, -10, -10, -10, -10, -10, 19.25, 19.15, 18.782738, 18.383928, 18.0625, 17.75, 17.5, 17.1875, 16.901787, 16.5625, 16.3125, 16, 15.5625, 15.142857, 14.8125, 14.4375, 14.116072, 13.684524, 13.580357, 13.6875, 13.785714, 13.705357, 13.705357, 13.5625, 13.517857, 13.732143, 13.705357, 13.517857, 13.517857, 13.375, 13.285714, 13.0625, 12.732142, 12.705357, 12.8125, 13.107143, 13.1875, 13.1875, 13, 12.8125, 12.8125, 12.8125, 12.9375, 13, 13, 13, 13, 13, 13, 12.875, 12.625, 12.4375, 12.25, 12.1875, 12.1875, 12.125, 12.0625, 12.0625, 12.0625, 12.0625, 12.0625, 12, 12, 12, 12, 12, 12, 11.875, 11.75, 11.625, 11.5625, 11.875, 12.294643, 12.669643, 12.9375, 12.9375, 12.723214, 12.392857, 12.125, 12.125, 12.3125, 12.446428, 12.34375, 12.370536, 12.254464, 11.758928, 11.725595, 12.083333, 12.440476, 12.678572, 12.703125, 12.5625, 12.294643, 12.042411, 12.25, 12.160714, 12.035714, 12.28125, 12.329166, -10, -10, -10, -10, -10, -10, -10, -10, -10, -10, 33, 33, 32.803574, 32.428574, 31.979166, 31.5625, 31.642857, 32.045834, 31.991072, 32.133926, 32.232143, 32.191963, 31.741072, 31.482143, 31.294643, 31.21875, 31.125, 31.0625, 30.875, 30.9375, 31.0625, 30.940477, 30.395832, 30.026785, 29.8125, 29.9375, 30.0625, 29.982143, 29.666666, 29.666666, 29.833334, 29.877977, 29.5, 29.321428, 29.116072, 28.9375, 29.0625, 28.888393, 28.71875, 28.78125, 28.638393, 28.71875, 28.78125, 28.59375, 28.455357, 28.017857, 27.9375, 27.8125, 27.75, 27.5625, 27.3125, 27.1875, 27, 27, 27.125, 27.0625, 27.026787, 27.0625, 26.9375, 27.1875, 27.25, 27.25, 27.25, 27.083334, 10.666667, 10.888888, 10.846939, 11.273809, 11.5, 11.530612, 11.5, 11.571428, 11.46875, 11.65625, 11.959822, 12.03125, 11.892857, 11.75, 11.6875, 12, 12.142858, 12.5, 12.803572, 13.461309, 13.866072, 14.3125, 14.5625, 14.8125, 15, 15, 15, 14.9375, 14.9375, 15.125, 15.294643, 15.4375, 15.6875, 15.75, 15.75, 15.75, 15.6875, 15.625, 15.892857, 16.133928, 16.125, 16.1875, 16, 16.03125, 16.0625, 16.3125, 16.5625, 16.78125, 17, 17, 17, 17, -10, -10, -10, -10, -10, -10, -10, -10, -10, -10, -10, 39, 39, 39, 39, 39, 39.0625, 39.1875, 39.5, 40, 40.526787, 40.9375, 41.375, 41.625, 41.875, 42.25, 42.4375, 42.8125, 43.25, 43.616074, 44.125, 44.589287, 44.866074, 45.25, 45.5, 45.75, 46.25, 46.5, 46.875, 47.375, 47.625, 48.125, 48.5, 48.90625, 49.46875, 49.888393, 50.410713, 51.020832, 51.366074, 51.625, 51.955357, 52.464287, 52.928574, 53.4375, 53.875, 54.375, 54.8125, 55.3125, 55.6875, 56.125, 56.5, 56.941963, 57.482143, 57.8125, 58.482143, 59.32143, 59.767857, 60.1875, 60.5, 60.928574, 61.348213, 61.6875, 62, 62.415176, 62.971725, 63.543152, 63.834824, 64.125, 64.571426, 65.297623, 65.741074, 66.1875, 66.4375, 66.830353, 67.508926, 68.294647, 68.675598, 68.888885, -10, -10, -10, -10, -10, -10, -10, -10, -10, -10, -10, -10, -10, -10, -10, -10, -10, -10, -10, -10, -10, -10, -10, -10, -10, -10, -10, -10, -10, -10, -10, -10, -10, -10, -10, -10, -10, -10, -10, -10, -10, -10, -10, -10, -10, -10, -10, -10, -10, -10, -10, -10, -10, -10, -10, -10, -10, -10, -10, -10, -10, -10, -10, 19.375, 19.233334, 18.782738, 18.321428, 18, 17.6875, 17.5, 17.25, 17, 16.625, 16.375, 15.9375, 15.5, 15.017857, 14.625, 14.1875, 13.875, 13.705357, 13.625, 13.8125, 13.785714, 13.580357, 13.642857, 13.5, 13.598213, 14.026787, 14.098215, 14.053572, 13.791667, 13.580357, 13.3125, 13.125, 12.830357, 12.767857, 12.875, 13.107143, 13.1875, 13.1875, 12.9375, 12.75, 12.75, 12.75, 12.9375, 13, 13, 13, 13, 13, 13, 12.875, 12.625, 12.4375, 12.25, 12.1875, 12.1875, 12.125, 12.0625, 12, 12, 12, 12, 12, 12, 12, 12, 12, 12, 11.875, 11.8125, 11.75, 11.75, 12.125, 12.482143, 12.75, 13, 12.9375, 12.785714, 12.517857, 12.241072, 12.0625, 12.1875, 12.196428, 12.15625, 12.183036, 12.066964, 11.696428, 11.663095, 12.083333, 12.494047, 12.741072, 12.84375, 12.6875, 12.419643, 12.058036, 12.151786, 12.25, 12.160714, 12.354167, 12.305554, -10, -10, -10, -10, -10, -10, -10, -10, -10, -10, 33, 33, 32.741074, 32.375, 32.125, 31.8125, 31.892857, 32.145832, 32.241074, 32.25, 32.25, 31.941963, 31.642857, 31.3125, 31.125, 31.03125, 30.875, 30.8125, 30.625, 30.696428, 30.9375, 30.761906, 30.270832, 29.955357, 29.8125, 30.0625, 30.169643, 29.961309, 29.684523, 29.729166, 30.065477, 30.127977, 29.75, 29.5, 29.178572, 28.9375, 28.9375, 28.763393, 28.65625, 28.71875, 28.638393, 28.59375, 28.486607, 28.34375, 28.330357, 28.160713, 28.125, 28, 27.875, 27.625, 27.375, 27.1875, 26.9375, 26.9375, 27.0625, 27.0625, 27.026787, 27.0625, 26.9375, 27.125, 27.1875, 27.25, 27.270834, 27.111113, 11.285714, 11.428572, 11.530612, 11.645833, 11.875, 11.964286, 11.9375, 11.9375, 11.90625, 12.075893, 12.209822, 12.28125, 12.25, 12.25, 12.5, 12.5, 12.625, 12.9375, 13.3125, 13.607143, 13.9375, 14.3125, 14.5625, 14.8125, 15, 15, 15, 14.9375, 14.875, 15, 15.169643, 15.3125, 15.5625, 15.6875, 15.625, 15.5625, 15.5625, 15.5, 15.767857, 16.133928, 16.1875, 16.375, 16.25, 15.958333, 15.928572, 16.125, 16.482143, 16.75, 17, 17, 17, 17, -10, -10, -10, -10, -10, -10, -10, -10, -10, -10, -10, 39, 39, 39, 39, 39.0625, 39.1875, 39.375, 39.6875, 40.133926, 40.669643, 41, 41.4375, 41.625, 41.875, 42.25, 42.4375, 42.75, 43.25, 43.678574, 44.232143, 44.607143, 44.866074, 45.1875, 45.482143, 45.75, 46.25, 46.5, 46.8125, 47.3125, 47.5625, 48, 48.4375, 48.78125, 49.34375, 49.763393, 50.285713, 50.895832, 51.303574, 51.625, 51.924107, 52.450893, 52.834824, 53.34375, 53.75, 54.25, 54.6875, 55.1875, 55.59375, 55.96875, 56.40625, 56.785713, 57.357143, 57.625, 58.169643, 58.964287, 59.497025, 60.083332, 60.375, 60.6875, 61.0625, 61.5, 61.8125, 62.379463, 62.936008, 63.316963, 63.864582, 64.0625, 64.446426, 65.011909, 65.574409, 65.991074, 66.3125, 66.642853, 67.321426, 68.0625, 68.508926, 68.791664, -10, -10, -10, -10, -10, -10, -10, -10, -10, -10, -10, -10, -10, -10, -10, -10, -10, -10, -10, -10, -10, -10, -10, -10, -10
-10, -10, -10, -10, -10, -10, -10, 19.625, 19.4, 18.979166, 18.571428, 18.125, 17.767857, 17.5, 17.25, 17, 16.625, 16.375, 15.875, 15.4375, 14.892857, 14.375, 13.892857, 13.6875, 13.6875, 13.8125, 14.0625, 13.973214, 13.642857, 13.580357, 13.4375, 13.535713, 14.026787, 14.098215, 14.116072, 13.854167, 13.705357, 13.4375, 13.276786, 13.125, 13, 13.0625, 13.169643, 13.1875, 13.1875, 13, 12.8125, 12.8125, 12.8125, 12.9375, 13, 13, 13, 13, 13, 13, 12.9375, 12.75, 12.5625, 12.375, 12.1875, 12.125, 12.0625, 12, 12, 12, 12, 12, 12, 12, 12, 12, 12, 12, 11.875, 11.8125, 11.8125, 11.75, 12.080357, 12.482143, 12.741072, 13, 13, 12.910714, 12.633928, 12.095238, 11.758928, 11.875, 11.946428, 12.03125, 12.09375, 11.941964, 11.75, 11.779167, 12.324405, 12.535715, 12.75, 12.875, 12.71875, 12.450893, 12.058036, 12.120536, 12.303572, 12.357143, 12.583334, -10, -10, -10, -10, -10, -10, -10, -10, -10, -10, -10, 33, 33, 32.741074, 32.375, 32.1875, 31.9375, 32, 32.0625, 32.0625, 31.9375, 31.875, 31.535713, 31.205357, 30.9375, 30.8125, 30.75, 30.6875, 30.625, 30.5, 30.633928, 30.875, 30.824406, 30.395832, 30.080357, 29.9375, 30.125, 30.169643, 30.023809, 29.809523, 29.854166, 30.190477, 30.119047, 29.416666, 29.071428, 28.741072, 28.625, 28.75, 28.700893, 28.65625, 28.71875, 28.638393, 28.5625, 28.330357, 28.125, 28.1875, 28.267857, 28.25, 28.25, 28.0625, 27.883928, 27.775, 27.366072, 27.044643, 26.9375, 27, 27, 26.964287, 27, 27, 27.125, 27.125, 27.1875, 27.145834, 12, 11.75, 11.833333, 11.84375, 11.96875, 12.28125, 12.40625, 12.4375, 12.3125, 12.15625, 12.263393, 12.397322, 12.59375, 12.625, 12.6875, 12.8125, 12.875, 12.875, 13.080357, 13.458333, 13.678572, 14, 14.3125, 14.5625, 14.8125, 15, 15, 15, 14.9375, 14.875, 14.9375, 15.044643, 15.1875, 15.375, 15.5, 15.4375, 15.375, 15.4375, 15.4375, 15.767857, 16.196428, 16.3125, 16.5, 16.375, 16.083332, 15.991072, 16.15625, 16.513393, 16.71875, 16.96875, 17, 17, 17, -10, -10, -10, -10, -10, -10, -10, -10, -10, -10, -10, 39, 39, 39, 39, 39.125, 39.3125, 39.5625, 39.8125, 40.160713, 40.669643, 40.928574, 41.375, 41.5625, 41.8125, 42.25, 42.4375, 42.6875, 43.1875, 43.616074, 44.142857, 44.544643, 44.803574, 45.125, 45.482143, 45.75, 46.25, 46.5, 46.75, 47.25, 47.5, 47.875, 48.375, 48.65625, 49.15625, 49.53125, 50.035713, 50.708332, 51.116074, 51.5, 51.830357, 52.357143, 52.741074, 53.25, 53.625, 54.125, 54.5625, 55.0625, 55.53125, 55.84375, 56.34375, 56.723213, 57.357143, 57.75, 58.25, 58.776787, 59.291668, 59.940475, 60.25, 60.625, 60.9375, 61.375, 61.6875, 62.223213, 62.779758, 63.160713, 63.895832, 64, 64.383926, 64.842262, 65.494049, 65.866074, 66.25, 66.580353, 67.214287, 67.6875, 68.1875, 68.5, 68.666664, -10, -10, -10, -10, -10, -10, -10, -10, -10, -10, -10, -10, -10, -10, -10, -10, -10, -10, -10, -10, -10, -10, -10, -10, -10, -10, -10, -10, -10, -10, -10, -10, -10, -10, -10, -10, -10, -10, -10, -10, -10, -10, -10, -10, -10, -10, -10, -10, -10, -10, -10, -10, -10, -10, -10, -10, -10, -10, -10, -10, -10, -10, 19.875, 19.566666, 19.166666, 18.696428, 18.25, 17.892857, 17.354166, 17.142857, 16.875, 16.5625, 16.375, 15.9375, 15.5, 15.017857, 14.5, 13.955357, 13.75, 13.6875, 13.8125, 14, 13.9375, 13.75, 13.6875, 13.5, 13.535713, 14.026787, 14.098215, 14.178572, 13.854167, 13.705357, 13.5, 13.401786, 13.4375, 13.3125, 13.25, 13.1875, 13.125, 13.0625, 13, 12.875, 12.875, 12.875, 12.9375, 13, 13, 13, 13, 13, 13, 12.9375, 12.8125, 12.5625, 12.375, 12.1875, 12.0625, 12.0625, 12, 12, 12, 12, 12, 12, 12, 12, 12, 12, 11.9375, 11.8125, 11.6875, 11.625, 11.5625, 11.830357, 12.294643, 12.660715, 12.9375, 13.0625, 12.964286, 12.488096, 11.916667, 11.508928, 11.59375, 11.727678, 11.875, 11.9375, 11.90625, 11.857143, 11.8625, 12.303572, 12.553572, 12.8125, 13, 12.8125, 12.53125, 12.183036, 12.183036, 12.361608, 12.357143, 12.541667, -10, -10, -10, -10, -10, -10, -10, -10, -10, -10, -10, 33, 33, 32.720238, 32.375, 32.1875, 31.9375, 32, 32, 32, 31.8125, 31.714287, 31.5, 31.133928, 31.008928, 30.875, 30.875, 30.8125, 30.6875, 30.5625, 30.633928, 30.875, 30.824406, 30.40476, 29.979166, 29.8125, 30, 30.107143, 29.961309, 29.809523, 29.854166, 30.190477, 30.119047, 29.345238, 28.779762, 28.53125, 28.53125, 28.71875, 28.84375, 28.90625, 28.90625, 28.78125, 28.5625, 28.267857, 28.0625, 28.125, 28.330357, 28.3125, 28.25, 28.026787, 27.946428, 27.935715, 27.616072, 27.357143, 27.125, 27.0625, 26.9375, 26.9375, 26.9375, 27.0625, 27.125, 27.125, 27.1875, 27.083334, 27, 12, 12, 11.90625, 11.947917, 12.291667, 12.458333, 12.5, 12.375, 12.354167, 12.544643, 12.741072, 12.9375, 12.9375, 12.9375, 12.9375, 12.875, 12.8125, 13.017857, 13.574405, 13.839286, 14.1875, 14.4375, 14.625, 14.875, 15, 15.0625, 15.125, 15.1875, 15.125, 15.0625, 15.0625, 15.0625, 15.1875, 15.3125, 15.25, 15.3125, 15.5, 15.5625, 15.830357, 16.160713, 16.25, 16.4375, 16.5, 16.111111, 15.988095, 16.010418, 16.538393, 16.709822, 16.96875, 17, 17, 17, -10, -10, -10, -10, -10, -10, -10, -10, -10, -10, -10, 39, 39, 39, 39, 39.1875, 39.4375, 39.6875, 39.96875, 40.254463, 40.700893, 40.897324, 41.3125, 41.5, 41.75, 42.25, 42.4375, 42.6875, 43.1875, 43.678574, 44.1875, 44.5, 44.75, 45.0625, 45.482143, 45.75, 46.258926, 46.625, 46.8125, 47.3125, 47.5, 47.8125, 48.3125, 48.5625, 49.0625, 49.5, 49.9375, 50.4375, 50.8125, 51.25, 51.642857, 52.232143, 52.616074, 53.125, 53.5, 53.9375, 54.375, 54.8125, 55.3125, 55.669643, 56.0625, 56.401787, 57.035717, 57.580357, 58.107143, 58.607143, 59.104168, 59.752975, 60.0625, 60.5, 60.8125, 61.25, 61.625, 62.151787, 62.571426, 62.982143, 63.770832, 63.875, 64.321426, 64.717262, 65.369049, 65.741074, 66.1875, 66.5625, 67.107147, 67.5625, 68.0625, 68.458336, 68.694443, -10, -10, -10, -10, -10, -10, -10, -10, -10, -10, -10, -10, -10, -10, -10, -10, -10, -10, -10, -10, -10, -10, -10, -10
-10, -10, -10, -10, -10, -10, -10, 19.875, 19.583332, 19.375, 18.875, 18.375, 17.955357, 17.416666, 17.205357, 16.875, 16.517857, 16.3125, 15.9375, 15.625, 15.25, 14.75, 14.267857, 14.0625, 13.9375, 14, 14.0625, 14, 13.875, 13.8125, 13.625, 13.517857, 13.732143, 13.803572, 13.866072, 13.604167, 13.642857, 13.5625, 13.625, 13.678572, 13.375, 13.25, 13.0625, 13.0625, 13, 13, 13, 13, 13, 13, 13, 13, 13, 13, 13, 13, 12.9375, 12.8125, 12.5625, 12.3125, 12.125, 12, 12, 12, 12, 12, 12, 12, 12, 12, 12, 12, 12, 11.875, 11.75, 11.5625, 11.4375, 11.375, 11.517857, 11.991072, 12.556548, 12.866072, 13, 12.857143, 12.395239, 12, 11.488095, 11.772322, 11.834822, 12.03125, 11.96875, 11.875, 11.875, 11.875, 12.25, 12.5625, 12.75, 13, 12.875, 12.71875, 12.46875, 12.433036, 12.513393, 12.419643, 12.559525, -10, -10, -10, -10, -10, -10, -10, -10, -10, -10, -10, -10, 33, 32.666668, 32.458332, 32.1875, 31.9375, 31.9375, 31.9375, 32, 31.8125, 31.714287, 31.5, 31.133928, 31.071428, 30.9375, 30.9375, 30.875, 30.75, 30.6875, 30.758928, 30.9375, 30.803572, 30.434523, 29.770832, 29.625, 29.6875, 29.857143, 29.791666, 29.892857, 29.9375, 30.107143, 30.035713, 29.40476, 28.601191, 28.46875, 28.635416, 28.84375, 29, 29, 29, 28.875, 28.625, 28.205357, 28, 28, 28.267857, 28.3125, 28.25, 28.089287, 28.008928, 28.060715, 27.803572, 27.544643, 27.25, 27.0625, 26.875, 26.875, 26.875, 27.0625, 27.125, 27.125, 27.1875, 27.083334, 27, 12, 12, 11.84375, 11.864584, -10, -10, -10, 12.5, 12.5, 12.638393, 12.866072, 13, 13, 12.9375, 12.8125, 12.6875, 12.633928, 13.03869, 13.699405, 13.964286, 14.25, 14.5, 14.625, 14.875, 15, 15.0625, 15.125, 15.1875, 15.1875, 15.1875, 15.25, 15.25, 15.3125, 15.375, 15.25, 15.375, 15.5625, 15.6875, 15.9375, 16.125, 16.25, 16.375, -10, -10, -10, 16.072918, 16.580059, 16.709822, 17, 17.0625, 17.125, 17.166666, -10, -10, -10, -10, -10, -10, -10, -10, -10, -10, -10, -10, 39, 39, 39, 39.25, 39.5, 39.75, 40, 40.223213, 40.669643, 40.866074, 41.25, 41.4375, 41.6875, 42.1875, 42.5, 42.75, 43.25, 43.625, 44.017857, 44.375, 44.625, 44.9375, 45.419643, 45.6875, 46.196426, 46.625, 46.8125, 47.3125, 47.5, 47.75, 48.25, 48.5, 48.9375, 49.375, 49.6875, 50.125, 50.4375, 50.9375, 51.583332, 52.125, 52.5625, 53, 53.4375, 53.8125, 54.25, 54.6875, 55.1875, 55.607143, 56, 56.339287, 56.928574, 57.517857, 57.955357, 58.375, 58.791668, 59.377975, 59.75, 60.25, 60.625, 61.125, 61.5, 61.901787, 62.348213, 62.732143, 63.583332, 63.8125, 64.25, 64.446426, 65.083328, 65.598221, 66.125, 66.5, 66.9375, 67.4375, 67.9375, 68.482147, 68.770828, 69.166672, -10, -10, -10, -10, -10, -10, -10, -10, -10, -10, -10, -10, -10, -10, -10, -10, -10, -10, -10, -10, -10, -10, -10, -10, -10, -10, -10, -10, -10, -10, -10, -10, -10, -10, -10, -10, -10, -10, -10, -10, -10, -10, -10, -10, -10, -10, -10, -10, -10, -10, -10, -10, -10, -10, -10, -10, -10, -10, -10, -10, -10, 20, 19.666666, 19.5, 19, 18.4375, 18.017857, 17.479166, 17.267857, 16.875, 16.473213, 16.25, 15.875, 15.625, 15.3125, 14.875, 14.517857, 14.375, 14.25, 14.3125, 14.3125, 14.25, 14.125, 14, 13.75, 13.5, 13.4375, 13.4375, 13.5625, 13.625, 13.75, 13.6875, 13.6875, 13.678572, 13.375, 13.25, 13.0625, 13.0625, 13, 13, 13, 13, 13, 13, 13, 13, 13, 13, 12.9375, 12.9375, 12.9375, 12.875, 12.75, 12.5625, 12.3125, 12.125, 12.0625, 12, 12, 12, 12, 12, 12, 12, 12, 12, 11.9375, 11.75, 11.6875, 11.4375, 11.3125, 11.25, 11.205357, 11.6875, 12.45238, 12.794643, 13, 12.794643, 12.270239, 11.883928, 11.488095, 11.834822, 12.022322, 12.21875, 12.28125, 12.25, 12.25, 12.1875, 12.4375, 12.625, 12.75, 13.107143, 13.214286, 13.229592, 13.178572, 13.25, 13.117347, 12.770833, 12.678572, 12.666666, -10, -10, -10, -10, -10, -10, -10, -10, -10, -10, -10, -10, 32.604168, 32.416664, 32.125, 31.8125, 31.8125, 31.8125, 31.9375, 31.875, 31.839287, 31.6875, 31.321428, 31.196428, 31, 31, 31, 30.9375, 30.9375, 30.9375, 31, 30.910713, 30.535713, 29.84226, 29.625, 29.5625, 29.6875, 29.8125, 29.9375, 29.875, 29.875, 29.741072, 29.175594, 28.342262, 28.322916, 28.739582, 29.049107, 29.25, 29.125, 29.0625, 28.830357, 28.5, 28.020834, 27.958334, 27.991072, 28.294643, 28.3125, 28.25, 28.151787, 28.071428, 28.185715, 27.991072, 27.732143, 27.375, 27.0625, 26.75, 26.767857, 26.825001, 26.883928, 27.017857, 27, 27.0625, 27, 27, 12.125, 12.083333, 11.927083, 11.819446, -10, -10, -10, 12.625, 12.708333, 12.75, 12.9375, 13, 13, 12.9375, 12.75, 12.5625, 12.571428, 13.020833, 13.699405, 14.026786, 14.3125, 14.5625, 14.6875, 14.9375, 15, 15.0625, 15.125, 15.1875, 15.3125, 15.375, 15.5, 15.5625, 15.455357, 15.0625, 14.866072, 15.17347, 15.479167, 15.741072, 16, 16.0625, 16.125, 16.125, -10, -10, -10, 16.260418, 16.639582, 16.709822, 17, 17.0625, 17.0625, 17.083332, -10, -10, -10, -10, -10, -10, -10, -10, -10, -10, -10, -10, 39, 39, 39, 39.25, 39.5, 39.75, 40.0625, 40.276787, 40.607143, 40.928574, 41.25, 41.5, 41.75, 42.125, 42.4375, 42.6875, 43.1875, 43.5625, 43.910713, 44.375, 44.625, 44.9375, 45.375, 45.625, 46.133926, 46.625, 46.8125, 47.3125, 47.5, 47.75, 48.25, 48.5, 48.875, 49.25, 49.4375, 49.8125, 50.0625, 50.5625, 51.447914, 51.959824, 52.46875, 52.84375, 53.25, 53.633926, 54.208332, 54.616074, 55.125, 55.544643, 55.875, 56.276787, 56.803574, 57.424107, 57.924107, 58.34375, 58.71875, 59.169643, 59.5625, 60.0625, 60.5, 60.9375, 61.4375, 61.8125, 62.25, 62.6875, 63.3125, 63.669643, 64.1875, 64.5, 65, 65.607147, 66.098213, 66.5, 66.8125, 67.205353, 67.794647, 68.357147, 68.791664, 69.253967, -10, -10, -10, -10, -10, -10, -10, -10, -10, -10, -10, -10, -10, -10, -10, -10, -10, -10, -10, -10, -10, -10, -10
-10, -10, -10, -10, -10, -10, -10, 20, 19.749998, 19.5625, 19.0625, 18.517857, 18.1875, 17.604166, 17.392857, 16.9375, 16.473213, 16.25, 15.875, 15.5625, 15.205357, 14.875, 14.625, 14.5625, 14.5, 14.5, 14.5, 14.4375, 14.375, 14.3125, 14, 13.6875, 13.392857, 13.3125, 13.375, 13.5, 13.6875, 13.6875, 13.6875, 13.616072, 13.3125, 13.25, 13.1875, 13.1875, 13.125, 13.0625, 13, 13, 13, 13, 13, 13, 13, 13, 12.9375, 12.9375, 12.9375, 12.8125, 12.6875, 12.5, 12.25, 12.125, 12.0625, 12, 12, 12, 12, 12, 12, 12, 12, 12, 11.9375, 11.75, 11.6875, 11.4375, 11.25, 11.1875, 11.0625, 11.392857, 12.211308, 12.651786, 12.9375, 12.794643, 12.279167, 12.092261, 11.729167, 12.084822, 12.209822, 12.40625, 12.46875, 12.4375, 12.5, 12.375, 12.5, 12.625, 12.741072, 13.482143, 14.407738, 14.827381, 15.166667, 15.416667, 15.266865, 12.861111, 12.68254, 12.666666, -10, -10, -10, -10, -10, -10, -10, -10, -10, -10, -10, -10, 32.541668, 32.291664, 31.955357, 31.6875, 31.6875, 31.75, 31.9375, 31.875, 31.901787, 31.75, 31.383928, 31.258928, 31, 31.0625, 31.0625, 31.0625, 31.0625, 31, 31.0625, 30.848213, 30.410713, 29.71726, 29.4375, 29.4375, 29.625, 29.75, 29.9375, 29.8125, 29.75, 29.625, 29.258928, 28.520834, 28.572916, 28.989582, 29.299107, 29.5, 29.375, 29.25, 28.964287, 27.928572, 27.8125, 27.877975, 27.991072, 28.3125, 28.3125, 28.1875, 28.053572, 27.9375, 27.973213, 28, 27.6875, 27.339287, 26.9375, 26.5625, 26.660713, 26.775, 26.642857, 26.848213, 26.8125, 26.9375, 27, 27, 12.375, 12.333333, 12.208333, -10, -10, -10, -10, 12.75, 12.833333, 12.875, 13, 13, 13, 12.9375, 12.75, 12.5625, 12.660714, 13.235119, 13.794643, 14.098214, 14.375, 14.625, 14.75, 15, 15, 15.0625, 15.125, 15.1875, 15.3125, 15.375, 15.5625, 15.535714, 15.285714, 14.821428, 14.553572, 14.607142, 15.4375, 15.732143, 16, 16, 16, 16, -10, -10, -10, 16.354168, 16.733332, 16.803572, 17.03125, 17.0625, 17, 17, -10, -10, -10, -10, -10, -10, -10, -10, -10, -10, -10, -10, 39, 39, 39, 39.25, 39.5, 39.8125, 40.458332, 40.669643, 40.9375, 41.1875, 41.375, 41.625, 41.8125, 42.133926, 42.645832, 42.857143, 43.3125, 43.5625, 43.8125, 44.3125, 44.5625, 44.8125, 45.214287, 45.544643, 46.071426, 46.700001, 46.696426, 47.208332, 47.541668, 47.8125, 48.3125, 48.5, 48.8125, 49.1875, 49.3125, 49.625, 49.9375, 50.375, 51.229164, 51.678574, 52.133926, 52.645832, 53.125, 53.508926, 54.083332, 54.491074, 55, 55.482143, 55.75, 56.151787, 56.616074, 57.236607, 57.84375, 58.28125, 58.65625, 59.0625, 59.5, 59.9375, 60.4375, 60.8125, 61.3125, 61.6875, 62.125, 62.5625, 63.0625, 63.544643, 64.0625, 64.4375, 64.830353, 65.482147, 65.910713, 66.375, 66.6875, 67.017853, 67.544647, 68.053574, 68.708336, 69.119049, 69.333328, -10, -10, -10, -10, -10, -10, -10, -10, -10, -10, -10, -10, -10, -10, -10, -10, -10, -10, -10, -10, -10, -10, -10, -10, -10, -10, -10, -10, -10, -10, -10, -10, -10, -10, -10, -10, -10, -10, -10, -10, -10, -10, -10, -10, -10, -10, -10, -10, -10, -10, -10, -10, -10, -10, -10, -10, -10, -10, -10, -10, 20, 19.749998, 19.5625, 19.125, 18.580357, 18.25, 17.830357, 17.5625, 17.0625, 16.535713, 16.25, 15.8125, 15.5, 15.080357, 14.75, 14.5625, 14.5625, 14.5625, 14.5625, 14.5625, 14.4375, 14.375, 14.3125, 14.125, 13.848214, 13.410714, 13.258928, 13.1875, 13.375, 13.625, 13.6875, 13.6875, 13.491072, 13.125, 13.0625, 13.0625, 13.125, 13.125, 13.0625, 13, 13.0625, 13.035714, 12.964286, 13, 12.9375, 13, 13, 12.9375, 12.9375, 12.9375, 12.741072, 12.5, 12.375, 12.125, 12.125, 12.0625, 12, 12, 12, 12, 12, 12, 12, 12, 12, 11.9375, 11.8125, 11.6875, 11.4375, 11.25, 11.125, 11, 11.205357, 11.916666, 12.401786, 12.794643, 12.803572, 12.6125, 12.458333, 12.104167, 12.366072, 12.366072, 12.5, 12.5, 12.4375, 12.5, 12.375, 12.5, 12.6875, 12.982143, 13.839286, 14.795918, 15.387755, 15.908164, 16.190475, 15.845238, -10, -10, -10, -10, -10, -10, -10, -10, -10, -10, -10, -10, -10, -10, -10, 32.5, 32.166664, 31.857143, 31.625, 31.625, 31.75, 31.9375, 31.875, 31.875, 31.6875, 31.4375, 31.375, 31.125, 31.0625, 31.0625, 31, 31, 31, 31.0625, 30.848213, 30.464285, 29.988094, 29.6875, 29.6875, 29.75, 29.8125, 29.9375, 29.8125, 29.6875, 29.5, 29.142857, 28.5625, 28.604166, 29.020832, 29.205357, 29.392857, 29.458334, 29.428572, 29.142857, 28.041666, 27.758928, 27.815475, 28.053572, 28.375, 28.375, 28.3125, 28.151787, 27.9375, 27.9375, 27.866072, 27.354166, 27.107143, 26.75, 26.5625, 26.723213, 26.8375, 26.642857, 26.785713, 26.75, 26.875, 27, 13.25, 12.708333, 12.645833, 12.520833, -10, -10, -10, -10, 12.875, 12.833333, 12.875, 12.9375, 12.9375, 13, 12.9375, 12.8125, 12.6875, 12.848214, 13.422619, 13.803572, 14.0625, 14.3125, 14.5625, 14.75, 15, 15, 15, 15, 14.928572, 14.875, 15.0625, 15.223214, 15.285714, 15.035714, 14.508928, 14.366072, 14.625, 15.419643, 15.732143, 16, 16, 16, 16, 16, 16, 16.125, 16.4375, 16.791666, 16.875, 17.09375, 17.0625, 16.9375, 16.916666, -10, -10, -10, -10, -10, -10, -10, -10, -10, -10, -10, -10, 39, 39, 39, 39.25, 39.5, 39.875, 40.520832, 40.794643, 41.125, 41.3125, 41.5, 41.625, 41.75, 42.071426, 42.627975, 42.857143, 43.3125, 43.5625, 43.8125, 44.3125, 44.5625, 44.6875, 45.053574, 45.464287, 45.928574, 46.387501, 46.383926, 46.869045, 47.541668, 47.875, 48.3125, 48.375, 48.625, 49, 49.232143, 49.5, 49.875, 50.25, 51.041664, 51.428574, 51.830357, 52.479164, 53, 53.446426, 54.020832, 54.491074, 55, 55.482143, 55.8125, 56.25, 56.5625, 57.09375, 57.549107, 57.986607, 58.513393, 58.928574, 59.4375, 59.8125, 60.3125, 60.6875, 61.125, 61.5, 61.9375, 62.419643, 62.9375, 63.482143, 63.9375, 64.375, 64.705353, 65.357147, 65.785713, 66.25, 66.5625, 66.830353, 67.357147, 67.866074, 68.556549, 68.931549, 69.05555, -10, -10, -10, -10, -10, -10, -10, -10, -10, -10, -10, -10, -10, -10, -10, -10, -10, -10, -10, -10, -10, -10
-10, -10, -10, -10, -10, -10, -10, 20, 19.749998, 19.5625, 19.1875, 18.642857, 18.25, 17.723213, 17.4375, 17, 16.580357, 16.3125, 15.8125, 15.4375, 14.955357, 14.5625, 14.375, 14.375, 14.4375, 14.5, 14.5625, 14.4375, 14.375, 14.3125, 14.1875, 13.910714, 13.473214, 13.258928, 13.125, 13.3125, 13.5625, 13.6875, 13.625, 13.4375, 13.1875, 13.0625, 13.125, 13.125, 13.125, 13.0625, 13, 13.0625, 12.973214, 12.839286, 12.875, 12.8125, 12.9375, 13, 12.9375, 12.9375, 12.875, 12.616072, 12.339286, 12.25, 12.0625, 12.125, 12.125, 12.0625, 12.0625, 12.0625, 12, 12, 12, 12, 11.9375, 11.9375, 11.875, 11.8125, 11.75, 11.5, 11.3125, 11.125, 11, 11.133928, 11.583333, 12.035714, 12.419643, 12.625, 12.6875, 12.5625, 12.375, 12.3125, 12.25, 12.25, 12.3125, 12.3125, 12.4375, 12.375, 12.4375, 12.625, 12.919643, 13.875, 15.071428, 15.803572, 16.419643, 16.708332, -10, -10, -10, -10, -10, -10, -10, -10, -10, -10, -10, -10, -10, -10, -10, -10, 32.541668, 32.208332, 31.857143, 31.625, 31.625, 31.75, 31.9375, 31.803572, 31.674999, 31.678572, 31.419643, 31.375, 31.089287, 30.9375, 30.9375, 30.9375, 30.9375, 31, 31, 30.785713, 30.455357, 30.196428, 29.9375, 29.9375, 29.875, 29.875, 29.9375, 29.8125, 29.75, 29.535713, 29.142857, 28.883928, 28.791666, 28.979166, 29.080357, 29.267857, 29.494049, 29.491072, 29.142857, 27.916666, 27.633928, 27.690475, 27.928572, 28.1875, 28.205357, 28.25, 28.089287, 28, 27.875, 27.678572, 27.059523, 26.857143, 26.625, 26.5625, 26.785713, 26.9, 26.642857, 26.785713, 26.75, 26.875, 27, 12.833333, 12.708333, 12.645833, 12.583333, -10, -10, -10, -10, 13, 12.910714, 12.799107, 12.830357, 12.8125, 12.9375, 13, 12.9375, 12.875, 13.026786, 13.401786, 13.678572, 13.9375, 14.25, 14.5, 14.75, 15, 15, 15, 15, 14.928572, 14.75, 14.8125, 14.848214, 14.848214, 14.598214, 14.008928, 13.955358, 14.366072, 15.303572, 15.732143, 16, 16, 16, 16, 16, 15.916667, 16, 16.3125, 16.833334, 16.9375, 17.125, 17, 16.75, 16.666666, -10, -10, -10, -10, -10, -10, -10, -10, -10, -10, -10, -10, 39, 39, 39, 39.25, 39.5, 39.9375, 40.645832, 40.982143, 41.3125, 41.5, 41.6875, 41.8125, 42, 42.258926, 42.752975, 42.919643, 43.3125, 43.5625, 43.8125, 44.3125, 44.5625, 44.6875, 45.053574, 45.464287, 45.866074, 46.262501, 46.196426, 46.663689, 47.583336, 47.9375, 48.375, 48.375, 48.625, 49.0625, 49.357143, 49.65625, 50.09375, 50.40625, 50.927082, 51.241074, 51.642857, 52.398808, 52.875, 53.383926, 53.895832, 54.366074, 55.083332, 55.535713, 55.8125, 56.1875, 56.4375, 56.84375, 57.325893, 57.736607, 58.325893, 58.803574, 59.3125, 59.6875, 60.1875, 60.5625, 61, 61.645832, 61.982143, 62.50893, 62.9375, 63.273811, 63.9375, 64.383926, 64.75, 65.3125, 65.660713, 66.0625, 66.375, 66.580353, 67.107147, 67.6875, 68.413696, 68.848213, 69.166664, 69, -10, -10, -10, -10, -10, -10, -10, -10, -10, -10, -10, -10, -10, -10, -10, -10, -10, -10, -10, -10, -10, -10, -10, -10, -10, -10, -10, -10, -10, -10, -10, -10, -10, -10, -10, -10, -10, -10, -10, -10, -10, -10, -10, -10, -10, -10, -10, -10, -10, -10, -10, -10, -10, -10, -10, -10, -10, -10, -10, 20, 19.749998, 19.5625, 19.25, 18.705357, 18.3125, 17.723213, 17.375, 16.9375, 16.5625, 16.3125, 15.875, 15.5, 14.955357, 14.455357, 14.1875, 14.125, 14.1875, 14.25, 14.3125, 14.25, 14.25, 14.25, 14.25, 14.035714, 13.660714, 13.446428, 13.25, 13.375, 13.5625, 13.75, 13.75, 13.5625, 13.3125, 13.125, 13.125, 13.125, 13.125, 13.0625, 13, 13.0625, 12.910714, 12.776786, 12.8125, 12.75, 12.9375, 13, 13, 13, 12.866072, 12.345239, 11.982142, 11.875, 11.8125, 12, 12.0625, 12.0625, 12.0625, 12.0625, 12, 12, 12, 12, 11.875, 11.8125, 11.75, 11.6875, 11.625, 11.4375, 11.25, 11.0625, 11, 11.0625, 11.25, 11.669643, 12.044643, 12.4375, 12.6875, 12.625, 12.5, 12.3125, 12.125, 12, 12, 12, 12.125, 12.1875, 12.3125, 12.5625, 12.919643, 13.875, 15.071428, 15.797619, 16.627977, 16.858332, -10, -10, -10, -10, -10, -10, -10, -10, -10, -10, -10, -10, -10, -10, -10, 33, 32.583336, 32.25, 31.919643, 31.75, 31.75, 31.875, 32, 31.803572, 31.674999, 31.741072, 31.482143, 31.375, 31.053574, 30.8125, 30.8125, 30.875, 30.9375, 31.125, 31.0625, 30.875, 30.5625, 30.041666, 29.830357, 29.8125, 29.9375, 30, 30.0625, 30, 29.875, 29.660713, 29.392857, 29.227678, 29.09375, 29.03125, 29.03125, 29.205357, 29.556549, 29.678572, 29.428572, 28.333332, 27.997025, 27.857143, 27.9375, 28.0625, 28.080357, 28.0625, 27.964287, 27.9375, 27.8125, 27.616072, 26.997023, 26.794643, 26.625, 26.6875, 26.955357, 27.012501, 26.883928, 26.955357, 26.875, 26.9375, 27, 12.625, 12.583333, 12.5625, 12.5, 12, 12.25, 12.5, 12.75, 13, 12.827381, 12.642857, 12.580357, 12.625, 12.8125, 13, 13.0625, 13, 13.089286, 13.357143, 13.616072, 13.875, 14.1875, 14.4375, 14.6875, 14.9375, 15, 15, 15, 14.928572, 14.6875, 14.625, 14.598214, 14.473214, 14.267857, 14.133928, 14.151786, 14.625, 15.324404, 15.678572, 15.9375, 16, 16, 16, 16, 15.9375, 16.03125, 16.25, 16.791668, 16.9375, 17.0625, 16.9375, 16.6875, 16.583332, -10, -10, -10, -10, -10, -10, -10, -10, -10, -10, -10, -10, 39.25, 39.166668, 39.125, 39.3125, 39.5, 40, 40.708332, 41.107143, 41.4375, 41.580357, 41.919643, 42.053574, 42.25, 42.508926, 42.940475, 43.044643, 43.3125, 43.4375, 43.625, 44.125, 44.482143, 44.625, 45.053574, 45.464287, 45.803574, 46.200001, 46.071426, 46.413689, 47.351192, 47.833332, 48.3125, 48.375, 48.5625, 48.9375, 49.169643, 49.34375, 49.861607, 50.572918, 50.879463, 51.25, 51.517857, 52.273808, 52.8125, 53.3125, 53.6875, 54.1875, 54.958332, 55.51786, 55.8125, 56.125, 56.375, 56.75, 57.232143, 57.767857, 58.294643, 58.741074, 59.1875, 59.5625, 60, 60.4375, 60.75, 61.395832, 61.794643, 62.488098, 62.928574, 63.229168, 63.8125, 64.258926, 64.699997, 65.041664, 65.553574, 65.866074, 66.3125, 66.5625, 67, 67.5625, 68.226196, 68.616074, 69, 69.44445, -10, -10, -10, -10, -10, -10, -10, -10, -10, -10, -10, -10, -10, -10, -10, -10, -10, -10, -10, -10, -10
-10, -10, -10, -10, -10, -10, -10, 20, 19.666666, 19.5, 19.25, 18.75, 18.3125, 17.67857, 17.3125, 16.9375, 16.625, 16.375, 15.9375, 15.5625, 15.125, 14.580357, 14.3125, 14.125, 14.0625, 14.0625, 14.0625, 14, 14, 14, 14.0625, 13.973214, 13.767857, 13.633928, 13.5, 13.5625, 13.6875, 13.8125, 13.8125, 13.6875, 13.4375, 13.1875, 13.0625, 13, 13, 13, 13, 13.0625, 12.910714, 12.776786, 12.8125, 12.75, 12.9375, 12.9375, 12.875, 12.8125, 12.616072, 12.157739, 11.919642, 11.875, 11.875, 12, 12.026786, 12.098214, 12.0625, 12.125, 12, 12, 12, 12, 11.8125, 11.6875, 11.5625, 11.4375, 11.375, 11.1875, 11.0625, 10.9375, 10.9375, 11, 11.0625, 11.375, 11.732143, 12.125, 12.5625, 12.5625, 12.5, 12.3125, 12.0625, 11.9375, 11.9375, 11.9375, 12, 12.0625, 12.25, 12.625, 13.098214, 13.75, 14.875, 15.645833, 16.815477, 17.083332, -10, -10, -10, -10, -10, -10, -10, -10, -10, -10, -10, -10, -10, -10, -10, 33, 32.625, 32.375, 32.089287, 31.875, 31.875, 31.9375, 32, 31.866072, 31.737499, 31.866072, 31.598215, 31.229166, 30.94643, 30.6875, 30.6875, 30.75, 30.8125, 31.0625, 31.169643, 31.0625, 30.758928, 30.020832, 29.892857, 29.875, 30.125, 30.1875, 30.1875, 30.125, 30, 29.785713, 29.580357, 29.352678, 29.15625, 29.09375, 29.03125, 29.205357, 29.494049, 29.616072, 29.419643, 28.645832, 28.330357, 28.0625, 27.866072, 27.604166, 27.526785, 27.607143, 27.916666, 27.928572, 27.875, 27.678572, 27.005951, 26.901785, 26.75, 26.875, 27.125, 27.1875, 27.1875, 27.1875, 27.0625, 27, 27, 12.375, 12.333333, 12.3125, 12.25, 12, 12.25, 12.416667, 12.583333, 12.75, 12.244048, 12.059525, 12.163691, 12.303572, 12.625, 12.875, 13, 13.125, 13.25, 13.4375, 13.6875, 13.875, 14.125, 14.375, 14.625, 14.875, 14.9375, 14.875, 14.875, 14.803572, 14.625, 14.625, 14.535714, 14.5, 14.4375, 14.375, 14.464286, 14.803572, 15.241072, 15.5625, 15.8125, 15.9375, 16, 16, 16, 15.875, 15.90625, 16.09375, 16.635418, 16.84375, 17, 16.875, 16.625, 16.5, -10, -10, -10, -10, -10, -10, -10, -10, -10, -10, -10, -10, 39.5, 39.333336, 39.25, 39.375, 39.5, 40, 40.5, 41, 41.375, 41.642857, 42.107143, 42.241074, 42.5, 42.6875, 42.919643, 43.03125, 43.21875, 43.40625, 43.59375, 44.0625, 44.482143, 44.6875, 45.151787, 45.482143, 45.741074, 46.0625, 46.0625, 46.330357, 47.184525, 47.690475, 48.1875, 48.3125, 48.4375, 48.803574, 49.294643, 49.403057, 49.948978, 50.822918, 51.129463, 51.5, 51.696426, 52.252975, 52.6875, 53.1875, 53.5625, 54.0625, 54.833332, 55.33036, 55.625, 55.9375, 56.25, 56.669643, 57.125, 57.642857, 58.169643, 58.616074, 59.0625, 59.5, 59.875, 60.375, 60.65625, 61.302082, 61.763393, 62.456848, 62.866074, 63.166668, 63.6875, 64.071426, 64.512497, 64.791664, 65.303574, 65.616074, 66.125, 66.482147, 67, 67.616074, 68.142853, 68.5625, 69, 69.690483, 70.399994, -10, -10, -10, -10, -10, -10, -10, -10, -10, -10, -10, -10, -10, -10, -10, -10, -10, -10, -10, -10, -10, -10, -10, -10, -10, -10, -10, -10, -10, -10, -10, -10, -10, -10, -10, -10, -10, -10, -10, -10, -10, -10, -10, -10, -10, -10, -10, -10, -10, -10, -10, -10, -10, -10, -10, -10, -10, -10, 20, 19.666666, 19.5, 19.25, 18.75, 18.375, 17.785713, 17.375, 17.0625, 16.6875, 16.375, 15.892857, 15.5, 15.125, 14.642857, 14.375, 14.125, 14, 14, 14.0625, 14.0625, 14.0625, 14.0625, 14, 13.9375, 13.875, 13.8125, 13.75, 13.75, 13.8125, 13.875, 13.875, 13.8125, 13.625, 13.4375, 13.25, 13.125, 13.0625, 13, 13, 13, 12.875, 12.8125, 12.8125, 12.8125, 12.9375, 12.875, 12.75, 12.625, 12.366072, 11.979167, 11.919642, 11.875, 11.875, 11.964286, 12.133928, 12.276786, 12.25, 12.25, 12.0625, 12, 12, 12, 11.8125, 11.625, 11.526786, 11.473214, 11.366072, 11.104167, 11, 10.875, 10.9375, 11, 11.0625, 11.3125, 11.5625, 12, 12.4375, 12.5, 12.5, 12.3125, 12.0625, 11.9375, 11.9375, 11.9375, 12, 12.0625, 12.25, 12.5625, 12.919643, 13.517858, 14.5625, 15.315476, 16.791668, 17.273809, -10, -10, -10, -10, -10, -10, -10, -10, -10, -10, -10, -10, -10, -10, -10, 32.875, 32.583336, 32.4375, 32.125, 31.9375, 31.9375, 31.9375, 32, 31.928572, 31.799999, 31.928572, 31.660715, 31.229166, 30.928574, 30.589287, 30.625, 30.625, 30.776787, 31.169643, 31.348215, 31.375, 31.0625, 30.125, 29.964285, 29.875, 30.125, 30.1875, 30.1875, 30.125, 30.0625, 29.848213, 29.642857, 29.415178, 29.21875, 29.28125, 29.28125, 29.4375, 29.473213, 29.5, 29.303572, 28.729166, 28.401785, 28.125, 27.803572, 27.416666, 27.214285, 27.273809, 27.895832, 28.071428, 28.125, 27.928572, 27.255951, 27.080357, 26.875, 26.9375, 27.125, 27.1875, 27.1875, 27.1875, 27.0625, 27, 27, 11.9375, 11.958333, 11.96875, 12, 12.0625, 12.3125, 12.5, 12.625, 12.625, 11.925171, 11.809525, 11.913691, 11.991072, 12.339286, 12.732143, 12.928572, 13.125, 13.25, 13.4375, 13.6875, 13.875, 14.0625, 14.3125, 14.5625, 14.8125, 14.866072, 14.625, 14.6875, 14.732143, 14.8125, 14.8125, 14.75, 14.6875, 14.625, 14.625, 14.651786, 14.866072, 15.133928, 15.4375, 15.6875, 15.875, 16, 16, 16, 15.9375, 15.96875, 16.165178, 16.677084, 16.84375, 17, 16.875, 16.625, 16.5, -10, -10, -10, -10, -10, -10, -10, -10, -10, -10, -10, -10, 39.625, 39.416668, 39.3125, 39.3125, 39.375, 39.821426, 40.458332, 41, 41.5, 41.830357, 42.419643, 42.723213, 43, 43.125, 43.1875, 43.15625, 43.21875, 43.34375, 43.53125, 43.9375, 44.419643, 44.6875, 45.1875, 45.5, 45.75, 46.1875, 46.25, 46.482143, 47.122025, 47.565475, 48.0625, 48.375, 48.5625, 49.044643, 49.544643, 50.056122, 50.581631, 51.041668, 51.285713, 51.678574, 51.910713, 52.232143, 52.625, 53.0625, 53.4375, 53.8125, 54.538689, 55.056549, 55.366074, 55.6875, 56.0625, 56.526787, 57.0625, 57.625, 58, 58.5, 58.875, 59.375, 59.8125, 60.428574, 60.825893, 61.427082, 61.888393, 62.474705, 62.803574, 63.041668, 63.5625, 63.883926, 64.324997, 64.541664, 64.991074, 65.303574, 65.928574, 66.401787, 66.9375, 67.553574, 68.107147, 68.625, 69.125, 69.75, 70.044441, -10, -10, -10, -10, -10, -10, -10, -10, -10, -10, -10, -10, -10, -10, -10, -10, -10, -10, -10, -10
-10, -10, -10, -10, -10, -10, -10, 20, 19.666666, 19.5, 19.25, 18.75, 18.4375, 17.892857, 17.4375, 17.125, 16.75, 16.4375, 15.955357, 15.517857, 15.1875, 14.767857, 14.491072, 14.125, 14, 14, 14.1875, 14.1875, 14.1875, 14.125, 14, 14, 14, 14, 14, 14, 14, 14, 14, 13.9375, 13.8125, 13.6875, 13.4375, 13.25, 13.125, 13, 13, 13, 12.9375, 12.9375, 12.9375, 12.9375, 13, 12.875, 12.6875, 12.5, 12.241072, 11.916667, 11.955357, 11.9375, 12, 12.151786, 12.357142, 12.464286, 12.330357, 12.25, 12.0625, 12, 12, 12, 11.875, 11.625, 11.464286, 11.410714, 11.303572, 11.166667, 11.125, 11, 11, 11.071428, 11.395833, 11.678572, 11.9375, 12.25, 12.5, 12.4375, 12.375, 12.1875, 12, 11.9375, 11.875, 11.875, 11.875, 11.9375, 12.25, 12.5625, 13.075893, 13.638393, 14.28125, 14.994047, 16.750002, 17.307144, 18.200001, -10, -10, -10, -10, -10, -10, -10, -10, -10, -10, -10, -10, -10, -10, 32.625, 32.416668, 32.3125, 32.125, 31.9375, 31.9375, 31.9375, 31.9375, 32, 31.9375, 31.9375, 31.741072, 31.354166, 31.151787, 30.839287, 30.8125, 30.75, 30.964287, 31.357143, 31.598215, 31.6875, 31.357143, 30.267857, 30.035713, 29.875, 30.053572, 29.9375, 30, 29.982143, 30, 29.875, 29.75, 29.486607, 29.34375, 29.40625, 29.40625, 29.5, 29.4375, 29.5, 29.366072, 28.854166, 28.482141, 28.1875, 27.866072, 27.479166, 27.133928, 27.023809, 27.788689, 28.008928, 28.3125, 28.303572, 27.769344, 27.517857, 27.142857, 27.03125, 27.03125, 27.09375, 27.09375, 27.125, 27.0625, 27, 27, 11.8125, 11.875, 11.90625, 12, 12.133928, 12.5, 12.625, 12.6875, 12.4375, 11.854167, 11.666667, 11.770833, 11.897322, 12.245536, 12.638393, 12.834822, 13.0625, 13.1875, 13.375, 13.6875, 13.875, 14, 14.25, 14.5, 14.75, 14.803572, 14.5625, 14.625, 14.669643, 14.875, 14.9375, 14.875, 14.875, 14.8125, 14.875, 14.9375, 14.9375, 15.125, 15.375, 15.625, 15.875, 16, 16, 16, 15.9375, 15.96875, 16.102678, 16.46875, 16.71875, 16.875, 16.84375, 16.59375, 16.458334, -10, -10, -10, -10, -10, -10, -10, -10, -10, -10, -10, -10, 39.625, 39.416668, 39.3125, 39.3125, 39.375, 39.821426, 40.458332, 41, 41.5625, 41.955357, 42.669643, 43.008926, 43.25, 43.375, 43.3125, 43.28125, 43.28125, 43.34375, 43.59375, 44, 44.482143, 44.75, 45.1875, 45.5, 45.75, 46.25, 46.375, 46.5625, 47.017857, 47.440475, 47.875, 48.3125, 48.5, 48.982143, 49.967686, 50.187073, 50.531635, 51.063988, 51.174107, 51.58036, 51.830357, 52.053574, 52.5, 52.875, 53.25, 53.5625, 54.026787, 54.711308, 55.044647, 55.4375, 55.866074, 56.547619, 57, 57.625, 57.8125, 58.267857, 58.732143, 59.25, 59.625, 60.19643, 60.683037, 61.09375, 61.71875, 62.367561, 62.741074, 63.125, 63.375, 63.6875, 64.074997, 64.291664, 64.803574, 65.223221, 65.866074, 66.401787, 66.875, 67.375, 67.875, 68.375, 68.9375, 69.690475, 69.970833, -10, -10, -10, -10, -10, -10, -10, -10, -10, -10, -10, -10, -10, -10, -10, -10, -10, -10, -10, -10, -10, -10, -10, -10, -10, -10, -10, -10, -10, -10, -10, -10, -10, -10, -10, -10, -10, -10, -10, -10, -10, -10, -10, -10, -10, -10, -10, -10, -10, -10, -10, -10, -10, -10, -10, -10, -10, -10, 20, 19.666666, 19.5, 19.25, 18.8125, 18.5, 17.955357, 17.455357, 17.1875, 16.8125, 16.5, 16.017857, 15.517857, 15.25, 14.875, 14.491072, 14.125, 14.107143, 14.142857, 14.34375, 14.34375, 14.28125, 14.1875, 14.0625, 13.9375, 13.9375, 13.9375, 13.9375, 14, 14, 14, 14, 14, 13.9375, 13.875, 13.625, 13.375, 13.25, 13.0625, 13.125, 13.125, 13.0625, 13.0625, 13, 13, 13, 12.875, 12.625, 12.375, 12.125, 12, 12.0625, 12.0625, 12.0625, 12.214286, 12.482142, 12.571429, 12.247025, 12.142857, 11.9375, 11.9375, 12, 12, 11.9375, 11.6875, 11.526786, 11.473214, 11.303572, 11.229167, 11.1875, 11.0625, 11.0625, 11.142857, 11.729166, 12.044643, 12.3125, 12.5, 12.625, 12.5625, 12.5625, 12.4375, 12.25, 12.214286, 12.125, 12.0625, 12.0625, 12, 12.25, 12.625, 13.316964, 13.816964, 14.09375, 14.598213, 16.023809, 16.782143, -10, -10, -10, -10, -10, -10, -10, -10, -10, -10, -10, -10, -10, -10, 32, 32.375, 32.25, 32.1875, 32.0625, 31.9375, 31.875, 31.875, 31.875, 32, 32, 32, 31.803572, 31.416666, 31.25, 30.964287, 30.9375, 30.8125, 30.964287, 31.232143, 31.473215, 31.5625, 31.294643, 30.476189, 30.205357, 30, 29.991072, 29.75, 29.75, 29.732143, 29.9375, 29.973213, 29.8125, 29.473213, 29.375, 29.375, 29.375, 29.4375, 29.25, 29.25, 29.1875, 28.875, 28.535713, 28.25, 27.928572, 27.479166, 27.133928, 27.086309, 27.788689, 28.071428, 28.375, 28.428572, 28.019344, 27.8125, 27.309523, 27.102678, 26.96875, 27.03125, 27.03125, 27.0625, 27.0625, 27, 27, 11.8125, 11.875, 11.90625, 12.0625, 12.258928, 12.625, 12.75, 12.6875, 12.375, 11.791667, 11.604167, 11.833333, 11.959822, 12.370536, 12.763393, 12.897322, 13.125, 13.1875, 13.3125, 13.625, 13.8125, 13.9375, 14.1875, 14.4375, 14.6875, 14.678572, 14.5625, 14.833333, 14.848215, 15.017857, 15, 14.901786, 15.035714, 15, 15.0625, 15.0625, 15.0625, 15.1875, 15.4375, 15.6875, 15.875, 16, 16, 16, 15.9375, 15.96875, 16.102678, 16.46875, 16.71875, 16.90625, 16.90625, 16.71875, 16.625, -10, -10, -10, -10, -10, -10, -10, -10, -10, -10, -10, -10, 39.375, 39.25, 39.1875, 39.258926, 39.5, 39.883926, 40.520832, 41, 41.6875, 42.169643, 42.75, 43.142857, 43.375, 43.5625, 43.5, 43.46875, 43.53125, 43.885418, 44.138393, 44.4375, 44.6875, 44.8125, 45.1875, 45.5, 45.75, 46.25, 46.4375, 46.6875, 47.1875, 47.482143, 47.8125, 48.25, 48.5, 49.107143, 50.065475, 50.288689, 50.608036, 51.004463, 51.066967, 51.45536, 51.767857, 51.991074, 52.4375, 52.75, 53.125, 53.4375, 53.839287, 54.479164, 54.857147, 55.3125, 55.678574, 56.386902, 56.857143, 57.375, 57.5625, 57.892857, 58.410717, 59.125, 59.580357, 60.19643, 60.745537, 61.15625, 61.790176, 62.409225, 62.741074, 63.0625, 63.3125, 63.5625, 63.875, 64.25, 64.5625, 65.107147, 65.678574, 66.276787, 66.75, 67.25, 67.75, 68.25, 68.8125, 69.357147, 69.633331, 69.666672, -10, -10, -10, -10, -10, -10, -10, -10, -10, -10, -10, -10, -10, -10, -10, -10, -10, -10, -10
-10, -10, -10, -10, -10, -10, -10, 20, 19.749998, 19.5625, 19.3125, 18.875, 18.5625, 18.0625, 17.517857, 17.1875, 16.75, 16.4375, 16.017857, 15.580357, 15.3125, 14.9375, 14.491072, 14.1875, 14.232143, 14.214286, 14.177083, 14.09375, 14.03125, 14.0625, 14, 13.9375, 13.9375, 13.875, 13.875, 13.9375, 13.9375, 14, 14, 13.9375, 13.875, 13.8125, 13.5625, 13.375, 13.25, 13.0625, 13.1875, 13.25, 13.1875, 13.1875, 13.0625, 13, 13, 12.875, 12.625, 12.375, 12.125, 12.0625, 12.125, 12.125, 12.125, 12.276786, 12.517858, 12.535714, 12.247025, 12.142857, 12, 12, 12.0625, 12, 12, 11.75, 11.589286, 11.535714, 11.303572, 11.291667, 11.25, 11.125, 11.1875, 11.267857, 11.979166, 12.357143, 12.625, 12.8125, 12.8125, 12.75, 12.75, 12.625, 12.5, 12.464286, 12.375, 12.25, 12.1875, 12.125, 12.375, 12.866072, 13.566964, 14.004464, 14.125, 14.375, 15.148809, 16.065306, -10, -10, -10, -10, -10, -10, -10, -10, -10, -10, -10, -10, -10, -10, 32, 32.125, 32.083332, 32.0625, 32, 31.9375, 31.875, 31.8125, 31.8125, 31.9375, 31.9375, 32, 31.875, 31.6875, 31.482143, 31.151787, 31.0625, 30.9375, 31.089287, 31.232143, 31.241072, 31.3125, 31.008928, 30.327379, 30.026785, 29.8125, 29.678572, 29.4375, 29.4375, 29.491072, 29.9375, 30.035713, 29.875, 29.473213, 29.3125, 29.25, 29.25, 29.25, 29.125, 29.125, 29.125, 28.875, 28.535713, 28.1875, 27.9375, 27.75, 27.5, 27.479166, 27.872023, 28.142857, 28.375, 28.397322, 28.104166, 27.834822, 27.340773, 27.102678, 26.90625, 26.90625, 26.90625, 26.9375, 27, 27, 27, 11.8125, 11.875, 11.90625, 12.0625, 12.258928, 12.625, 12.723214, 12.589286, 12.375, 12.0625, 11.9375, 12.0625, 12.066964, 12.200892, 12.596725, 12.809821, 12.883928, 13.0625, 13.125, 13.5, 13.75, 13.9375, 14.1875, 14.4375, 14.6875, 14.678572, 14.625, 14.958333, 15.080357, 15.205357, 15.0625, 14.794642, 14.866072, 15.020833, 15.107143, 15.1875, 15.25, 15.375, 15.625, 15.8125, 15.9375, 16.03125, 16.03125, 16, 15.8125, 15.760417, 16.035715, 16.446428, 16.75, 16.96875, 17, 16.9375, 16.916666, -10, -10, -10, -10, -10, -10, -10, -10, -10, -10, -10, -10, 39.125, 39.083332, 39.0625, 39.205357, 39.625, 39.946426, 40.583332, 41, 41.75, 42.276787, 42.8125, 43.267857, 43.5, 43.75, 43.625, 43.589287, 43.794643, 44.157738, 44.482143, 44.6875, 44.8125, 44.875, 45.1875, 45.5, 45.75, 46.25, 46.5, 46.75, 47.25, 47.5, 47.6875, 48.151787, 48.544643, 49.107143, 49.877975, 50.020832, 50.295536, 50.754463, 50.816967, 51.26786, 51.642857, 51.866074, 52.375, 52.625, 53, 53.3125, 53.651787, 54.354164, 54.732147, 55.25, 55.616074, 56.279762, 56.732143, 57.25, 57.375, 57.69643, 58.452381, 59.071426, 59.580357, 60.07143, 60.589287, 61, 61.571426, 62.398808, 62.732143, 63, 63.1875, 63.4375, 63.75, 64.1875, 64.5, 65, 65.526787, 65.991074, 66.607147, 67.125, 67.625, 68.125, 68.6875, 69.169647, 69.458336, 69.777779, -10, -10, -10, -10, -10, -10, -10, -10, -10, -10, -10, -10, -10, -10, -10, -10, -10, -10, -10, -10, -10, -10, -10, -10, -10, -10, -10, -10, -10, -10, -10, -10, -10, -10, -10, -10, -10, -10, -10, -10, -10, -10, -10, -10, -10, -10, -10, -10, -10, -10, -10, -10, -10, -10, -10, -10, -10, 20, 19.749998, 19.5625, 19.25, 18.8125, 18.5, 18, 17.517857, 17.125, 16.6875, 16.4375, 16.0625, 15.642857, 15.3125, 14.875, 14.428572, 14.1875, 14.357143, 14.401786, 14.364583, 14.178572, 14.107142, 14.1875, 14.125, 14, 13.9375, 13.875, 13.875, 13.9375, 13.9375, 14, 14, 13.875, 13.75, 13.625, 13.375, 13.25, 13.1875, 13.0625, 13.1875, 13.3125, 13.25, 13.25, 13.125, 13, 13, 12.9375, 12.75, 12.5, 12.25, 12.125, 12.125, 12.125, 12.25, 12.375, 12.410714, 12.357143, 12.166666, 12.196428, 12.125, 12.125, 12.125, 12, 12, 11.8125, 11.625, 11.5, 11.3125, 11.375, 11.3125, 11.25, 11.3125, 11.517857, 12.291666, 12.669643, 12.9375, 13.0625, 12.973214, 12.767857, 12.767857, 12.6875, 12.6875, 12.714286, 12.625, 12.5, 12.4375, 12.375, 12.625, 13.116072, 13.816964, 14.254464, 14.28125, 14.330357, 14.170069, 14.05, -10, -10, 13, -10, -10, -10, -10, -10, -10, -10, -10, -10, -10, -10, 32, 32, 32, 32, 32, 31.9375, 31.875, 31.8125, 31.8125, 31.9375, 31.9375, 32, 31.9375, 31.6875, 31.5, 31.25, 31.0625, 31.0625, 31.125, 31.0625, 30.9375, 30.9375, 30.642857, 30.285713, 30.0625, 29.776787, 29.678572, 29.3125, 29.375, 29.428572, 29.875, 30.098213, 30, 29.660713, 29.4375, 29.25, 29.25, 29.1875, 29.125, 29.125, 29.0625, 28.84375, 28.549107, 28.15625, 27.90625, 27.75, 27.625, 27.6875, 27.830357, 28, 28.09375, 28.15625, 28.0625, 27.825893, 27.372023, 27.102678, 26.90625, 26.90625, 26.90625, 26.9375, 27, 27, 27, 11.875, 11.916667, 11.9375, 12.0625, 12.196428, 12.5, 12.598214, 12.526786, 12.4375, 12.25, 12.0625, 12.017857, 12.066964, 12.049107, 12.382441, 12.809821, 12.883928, 13.0625, 13.125, 13.4375, 13.6875, 13.9375, 14.1875, 14.4375, 14.6875, 14.75, 14.875, 15.145833, 15.223214, 15.267857, 15.0625, 14.794642, 14.866072, 15.020833, 15.107143, 15.25, 15.375, 15.5625, 15.8125, 15.9375, 16, 16.09375, 16.09375, 16, 15.705357, 15.635417, 15.901786, 16.303572, 16.6875, 16.90625, 17, 17, 17, -10, -10, -10, -10, -10, -10, -10, -10, -10, -10, -10, -10, 39.0625, 39.041668, 38.96875, 39.169643, 39.732143, 40.125, 40.625, 41, 41.625, 42.214287, 42.6875, 43.160713, 43.5, 43.75, 43.8125, 43.901787, 44.169643, 44.595238, 44.857143, 45, 45.0625, 45.125, 45.375, 45.625, 45.8125, 46.25, 46.5, 46.75, 47.25, 47.5, 47.6875, 48.151787, 48.482143, 48.866074, 49.583332, 49.645832, 49.907143, 50.51786, 50.651787, 51.151787, 51.482143, 51.741074, 52.25, 52.5, 52.875, 53.3125, 53.633926, 54.270832, 54.678574, 55.0625, 55.39286, 56.101192, 56.553574, 57.125, 57.3125, 57.57143, 58.389881, 58.946426, 59.330357, 59.705357, 60.169643, 60.669643, 61.258926, 62.357143, 62.723213, 63, 63.125, 63.375, 63.6875, 64.125, 64.4375, 64.883926, 65.431549, 65.883926, 66.482147, 67, 67.5, 67.96875, 68.53125, 69.075897, 69.46875, 69.833336, 70.416672, 70.666664, -10, -10, -10, -10, -10, -10, -10, -10, -10, -10, -10, -10, -10, -10, -10, -10, -10
-10, -10, -10, -10, -10, -10, -10, 20, 19.833332, 19.6875, 19.366072, 18.791666, 18.375, 17.875, 17.455357, 17, 16.5625, 16.3125, 16, 15.6875, 15.3125, 14.767857, 14.3125, 14.25, 14.419643, 14.464286, 14.302083, 14.392858, 14.321428, 14.1875, 14.1875, 14, 13.9375, 13.875, 13.875, 13.9375, 13.9375, 13.9375, 13.9375, 13.8125, 13.6875, 13.5625, 13.3125, 13.1875, 13.125, 13.0625, 13.25, 13.4375, 13.357143, 13.3, 13.232143, 13, 13.0625, 12.9375, 12.8125, 12.625, 12.4375, 12.375, 12.3125, 12.25, 12.3125, 12.25, 12.1875, 12.232143, 12.086309, 12.196428, 12.1875, 12.125, 12.125, 12, 12, 11.875, 11.75, 11.625, 11.375, 11.3125, 11.25, 11.3125, 11.607143, 11.883928, 12.458333, 12.741072, 12.9375, 13, 12.910714, 12.705357, 12.767857, 12.8125, 12.875, 12.964286, 12.875, 12.75, 12.6875, 12.625, 12.875, 13.366072, 14.035714, 14.383928, 14.205357, 14.008928, 13.544643, 13.214286, 12.285714, 11.928572, 12.904762, 13.142857, -10, -10, -10, -10, -10, -10, -10, -10, -10, -10, 32, 32, 32, 32, 32, 32.0625, 32, 31.9375, 31.9375, 31.9375, 32.0625, 32.1875, 32.1875, 31.928572, 31.479166, 31.196428, 31.0625, 31.0625, 31.0625, 30.9375, 30.6875, 30.625, 30.348213, 30.142857, 29.991072, 29.776787, 29.6875, 29.5, 29.5, 29.508928, 29.9375, 30.098213, 30.0625, 29.830357, 29.5625, 29.375, 29.375, 29.25, 29.1875, 29.125, 29, 28.78125, 28.53125, 28.09375, 27.84375, 27.75, 27.75, 27.9375, 27.9375, 27.96875, 27.875, 27.8125, 27.6875, 27.513393, 27.229166, 27.071428, 27, 27, 27, 27, 27, 27, 27, 12, 12, 12, 12.0625, 12.125, 12.25, 12.348214, 12.276786, 12.3125, 12.1875, 12.0625, 12.017857, 12.035714, 12.017857, 12.351191, 12.841071, 12.946428, 13.125, 13.1875, 13.4375, 13.6875, 13.9375, 14.1875, 14.4375, 14.6875, 14.8125, 14.9375, 15.208333, 15.285714, 15.330357, 15.125, 14.919642, 14.991072, 15.083333, 15.232143, 15.375, 15.5625, 15.75, 15.9375, 16, 16, 16.09375, 16.09375, 16, 15.767857, 15.697917, 15.995536, 16.397322, 16.71875, 16.9375, 17.03125, 17.03125, 17.041666, -10, -10, -10, -10, -10, -10, -10, -10, -10, -10, -10, -10, 39.3125, 39.208336, 39.09375, 39.25, 39.857143, 40.125, 40.5625, 40.821426, 41.583332, 42.214287, 42.625, 43.125, 43.5625, 43.848213, 44.0625, 44.214287, 44.482143, 44.970238, 45.107143, 45.1875, 45.25, 45.3125, 45.5625, 45.75, 45.875, 46.1875, 46.4375, 46.6875, 47.1875, 47.5, 47.6875, 48.151787, 48.482143, 48.803574, 49.3125, 49.375, 49.669643, 50.232143, 50.627975, 51.1875, 51.5, 51.75, 52.25, 52.5, 52.875, 53.383926, 53.8125, 54.25, 54.6875, 55, 55.339287, 55.89286, 56.428574, 56.9375, 57.3125, 57.553574, 58.282738, 58.821426, 59.205357, 59.625, 60, 60.526787, 61.071426, 62.125, 62.473213, 62.8125, 62.9375, 63.25, 63.625, 64, 64.3125, 64.714287, 65.351196, 65.758926, 66.419647, 66.875, 67.375, 67.875, 68.375, 68.875, 69.25, 69.583336, 69.94445, -10, -10, -10, -10, -10, -10, -10, -10, -10, -10, -10, -10, -10, -10, -10, -10, -10, -10, -10, -10, -10, -10, -10, -10, -10, -10, -10, -10, -10, -10, -10, -10, -10, -10, -10, -10, -10, -10, -10, -10, -10, -10, -10, -10, -10, -10, -10, -10, -10, -10, -10, -10, -10, -10, -10, -10, 20, 19.833332, 19.633928, 19.095238, 18.541666, 18.125, 17.75, 17.4375, 17, 16.5625, 16.3125, 16, 15.6875, 15.3125, 14.767857, 14.4375, 14.4375, 14.4375, 14.446428, 14.208333, 14.0625, 14.0625, 14.125, 14.125, 14.0625, 13.9375, 13.875, 13.875, 13.875, 13.875, 13.8125, 13.8125, 13.6875, 13.5625, 13.4375, 13.25, 13.125, 13.0625, 13.0625, 13.125, 13.375, 13.419643, 13.3625, 13.357143, 13.0625, 13.0625, 12.9375, 12.875, 12.75, 12.625, 12.625, 12.5, 12.375, 12.375, 12.1875, 12.0625, 12.125, 12.169643, 12.303572, 12.3125, 12.1875, 12.125, 12, 12, 11.9375, 11.875, 11.8125, 11.5625, 11.4375, 11.4375, 11.607143, 12.044643, 12.4375, 12.78125, 12.96875, 13.03125, 13.03125, 12.848214, 12.580357, 12.598214, 12.75, 12.9375, 13.107143, 12.830357, 12.767857, 12.6875, 12.75, 13.133928, 13.628572, 14.023809, 14.455358, 14.080357, 13.839285, 13.1875, 12.8125, 12.440475, 12.202381, 12.928572, 13.095238, 13.666667, -10, -10, -10, -10, -10, -10, -10, -10, -10, 32, 32, 32.0625, 32.0625, 32.0625, 32.1875, 32.1875, 32.125, 32.125, 32, 32, 32.125, 32.1875, 31.991072, 31.541666, 31.258928, 31.0625, 31.0625, 31.0625, 30.9375, 30.625, 30.5, 30.223213, 30.017857, 29.928572, 29.776787, 29.75, 29.625, 29.6875, 29.696428, 30.0625, 30.098213, 29.955357, 29.758928, 29.4375, 29.3125, 29.3125, 29.1875, 29.1875, 29.125, 29, 28.78125, 28.46875, 27.924107, 27.71875, 27.6875, 27.75, 28, 28, 27.96875, 27.8125, 27.625, 27.375, 27.15625, 27, 26.9375, 26.9375, 26.9375, 27.0625, 27.0625, 27.0625, 27.0625, 27, 12, 12, 12, 12, 12, 12.0625, 12.098214, 12.089286, 12.1875, 12.125, 12.0625, 11.955357, 11.910714, 11.767857, 12.038691, 12.591071, 12.758928, 13.0625, 13.1875, 13.4375, 13.6875, 13.9375, 14.25, 14.5, 14.75, 14.9375, 14.9375, 15, 15.107143, 15.1875, 15.125, 14.955357, 14.892857, 15.020833, 15.169643, 15.482143, 15.6875, 15.875, 15.9375, 15.9375, 15.9375, 16.03125, 16.15625, 16.09375, 15.892857, 15.791667, 16.058037, 16.428572, 16.71875, 16.96875, 17.03125, 17.03125, 17.055555, -10, -10, -10, -10, -10, -10, -10, -10, -10, -10, -10, -10, 39.4375, 39.291668, 39.15625, 39.25, 39.857143, 40.125, 40.5, 40.714287, 41.502975, 42.107143, 42.5625, 43.0625, 43.5625, 43.879463, 44.21875, 44.433037, 44.700893, 44.991074, 45.125, 45.25, 45.4375, 45.5625, 45.75, 45.8125, 45.9375, 46.416668, 46.633926, 46.875, 47.25, 47.4375, 47.625, 48.089287, 48.535713, 48.910713, 49.375, 49.5, 49.705357, 50.1875, 50.574406, 51.125, 51.5, 51.75, 52.25, 52.5, 52.875, 53.383926, 53.8125, 54.25, 54.625, 54.875, 55.276787, 55.803574, 56.321426, 56.8125, 57.25, 57.616074, 58.354168, 58.696426, 59.0625, 59.4375, 59.8125, 60.401787, 60.8125, 61.666664, 61.982143, 62.3125, 62.625, 62.946426, 63.482143, 63.875, 64.25, 64.589287, 65.288696, 65.633926, 66.294647, 66.75, 67.25, 67.75, 68.25, 68.8125, 69.294647, 69.625, 69.875, -10, -10, -10, -10, -10, -10, -10, -10, -10, -10, -10, -10, -10, -10, -10, -10, -10, -10
-10, -10, -10, -10, -10, -10, -10, 20, 19.75, 19.571428, 18.970238, 18.416666, 18.0625, 17.75, 17.5, 17.125, 16.6875, 16.375, 16.0625, 15.6875, 15.3125, 14.830357, 14.5625, 14.5625, 14.5, 14.5, 14.4375, 14.375, 14.375, 14.3125, 14.25, 14.0625, 13.9375, 13.875, 13.875, 13.875, 13.875, 13.8125, 13.8125, 13.6875, 13.5625, 13.4375, 13.25, 13.125, 13.0625, 13.0625, 13.0625, 13.25, 13.294643, 13.2375, 13.294643, 13, 12.9375, 12.892857, 13, 12.9375, 12.9375, 12.75, 12.5, 12.3125, 12.25, 12.125, 12.0625, 12.125, 12.169643, 12.241072, 12.25, 12.125, 12.0625, 12, 12, 12, 12, 12, 11.8125, 11.6875, 11.6875, 11.919643, 12.357143, 12.75, 13.03125, 13.09375, 13.09375, 13.03125, 12.785714, 12.455357, 12.410714, 12.4375, 12.6875, 13.190476, 13.080357, 13.038264, 13.053572, 13.142858, 13.696428, 14.0125, 14.229167, 14.517858, 14.066963, 13.776785, 13.1125, 12.919643, 12.549107, 12.443453, 12.904762, 13.095238, -10, -10, -10, -10, -10, -10, -10, -10, -10, -10, 32, 32, 32.125, 32.125, 32.125, 32.3125, 32.3125, 32.3125, 32.3125, 32.125, 32.0625, 32.125, 32.1875, 31.991072, 31.541666, 31.258928, 31.0625, 31.0625, 31, 30.9375, 30.6875, 30.5, 30.3125, 30.1875, 30.107143, 29.964287, 29.9375, 29.8125, 29.875, 29.875, 30.0625, 30.035713, 29.830357, 29.696428, 29.3125, 29.1875, 29.25, 29.232143, 29.25, 29.25, 29.0625, 28.772322, 28.34375, 27.924107, 27.71875, 27.75, 27.8125, 28, 28, 27.90625, 27.6875, 27.46875, 27.21875, 27.0625, 26.96875, 27, 27.03125, 27.03125, 27.15625, 27.09375, 27.0625, 27.0625, 27, 12, 12, 12, 12, 12, 12, 12.0625, 12.125, 12.1875, 12.1875, 12.0625, 11.892857, 11.875, 11.9375, 12.205357, 12.678572, 12.875, 13, 13.125, 13.3125, 13.625, 13.875, 14.25, 14.5, 14.75, 15, 15, 15, 15, 15.0625, 15.0625, 15.0625, 15.0625, 15.0625, 15.25, 15.482143, 15.625, 15.75, 15.75, 15.8125, 15.875, 16, 16.125, 16.09375, 16.017857, 16, 16.165178, 16.607143, 16.78125, 17.03125, 17, 16.9375, -10, -10, -10, -10, -10, -10, -10, -10, -10, -10, -10, -10, -10, 39.583332, 39.291668, 39.15625, 39.24107, 39.794643, 40.169643, 40.5, 40.776787, 41.377975, 41.892857, 42.410713, 42.821426, 43.473213, 43.754463, 44.28125, 44.575893, 44.84375, 45.1875, 45.3125, 45.5, 45.75, 45.875, 46.0625, 46.0625, 46.125, 46.604168, 46.794643, 47, 47.25, 47.375, 47.6875, 48.232143, 48.616074, 48.982143, 49.375, 49.4375, 49.517857, 49.955357, 50.386906, 50.84375, 51.28125, 51.53125, 52.09375, 52.482143, 52.75, 53.196426, 53.625, 54.044643, 54.5, 54.75, 55.151787, 55.741074, 56.375, 56.848213, 57.3125, 57.625, 58.0625, 58.5, 58.8125, 59.3125, 59.6875, 60.214287, 60.625, 61.208332, 61.491074, 61.724487, 62.375, 62.705357, 63.464287, 63.803574, 64.25, 64.571426, 65.252975, 65.6875, 66.1875, 66.625, 67.125, 67.625, 68.125, 68.6875, 69.169647, 69.5, 69.71875, -10, -10, -10, -10, -10, -10, -10, -10, -10, -10, -10, -10, -10, -10, -10, -10, -10, -10, -10, -10, -10, -10, -10, -10, -10, -10, -10, -10, -10, -10, -10, -10, -10, -10, -10, -10, -10, -10, -10, -10, -10, -10, -10, -10, -10, -10, -10, -10, -10, -10, -10, -10, -10, -10, -10, -10, 20, 19.75, 19.571428, 19.032738, 18.479166, 18.125, 17.875, 17.5625, 17.1875, 16.705357, 16.375, 16.0625, 15.6875, 15.375, 14.955357, 14.75, 14.6875, 14.5, 14.375, 14.1875, 14.0625, 14.0625, 14.0625, 14.0625, 14, 13.875, 13.75, 13.6875, 13.625, 13.625, 13.5625, 13.5625, 13.5, 13.4375, 13.375, 13.25, 13.125, 13.125, 13.125, 13.125, 13.25, 13.232143, 13.175, 13.232143, 13, 12.9375, 12.892857, 13, 13, 13.0625, 12.875, 12.625, 12.375, 12.1875, 12.0625, 12.0625, 12.125, 12.0625, 12.0625, 12.0625, 12, 12, 12, 12, 12, 12, 12, 11.8125, 11.6875, 11.75, 12.044643, 12.589287, 12.9375, 13.15625, 13.15625, 13.09375, 13.03125, 12.875, 12.78125, 12.645408, 12.683673, 12.857142, 13.502976, 13.4375, 13.831633, 14.083333, 14, 13.776785, 14.05, 14.119048, 14.288266, 13.629463, 13.308035, 12.844643, 12.919643, 12.59375, 12.643453, -10, -10, -10, -10, -10, -10, -10, -10, -10, -10, -10, -10, 32, 32.125, 32.291668, 32.25, 32.25, 32.4375, 32.4375, 32.5, 32.5, 32.25, 32.125, 32.125, 32.1875, 31.991072, 31.541666, 31.258928, 31.0625, 31.0625, 31, 31, 30.8125, 30.6875, 30.535713, 30.205357, 30.071428, 30, 29.9375, 29.9375, 29.9375, 29.9375, 30.125, 29.964285, 29.497023, 29.363094, 29.075001, 28.979166, 29.232143, 29.169643, 29.3125, 29.25, 29.125, 28.803572, 28.1875, 27.955357, 27.821428, 27.90625, 27.96875, 28.03125, 28.0625, 27.96875, 27.75, 27.5, 27.1875, 27.03125, 26.9375, 27, 27.03125, 26.96875, 27.09375, 27.03125, 27, 27.0625, 27, 12.25, 12.25, 12.1875, 12.125, 12.0625, 12, 12, 12, 12, 12, 12, 12.0625, 12.125, 12.3125, 12.5625, 12.75, 12.8125, 12.875, 13, 13.294643, 13.625, 13.875, 14.25, 14.5, 14.75, 15, 15, 15, 15, 15.0625, 15.0625, 15.0625, 15.0625, 15.0625, 15.3125, 15.482143, 15.625, 15.75, 15.6875, 15.8125, 15.875, 15.875, 15.9375, 15.96875, 16.0625, 16.232143, 16.477678, 16.8125, 16.90625, 17.09375, 17, 16.9375, -10, -10, -10, -10, -10, -10, -10, -10, -10, -10, -10, -10, -10, -10, 39.25, 39.1875, 39.339287, 39.875, 40.276787, 40.5625, 40.776787, 41.252975, 41.714287, 42.369045, 42.821426, 43.473213, 43.785713, 44.3125, 44.607143, 44.875, 45.1875, 45.375, 45.625, 45.9375, 46.125, 46.3125, 46.25, 46.339287, 46.898811, 47.026787, 47.25, 47.375, 47.4375, 47.8125, 48.294643, 48.678574, 49.044643, 49.375, 49.4375, 49.4375, 49.74107, 50.208332, 50.59375, 51.15625, 51.450893, 52.03125, 52.482143, 52.75, 53.205353, 53.75, 54.044643, 54.5, 54.8125, 55.366074, 55.919643, 56.491074, 56.910713, 57.3125, 57.625, 57.9375, 58.339287, 58.660713, 59.071426, 59.607143, 60.107143, 60.5, 60.875, 61.125, 61.446426, 62.017857, 62.476189, 63.339287, 63.741074, 64.25, 64.833336, 65.348221, 65.6875, 66.125, 66.5, 66.9375, 67.46875, 67.90625, 68.46875, 69.013397, 69.357147, 69.635414, 70.4375, 70.75, -10, -10, -10, -10, -10, -10, -10, -10, -10, -10, -10, -10, -10, -10, -10, -10
-10, -10, -10, -10, -10, -10, -10, 19.875, 19.583334, 19.383928, 18.916666, 18.5625, 18.303572, 17.833334, 17.428572, 17.0625, 16.580357, 16.3125, 16.0625, 15.6875, 15.4375, 15.125, 14.9375, 14.8125, 14.5625, 14.375, 14.125, 14, 14, 14, 14, 13.9375, 13.6875, 13.392857, 13.330357, 13.458333, 13.482143, 13.5, 13.4375, 13.3125, 13.25, 13.1875, 13.125, 13.125, 13.25, 13.3125, 13.25, 13.25, 13.1875, 13.125, 13.1875, 13.0625, 12.875, 12.785713, 12.875, 12.875, 12.9375, 12.75, 12.5625, 12.375, 12.25, 12.1875, 12.1875, 12.125, 12.0625, 12.0625, 12, 12, 12, 12, 12, 12, 12, 12, 11.875, 11.8125, 11.875, 12.107143, 12.482143, 12.75, 12.96875, 13.03125, 13.03125, 13.15625, 13.125, 13.15625, 13.448979, 13.474489, 13.5, 13.815476, 13.875, 14.403061, 14.454082, 13.916667, 13.785713, 13.621428, 13.511905, 13.586736, 13.361607, 13.129463, 12.990476, 13.127976, 12.760417, 12.779167, -10, -10, -10, -10, -10, -10, -10, -10, -10, -10, -10, -10, -10, 32.25, 32.458336, 32.375, 32.375, 32.5, 32.5, 32.625, 32.625, 32.3125, 31.955357, 31.875, 31.8125, 31.625, 31.4375, 31.1875, 31, 31, 30.9375, 30.9375, 30.8125, 30.776787, 30.723213, 30.276785, 30.142857, 30, 30, 30, 30.0625, 30.0625, 30.125, 29.901785, 29.101189, 28.943451, 28.825001, 28.889881, 29.107143, 29.07143, 29.1875, 29.125, 29.0625, 28.741072, 28.0625, 27.830357, 27.696428, 27.71875, 27.84375, 27.90625, 28.0625, 28.125, 27.9375, 27.6875, 27.263393, 27.046875, 26.859375, 26.921875, 26.953125, 26.90625, 27.165178, 27.28125, 27.1875, 27.205357, 27.083334, 12.625, 12.625, 12.46875, 12.3125, 12.15625, 12, 12.0625, 12.125, 12.1875, 12.1875, 12.125, 12.125, 12.125, 12.25, 12.4375, 12.625, 12.6875, 12.8125, 13, 13.294643, 13.625, 13.875, 14.25, 14.5, 14.75, 15, 15, 15, 15, 15, 15, 15, 15, 15.0625, 15.3125, 15.482143, 15.6875, 15.8125, 15.75, 15.875, 15.9375, 16, 16.125, 16.15625, 16.1875, 16.357143, 16.571428, 16.90625, 17, 17.125, 17, 17, -10, -10, -10, -10, -10, -10, -10, -10, -10, -10, -10, -10, -10, -10, 39.083332, 39.0625, 39.258926, 39.75, 40.276787, 40.625, 40.955357, 41.294643, 41.714287, 42.369045, 42.821426, 43.410713, 43.71875, 44.28125, 44.638393, 44.96875, 45.25, 45.5, 45.75, 46.169643, 46.375, 46.5625, 46.5625, 46.651787, 47.211311, 47.276787, 47.4375, 47.5, 47.5, 47.9375, 48.357143, 48.741074, 49.107143, 49.375, 49.5, 49.5, 49.8125, 50.232143, 50.522324, 51.09375, 51.388393, 51.96875, 52.482143, 52.75, 53.196426, 53.625, 53.919643, 54.3125, 54.625, 55.178574, 55.848213, 56.50893, 57.004463, 57.40625, 57.71875, 57.9375, 58.276787, 58.598213, 59.008926, 59.544643, 60, 60.375, 60.6875, 60.9375, 61.196426, 61.830357, 62.333332, 63.214287, 63.678574, 64.1875, 64.770836, 65.178574, 65.5, 65.875, 66.3125, 66.794647, 67.3125, 67.75, 68.3125, 68.919647, 69.357147, 69.760414, 70.125, 70.452385, 70.766663, -10, -10, -10, -10, -10, -10, -10, -10, -10, -10, -10, -10, -10, -10, -10, -10, -10, -10, -10, -10, -10, -10, -10, -10, -10, -10, -10, -10, -10, -10, -10, -10, -10, -10, -10, -10, -10, -10, -10, -10, -10, -10, -10, -10, -10, -10, -10, -10, -10, -10, -10, -10, -10, 19.75, 19.5, 19.375, 19.1875, 18.75, 18.428572, 17.788691, 17.366072, 16.9375, 16.517857, 16.25, 16, 15.6875, 15.4375, 15.1875, 15, 14.875, 14.625, 14.375, 14.125, 14, 14, 14, 13.9375, 13.8125, 13.5, 13.080357, 13.035713, 13.270833, 13.294643, 13.4375, 13.3125, 13.1875, 13.125, 13.0625, 13.0625, 13.1875, 13.375, 13.5, 13.4375, 13.3125, 13.125, 13.0625, 13.125, 13.0625, 12.9375, 12.785713, 12.875, 12.875, 12.875, 12.6875, 12.625, 12.535714, 12.4375, 12.401786, 12.3125, 12.1875, 12.125, 12.0625, 12, 12, 12, 12, 12, 12, 12, 12, 11.9375, 11.9375, 12, 12.1875, 12.482143, 12.625, 12.8125, 12.875, 13, 13.25, 13.375, 13.53125, 13.65625, 13.760203, 13.714286, 13.895833, 14.232143, 14.822917, 14.834822, 14.3125, 13.892857, 13.464286, 13.392858, 13.178572, 12.903061, 12.924107, 12.990476, 13.226191, 12.822917, 12.791666, -10, -10, -10, -10, -10, -10, -10, -10, -10, -10, -10, -10, -10, 32.375, 32.562504, 32.4375, 32.4375, 32.5, 32.5, 32.6875, 32.6875, 32.4375, 32.080357, 31.9375, 31.875, 31.6875, 31.5, 31.25, 31.0625, 30.9375, 30.8125, 30.8125, 30.6875, 30.714287, 30.723213, 30.276785, 30.142857, 30, 30.0625, 30.125, 30.3125, 30.348213, 30.276787, 30.053572, 29.208332, 29.014879, 28.856251, 28.796131, 28.950893, 28.91518, 29.0625, 29.0625, 29, 28.678572, 28, 27.875, 27.758928, 27.78125, 27.90625, 27.96875, 28.1875, 28.265625, 28.109375, 27.796875, 27.310268, 27.0625, 26.84375, 26.90625, 27, 27.004463, 27.245535, 27.504463, 27.3125, 27.285713, 27.166668, 13.125, 13.125, 12.897322, 12.479167, 12.227678, 12, 12.0625, 12.1875, 12.3125, 12.3125, 12.25, 12.1875, 12.125, 12.25, 12.375, 12.571428, 12.75, 12.8125, 13.125, 13.294643, 13.5625, 13.8125, 14.125, 14.482143, 14.75, 15, 15, 15, 15, 15, 15, 15, 15.0625, 15.125, 15.375, 15.5, 15.6875, 15.8125, 15.8125, 15.9375, 16.0625, 16.1875, 16.25, 16.25, 16.25, 16.419643, 16.633928, 17, 17.0625, 17.125, 17, 16.96875, 16.916668, -10, -10, -10, -10, -10, -10, -10, -10, -10, -10, -10, -10, -10, 39, 39, 39.25, 39.625, 40.214287, 40.75, 41.125, 41.375, 41.714287, 42.369045, 42.821426, 43.410713, 43.75, 44.3125, 44.732143, 45.0625, 45.25, 45.5, 45.6875, 46.169643, 46.5, 46.75, 46.9375, 47.026787, 47.357143, 47.455357, 47.5625, 47.625, 47.6875, 48.0625, 48.419643, 48.6875, 48.9375, 49.1875, 49.3125, 49.4375, 49.857143, 50.294643, 50.522324, 51.03125, 51.325893, 51.84375, 52.419643, 52.625, 53.071426, 53.5, 53.732143, 54.125, 54.4375, 54.928574, 55.616074, 56.294643, 56.700893, 57.263393, 57.59375, 57.9375, 58.214287, 58.598213, 58.991074, 59.544643, 59.9375, 60.375, 60.6875, 61, 61.321426, 61.830357, 62.324406, 63, 63.535713, 64.0625, 64.708336, 65.053574, 65.4375, 65.75, 66.1875, 66.700897, 67.21875, 67.65625, 68.15625, 68.6875, 69.232147, 69.65625, 69.96875, 70.255951, 70.766663, -10, -10, -10, -10, -10, -10, -10, -10, -10, -10, -10, -10, -10, -10, -10
-10, -10, -10, -10, -10, -10, -10, 19.5625, 19.375, 19.28125, 19.125, 18.75, 18.428572, 17.788691, 17.366072, 16.875, 16.410713, 16.1875, 15.9375, 15.6875, 15.4375, 15.1875, 14.9375, 14.75, 14.5, 14.25, 14, 13.875, 13.875, 13.875, 13.8125, 13.75, 13.4375, 13, 12.898214, 13.190476, 13.169643, 13.34375, 13.15625, 13.09375, 13.03125, 13, 13.0625, 13.1875, 13.375, 13.5, 13.4375, 13.3125, 13.125, 13.0625, 13.125, 13.125, 13.0625, 12.892857, 12.875, 12.875, 12.8125, 12.75, 12.8125, 12.785714, 12.6875, 12.616072, 12.4375, 12.25, 12.25, 12.125, 12.0625, 12.0625, 12, 12, 12, 12, 12, 12, 12, 12.0625, 12.1875, 12.375, 12.607143, 12.75, 12.875, 12.9375, 13.125, 13.375, 13.625, 13.96875, 14.21875, 14.258928, 14.1875, 14.1875, 14.357143, 14.760417, 14.709822, 14.15625, 13.674107, 13.3125, 13.1875, 12.96875, 12.78125, 12.709822, 12.904761, 13.119047, 12.791667, 12.75, -10, -10, -10, -10, -10, -10, -10, -10, -10, -10, -10, -10, -10, 32.5, 32.666668, 32.5, 32.5, 32.4375, 32.4375, 32.6875, 32.75, 32.625, 32.330357, 32.125, 32.0625, 31.875, 31.6875, 31.5, 31.25, 31.0625, 30.9375, 30.875, 30.8125, 30.875, 30.705357, 30.178572, 30.049107, 29.90625, 30, 30.125, 30.3125, 30.348213, 30.276787, 30.053572, 29.177082, 28.952379, 28.793751, 28.671131, 28.794643, 28.683037, 28.875, 28.90625, 28.875, 28.625, 28.0625, 27.90625, 27.821428, 27.78125, 27.90625, 28.03125, 28.25, 28.359375, 28.234375, 27.859375, 27.372768, 27.0625, 26.75, 26.75, 26.8125, 26.785713, 27.089285, 27.473213, 27.348213, 27.348213, 27.250002, 13.4375, 13.5, 13.241072, 12.822917, 12.477678, 12.125, 12.125, 12.1875, 12.3125, 12.3125, 12.25, 12.1875, 12.125, 12.25, 12.375, 12.571428, 12.8125, 12.875, 13.1875, 13.294643, 13.4375, 13.696428, 14.145833, 14.535714, 14.8125, 15, 15, 15, 15, 15, 15, 15, 15, 15, 15.1875, 15.375, 15.6875, 15.9375, 16, 16.0625, 16.125, 16.1875, 16.3125, 16.375, 16.4375, 16.669643, 16.8125, 17, 17.0625, 17.0625, 17, 16.90625, 16.861113, -10, -10, -10, -10, -10, -10, -10, -10, -10, -10, -10, -10, -10, 39, 39.083332, 39.3125, 39.5625, 40.07143, 40.669643, 41.0625, 41.4375, 41.821426, 42.458332, 43, 43.5, 43.9375, 44.4375, 44.875, 45.1875, 45.3125, 45.625, 45.75, 46.232143, 46.625, 46.875, 47.1875, 47.339287, 47.607143, 47.607143, 47.625, 47.6875, 47.8125, 48.232143, 48.5625, 48.8125, 49, 49.25, 49.375, 49.625, 50.089287, 50.482143, 50.741074, 51.1875, 51.482143, 51.875, 52.375, 52.625, 53.133926, 53.625, 53.8125, 54.1875, 54.4375, 54.866074, 55.428574, 55.86607, 56.236607, 56.971725, 57.40625, 58.020832, 58.267857, 58.660713, 58.928574, 59.482143, 59.875, 60.3125, 60.6875, 61.0625, 61.583332, 62.00893, 62.534225, 62.986607, 63.513393, 63.96875, 64.583336, 64.866074, 65.25, 65.607147, 66.0625, 66.607147, 67.125, 67.5625, 68, 68.5, 69.044647, 69.544647, 69.875, 70.214287, -10, -10, -10, -10, -10, -10, -10, -10, -10, -10, -10, -10, -10, -10, -10, -10, -10, -10, -10, -10, -10, -10, -10, -10, -10, -10, -10, -10, -10, -10, -10, -10, -10, -10, -10, -10, -10, -10, -10, -10, -10, -10, -10, -10, -10, -10, -10, -10, -10, -10, -10, -10, -10, -10, 19.375, 19.25, 19.1875, 19, 18.6875, 18.366072, 17.663691, 17.303572, 16.875, 16.455357, 16.25, 16.0625, 15.75, 15.5, 15.25, 14.875, 14.6875, 14.4375, 14.1875, 14.0625, 14, 14, 14, 13.875, 13.75, 13.5, 13.125, 13.085714, 13.440476, 13.419643, 13.59375, 13.375, 13.25, 13.125, 13.03125, 13, 13.0625, 13.1875, 13.3125, 13.3125, 13.25, 13.125, 13.0625, 13.125, 13.125, 13.0625, 12.892857, 12.875, 12.875, 12.8125, 12.875, 13.0625, 13.160714, 13.116072, 12.866072, 12.75, 12.678572, 12.708333, 12.333333, 12.169643, 12.125, 12.125, 12.125, 12.125, 12.0625, 12.0625, 12.125, 12.25, 12.4375, 12.5625, 12.6875, 12.8125, 12.875, 12.9375, 13.0625, 13.25, 13.5, 13.75, 14.0625, 14.25, 14.375, 14.375, 14.25, 14.375, 14.635417, 14.584822, 14.15625, 13.78125, 13.5, 13.375, 13.125, 13, 12.866072, 12.897618, 13.119047, 12.782739, 12.799999, -10, -10, -10, -10, -10, -10, -10, -10, -10, -10, -10, -10, -10, 32.625, 32.75, 32.5625, 32.5625, 32.5, 32.5, 32.75, 32.8125, 32.75, 32.517857, 32.375, 32.375, 32.223213, 31.955357, 31.758928, 31.5, 31.25, 31.0625, 30.9375, 30.8125, 30.8125, 30.669643, 30.254465, 30.165178, 30.03125, 30.0625, 30.15625, 30.3125, 30.348213, 30.276787, 30.0625, 29.385416, 29.160713, 28.9375, 28.879463, 28.8125, 28.683037, 28.71875, 28.84375, 28.848213, 28.625, 28.205357, 27.90625, 27.75, 27.6875, 27.8125, 27.96875, 28.125, 28.171875, 28.015625, 27.671875, 27.279018, 27.03125, 26.75, 26.75, 26.8125, 26.848213, 27.183035, 27.629463, 27.566963, 27.504463, 27.416668, 13.4375, 13.541667, 13.397322, 13.104167, 12.821428, 12.5, 12.4375, 12.4375, 12.625, 12.625, 12.5625, 12.4375, 12.25, 12.3125, 12.375, 12.571428, 12.875, 12.9375, 13.1875, 13.1875, 13.25, 13.517857, 14.166666, 14.589286, 14.875, 15, 15.0625, 15.0625, 15.0625, 15.0625, 15, 15.0625, 15.125, 15.1875, 15.3125, 15.5, 15.75, 15.9375, 16.0625, 16.0625, 16.125, 16.25, 16.5, 16.625, 16.6875, 16.8125, 16.8125, 16.9375, 17, 17, 17, 16.875, 16.833334, 16.666666, -10, -10, -10, -10, -10, -10, -10, -10, -10, -10, -10, -10, 39.125, 39.25, 39.4375, 39.625, 40.026787, 40.607143, 41.0625, 41.5625, 42, 42.5, 43, 43.5, 43.96875, 44.46875, 44.96875, 45.34375, 45.5, 45.875, 46, 46.419643, 46.8125, 47.0625, 47.4375, 47.625, 47.75, 47.75, 47.75, 47.875, 48.0625, 48.482143, 48.8125, 49, 49.125, 49.25, 49.3125, 49.625, 50.13393, 50.589287, 50.866074, 51.25, 51.5, 51.8125, 52.3125, 52.5625, 53, 53.4375, 53.6875, 54.0625, 54.375, 54.65625, 55.133926, 55.55357, 55.924107, 56.690475, 57.15625, 57.904762, 58.386906, 58.803574, 59.107143, 59.4375, 59.75, 60.1875, 60.5625, 61, 61.708332, 62.151787, 62.575893, 62.986607, 63.495537, 63.90625, 64.25, 64.5, 64.9375, 65.401787, 65.9375, 66.482147, 66.875, 67.330353, 67.833336, 68.3125, 68.8125, 69.232147, 69.571426, 69.964287, -10, -10, -10, -10, -10, -10, -10, -10, -10, -10, -10, -10, -10, -10, -10, -10
-10, -10, -10, -10, -10, -10, -10, 19.375, 19.25, 19.125, 18.8125, 18.5, 18.1875, 17.830357, 17.5625, 17.1875, 16.705357, 16.375, 16.0625, 15.6875, 15.4375, 15.1875, 14.875, 14.75, 14.5625, 14.375, 14.3125, 14.25, 14.1875, 14.125, 13.9375, 13.8125, 13.6875, 13.482143, 13.442857, 13.607143, 13.5625, 13.71875, 13.5, 13.375, 13.1875, 13.03125, 13.0625, 13.125, 13.1875, 13.25, 13.1875, 13.0625, 13.026786, 13.169643, 13.241072, 13.3125, 13.375, 13.375, 13.4375, 13.285714, 13.214286, 13.4375, 13.5625, 13.598214, 13.428572, 13.241072, 13.1875, 13.241072, 13.395833, 12.738095, 12.586736, 12.5, 12.625, 12.5, 12.4375, 12.3125, 12.3125, 12.375, 12.5, 12.6875, 12.8125, 13, 13.1875, 13.232143, 13.175, 13.366072, 13.491072, 13.75, 14, 14.3125, 14.5, 14.5625, 14.5, 14.25, 14.3125, 14.510417, 14.46875, 14.302083, 13.959822, 13.75, 13.5625, 13.3125, 13.25, 13.098214, 12.939285, 13.160714, 12.949405, 12.933333, -10, -10, -10, -10, -10, -10, -10, -10, -10, -10, -10, -10, -10, 32.75, 32.833336, 32.625, 32.625, 32.5625, 32.5625, 32.8125, 32.875, 32.9375, 32.875, 32.75, 32.8125, 32.660713, 32.392857, 32.1875, 31.666666, 31.416666, 31.395832, 31.294643, 31.1875, 30.99107, 30.732143, 30.495537, 30.46875, 30.40625, 30.375, 30.263393, 30.21875, 30.207588, 30.136162, 29.984375, 29.640625, 29.361607, 29.03125, 28.875, 28.90625, 28.875, 28.9375, 29.09375, 29.017857, 28.642857, 28.276785, 28.03125, 27.9375, 27.9375, 28, 28.09375, 28.125, 27.984375, 27.796875, 27.453125, 27.171875, 27.015625, 26.890625, 26.953125, 26.962053, 26.810713, 27.194941, 27.546129, 27.629463, 27.611607, 27.5, 13.5625, 13.666667, 13.616072, 13.416667, 13.227678, 12.9375, 12.75, 12.6875, 12.8125, 12.875, 12.9375, 12.875, 12.75, 12.75, 12.75, 12.821428, 13, 13, 13.125, 13.0625, 13.125, 13.455357, 14.211309, 14.651786, 14.9375, 15, 15.125, 15.125, 15.125, 15.125, 15, 15.125, 15.25, 15.375, 15.5, 15.625, 15.75, 15.875, 16, 16.0625, 16.1875, 16.25, 16.5, 16.625, 16.75, 16.875, 16.875, 16.9375, 16.9375, 17, 17, 16.875, 16.802084, 16.722221, -10, -10, -10, -10, -10, -10, -10, -10, -10, -10, -10, -10, 39.375, 39.5, 39.625, 39.75, 40.089287, 40.607143, 41.0625, 41.5625, 42, 42.5, 43, 43.5, 44, 44.5, 45, 45.4375, 45.65625, 46.09375, 46.21875, 46.59375, 47, 47.25, 47.625, 47.8125, 47.9375, 48.008926, 48.1875, 48.25, 48.4375, 48.732143, 49, 49.125, 49.25, 49.3125, 49.375, 49.75, 50.169643, 50.544643, 50.8125, 51.1875, 51.5, 51.75, 52.25, 52.5, 52.875, 53.375, 53.625, 54.0625, 54.5, 54.754463, 55.080357, 55.348213, 55.580357, 56.346725, 56.8125, 57.592262, 58.074406, 58.5, 59.023811, 59.455357, 59.857143, 60.25, 60.625, 61, 61.708332, 62.151787, 62.575893, 62.924107, 63.433037, 63.78125, 64.0625, 64.375, 64.875, 65.446426, 65.9375, 66.4375, 66.75, 67.205353, 67.645836, 68.080353, 68.669647, 69.107147, 69.571426, 69.9375, -10, -10, -10, -10, -10, -10, -10, -10, -10, -10, -10, -10, -10, -10, -10, -10, -10, -10, -10, -10, -10, -10, -10, -10, -10, -10, -10, -10, -10, -10, -10, -10, -10, -10, -10, -10, -10, -10, -10, -10, -10, -10, -10, -10, -10, -10, -10, -10, -10, -10, -10, -10, -10, -10, 19.25, 19.166666, 19.0625, 18.6875, 18.4375, 18.1875, 17.875, 17.625, 17.3125, 16.767857, 16.4375, 16.0625, 15.625, 15.375, 15.125, 14.875, 14.6875, 14.5, 14.3125, 14.3125, 14.375, 14.4375, 14.708334, 14.387755, 14.316327, 14.354167, 14.25, 14.2375, 14.12245, 14.276786, 14.34375, 14.0625, 13.9375, 13.6875, 13.362245, 13.371428, 13.428572, 13.428572, 13.4375, 13.346939, 13.321428, 13.346939, 13.523809, 13.571428, 13.625, 13.8125, 13.9375, 14, 14.5, 14.5, 14.1875, 14.3125, 14.3125, 13.918367, 14.026786, 14.214286, 14.311225, 14.380952, 14.180554, 14.113095, 14, 13.571428, 13.071428, 12.901786, 12.848214, 13.0125, 12.839286, 12.964286, 13.0625, 13.223214, 13.3125, 13.330357, 13.357143, 13.3625, 13.723215, 13.866072, 14.125, 14.3125, 14.625, 14.875, 15.0625, 14.964286, 14.846939, 14.892858, 14.739797, 14.635417, 14.504464, 14.21875, 14.1875, 14, 13.8125, 13.8125, 13.214286, 12.919047, 13.166667, 12.93254, -10, -10, -10, -10, -10, -10, -10, -10, -10, -10, -10, -10, -10, -10, 32.875, 32.916668, 32.6875, 32.625, 32.5625, 32.5625, 32.8125, 32.9375, 32.96875, 32.90625, 32.84375, 32.90625, 32.848213, 32.705357, 32.625, 32.166668, 32.041668, 32.020832, 31.794643, 31.6875, 31.36607, 31.044643, 30.808037, 30.71875, 30.65625, 30.5625, 30.388393, 30.1875, 30.109375, 30.046875, 29.859375, 29.609375, 29.34375, 29.0625, 28.96875, 29.0625, 29.0625, 29.15625, 29.25, 29.174107, 28.767857, 28.401785, 28.15625, 28.0625, 28.0625, 28.0625, 28.03125, 27.9375, 27.71875, 27.5, 27.28125, 27.0625, 27, 26.90625, 26.995537, 26.977678, 26.596428, 26.96875, 27.34375, 27.620535, 27.71875, 27.666666, 13.5625, 13.666667, 13.6875, 13.8125, 13.84375, 13.794643, 13.392858, 13.321428, 13.428572, 13.489797, 13.75, 13.75, 13.928572, 13.392858, 13.357142, 13.5, 13.25, 13.25, 13.1875, 13.3125, 13.4375, 13.767857, 14.523809, 14.794643, 15, 15, 15.1875, 15.1875, 15.1875, 15.1875, 15, 15.1875, 15.375, 15.5625, 15.6875, 15.75, 15.8125, 15.875, 16.0625, 16.1875, 16.3125, 16.3125, 16.5, 16.625, 16.75, 16.9375, 16.9375, 16.9375, 16.9375, 17, 17, 16.90625, 16.78125, 16.755953, -10, -10, -10, -10, -10, -10, -10, -10, -10, -10, -10, -10, 39.625, 39.75, 39.8125, 39.875, 40.151787, 40.482143, 41, 41.5, 41.9375, 42.4375, 42.9375, 43.482143, 43.96875, 44.46875, 44.96875, 45.40625, 45.71875, 46.21875, 46.450893, 46.84375, 47.25, 47.5, 47.8125, 48, 48.125, 48.196426, 48.4375, 48.5, 48.6875, 48.919643, 49.151787, 49.357143, 49.491074, 49.5625, 49.5625, 49.8125, 50.125, 50.482143, 50.75, 51.1875, 51.5, 51.75, 52.25, 52.5, 52.8125, 53.321426, 53.637501, 53.979168, 54.6875, 54.941963, 55.3125, 55.5, 55.696426, 56.302082, 56.6875, 57.279762, 57.824406, 58.1875, 58.773811, 59.205357, 59.67857, 60.1875, 60.5625, 60.9375, 61.583332, 62.089287, 62.620537, 62.96875, 63.388393, 63.65625, 63.875, 64.25, 64.75, 65.428574, 65.875, 66.34375, 66.53125, 66.924103, 67.302086, 67.705353, 68.294647, 68.794647, 69.383926, 69.877975, 69.875, 70.267853, 70.666672, -10, -10, -10, -10, -10, -10, -10, -10, -10, -10, -10, -10, -10
-10, -10, -10, -10, -10, -10, -10, 19.1875, 19.125, 19.03125, 18.75, 18.5, 18.1875, 17.767857, 17.5, 17.1875, 16.75, 16.4375, 16.0625, 15.625, 15.375, 15.1875, 15.125, 15.169643, 14.892858, 14.785714, 14.857142, 14.928572, 15, 15.702382, 15.946429, 15.904762, 15.166667, 15.142857, 15.1875, 15.666667, 15.214286, 15.1875, 14.90625, 14.78125, 14.321428, 15.16369, 15.366666, 14.404762, 14.342262, 14.3125, 14.934525, 14.916667, 14.964286, 14.398809, 14.188775, 14.244898, 14.785714, 14.857142, 14.87755, 15.183673, 15.142858, 15.321428, 15.357142, 15.392858, 15.619048, 15.357142, 15.321428, 15.116072, 15.083333, 14.904762, 14.846939, 14.821428, 14.765306, 13.857142, 13.735119, 13.639881, 14.101021, 13.767857, 13.839286, 13.8125, 13.910714, 13.9375, 13.770408, 13.765306, 13.771429, 14.410715, 14.428572, 14.6875, 14.8125, 15, 15.25, 15.3125, 15.791667, 16.323412, 16.565475, 16.476191, 15.354167, 15.053572, 14.75, 14.75, 14.625, 14.5, 14.5, -10, -10, -10, -10, -10, -10, -10, -10, -10, -10, -10, -10, -10, -10, -10, -10, -10, -10, 33, 33, 32.75, 32.625, 32.625, 32.625, 32.875, 33, 32.9375, 32.8125, 32.75, 32.75, 32.723213, 32.705357, 32.6875, 32.416668, 32.416668, 32.458332, 32.232143, 31.9375, 31.473213, 31.3125, 31.15625, 31.125, 31.0625, 30.875, 30.638393, 30.375, 30.234375, 30.109375, 29.921875, 29.765625, 29.59375, 29.375, 29.28125, 29.3125, 29.234375, 29.296875, 29.359375, 29.283482, 28.892857, 28.526785, 28.25, 28.125, 28.09375, 28.0625, 27.958334, 27.833334, 27.583334, 27.25, 27.208334, 27, 27, 27, 27.005953, 26.946428, 26.533928, 26.84375, 27.21875, 27.584822, 27.78125, 27.749998, 14.357142, 14.428572, 14.5, 14.714286, 14.821428, 14.789116, 15.25, 15.666667, 15.791667, 15.726192, 15.458333, 15.375, 15, 15.041667, 14.916667, 14.5, 13.714286, 13.714286, 13.642858, 13.821428, 14.25, 14.508928, 15.002975, 15.116072, 15.25, 15.3125, 15.5, 15.4375, 15.330357, 15.3125, 15.125, 15.375, 15.625, 15.8125, 15.9375, 15.9375, 16, 16.0625, 16.25, 16.4375, 16.5625, 16.5625, 16.6875, 16.75, 16.75, 16.875, 16.875, 16.875, 16.9375, 17, 17, 16.90625, 16.71875, 16.732143, 17.1, -10, -10, -10, -10, -10, -10, -10, -10, -10, -10, -10, 39.875, 39.916668, 39.9375, 40, 40.25, 40.5, 41, 41.5, 41.9375, 42.4375, 42.9375, 43.482143, 43.96875, 44.46875, 44.96875, 45.34375, 45.674107, 46.263393, 46.638393, 47.03125, 47.4375, 47.6875, 47.9375, 48.3125, 48.375, 48.571426, 48.8125, 48.875, 49.0625, 49.25, 49.4375, 49.607143, 49.741074, 49.6875, 49.6875, 49.8125, 50.0625, 50.419643, 50.75, 51.25, 51.5625, 51.8125, 52.25, 52.5, 52.75, 53.258926, 53.637501, 53.952381, 54.625, 54.848213, 55.15625, 55.46875, 55.71875, 56.21875, 56.5625, 56.946426, 57.520832, 57.9375, 58.648811, 59.080357, 59.55357, 60, 60.375, 60.794643, 61.25, 61.785713, 62.339287, 62.75, 63.169643, 63.4375, 63.6875, 64.125, 64.741074, 65.428574, 65.8125, 66.258926, 66.583336, 66.946426, 67.333336, 67.642853, 68.107147, 68.4375, 68.955353, 69.711311, 70.011902, 70.511902, 70.94445, -10, -10, -10, -10, -10, -10, -10, -10, -10, -10, -10, -10, -10, -10, -10, -10, -10, -10, -10, -10, -10, -10, -10, -10, -10, -10, -10, -10, -10, -10, -10, -10, -10, -10, -10, -10, -10, -10, -10, -10, -10, -10, -10, -10, -10, -10, -10, -10, -10, -10, -10, 19.125, 19.166668, 19.0625, 18.875, 18.625, 18.25, 17.830357, 17.5, 17.1875, 16.75, 16.4375, 16.0625, 15.758928, 15.833334, 15.732143, 15.8125, 15.857143, 16, 16.125, 16.125, 16.25, 16.569445, 16.738096, 16.882654, 16.775511, 16.476191, 16.37755, 16.357143, 16.428572, 16.387754, 16.357143, 16.178572, 16.142857, 16.291666, 16.193876, 16.421429, 16.452381, 16.327381, 16.333334, 16.12245, 16, 15.969388, 15.751701, 15.964286, 15.904762, 15.526786, 15.660714, 15.642857, 15.973214, 15.875, 16, 16.214285, 16.25, 16.285715, 16.321428, 16.214285, 15.9375, 15.875, 15.625, 15.5625, 15.5625, 15.693878, 15.690475, 15.090136, 15.088435, 15.279593, 15.020408, 14.887755, 14.714286, 14.897959, 15.015306, 15.345238, 15.488095, 15.575, 15.55102, 15.408163, 15.321428, 15.3125, 15.5, 15.75, 15.8125, 16.0625, 16.848639, 17.12755, 17.134354, 16.016666, 15.535715, 15.2, 15.2, 15.392858, 15.357142, 15.1, -10, -10, -10, -10, -10, -10, -10, -10, -10, -10, -10, -10, -10, -10, -10, -10, -10, -10, 33, 33, 32.75, 32.5625, 32.5625, 32.5625, 32.875, 33.125, 33.125, 33.0625, 33, 32.82143, 32.857143, 33, 33.178574, 32.809525, 32.791668, 32.895832, 32.794643, 32.625, 31.928572, 31.729168, 31.508928, 31.4375, 31.375, 31.1875, 30.919643, 30.59375, 30.390625, 30.203125, 30.015625, 29.890625, 29.71875, 29.53125, 29.40625, 29.4375, 29.421875, 29.453125, 29.421875, 29.247768, 28.861607, 28.571428, 28.34375, 28.25, 28.125, 28.083334, -10, -10, -10, 27.25, -10, -10, -10, 27, 27.089287, 27.071428, 26.721428, 27, 27.25, 27.553572, 27.75, 27.749998, 16.25, 16.333332, 16.375, 16.6875, 17.291666, 17.029762, 16.958334, 16.714285, 16.785715, 16.658163, 16.357143, 16.178572, 15.892858, 15.714286, 15.535714, 15.321428, 15.166667, 15.25, 15.291667, 15.541667, 15.535714, 15.75, 15.732143, 15.6875, 15.714286, 15.8125, 15.973214, 15.9375, 15.830357, 15.75, 15.5625, 15.75, 15.875, 15.9375, 16.0625, 16, 16.125, 16.25, 16.4375, 16.6875, 16.8125, 16.8125, 16.875, 16.9375, 16.9375, 17.0625, 17.0625, 17, 17, 17, 17.0625, 17.0625, 16.90625, 17.002977, 17.288889, -10, -10, -10, -10, -10, -10, -10, -10, -10, -10, -10, 40, 40, 40, 39.9375, 40.1875, 40.583332, 41.071426, 41.5625, 41.9375, 42.5625, 43, 43.544643, 43.96875, 44.46875, 44.96875, 45.34375, 45.736607, 46.325893, 46.763393, 47.21875, 47.5, 47.75, 47.9375, 48.3125, 48.5, 48.758926, 49.0625, 49.125, 49.3125, 49.4375, 49.5625, 49.669643, 49.803574, 49.8125, 49.9375, 50.125, 50.3125, 50.625, 50.875, 51.3125, 51.625, 51.8125, 52.25, 52.5625, 52.848213, 53.321426, 53.762501, 53.988094, 54.5625, 54.691963, 54.915176, 55.427082, 55.647324, 56.125, 56.4375, 56.75, 57.1875, 57.633926, 58.398811, 58.892857, 59.42857, 59.875, 60.25, 60.669643, 61, 61.5625, 62.089287, 62.4375, 62.875, 63.1875, 63.544643, 64.0625, 64.886909, 65.5, 65.8125, 66.196426, 66.592262, 67.053574, 67.3125, 67.642853, 68.089287, 68.4375, 68.955353, 69.794647, 70.1875, 70.633926, 71.020836, 71.5, -10, -10, -10, -10, -10, -10, -10, -10, -10, -10, -10, -10
