-10, -10, -10, -10, -10, -10, -10, -10, -10, -10, -10, -10, -10, -10, -10, -10, -10, -10, -10, -10, -10, -10, -10, -10, -10, -10, -10, -10, -10, 58, 58, 57.9375, 57.875, 57.6875, 57.5, 57.375, 56.982143, 56.541668, 56.258926, 55.763393, 55.197918, 54.852676, 54.40625, 54.339287, 54.223213, 53.964287, 53.413689, 53.017857, 52.875, 52.875, 52.9375, 53.0625, 53.125, 53.125, 53.169643, 52.791668, 52.642857, 52.291668, 52.125, 51.9375, 51.8125, 51.75, 51.607143, 51.229168, 50.717262, 50.348213, 49.9375, 49.9375, 49.8125, 49.6875, 49.4375, 48.892857, 48.526787, 48.25, 48.0625, 48.0625, 47.910713, 47.767857, 47.5, 47.25, 47.035713, 46.589287, 46.4375, 46.0625, 45.767857, 45.625, 45.4375, 45.25, 45.125, 44.9375, 44.625, 44.375, 44.1875, 43.875, 43.625, 43.375, 43.0625, 42.75, 42.5, 42.205357, 41.982143, 41.505955, 40.943451, 40.785713, 40.75, 40.857143, 40.794643, 40.479168, 40.321426, 40.1875, 40.125, 40.125, 40.035713, 39.892857, 39.830357, 39.625, 39.4375, 39.25, 38.875, 38.6875, 38.5, 38.223213, 37.892857, 37.571426, 37.375, 37.1875, 37.125, 36.9375, 36.6875, 36.5, 36.3125, 36.1875, 36.125, 35.8125, 35.5, 35.1875, 34.8125, 34.6875, 34.4375, 34.25, 34.0625, 33.75, 33.5625, 33.375, 33.25, 33.178574, 32.973213, 32.642857, 32.321426, 32.1875, 32, 31.875, 31.6875, 31.4375, 31.0625, 30.6875, 30.4375, 30.1875, 30, 29.8125, 29.5, 29.25, 29.0625, 29, 29, 28.875, 28.625, 28.3125, 28.017857, 27.8125, 27.479166, 27.3125, 27.0625, 27, 26.75, 26.5, 26.3125, 26.0625, 25.9375, 25.875, 25.625, 25.375, 25.125, 24.75, 24.5625, 24.375, 24.1875, 24.125, 23.9375, 23.6875, 23.4375, 23.0625, 22.767857, 22.5, 22.25, 22.125, 22, 22, 22, 21.875, 21.625, 21.375, 20.875, 20.5, 20.25, 20, 20, 20, 20.125, 20.375, 20.5625, 20.8125, 20.9375, 20.9375, 21, 21, 21.25, 21.5, 21.75, 22, 22, 22.125, 22.375, 22.625, 22.875, 23, 22.9375, 23.026787, 23.160713, 23.375, 23.6875, 23.8125, 24, 23.9375, 23.9375, 24, 24.169643, 24.4375, 24.6875, 24.9375, 25.1875, 25.4375, 25.75, 25.973213, 26.125, 26.125, 26.0625, 26.25, 26.5, 26.785713, 27, 27.0625, 27, 27.25, 27.5, 27.8125, 28.0625, 28.0625, 28.1875, 28.446428, 29.127977, 29.40625, 29.433037, 29.53125, 29.375, 29.254465, 28.770832, 28.723213, 28.96875, 29.607143, 29.9375, 30.0625, 30, 29.875, 29.928572, 30.416666, 30.345238, 30.175594, 30.333334, -10, -10, -10, 30.333332, -10, -10, -10, -10, -10, -10, -10, -10, -10, -10, -10, -10, -10, -10, -10, -10, -10, -10, -10, -10, -10, -10, -10, -10, -10, -10, -10, -10, -10, -10, -10, -10, -10, -10, -10, -10, -10, -10, -10, -10, -10, -10, -10, -10, -10, -10, -10, -10, -10, -10, -10, -10, -10, -10, -10, -10, -10, -10, -10, -10, -10, -10, -10, -10, -10, -10, -10, -10, -10, -10, -10, -10, -10, -10, -10, -10, -10, -10, -10, -10, -10, -10, -10, -10, -10, -10, -10, -10, -10, -10, -10, -10, -10, -10, -10, -10, -10, -10, -10, -10, -10, -10, -10, -10, -10, -10, -10, -10, -10, -10, -10, -10, -10, -10, -10, -10, -10, -10, -10, -10, -10, -10, 57.875, 57.916668, 57.875, 57.875, 57.6875, 57.5625, 57.4375, 57.107143, 56.729168, 56.383926, 55.897324, 55.340775, 54.977676, 54.53125, 54.401787, 54.348213, 54.026787, 53.538689, 53.267857, 53.125, 53.125, 53.125, 53.125, 53.0625, 53, 53.125, 52.875, 52.541668, 52.229168, 52, 52, 51.9375, 51.8125, 51.315475, 50.800594, 50.508926, 50.241074, 50, 49.9375, 49.75, 49.5625, 49.1875, 48.705357, 48.375, 48.0625, 47.875, 47.8125, 47.660713, 47.580357, 47.446426, 47.4375, 47.17857, 46.614288, 46.5625, 46.083332, 45.684525, 45.446426, 45.25, 45.125, 45, 44.8125, 44.5, 44.25, 44.125, 44, 43.785713, 43.455357, 43.196426, 42.875, 42.625, 42.330357, 42.0625, 41.714287, 41.184525, 40.973213, 40.9375, 41.044643, 40.982143, 40.729168, 40.571426, 40.375, 40.25, 40.125, 40, 40, 39.9375, 39.741074, 39.375, 39.1875, 38.8125, 38.6875, 38.5, 38.223213, 37.830357, 37.446426, 37.1875, 37, 37, 36.875, 36.75, 36.5625, 36.3125, 36.1875, 36.0625, 35.75, 35.5, 35.1875, 34.875, 34.75, 34.5, 34.25, 33.955357, 33.6875, 33.5, 33.375, 33.25, 33.116074, 32.848213, 32.517857, 32.196426, 32.125, 32, 31.8125, 31.5625, 31.276787, 30.875, 30.5625, 30.4375, 30.1875, 30.0625, 29.875, 29.5, 29.25, 29.0625, 29, 29, 28.875, 28.625, 28.3125, 28.017857, 27.8125, 27.479166, 27.375, 27.125, 27.0625, 26.875, 26.553572, 26.166666, 25.955357, 25.8125, 25.8125, 25.625, 25.375, 25.125, 24.6875, 24.5, 24.3125, 24.125, 24.125, 23.9375, 23.75, 23.5, 23.125, 22.830357, 22.5, 22.25, 22.125, 22, 22, 22, 21.875, 21.625, 21.375, 20.875, 20.5, 20.25, 20, 20, 20, 20.0625, 20.25, 20.4375, 20.625, 20.8125, 20.875, 20.9375, 21, 21.25, 21.5, 21.75, 22, 22, 22.125, 22.375, 22.625, 22.875, 23, 22.9375, 23.026787, 23.160713, 23.375, 23.6875, 23.8125, 24, 23.9375, 23.9375, 24.0625, 24.232143, 24.5, 24.75, 24.9375, 25.1875, 25.4375, 25.6875, 25.875, 26.125, 26.1875, 26.1875, 26.375, 26.5, 26.6875, 26.9375, 27, 27, 27.25, 27.5, 27.75, 28, 28, 28.0625, 28.383928, 29.065477, 29.370535, 29.433037, 29.53125, 29.40625, 29.348215, 28.824404, 28.673214, 29.098213, 29.75, 30.140625, 30.296875, 30.234375, 30.109375, 30.102678, 30.34375, 30.334822, 30.331844, 30.5, 31, 31, 30.875, 30.650793, -10, -10, -10, -10, -10, -10, -10, -10, -10, -10, -10, -10, -10, -10, -10, -10, -10, -10, -10, -10, -10, -10, -10, -10, -10, -10, -10, -10, -10, -10, -10, -10, -10, -10, -10, -10, -10, -10, -10, -10, -10, -10, -10, -10, -10, -10, -10, -10, -10, -10, -10, -10, -10, -10, -10, -10, -10, -10, -10, -10, -10, -10, -10, -10, -10, -10, -10, -10, -10, -10, -10, -10, -10, -10
-10, -10, -10, -10, -10, -10, -10, -10, -10, -10, -10, -10, -10, -10, -10, -10, -10, -10, -10, -10, -10, -10, -10, -10, -10, -10, -10, -10, -10, 57.625, 57.666668, 57.625, 57.6875, 57.625, 57.625, 57.625, 57.348213, 56.854168, 56.508926, 55.928574, 55.327381, 55.008926, 54.625, 54.526787, 54.535713, 54.151787, 53.601189, 53.392857, 53.25, 53.25, 53.25, 53.1875, 53.0625, 53.0625, 53.125, 52.875, 52.541668, 52.166668, 52, 52.125, 52, 51.583332, 51.065475, 50.633926, 50.4375, 50.241074, 49.928574, 49.604168, 49.392857, 49.25, 49, 48.705357, 48.4375, 48.125, 47.875, 47.6875, 47.473213, 47.330357, 47.258926, 47.3125, 47.17857, 46.739288, 46.75, 46.261902, 45.663692, 45.330353, 45.0625, 44.9375, 44.75, 44.625, 44.375, 44.1875, 44.125, 44.0625, 43.910713, 43.642857, 43.375, 42.9375, 42.75, 42.392857, 42.25, 41.901787, 41.309525, 41.1875, 41.223213, 41.232143, 41.125, 40.791668, 40.571426, 40.375, 40.25, 40.125, 40, 40, 39.928574, 39.532738, 39.205357, 39.0625, 38.8125, 38.6875, 38.5625, 38.348213, 37.955357, 37.633926, 37.267857, 37.0625, 37, 36.9375, 36.875, 36.75, 36.5, 36.3125, 36.125, 35.75, 35.5, 35.25, 34.9375, 34.8125, 34.5625, 34.25, 33.955357, 33.75, 33.625, 33.5625, 33.428574, 32.970238, 32.633926, 32.375, 32.125, 32.125, 31.9375, 31.6875, 31.375, 31.089287, 30.75, 30.5, 30.5, 30.25, 30.125, 30, 29.5625, 29.3125, 29.0625, 28.9375, 28.875, 28.6875, 28.5, 28.25, 28.125, 28, 27.729166, 27.5625, 27.25, 27.125, 26.875, 26.616072, 26.229166, 26.017857, 25.875, 25.75, 25.625, 25.375, 25.125, 24.705357, 24.5, 24.3125, 24.125, 24.125, 23.9375, 23.75, 23.5, 23.1875, 22.892857, 22.5625, 22.3125, 22.125, 22, 22, 21.9375, 21.875, 21.6875, 21.4375, 21, 20.517857, 20.25, 20, 20, 20, 20.0625, 20.25, 20.4375, 20.625, 20.8125, 20.875, 20.9375, 21, 21.25, 21.5, 21.75, 22, 22, 22.125, 22.3125, 22.5625, 22.8125, 22.9375, 22.9375, 23.026787, 23.160713, 23.375, 23.6875, 23.8125, 24, 23.9375, 23.9375, 24.0625, 24.232143, 24.5, 24.75, 24.9375, 25.125, 25.375, 25.625, 25.8125, 26.125, 26.1875, 26.25, 26.4375, 26.5625, 26.75, 26.9375, 27, 27.0625, 27.3125, 27.5625, 27.8125, 28, 28, 28, 28.258928, 28.833334, 29.089285, 29.214287, 29.28125, 29.125, 29.116072, 28.720238, 28.624107, 29.035713, 29.625, 30.109375, 30.301338, 30.265625, 30.21875, 30.15625, 30.28125, 30.40625, 30.602678, 30.875, 31.25, 31.333334, 31.25, 31.050594, 32.166664, -10, -10, -10, -10, -10, -10, -10, -10, -10, -10, -10, -10, -10, -10, -10, -10, -10, -10, -10, -10, -10, -10, -10, -10, -10, -10, -10, -10, -10, -10, -10, -10, -10, -10, -10, -10, -10, -10, -10, -10, -10, -10, -10, -10, -10, -10, -10, -10, -10, -10, -10, -10, -10, -10, -10, -10, -10, -10, -10, -10, -10, -10, -10, -10, -10, -10, -10, -10, -10, -10, -10, -10, -10, -10, -10, -10, -10, -10, -10, -10, -10, -10, -10, -10, -10, -10, -10, -10, -10, -10, -10, -10, -10, -10, -10, -10, -10, -10, -10, -10, -10, -10, -10, -10, -10, -10, -10, -10, -10, -10, -10, -10, -10, -10, -10, -10, -10, -10, -10, -10, -10, 57.625, 57.666668, 57.6875, 57.75, 57.6875, 57.625, 57.589287, 57.410713, 56.800594, 56.517857, 55.9375, 55.535713, 55.25, 54.803574, 54.526787, 54.473213, 54.053574, 53.708332, 53.571426, 53.5, 53.4375, 53.375, 53.1875, 53, 53, 53, 52.8125, 52.416668, 52.041668, 51.9375, 52, 51.9375, 51.458332, 50.877975, 50.508926, 50.3125, 50.178574, 49.991074, 49.604168, 49.242855, 49.3125, 49.044643, 48.9375, 48.625, 48.25, 47.9375, 47.6875, 47.535713, 47.392857, 47.321426, 47.375, 47.24107, 46.864288, 46.866074, 46.178574, 45.547623, 45.267853, 45.0625, 45.0625, 44.9375, 44.732143, 44.354168, 44.133926, 44.0625, 44.0625, 43.973213, 43.767857, 43.491074, 43.049999, 43.1875, 42.875, 42.5, 42.151787, 41.604168, 41.482143, 41.473213, 41.25, 41.080357, 40.9375, 40.75, 40.5625, 40.375, 40.1875, 39.9375, 39.9375, 39.866074, 39.470238, 39.205357, 39.0625, 38.8125, 38.625, 38.5, 38.285713, 37.955357, 37.758926, 37.392857, 37.1875, 37.0625, 36.9375, 36.875, 36.75, 36.5, 36.3125, 36.125, 35.75, 35.5, 35.25, 34.875, 34.75, 34.5, 34.1875, 33.955357, 33.75, 33.625, 33.5625, 33.357143, 32.841667, 32.741074, 32.375, 32.205357, 32.125, 31.875, 31.625, 31.3125, 31.026787, 30.8125, 30.5625, 30.5625, 30.3125, 30.1875, 30.125, 29.6875, 29.4375, 29.0625, 28.8125, 28.75, 28.5625, 28.4375, 28.25, 28.0625, 28, 27.9375, 27.75, 27.4375, 27.1875, 26.875, 26.616072, 26.229166, 26.017857, 25.9375, 25.75, 25.625, 25.3125, 24.9375, 24.580357, 24.3125, 24.125, 24, 23.9375, 23.8125, 23.6875, 23.4375, 23.1875, 22.892857, 22.5625, 22.3125, 22.125, 22, 21.9375, 21.8125, 21.6875, 21.5, 21.3125, 20.9375, 20.517857, 20.25, 20, 20, 20, 20.0625, 20.1875, 20.3125, 20.5, 20.6875, 20.8125, 20.9375, 21, 21.1875, 21.4375, 21.6875, 21.9375, 22, 22.0625, 22.1875, 22.4375, 22.6875, 22.875, 22.9375, 22.964287, 23.035713, 23.1875, 23.4375, 23.625, 23.875, 23.875, 23.9375, 24.0625, 24.232143, 24.5, 24.75, 24.875, 25, 25.25, 25.5, 25.75, 26.125, 26.1875, 26.3125, 26.5, 26.625, 26.8125, 26.9375, 27, 27.125, 27.375, 27.625, 27.875, 28, 28, 28.0625, 28.3125, 28.6875, 28.848213, 28.901787, 28.96875, 28.8125, 28.9375, 28.772322, 28.689583, 29.130951, 29.666666, 30.1875, 30.457588, 30.442709, 30.411459, 30.208334, 30.375, 30.65625, 30.894344, 31.1875, 31.296875, 31.40625, 31.4375, 31.581844, 32.194443, -10, -10, -10, -10, -10, -10, -10, -10, -10, -10, -10, -10, -10, -10, -10, -10, -10, -10, -10, -10, -10, -10, -10, -10, -10, -10, -10, -10, -10, -10, -10, -10, -10, -10, -10, -10, -10, -10, -10, -10, -10, -10, -10, -10, -10, -10, -10, -10, -10, -10, -10, -10, -10, -10, -10, -10, -10, -10, -10, -10, -10, -10, -10, -10, -10, -10, -10, -10, -10, -10, -10, -10, -10
-10, -10, -10, -10, -10, -10, -10, -10, -10, -10, -10, -10, -10, -10, -10, -10, -10, -10, -10, -10, -10, -10, -10, -10, -10, -10, -10, -10, -10, 57.625, 57.666668, 57.6875, 57.8125, 57.75, 57.537498, 57.580357, 57.241074, 56.776787, 56.508926, 56, 55.598213, 55.25, 54.830357, 54.4375, 54.25, 53.875, 53.625, 53.5, 53.4375, 53.375, 53.3125, 53.1875, 52.9375, 52.875, 52.75, 52.5, 52.166668, 52, 51.9375, 52.0625, 51.9375, 51.458332, 50.940475, 50.5625, 50.166668, 50.071426, 49.991074, 49.604168, 49.367855, 49.375, 49.107143, 49.0625, 48.6875, 48.3125, 48, 47.5625, 47.375, 47.375, 47.375, 47.4375, 47.330357, 46.900002, 46.803574, 46.178574, 45.592262, 45.392853, 45.1875, 45.1875, 45.0625, 44.732143, 44.354168, 44.133926, 44, 44.0625, 43.973213, 43.767857, 43.553574, 43.112499, 43.3125, 43, 42.5, 42.1875, 41.875, 41.714287, 41.785713, 41.5, 41.267857, 41.125, 40.875, 40.6875, 40.4375, 40.25, 39.9375, 39.901787, 39.901787, 39.470238, 39.267857, 39.0625, 38.875, 38.6875, 38.5, 38.3125, 38.0625, 37.9375, 37.642857, 37.4375, 37.205357, 36.6875, 36.553574, 36.4375, 36.3125, 36.25, 36.0625, 35.6875, 35.4375, 35.15625, 34.78125, 34.59375, 34.34375, 34.0625, 33.892857, 33.8125, 33.75, 33.75, 33.607143, 33.154167, 32.991074, 32.5625, 32.285713, 32.125, 31.875, 31.6875, 31.4375, 31.151787, 31, 30.75, 30.625, 30.375, 30.1875, 30.125, 29.75, 29.5, 29.125, 28.8125, 28.75, 28.625, 28.5, 28.3125, 28.125, 28, 27.9375, 27.75, 27.5, 27.25, 26.9375, 26.678572, 26.229166, 26.017857, 25.9375, 25.6875, 25.5625, 25.25, 24.875, 24.580357, 24.3125, 24.125, 23.9375, 23.8125, 23.6875, 23.5, 23.3125, 23.1875, 23, 22.6875, 22.4375, 22.1875, 22, 21.9375, 21.75, 21.5625, 21.375, 21.1875, 20.875, 20.517857, 20.25, 20, 20, 20, 20.0625, 20.125, 20.1875, 20.3125, 20.5, 20.6875, 20.875, 21, 21.1875, 21.4375, 21.6875, 21.9375, 22, 22, 22.0625, 22.25, 22.5, 22.75, 23, 23.0625, 23.0625, 23.25, 23.375, 23.625, 23.875, 23.9375, 24, 24.125, 24.25, 24.5, 24.75, 24.875, 25, 25.25, 25.5, 25.75, 26.0625, 26.125, 26.3125, 26.5, 26.6875, 26.875, 26.9375, 27, 27.125, 27.375, 27.625, 27.875, 28, 28, 28.125, 28.375, 28.6875, 28.8125, 28.839287, 28.84375, 28.734375, 28.828125, 28.631697, 28.522917, -10, -10, -10, 30.488838, 30.640625, 30.671875, -10, -10, 30.90625, 31.072916, 31.1875, 31.328125, 31.46875, 31.625, 31.790178, 32.020832, -10, -10, -10, -10, -10, -10, -10, -10, -10, -10, -10, -10, -10, -10, -10, -10, -10, -10, -10, -10, -10, -10, -10, -10, -10, -10, -10, -10, -10, -10, -10, -10, -10, -10, -10, -10, -10, -10, -10, -10, -10, -10, -10, -10, -10, -10, -10, -10, -10, -10, -10, -10, -10, -10, -10, -10, -10, -10, -10, -10, -10, -10, -10, -10, -10, -10, -10, -10, -10, -10, -10, -10, -10, -10, -10, -10, -10, -10, -10, -10, -10, -10, -10, -10, -10, -10, -10, -10, -10, -10, -10, -10, -10, -10, -10, -10, -10, -10, -10, -10, -10, -10, -10, -10, -10, -10, -10, -10, -10, -10, -10, -10, -10, -10, -10, -10, -10, -10, -10, -10, -10, 57.75, 57.75, 57.75, 57.875, 57.75, 57.329166, 57.392857, 56.973213, 56.380955, 56.214287, 55.78125, 55.549107, 55.21875, 54.799107, 54.375, 54.125, 53.8125, 53.625, 53.4375, 53.375, 53.3125, 53.1875, 53.1875, 52.973213, 52.767857, 52.508926, 52.25, 52.125, 51.9375, 51.875, 51.8125, 51.625, 51.270832, 51.107143, 50.848213, 50.333336, 50.214287, 50.026787, 49.559525, 49.314285, 49.3125, 49.169643, 49.125, 48.6875, 48.375, 48.160713, 47.6875, 47.517857, 47.375, 47.25, 47.25, 47.1875, 46.9375, 46.678574, 46.157738, 45.675594, 45.571426, 45.375, 45.3125, 45.1875, 44.857143, 44.479168, 44.258926, 44.0625, 44, 43.9375, 43.875, 43.660713, 43.112499, 43.3125, 42.9375, 42.5625, 42.25, 41.9375, 41.776787, 41.785713, 41.5, 41.267857, 41.125, 40.8125, 40.6875, 40.4375, 40.3125, 40.044643, 39.866074, 39.901787, 39.541668, 39.55357, 39.205357, 39, 38.75, 38.5625, 38.375, 38.1875, 38.0625, 37.830357, 37.6875, 37.455357, 36.866074, 36.470238, 36.258926, 36.125, 36.1875, 36.035713, 35.642857, 35.383926, 35.15625, 34.816963, 34.486607, 34.227676, 34, 34, 34, 33.9375, 33.875, 33.669643, 33.154167, 32.991074, 32.5625, 32.285713, 32.125, 31.9375, 31.8125, 31.6875, 31.4375, 31.125, 30.875, 30.5625, 30.375, 30.125, 30.0625, 29.8125, 29.5625, 29.1875, 28.875, 28.75, 28.625, 28.5, 28.3125, 28.125, 27.9375, 27.8125, 27.5625, 27.3125, 27.125, 26.875, 26.6875, 26.4375, 26.1875, 26, 25.6875, 25.5, 25.1875, 24.875, 24.580357, 24.3125, 24.125, 23.9375, 23.75, 23.5625, 23.3125, 23.125, 23, 22.9375, 22.6875, 22.4375, 22.25, 22, 21.875, 21.6875, 21.5, 21.3125, 21.1875, 20.875, 20.517857, 20.25, 20, 20, 20, 20.0625, 20.125, 20.1875, 20.375, 20.5, 20.705357, 20.973213, 21.0625, 21.3125, 21.5, 21.75, 21.9375, 22, 22, 22, 22.125, 22.375, 22.625, 22.9375, 23.0625, 23.0625, 23.25, 23.375, 23.625, 23.875, 23.9375, 24, 24.125, 24.25, 24.5, 24.75, 24.9375, 25.125, 25.3125, 25.5625, 25.75, 25.9375, 26, 26.25, 26.375, 26.5625, 26.8125, 26.75, 26.875, 27.0625, 27.3125, 27.625, 27.875, 28, 28, 28.125, 28.375, 28.625, 28.75, 28.875, 28.84375, 28.765625, 28.734375, 28.609375, 28.572918, -10, -10, -10, 30.535713, 30.645834, 30.708334, -10, -10, 31, 31.104166, 31.1875, 31.359375, 31.53125, 31.75, 31.885416, 32.027775, -10, -10, -10, -10, -10, -10, -10, -10, -10, -10, -10, -10, -10, -10, -10, -10, -10, -10, -10, -10, -10, -10, -10, -10, -10, -10, -10, -10, -10, -10, -10, -10, -10, -10, -10, -10, -10, -10, -10, -10, -10, -10, -10, -10, -10, -10, -10, -10, -10, -10, -10, -10, -10, -10, -10, -10, -10, -10, -10, -10, -10, -10, -10, -10, -10, -10, -10, -10, -10, -10, -10, -10, -10
-10, -10, -10, -10, -10, -10, -10, -10, -10, -10, -10, -10, -10, -10, -10, -10, -10, -10, -10, -10, -10, -10, -10, -10, -10, -10, -10, -10, -10, 58, 58, 58, 58, 57.75, 57.204166, 57.142857, 56.723213, 56.130955, 56.026787, 55.71875, 55.59375, 55.21875, 54.691963, 54.25, 53.9375, 53.6875, 53.5625, 53.3125, 53.25, 53.1875, 53.0625, 53.125, 52.910713, 52.642857, 52.383926, 52.125, 52.0625, 51.875, 51.75, 51.5625, 51.375, 51.3125, 51.25, 51.035713, 50.458336, 50.339287, 50.160713, 49.892857, 49.564285, 49.5, 49.169643, 49, 48.625, 48.375, 48.285713, 47.9375, 47.705357, 47.5, 47.3125, 47.25, 47.1875, 46.875, 46.553574, 46.041668, 45.696426, 45.6875, 45.5625, 45.5, 45.4375, 45.107143, 44.666668, 44.383926, 44.125, 44, 43.9375, 43.875, 43.669643, 43.237499, 43.375, 43.0625, 42.6875, 42.375, 42.125, 41.8125, 41.6875, 41.4375, 41.1875, 41.125, 40.75, 40.5625, 40.205357, 40.0625, 39.794643, 39.678574, 39.848213, 39.75, 39.848213, 39.401787, 38.854168, 38.633926, 38.482143, 38.3125, 38.1875, 38.0625, 37.9375, 37.8125, 37.517857, 36.75893, 36.282738, 36.008926, 35.9375, 36, 35.848213, 35.517857, 35.258926, 35.09375, 34.816963, 34.549107, 34.290176, 34.0625, 34.0625, 34, 33.875, 33.75, 33.553574, 33.174999, 33.044643, 32.625, 32.285713, 32.125, 32, 31.875, 31.75, 31.5, 31.125, 30.875, 30.5, 30.375, 30.125, 30.0625, 29.9375, 29.625, 29.3125, 29, 28.8125, 28.6875, 28.5, 28.375, 28.1875, 28, 27.8125, 27.5, 27.25, 27.0625, 26.9375, 26.75, 26.5625, 26.303572, 25.854166, 25.642857, 25.375, 25.125, 24.875, 24.5625, 24.3125, 24.125, 23.9375, 23.75, 23.5625, 23.3125, 23.125, 22.9375, 22.875, 22.625, 22.375, 22.25, 22, 21.803572, 21.5, 21.3125, 21.0625, 21.0625, 20.75, 20.5, 20.25, 20, 20, 20, 20, 20, 20.0625, 20.25, 20.4375, 20.705357, 20.973213, 21.0625, 21.3125, 21.5, 21.75, 21.9375, 22, 22.0625, 22.125, 22.25, 22.5, 22.6875, 22.9375, 23.0625, 23.0625, 23.25, 23.375, 23.625, 23.875, 23.9375, 24, 24.1875, 24.375, 24.625, 24.875, 25, 25.1875, 25.375, 25.625, 25.8125, 25.9375, 26, 26.25, 26.375, 26.5, 26.75, 26.75, 26.910713, 27.0625, 27.3125, 27.5625, 27.8125, 28.0625, 28.0625, 28.1875, 28.4375, 28.625, 28.8125, 28.9375, 28.9375, 28.890625, 28.796875, 28.734375, 28.645834, -10, -10, -10, 30.5, 30.583334, 30.583334, -10, -10, 30.9375, 31.041666, 31.0625, 31.171875, 31.3125, 31.59375, 31.697916, -10, -10, -10, -10, -10, -10, -10, -10, -10, -10, -10, -10, -10, -10, -10, -10, -10, -10, -10, -10, -10, -10, -10, -10, -10, -10, -10, -10, -10, -10, -10, -10, -10, -10, -10, -10, -10, -10, -10, -10, -10, -10, -10, -10, -10, -10, -10, -10, -10, -10, -10, -10, -10, -10, -10, -10, -10, -10, -10, -10, -10, -10, -10, -10, -10, -10, -10, -10, -10, -10, -10, -10, -10, -10, -10, -10, -10, -10, -10, -10, -10, -10, -10, -10, -10, -10, -10, -10, -10, -10, -10, -10, -10, -10, -10, -10, -10, -10, -10, -10, -10, -10, -10, -10, -10, -10, -10, -10, -10, -10, -10, -10, -10, -10, -10, -10, -10, -10, -10, -10, -10, -10, 57.875, 57.916668, 57.9375, 58, 57.75, 57.266666, 57.178574, 56.660713, 56.247025, 56.026787, 55.631248, 55.635418, 54.977676, 54.58482, 54.25, 53.875, 53.625, 53.375, 53.0625, 53, 53, 52.9375, 53.0625, 52.848213, 52.517857, 52.258926, 52, 52.0625, 51.9375, 51.8125, 51.6875, 51.4375, 51.4375, 51.4375, 51.223213, 50.645836, 50.464287, 50.160713, 49.830357, 49.589283, 49.3125, 49.0625, 48.875, 48.625, 48.4375, 48.348213, 48.0625, 47.767857, 47.5, 47.3125, 47.1875, 47.125, 46.8125, 46.5, 46.1875, 45.8125, 45.75, 45.5625, 45.375, 45.25, 45, 44.75, 44.5625, 44.3125, 44.125, 43.9375, 43.75, 43.553574, 43.1875, 43.125, 42.866074, 42.5625, 42.339287, 42.125, 41.8125, 41.625, 41.4375, 41.1875, 41.125, 40.8125, 40.625, 40.267857, 40.125, 39.919643, 39.741074, 39.848213, 39.75, 39.785713, 39.339287, 38.791668, 38.571426, 38.419643, 38.25, 38.125, 37.9375, 37.8125, 37.6875, 37.392857, 36.75893, 36.282738, 36.071426, 36.0625, 36.0625, 35.848213, 35.455357, 35.196426, 35.03125, 34.879463, 34.674107, 34.477676, 34.25, 34.1875, 34, 33.75, 33.5625, 33.375, 33.125, 32.866074, 32.4375, 32.142857, 31.9375, 32, 31.875, 31.8125, 31.625, 31.1875, 31, 30.5625, 30.4375, 30.1875, 30.0625, 29.9375, 29.625, 29.375, 29.125, 28.875, 28.6875, 28.5, 28.3125, 28.1875, 28.0625, 27.741072, 27.229166, 26.946428, 26.8125, 26.875, 26.8125, 26.6875, 26.428572, 25.916666, 25.705357, 25.4375, 25.1875, 24.892857, 24.5625, 24.3125, 24.125, 23.9375, 23.8125, 23.6875, 23.4375, 23.25, 23, 22.875, 22.6875, 22.4375, 22.3125, 22.0625, 21.866072, 21.625, 21.4375, 21.1875, 21.125, 20.75, 20.5, 20.25, 20, 20, 20, 20, 20.0625, 20.1875, 20.375, 20.5625, 20.767857, 20.973213, 21.0625, 21.375, 21.5625, 21.75, 21.875, 21.875, 22, 22.160713, 22.25, 22.5, 22.625, 22.875, 23.0625, 23.0625, 23.3125, 23.5, 23.75, 24, 24, 24, 24.25, 24.5, 24.75, 25, 25.0625, 25.25, 25.4375, 25.6875, 25.875, 25.9375, 26, 26.25, 26.375, 26.5, 26.8125, 26.875, 27.098213, 27.1875, 27.375, 27.5625, 27.75, 28.0625, 28.0625, 28.125, 28.375, 28.5625, 28.8125, 29, 29, 28.953125, 28.734375, 28.640625, 28.5, -10, -10, -10, 30.0625, 30.25, 30.3125, 30.125, 30.5, 30.916666, 31, 31, 31.0625, 31.1875, 31.4375, 31.541666, -10, -10, -10, -10, -10, -10, -10, -10, -10, -10, -10, -10, -10, -10, -10, -10, -10, -10, -10, -10, -10, -10, -10, -10, -10, -10, -10, -10, -10, -10, -10, -10, -10, -10, -10, -10, -10, -10, -10, -10, -10, -10, -10, -10, -10, -10, -10, -10, -10, -10, -10, -10, -10, -10, -10, -10, -10, -10, -10, -10, -10, -10, -10, -10, -10, -10, -10, -10, -10, -10, -10, -10, -10, -10
-10, -10, -10, -10, -10, -10, -10, -10, -10, -10, -10, -10, -10, -10, -10, -10, -10, -10, -10, -10, -10, -10, -10, -10, -10, -10, -10, -10, -10, 57.875, 57.916668, 57.9375, 57.9375, 57.6875, 57.291668, 57, 56.598213, 56.166668, 55.901787, 55.568748, 55.555061, 54.808037, 54.40625, 54.0625, 53.6875, 53.517857, 53.458332, 53.133926, 53.205357, 53.1875, 53.125, 53.125, 52.80357, 52.455357, 52.196426, 52, 52.0625, 51.9375, 51.8125, 51.625, 51.25, 51.151787, 51.125, 50.982143, 50.666668, 50.517857, 50.223213, 49.830357, 49.526783, 49.25, 49, 48.75, 48.5625, 48.375, 48.285713, 48.125, 47.892857, 47.5625, 47.3125, 47.125, 47, 46.75, 46.5, 46.25, 45.8125, 45.6875, 45.5, 45.25, 45.1875, 45.0625, 44.875, 44.75, 44.5, 44.25, 44, 43.75, 43.491074, 43.1875, 43.1875, 42.9375, 42.583332, 42.375, 42.125, 41.866074, 41.4375, 41.3125, 41.0625, 41.125, 40.9375, 40.75, 40.455357, 40.25, 40.044643, 39.839287, 39.8125, 39.6875, 39.660713, 39.276787, 38.666668, 38.508926, 38.357143, 38.1875, 38.125, 37.875, 37.6875, 37.5, 37.25, 37.00893, 36.604168, 36.383926, 36.25, 36.125, 35.848213, 35.455357, 35.196426, 35.0625, 34.973213, 34.75893, 34.363098, 34.071426, 33.9375, 33.75, 33.5, 33.3125, 33.125, 32.875, 32.616074, 32.25, 32.0625, 31.875, 31.9375, 31.75, 31.625, 31.4375, 31.0625, 30.9375, 30.5625, 30.5, 30.3125, 30.169643, 29.916666, 29.571428, 29.3125, 29.125, 28.8125, 28.625, 28.4375, 28.25, 28.1875, 28.0625, 27.741072, 27.229166, 26.946428, 26.8125, 26.875, 26.875, 26.75, 26.491072, 25.979166, 25.767857, 25.5, 25.1875, 24.857143, 24.5, 24.25, 24.125, 24, 23.9375, 23.875, 23.625, 23.375, 23.0625, 22.875, 22.75, 22.5, 22.375, 22.125, 21.866072, 21.6875, 21.5, 21.25, 21.1875, 20.75, 20.5, 20.25, 20, 20, 20, 20, 20.125, 20.3125, 20.5625, 20.75, 20.892857, 21.035713, 21.125, 21.4375, 21.625, 21.8125, 21.9375, 21.9375, 22.125, 22.348213, 22.4375, 22.6875, 22.75, 22.875, 23, 23, 23.25, 23.5, 23.75, 24, 24, 24, 24.25, 24.5, 24.75, 25, 25.0625, 25.3125, 25.5, 25.75, 25.9375, 25.9375, 26, 26.25, 26.4375, 26.5625, 26.9375, 27.0625, 27.285713, 27.375, 27.5, 27.625, 27.75, 28.0625, 28.0625, 28.0625, 28.3125, 28.5, 28.75, 29, 29, 28.96875, 28.78125, 28.71875, 28.604166, 28.5, 28.625, 28.892857, 29.875, 29.958334, 30.083334, 30.083334, -10, -10, 31, 31, 31.03125, 31.1875, 31.5, 31.845238, -10, -10, -10, -10, -10, -10, -10, -10, -10, -10, -10, -10, -10, -10, -10, -10, -10, -10, -10, -10, -10, -10, -10, -10, -10, -10, -10, -10, -10, -10, -10, -10, -10, -10, -10, -10, -10, -10, -10, -10, -10, -10, -10, -10, -10, -10, -10, -10, -10, -10, -10, -10, -10, -10, -10, -10, -10, -10, -10, -10, -10, -10, -10, -10, -10, -10, -10, -10, -10, -10, -10, -10, -10, -10, -10, -10, -10, -10, -10, -10, -10, -10, -10, -10, -10, -10, -10, -10, -10, -10, -10, -10, -10, -10, -10, -10, -10, -10, -10, -10, -10, -10, -10, -10, -10, -10, -10, -10, -10, -10, -10, -10, -10, -10, -10, -10, -10, -10, -10, -10, -10, -10, 57.875, 58, 58, 57.9375, 57.6875, 57.375, 57, 56.491074, 56.25, 55.883926, 55.537498, 55.354168, 54.589287, 54.25, 54, 53.75, 53.642857, 53.583332, 53.321426, 53.392857, 53.375, 53.3125, 53.1875, 52.830357, 52.5, 52.25, 52.0625, 52.0625, 52, 51.9375, 51.741074, 51.25, 51.026787, 50.8125, 50.75, 50.5625, 50.4375, 50.1875, 49.8125, 49.517857, 49.25, 48.9375, 48.6875, 48.5625, 48.375, 48.25, 48.1875, 48, 47.6875, 47.4375, 47.1875, 47, 46.75, 46.5, 46.25, 45.75, 45.625, 45.4375, 45.1875, 45.1875, 45.0625, 44.9375, 44.8125, 44.5625, 44.3125, 44, 43.678574, 43.229168, 43.080357, 43.125, 43, 42.547619, 42.5, 42.25, 42.00893, 41.633926, 41.4375, 41.1875, 41.1875, 41, 40.8125, 40.580357, 40.3125, 40.0625, 39.9375, 39.8125, 39.625, 39.5, 39.196426, 38.666668, 38.508926, 38.357143, 38.1875, 38.0625, 37.8125, 37.5625, 37.3125, 36.9375, 36.767857, 36.5625, 36.375, 36.3125, 36, 35.6875, 35.375, 35.125, 35, 34.9375, 34.803574, 34.416668, 34.133926, 33.875, 33.625, 33.375, 33.1875, 33.0625, 32.875, 32.616074, 32.25, 32.0625, 31.8125, 31.75, 31.5625, 31.375, 31.25, 31.0625, 30.875, 30.625, 30.5625, 30.4375, 30.232143, 29.809523, 29.446428, 29.1875, 29.0625, 28.8125, 28.6875, 28.5, 28.3125, 28.25, 28.0625, 27.741072, 27.229166, 26.946428, 26.8125, 26.875, 26.9375, 26.8125, 26.553572, 26.041666, 25.767857, 25.5, 25.1875, 24.857143, 24.5, 24.25, 24.125, 24, 23.9375, 23.875, 23.625, 23.375, 23.0625, 22.875, 22.8125, 22.5625, 22.4375, 22.1875, 21.928572, 21.75, 21.5625, 21.3125, 21.1875, 20.75, 20.5, 20.25, 20, 20, 20, 20, 20.125, 20.375, 20.625, 20.875, 21, 21, 21.0625, 21.3125, 21.5625, 21.6875, 21.8125, 21.8125, 22.0625, 22.455357, 22.625, 22.875, 22.875, 22.9375, 23, 23.0625, 23.3125, 23.5625, 23.8125, 24, 24, 24.0625, 24.3125, 24.5625, 24.8125, 25, 25, 25.1875, 25.375, 25.625, 25.875, 25.9375, 26, 26.1875, 26.4375, 26.625, 27, 27.3125, 27.535713, 27.625, 27.75, 27.75, 27.8125, 28.0625, 28.0625, 28.0625, 28.3125, 28.5, 28.75, 29, 29.0625, 29.0625, 28.90625, 28.78125, 28.604166, 28.458334, 28.583334, 28.928572, 29.59375, 29.8125, 30, 30.0625, -10, -10, 31, 30.916666, 30.9375, 31.125, 31.553572, 32.107143, 33.200001, -10, -10, -10, -10, -10, -10, -10, -10, -10, -10, -10, -10, -10, -10, -10, -10, -10, -10, -10, -10, -10, -10, -10, -10, -10, -10, -10, -10, -10, -10, -10, -10, -10, -10, -10, -10, -10, -10, -10, -10, -10, -10, -10, -10, -10, -10, -10, -10, -10, -10, -10, -10, -10, -10, -10, -10, -10, -10, -10, -10, -10, -10, -10, -10, -10, -10, -10, -10, -10, -10, -10, -10, -10
-10, -10, -10, -10, -10, -10, -10, -10, -10, -10, -10, -10, -10, -10, -10, -10, -10, -10, -10, -10, -10, -10, -10, -10, -10, -10, -10, -10, -10, 57.833332, 58, 58, 57.9375, 57.75, 57.4375, 57, 56.455357, 56.3125, 55.821426, 55.412498, 55.059525, 54.339287, 54.107143, 53.9375, 53.75, 53.642857, 53.583332, 53.383926, 53.455357, 53.4375, 53.375, 53.125, 52.767857, 52.4375, 52.1875, 52.0625, 52.0625, 52.0625, 52.0625, 51.928574, 51.4375, 51.151787, 50.8125, 50.6875, 50.5, 50.3125, 50.0625, 49.6875, 49.5, 49.3125, 49.125, 48.875, 48.580357, 48.3125, 48.125, 48, 47.875, 47.625, 47.375, 47.1875, 47, 46.75, 46.5, 46.25, 45.8125, 45.6875, 45.4375, 45.1875, 45.125, 44.9375, 44.875, 44.75, 44.5, 44.3125, 44, 43.678574, 43.220238, 42.872025, 42.955357, 42.8125, 42.360119, 42.455357, 42.325001, 42.08036, 41.696426, 41.4375, 41.1875, 41.125, 41.0625, 40.9375, 40.8125, 40.5625, 40.3125, 40.0625, 39.8125, 39.5625, 39.25, 39.0625, 38.75, 38.5, 38.3125, 38.0625, 37.9375, 37.75, 37.5, 37.25, 36.9375, 36.875, 36.678574, 36.291668, 36.205357, 35.875, 35.625, 35.4375, 35.1875, 35.0625, 35.0625, 34.803574, 34.416668, 34.071426, 33.6875, 33.4375, 33.1875, 33.0625, 33, 32.875, 32.616074, 32.3125, 32.125, 31.875, 31.8125, 31.5625, 31.375, 31.25, 31, 30.8125, 30.5625, 30.5, 30.4375, 30.169643, 29.711308, 29.383928, 29.0625, 28.892857, 28.6875, 28.5625, 28.4375, 28.25, 28.1875, 27.9375, 27.616072, 27.166666, 26.883928, 26.8125, 26.875, 26.875, 26.6875, 26.375, 26, 25.6875, 25.4375, 25.125, 24.857143, 24.625, 24.4375, 24.3125, 24.125, 23.9375, 23.75, 23.5, 23.25, 23.0625, 22.9375, 22.9375, 22.6875, 22.5, 22.25, 22, 22, 21.75, 21.4375, 21.151787, 20.6875, 20.4375, 20.25, 20, 20, 20, 20, 20.125, 20.375, 20.625, 20.875, 21, 21, 21.0625, 21.25, 21.4375, 21.5, 21.5625, 21.633928, 22.083334, 22.508928, 22.6875, 22.875, 22.875, 22.9375, 23, 23.125, 23.375, 23.625, 23.875, 24, 24, 24.125, 24.375, 24.625, 24.875, 25, 25, 25.125, 25.3125, 25.5625, 25.8125, 25.9375, 26, 26.125, 26.375, 26.625, 27, 27.375, 27.5625, 27.625, 27.6875, 27.6875, 27.75, 27.9375, 28, 28, 28.1875, 28.4375, 28.6875, 28.9375, 29.125, 29.125, 28.96875, 28.736607, 28.5, 28.359375, 28.515625, 28.868303, 29.390625, 29.71875, 29.90625, 29.9375, -10, -10, 30.90625, 30.885416, 30.9375, 31.15625, 31.616072, 32.294643, 33.022221, -10, -10, -10, -10, -10, -10, -10, -10, -10, -10, -10, -10, -10, -10, -10, -10, -10, -10, -10, -10, -10, -10, -10, -10, -10, -10, -10, -10, -10, -10, -10, -10, -10, -10, -10, -10, -10, -10, -10, -10, -10, -10, -10, -10, -10, -10, -10, -10, -10, -10, -10, -10, -10, -10, -10, -10, -10, -10, -10, -10, -10, -10, -10, -10, -10, -10, -10, -10, -10, -10, -10, -10, -10, -10, -10, -10, -10, -10, -10, -10, -10, -10, -10, -10, -10, -10, -10, -10, -10, -10, -10, -10, -10, -10, -10, -10, -10, -10, -10, -10, -10, -10, -10, -10, -10, -10, -10, -10, -10, -10, -10, -10, -10, -10, -10, -10, -10, -10, -10, -10, -10, -10, 57.958332, 57.979168, 57.875, 57.75, 57.4375, 56.9375, 56.392857, 56.1875, 55.6875, 55.4375, 54.955357, 54.517857, 54.214287, 53.9375, 53.75, 53.580357, 53.583332, 53.383926, 53.455357, 53.4375, 53.375, 53.0625, 52.705357, 52.3125, 52.0625, 52, 51.9375, 52, 52, 51.803574, 51.375, 51.089287, 50.6875, 50.5625, 50.375, 50.125, 49.875, 49.5, 49.1875, 48.892857, 48.803574, 48.724998, 48.330357, 48.196426, 48, 47.9375, 47.875, 47.625, 47.375, 47.1875, 47, 46.8125, 46.5625, 46.3125, 45.9375, 45.8125, 45.5625, 45.3125, 45.1875, 44.9375, 44.8125, 44.625, 44.375, 44.1875, 44, 43.803574, 43.345238, 42.997025, 43.017857, 42.821426, 42.485119, 42.517857, 42.387501, 42.14286, 41.75, 41.3125, 41.125, 41, 41, 40.9375, 40.8125, 40.5625, 40.3125, 40, 39.75, 39.5, 39.125, 38.9375, 38.625, 38.375, 38.3125, 38.125, 38.0625, 37.9375, 37.625, 37.375, 37.0625, 36.875, 36.678574, 36.229168, 36.017857, 35.75, 35.482143, 35.205357, 35.017857, 34.9375, 35, 34.741074, 34.291668, 33.946426, 33.5625, 33.375, 33.1875, 33.0625, 33, 32.875, 32.625, 32.4375, 32.1875, 32, 31.8125, 31.5625, 31.3125, 31.125, 30.866072, 30.5, 30.375, 30.3125, 30.375, 30.107143, 29.648808, 29.321428, 29, 28.892857, 28.75, 28.625, 28.375, 28.151787, 28, 27.6875, 27.5, 27.25, 27.0625, 27, 26.9375, 26.8125, 26.5625, 26.25, 25.875, 25.5625, 25.3125, 25, 24.839287, 24.625, 24.4375, 24.3125, 24.125, 23.9375, 23.75, 23.5625, 23.3125, 23.125, 23, 22.9375, 22.6875, 22.5, 22.25, 22, 22, 21.75, 21.375, 21.053572, 20.625, 20.375, 20.25, 20, 20, 20, 20, 20.0625, 20.3125, 20.5625, 20.8125, 21, 21.0625, 21.1875, 21.375, 21.5, 21.5625, 21.625, 21.758928, 22.270834, 22.660715, 22.875, 23, 23, 23, 23, 23.1875, 23.4375, 23.6875, 23.9375, 24, 24, 24.125, 24.375, 24.625, 24.875, 25, 25, 25.0625, 25.25, 25.5, 25.75, 25.9375, 26, 26.0625, 26.3125, 26.5625, 26.875, 27.25, 27.375, 27.4375, 27.5, 27.5625, 27.6875, 27.875, 28, 28, 28.125, 28.375, 28.625, 28.875, 29.125, 29.125, 28.959822, 28.528273, 28.258928, 28.171875, 28.390625, 28.886162, 29.390625, 29.71875, 29.90625, 29.9375, 30.0625, 30.3125, 30.84375, 30.854166, 30.9375, 31.1875, 31.647322, 32.419643, 32.850002, -10, -10, -10, -10, -10, -10, -10, -10, -10, -10, -10, -10, -10, -10, -10, -10, -10, -10, -10, -10, -10, -10, -10, -10, -10, -10, -10, -10, -10, -10, -10, -10, -10, -10, -10, -10, -10, -10, -10, -10, -10, -10, -10, -10, -10, -10, -10, -10, -10, -10, -10, -10, -10, -10, -10, -10, -10, -10, -10, -10, -10, -10, -10, -10, -10, -10, -10, -10, -10, -10, -10, -10, -10
-10, -10, -10, -10, -10, -10, -10, -10, -10, -10, -10, -10, -10, -10, -10, -10, -10, -10, -10, -10, -10, -10, -10, -10, -10, -10, -10, -10, -10, -10, 57.958332, 57.895836, 57.75, 57.625, 57.3125, 56.875, 56.392857, 56.1875, 55.8125, 55.535713, 54.99107, 54.696426, 54.428574, 54.1875, 54, 53.75, 53.625, 53.5625, 53.5, 53.4375, 53.25, 52.875, 52.625, 52.25, 52.0625, 52, 51.9375, 52, 52, 51.803574, 51.4375, 51.1875, 50.6875, 50.5, 50.1875, 49.8125, 49.455357, 49.0625, 48.821426, 48.851189, 48.806122, 48.966072, 48.372025, 48.205357, 48, 47.9375, 47.8125, 47.5625, 47.3125, 47.125, 47, 46.8125, 46.5625, 46.3125, 46, 45.9375, 45.6875, 45.4375, 45.25, 44.9375, 44.8125, 44.625, 44.375, 44.1875, 44, 43.803574, 43.345238, 42.934525, 42.892857, 42.678574, 42.318455, 42.339287, 42.262501, 42.089287, 41.85714, 41.3125, 41.1875, 40.875, 40.8125, 40.651787, 40.5, 40.3125, 40.1875, 39.9375, 39.75, 39.5, 39.125, 38.9375, 38.6875, 38.4375, 38.375, 38.1875, 38.0625, 37.9375, 37.625, 37.375, 37.0625, 36.8125, 36.553574, 36.104168, 35.892857, 35.75, 35.544643, 35.122025, 34.955357, 34.875, 35, 34.8125, 34.5625, 34.25, 33.875, 33.5625, 33.3125, 33.125, 33, 32.875, 32.625, 32.4375, 32.1875, 32, 31.8125, 31.5625, 31.3125, 31.125, 30.928572, 30.5625, 30.4375, 30.267857, 30.3125, 30.035713, 29.69643, 29.4375, 29.0625, 28.955357, 28.75, 28.5625, 28.3125, 28.026787, 27.8125, 27.5, 27.3125, 27.125, 27, 27, 26.875, 26.6875, 26.375, 26, 25.625, 25.3125, 25.125, 24.875, 24.8125, 24.6875, 24.5625, 24.5, 24.303572, 23.9375, 23.75, 23.5625, 23.375, 23.1875, 23, 22.8125, 22.5625, 22.375, 22.1875, 22, 22, 21.75, 21.375, 21.053572, 20.6875, 20.4375, 20.3125, 20.0625, 20, 20, 20, 20, 20.25, 20.5, 20.75, 21, 21.125, 21.25, 21.4375, 21.5625, 21.5625, 21.5625, 21.758928, 22.208334, 22.598215, 22.875, 22.9375, 23, 23, 23, 23.25, 23.5, 23.75, 24.0625, 24.125, 24.1875, 24.375, 24.5625, 24.75, 24.9375, 25, 25.0625, 25.125, 25.3125, 25.5625, 25.75, 25.9375, 26, 26.0625, 26.3125, 26.5625, 26.8125, 27.1875, 27.3125, 27.4375, 27.5, 27.5625, 27.6875, 27.8125, 28, 28, 28.0625, 28.3125, 28.5625, 28.8125, 29.125, 29.125, 28.959822, 28.465773, 28.071428, 27.886162, 28.140625, 28.671875, 29.078125, 29.53125, 29.71875, 29.9375, 30.208334, 30.458334, 30.875, 30.947916, 31.03125, 31.28125, 31.626488, 32.32143, 32.733334, -10, -10, -10, -10, -10, -10, -10, -10, -10, -10, -10, -10, -10, -10, -10, -10, -10, -10, -10, -10, -10, -10, -10, -10, -10, -10, -10, -10, -10, -10, -10, -10, -10, -10, -10, -10, -10, -10, -10, -10, -10, -10, -10, -10, -10, -10, -10, -10, -10, -10, -10, -10, -10, -10, -10, -10, -10, -10, -10, -10, -10, -10, -10, -10, -10, -10, -10, -10, -10, -10, -10, -10, -10, -10, -10, -10, -10, -10, -10, -10, -10, -10, -10, -10, -10, -10, -10, -10, -10, -10, -10, -10, -10, -10, -10, -10, -10, -10, -10, -10, -10, -10, -10, -10, -10, -10, -10, -10, -10, -10, -10, -10, -10, -10, -10, -10, -10, -10, -10, -10, -10, -10, 57.875, 57.75, 57.5625, 57.4375, 57.1875, 56.8125, 56.517857, 56.25, 55.9375, 55.660713, 55.285713, 55.008926, 54.741074, 54.4375, 54.125, 53.8125, 53.5625, 53.4375, 53.3125, 53.1875, 53, 52.625, 52.375, 52.0625, 51.9375, 51.9375, 51.9375, 52, 52, 51.8125, 51.5625, 51.3125, 50.8125, 50.5, 50.125, 49.6875, 49.392857, 49.0625, 48.883926, 48.976189, 49.234692, 49.091072, 48.452381, 48.267857, 48, 47.9375, 47.8125, 47.5625, 47.3125, 47.125, 47, 46.8125, 46.5625, 46.3125, 46.0625, 46, 45.75, 45.5, 45.25, 44.875, 44.6875, 44.5625, 44.3125, 44.1875, 44, 43.75, 43.553574, 43.104168, 43.017857, 42.678574, 42.229168, 42.089287, 42.012501, 41.883926, 41.660713, 41.1875, 41.0625, 40.8125, 40.75, 40.526787, 40.3125, 40.125, 40.0625, 39.875, 39.75, 39.5, 39.125, 38.9375, 38.6875, 38.4375, 38.375, 38.1875, 38, 37.875, 37.5625, 37.3125, 37.125, 36.875, 36.678574, 36.291668, 36.017857, 35.9375, 35.794643, 35.345238, 35.098213, 34.946426, 35, 34.875, 34.6875, 34.4375, 34.125, 33.75, 33.392857, 33.1875, 33.0625, 33.0625, 32.875, 32.75, 32.5, 32.25, 32, 31.508928, 31.214287, 31, 30.866072, 30.6875, 30.5, 30.267857, 30.25, 29.973213, 29.803574, 29.625, 29.25, 29.142857, 28.857143, 28.455357, 28.196428, 27.839287, 27.6875, 27.4375, 27.25, 27.125, 27, 27, 26.8125, 26.5625, 26.25, 25.8125, 25.5, 25.25, 25.0625, 24.8125, 24.75, 24.625, 24.4375, 24.4375, 24.303572, 23.892857, 23.875, 23.625, 23.5, 23.3125, 23.0625, 22.8125, 22.5625, 22.3125, 22.125, 21.9375, 21.9375, 21.6875, 21.3125, 21.053572, 20.75, 20.5, 20.375, 20.125, 20, 20, 20, 20, 20.1875, 20.4375, 20.6875, 20.9375, 21.125, 21.3125, 21.5, 21.625, 21.6875, 21.6875, 21.883928, 22.270834, 22.553572, 22.8125, 22.875, 23, 23, 23, 23.125, 23.339287, 23.669643, 23.991072, 24.125, 24.1875, 24.375, 24.5625, 24.75, 24.9375, 25, 25.125, 25.25, 25.5, 25.75, 25.875, 26, 26, 26.125, 26.375, 26.625, 26.875, 27.1875, 27.3125, 27.4375, 27.5, 27.5625, 27.6875, 27.8125, 28, 28, 28, 28.25, 28.5, 28.75, 29.0625, 29.0625, 28.928572, 28.497023, 28.125, 27.709078, 27.908482, 28.359375, 28.770088, 29.21875, 29.46875, 29.830357, 30.1875, 30.5, 30.859375, 31.078125, 31.109375, 31.359375, 31.53125, -10, -10, -10, -10, -10, -10, -10, -10, -10, -10, -10, -10, -10, -10, -10, -10, -10, -10, -10, -10, -10, -10, -10, -10, -10, -10, -10, -10, -10, -10, -10, -10, -10, -10, -10, -10, -10, -10, -10, -10, -10, -10, -10, -10, -10, -10, -10, -10, -10, -10, -10, -10, -10, -10, -10, -10, -10, -10, -10, -10, -10, -10, -10, -10, -10, -10, -10, -10, -10, -10, -10, -10, -10, -10, -10
-10, -10, -10, -10, -10, -10, -10, -10, -10, -10, -10, -10, -10, -10, -10, -10, -10, -10, -10, -10, -10, -10, -10, -10, -10, -10, -10, -10, -10, -10, 57.791668, 57.607143, 57.291668, 57.071426, 56.8125, 56.5625, 56.375, 56.1875, 55.9375, 55.723213, 55.455357, 55.196426, 54.991074, 54.625, 54.3125, 54, 53.75, 53.5625, 53.375, 53.1875, 52.866074, 52.4375, 52.25, 51.9375, 51.9375, 52, 52.0625, 52.125, 52.125, 51.8125, 51.5, 51.25, 50.75, 50.5, 50.125, 49.6875, 49.455357, 49.125, 48.883926, 48.976189, 48.982143, 49.028572, 48.452381, 48.267857, 48, 48, 47.9375, 47.6875, 47.375, 47.089287, 46.9375, 46.75, 46.5625, 46.3125, 46.0625, 46, 45.75, 45.5625, 45.3125, 44.9375, 44.776787, 44.625, 44.375, 44.25, 43.9375, 43.625, 43.5, 43.3125, 43.25, 42.991074, 42.479168, 42.196426, 42, 41.9375, 41.660713, 41.1875, 41.0625, 40.8125, 40.75, 40.589287, 40.4375, 40.25, 40.1875, 40, 39.875, 39.625, 39.3125, 39.0625, 38.75, 38.5, 38.375, 38.1875, 37.9375, 37.75, 37.4375, 37.1875, 37.0625, 36.8125, 36.625, 36.4375, 36.125, 36.125, 35.982143, 35.407738, 35.223213, 35.008926, 35, 35, 34.75, 34.625, 34.375, 33.9375, 33.535713, 33.25, 33.125, 33.25, 33.125, 32.9375, 32.580357, 32.25, 31.875, 31.446428, 31.151787, 30.9375, 30.928572, 30.8125, 30.625, 30.330357, 30.25, 29.973213, 29.839287, 29.75, 29.4375, 29.375, 29.107143, 28.642857, 28.321428, 27.839287, 27.5625, 27.3125, 27.125, 27.0625, 27, 26.9375, 26.6875, 26.375, 26.0625, 25.75, 25.5, 25.3125, 25.125, 24.75, 24.625, 24.4375, 24.1875, 24.25, 24.178572, 23.830357, 23.9375, 23.6875, 23.5625, 23.375, 23.0625, 22.75, 22.5, 22.25, 22.0625, 21.875, 21.8125, 21.625, 21.375, 21.214287, 20.9375, 20.580357, 20.375, 20.125, 20, 20, 20, 20, 20.125, 20.375, 20.625, 20.875, 21.125, 21.375, 21.625, 21.8125, 21.9375, 21.9375, 22.0625, 22.1875, 22.375, 22.625, 22.75, 22.9375, 23, 23.0625, 23.125, 23.339287, 23.669643, 23.928572, 24.125, 24.1875, 24.375, 24.5625, 24.75, 24.9375, 25, 25.1875, 25.375, 25.625, 25.875, 25.9375, 26, 26.0625, 26.25, 26.5, 26.75, 26.9375, 27.125, 27.3125, 27.5, 27.625, 27.75, 27.8125, 27.875, 28, 28, 28.0625, 28.3125, 28.5625, 28.8125, 29, 29, 28.928572, 28.604166, 28.375, 27.89966, 28.044218, 28.3125, 28.4375, 28.625, 28.955357, 29.559523, 30.040178, 30.40625, 30.78125, 31.03125, 31.0625, 31.317709, 31.5, -10, -10, -10, -10, -10, -10, -10, -10, -10, -10, -10, -10, -10, -10, -10, -10, -10, -10, -10, -10, -10, -10, -10, -10, -10, -10, -10, -10, -10, -10, -10, -10, -10, -10, -10, -10, -10, -10, -10, -10, -10, -10, -10, -10, -10, -10, -10, -10, -10, -10, -10, -10, -10, -10, -10, -10, -10, -10, -10, -10, -10, -10, -10, -10, -10, -10, -10, -10, -10, -10, -10, -10, -10, -10, -10, -10, -10, -10, -10, -10, -10, -10, -10, -10, -10, -10, -10, -10, -10, -10, -10, -10, -10, -10, -10, -10, -10, -10, -10, -10, -10, -10, -10, -10, -10, -10, -10, -10, -10, -10, -10, -10, -10, -10, -10, -10, -10, -10, -10, -10, -10, -10, -10, 57.5, 57.833336, 57.547619, 57.083336, 56.767853, 56.5625, 56.5, 56.357143, 56.041668, 55.821426, 55.598213, 55.392857, 55.133926, 54.9375, 54.6875, 54.375, 54.1875, 54, 53.848213, 53.589287, 53.4375, 52.991074, 52.5625, 52.267857, 52, 51.9375, 52, 52, 52, 52.0625, 51.8125, 51.5625, 51.375, 51, 50.8125, 50.491074, 49.916668, 49.651787, 49.375, 49.258926, 49.458332, 49.303574, 49.053574, 48.452381, 48.133926, 47.9375, 47.875, 47.8125, 47.5, 47.125, 46.901787, 46.75, 46.5625, 46.4375, 46.25, 46.0625, 46, 45.705357, 45.5, 45.25, 44.875, 44.714287, 44.5625, 44.3125, 44.25, 43.875, 43.5, 43.375, 43.25, 43.25, 43.116074, 42.666668, 42.383926, 42.1875, 42.0625, 41.794643, 41.375, 41.1875, 40.9375, 40.75, 40.589287, 40.4375, 40.25, 40.1875, 40.0625, 40, 39.75, 39.5, 39.1875, 38.8125, 38.5625, 38.3125, 38.125, 37.8125, 37.5625, 37.3125, 37.0625, 37.0625, 37, 36.857143, 36.541668, 36.258926, 36.1875, 36.125, 35.764881, 35.580357, 35.383926, 35.25, 35.125, 34.767857, 34.625, 34.375, 34, 33.598213, 33.25, 33.089287, 33.125, 33, 32.875, 32.517857, 32.25, 31.9375, 31.571428, 31.276787, 31.0625, 31.0625, 31, 30.75, 30.455357, 30.25, 30.035713, 29.901787, 29.875, 29.625, 29.5, 29.232143, 28.705357, 28.383928, 27.875, 27.5625, 27.3125, 27.0625, 27.0625, 27, 26.875, 26.625, 26.3125, 26, 25.75, 25.5, 25.3125, 25.125, 24.75, 24.6875, 24.5625, 24.375, 24.5, 24.366072, 23.892857, 23.901787, 23.625, 23.5, 23.375, 23.0625, 22.75, 22.5, 22.25, 22.0625, 21.8125, 21.6875, 21.5625, 21.375, 21.25, 20.955357, 20.580357, 20.3125, 20.125, 20, 20, 20, 20, 20.125, 20.375, 20.5625, 20.8125, 21, 21.1875, 21.5, 21.75, 21.9375, 22, 22.0625, 22.0625, 22.1875, 22.4375, 22.625, 22.875, 23, 23.0625, 23.0625, 23.276787, 23.607143, 23.866072, 24.125, 24.1875, 24.4375, 24.625, 24.8125, 25.0625, 25.0625, 25.25, 25.5, 25.6875, 25.9375, 26, 26, 26.125, 26.375, 26.625, 26.875, 27, 27.125, 27.375, 27.625, 27.8125, 27.9375, 27.9375, 27.9375, 28, 28, 28.125, 28.375, 28.625, 28.875, 29, 29, 29, 28.9375, 28.866072, 28.840136, 28.782312, 28.169643, 28.044643, 27.821428, 28.330357, 28.988094, 29.769344, 30.209822, 30.65625, 30.9375, 30.9375, 31.171875, -10, -10, -10, -10, -10, -10, -10, -10, -10, -10, -10, -10, -10, -10, -10, -10, -10, -10, -10, -10, -10, -10, -10, -10, -10, -10, -10, -10, -10, -10, -10, -10, -10, -10, -10, -10, -10, -10, -10, -10, -10, -10, -10, -10, -10, -10, -10, -10, -10, -10, -10, -10, -10, -10, -10, -10, -10, -10, -10, -10, -10, -10, -10, -10, -10, -10, -10, -10, -10, -10, -10, -10, -10, -10, -10, -10
-10, -10, -10, -10, -10, -10, -10, -10, -10, -10, -10, -10, -10, -10, -10, -10, -10, -10, -10, -10, -10, -10, -10, -10, -10, -10, -10, -10, -10, 57.666668, 57.833336, 57.568455, 57.083336, 56.767853, 56.5625, 56.5, 56.294643, 55.872025, 55.571426, 55.3125, 55.25, 55, 54.8125, 54.5625, 54.1875, 54.0625, 53.9375, 53.785713, 53.651787, 53.5625, 53.178574, 52.75, 52.419643, 52.1875, 52.0625, 52.125, 52.0625, 52, 52.0625, 51.8125, 51.5625, 51.4375, 51.098213, 50.758926, 50.479591, 49.854168, 49.794643, 49.625, 49.625, 49.5, 49.1875, 48.767857, 48.348213, 48.0625, 47.9375, 47.8125, 47.75, 47.4375, 47, 46.776787, 46.5625, 46.375, 46.3125, 46.1875, 46, 45.875, 45.580357, 45.375, 45.1875, 44.875, 44.651787, 44.4375, 44.1875, 44.125, 43.9375, 43.6875, 43.5625, 43.392857, 43.3125, 43.1875, 43, 42.75, 42.5, 42.25, 41.9375, 41.5625, 41.3125, 41.1875, 41, 40.9375, 40.75, 40.4375, 40.25, 40.0625, 39.9375, 39.6875, 39.4375, 39.125, 38.75, 38.5, 38.25, 38, 37.6875, 37.4375, 37.1875, 37, 37.0625, 37.0625, 36.919643, 36.604168, 36.321426, 36.125, 36.125, 35.910713, 35.705357, 35.508926, 35.25, 35.0625, 34.705357, 34.5625, 34.3125, 34.0625, 33.660713, 33.3125, 33.151787, 33.0625, 32.9375, 32.8125, 32.455357, 32.25, 32, 31.633928, 31.339287, 31.125, 31, 30.875, 30.625, 30.375, 30.125, 29.9375, 29.8125, 29.8125, 29.6875, 29.5625, 29.357143, 28.723213, 28.383928, 27.9375, 27.6875, 27.5, 27.25, 27.125, 26.964287, 26.8125, 26.625, 26.375, 26.125, 25.9375, 25.625, 25.4375, 25.1875, 24.8125, 24.75, 24.625, 24.4375, 24.5, 24.375, 24.017857, 23.964287, 23.625, 23.375, 23.214287, 23, 22.8125, 22.6875, 22.4375, 22.1875, 21.8125, 21.5625, 21.4375, 21.25, 21.1875, 20.892857, 20.517857, 20.25, 20.0625, 20, 20, 20, 20.0625, 20.1875, 20.4375, 20.5625, 20.75, 20.875, 21.0625, 21.4375, 21.6875, 21.9375, 22, 22, 22, 22.125, 22.375, 22.625, 22.875, 23, 23.0625, 23, 23.214287, 23.544643, 23.741072, 24, 24, 24.1875, 24.4375, 24.6875, 25, 25.0625, 25.1875, 25.375, 25.5625, 25.8125, 25.9375, 26, 26.125, 26.3125, 26.5625, 26.8125, 26.9375, 27.0625, 27.25, 27.4375, 27.6875, 27.875, 27.9375, 28, 28, 28, 28.1875, 28.4375, 28.6875, 28.9375, 29, 29, 29, 29.0625, 29.178572, 29.166666, 29.130951, 28.5, 28.178574, 27.645834, 27.776785, 28.345238, 29.477678, 30.129463, 30.660713, 30.90625, 30.84375, 30.932291, -10, -10, -10, -10, -10, -10, -10, -10, -10, -10, -10, -10, -10, -10, -10, -10, -10, -10, -10, -10, -10, -10, -10, -10, -10, -10, -10, -10, -10, -10, -10, -10, -10, -10, -10, -10, -10, -10, -10, -10, -10, -10, -10, -10, -10, -10, -10, -10, -10, -10, -10, -10, -10, -10, -10, -10, -10, -10, -10, -10, -10, -10, -10, -10, -10, -10, -10, -10, -10, -10, -10, -10, -10, -10, -10, -10, -10, -10, -10, -10, -10, -10, -10, -10, -10, -10, -10, -10, -10, -10, -10, -10, -10, -10, -10, -10, -10, -10, -10, -10, -10, -10, -10, -10, -10, -10, -10, -10, -10, -10, -10, -10, -10, -10, -10, -10, -10, -10, -10, -10, -10, -10, -10, -10, 57.625, 57.666668, 57.464287, 57.020836, 56.705353, 56.5625, 56.5625, 56.357143, 55.934525, 55.571426, 55.3125, 55.3125, 55.083332, 54.708332, 54.419643, 54.0625, 54, 54, 53.910713, 53.839287, 53.8125, 53.419647, 52.875, 52.607143, 52.3125, 52.1875, 52.1875, 52.0625, 52, 52.0625, 51.8125, 51.5625, 51.4375, 51.098213, 50.696426, 50.153057, 49.916668, 49.678574, 49.571426, 49.5625, 49.4375, 49.125, 48.732143, 48.392857, 48.125, 48.0625, 47.875, 47.6875, 47.375, 46.9375, 46.714287, 46.5625, 46.375, 46.3125, 46.25, 46.035713, 45.767857, 45.535713, 45.3125, 45.125, 44.901787, 44.651787, 44.375, 44.1875, 44.0625, 43.9375, 43.8125, 43.625, 43.455357, 43.3125, 43.125, 43, 42.75, 42.5, 42.25, 41.9375, 41.625, 41.375, 41.25, 41.125, 41.0625, 40.875, 40.5625, 40.3125, 40.0625, 39.9375, 39.6875, 39.4375, 39.125, 38.75, 38.5625, 38.3125, 38.0625, 37.8125, 37.5, 37.25, 37.0625, 37.0625, 37.0625, 36.857143, 36.479168, 36.196426, 36, 35.9375, 35.75, 35.625, 35.4375, 35.25, 35, 34.580357, 34.375, 34.125, 34, 33.767857, 33.4375, 33.214287, 33, 32.75, 32.5625, 32.205357, 32.0625, 31.875, 31.6875, 31.4375, 31.1875, 31.0625, 30.875, 30.625, 30.375, 30.125, 29.9375, 29.75, 29.75, 29.6875, 29.5625, 29.428572, 28.747023, 28.383928, 28, 27.75, 27.625, 27.375, 27.1875, 27.026787, 26.8125, 26.6875, 26.4375, 26.1875, 26.0625, 25.75, 25.625, 25.375, 24.9375, 24.776787, 24.625, 24.5, 24.5625, 24.375, 24.125, 23.964287, 23.6875, 23.3125, 23.044643, 22.875, 22.75, 22.6875, 22.5, 22.25, 21.875, 21.625, 21.5, 21.3125, 21.1875, 20.830357, 20.455357, 20.1875, 20, 20, 20, 20, 20.125, 20.3125, 20.5625, 20.6875, 20.8125, 20.875, 21, 21.3125, 21.5, 21.758928, 22, 22, 22.125, 22.1875, 22.4375, 22.6875, 22.875, 23, 23.0625, 23.0625, 23.3125, 23.5625, 23.75, 24, 24, 24.1875, 24.4375, 24.6875, 25, 25.0625, 25.125, 25.25, 25.4375, 25.6875, 25.875, 26, 26.125, 26.25, 26.5, 26.75, 26.875, 27, 27.125, 27.25, 27.5, 27.75, 27.875, 28, 28, 28, 28.25, 28.5, 28.75, 29, 29, 29, 29.0625, 29.1875, 29.4375, 29.75, 29.738094, 29.0625, 28.642857, 27.913691, 27.676785, 28.202379, 29.125, 29.830357, 30.676338, 31.002232, 31.015625, 31.020834, -10, -10, -10, -10, -10, -10, -10, -10, -10, -10, -10, -10, -10, -10, -10, -10, -10, -10, -10, -10, -10, -10, -10, -10, -10, -10, -10, -10, -10, -10, -10, -10, -10, -10, -10, -10, -10, -10, -10, -10, -10, -10, -10, -10, -10, -10, -10, -10, -10, -10, -10, -10, -10, -10, -10, -10, -10, -10, -10, -10, -10, -10, -10, -10, -10, -10, -10, -10, -10, -10, -10, -10, -10, -10, -10, -10
-10, -10, -10, -10, -10, -10, -10, -10, -10, -10, -10, -10, -10, -10, -10, -10, -10, -10, -10, -10, -10, -10, -10, -10, -10, -10, -10, -10, -10, 57.5, 57.5, 57.357143, 57.104168, 56.883926, 56.8125, 56.75, 56.482143, 55.997025, 55.633926, 55.366074, 55.166668, 54.904762, 54.458332, 54.263393, 54.03125, 54.03125, 54.09375, 54.035713, 53.964287, 54, 53.669647, 53.041668, 52.678574, 52.375, 52.1875, 52.125, 51.9375, 51.875, 51.9375, 51.8125, 51.625, 51.5, 51.160713, 50.758926, 50.410713, 49.979168, 49.678574, 49.508926, 49.5, 49.3125, 49, 48.607143, 48.3125, 48, 48, 47.8125, 47.625, 47.375, 47, 46.8125, 46.625, 46.4375, 46.3125, 46.3125, 46.098213, 45.767857, 45.49107, 45.1875, 44.9375, 44.839287, 44.625, 44.375, 44.25, 44.0625, 44, 43.9375, 43.6875, 43.455357, 43.25, 43.0625, 43, 42.75, 42.455357, 42.125, 41.8125, 41.5625, 41.3125, 41.25, 41.125, 41.0625, 40.8125, 40.5, 40.25, 40, 39.9375, 39.6875, 39.4375, 39.125, 38.8125, 38.6875, 38.4375, 38.1875, 37.9375, 37.625, 37.375, 37.1875, 37.125, 37.125, 36.919643, 36.541668, 36.258926, 36, 35.875, 35.6875, 35.5, 35.25, 35.125, 34.875, 34.580357, 34.375, 34.125, 34.0625, 33.8125, 33.5, 33.214287, 32.875, 32.625, 32.5, 32.25, 32.125, 31.9375, 31.625, 31.339287, 31.125, 31, 30.875, 30.625, 30.375, 30.125, 29.9375, 29.75, 29.6875, 29.625, 29.5, 29.366072, 28.747023, 28.383928, 28.0625, 27.875, 27.8125, 27.625, 27.375, 27.151787, 26.875, 26.6875, 26.5, 26.1875, 26, 25.6875, 25.5, 25.3125, 25, 24.901787, 24.75, 24.625, 24.625, 24.375, 24.1875, 24.026787, 23.75, 23.3125, 22.875, 22.75, 22.6875, 22.6875, 22.5625, 22.3125, 21.9375, 21.75, 21.5625, 21.3125, 21.125, 20.767857, 20.5, 20.25, 20.0625, 20, 20, 20, 20.1875, 20.4375, 20.6875, 20.8125, 20.875, 20.875, 21, 21.3125, 21.5, 21.758928, 22, 22.0625, 22.25, 22.375, 22.625, 22.8125, 22.9375, 23.0625, 23.125, 23.1875, 23.4375, 23.625, 23.8125, 24, 24, 24.1875, 24.4375, 24.6875, 25, 25.0625, 25.0625, 25.125, 25.3125, 25.5625, 25.8125, 26, 26.0625, 26.125, 26.375, 26.625, 26.8125, 27, 27.0625, 27.125, 27.375, 27.625, 27.8125, 28, 28, 28, 28.25, 28.5, 28.75, 29, 29, 29, 29.125, 29.3125, 29.5625, 29.8125, 29.821428, 29.642857, 29.428572, 28.901361, 28.408928, 28.723213, 29.346939, 30.142857, 30.910713, 31.236607, 31.270834, 31, -10, -10, -10, -10, -10, -10, -10, -10, -10, -10, -10, -10, -10, -10, -10, -10, -10, -10, -10, -10, -10, -10, -10, -10, -10, -10, -10, -10, -10, -10, -10, -10, -10, -10, -10, -10, -10, -10, -10, -10, -10, -10, -10, -10, -10, -10, -10, -10, -10, -10, -10, -10, -10, -10, -10, -10, -10, -10, -10, -10, -10, -10, -10, -10, -10, -10, -10, -10, -10, -10, -10, -10, -10, -10, -10, -10, -10, -10, -10, -10, -10, -10, -10, -10, -10, -10, -10, -10, -10, -10, -10, -10, -10, -10, -10, -10, -10, -10, -10, -10, -10, -10, -10, -10, -10, -10, -10, -10, -10, -10, -10, -10, -10, -10, -10, -10, -10, -10, -10, -10, -10, -10, -10, -10, 57.5, 57.416664, 57.3125, 57.25, 57.0625, 56.9375, 56.8125, 56.5, 56.142857, 55.875, 55.544647, 55.083336, 54.788689, 54.333332, 54.200893, 54.03125, 54.03125, 54.03125, 54, 54, 54, 53.723213, 52.979168, 52.785713, 52.4375, 52.375, 52.25, 52.0625, 52, 52, 51.875, 51.625, 51.4375, 50.973213, 50.446426, 50.044643, 49.75, 49.48214, 49.321426, 49.3125, 49.1875, 48.9375, 48.607143, 48.375, 48.0625, 48.0625, 47.9375, 47.75, 47.5625, 47.25, 47, 46.8125, 46.5625, 46.375, 46.3125, 46.035713, 45.705357, 45.473213, 45.25, 45.125, 45.151787, 44.892857, 44.5625, 44.375, 44.125, 44.0625, 44.0625, 43.875, 43.642857, 43.366074, 43.049999, 43.020832, 42.5, 42.19643, 41.8125, 41.5, 41.375, 41.1875, 41.125, 41, 40.875, 40.625, 40.375, 40.1875, 40, 39.9375, 39.6875, 39.4375, 39.125, 38.8125, 38.75, 38.5625, 38.3125, 38.125, 37.8125, 37.5625, 37.375, 37.1875, 37.0625, 36.75, 36.5625, 36.375, 36.125, 35.946426, 35.537498, 35.333332, 34.892857, 34.9375, 34.75, 34.625, 34.4375, 34.1875, 34.0625, 33.875, 33.6875, 33.5, 33.142857, 32.5625, 32.366074, 32.125, 32.0625, 31.9375, 31.5625, 31.276787, 31.0625, 30.9375, 30.875, 30.625, 30.375, 30.125, 29.9375, 29.8125, 29.75, 29.625, 29.5, 29.241072, 28.622023, 28.321428, 28.0625, 28, 28, 27.875, 27.5625, 27.276787, 27, 26.75, 26.5625, 26.25, 26, 25.6875, 25.5, 25.3125, 25, 24.901787, 24.75, 24.544643, 24.375, 24.1875, 24.0625, 24, 23.6875, 23.25, 22.75, 22.6875, 22.625, 22.625, 22.5, 22.25, 22, 21.875, 21.625, 21.375, 21.1875, 20.875, 20.625, 20.375, 20.125, 20, 20, 20, 20.1875, 20.4375, 20.6875, 20.875, 20.9375, 20.9375, 21.125, 21.3125, 21.4375, 21.633928, 21.8125, 21.9375, 22.25, 22.4375, 22.6875, 22.875, 22.9375, 23.0625, 23.125, 23.1875, 23.4375, 23.625, 23.8125, 24, 24, 24.125, 24.3125, 24.5625, 24.8125, 24.9375, 25.0625, 25.125, 25.375, 25.625, 25.8125, 26, 26, 26, 26.1875, 26.375, 26.5625, 26.8125, 26.875, 26.9375, 27.25, 27.5, 27.75, 28, 28, 28, 28.25, 28.5, 28.75, 29, 29, 29, 29.125, 29.375, 29.5625, 29.830357, 30.035713, 29.9375, 29.883928, 29.639456, 29.390818, 29.704082, 30.161564, 30.558037, 31.285713, 31.642857, 31.729166, -10, -10, -10, -10, -10, -10, -10, -10, -10, -10, -10, -10, -10, -10, -10, -10, -10, -10, -10, -10, -10, -10, -10, -10, -10, -10, -10, -10, -10, -10, -10, -10, -10, -10, -10, -10, -10, -10, -10, -10, -10, -10, -10, -10, -10, -10, -10, -10, -10, -10, -10, -10, -10, -10, -10, -10, -10, -10, -10, -10, -10, -10, -10, -10, -10, -10, -10, -10, -10, -10, -10, -10, -10, -10, -10, -10, -10
-10, -10, -10, -10, -10, -10, -10, -10, -10, -10, -10, -10, -10, -10, -10, -10, -10, -10, -10, -10, -10, -10, -10, -10, -10, -10, -10, -10, -10, 57.5, 57.333332, 57.25, 57.1875, 57, 56.875, 56.75, 56.5, 56.25, 56, 55.607147, 54.976192, 54.726189, 54.333332, 54.263393, 54.21875, 54.15625, 54.09375, 54.0625, 54, 54, 53.723213, 53.041668, 52.883926, 52.4375, 52.375, 52.1875, 52, 52, 52, 51.875, 51.625, 51.375, 50.875, 50.5, 50.25, 50, 49.758926, 49.54464, 49.267857, 49.133926, 48.8125, 48.589287, 48.375, 48, 48, 47.9375, 47.8125, 47.6875, 47.5, 47.25, 47, 46.705357, 46.4375, 46.3125, 46.098213, 45.830357, 45.598213, 45.375, 45.1875, 45.151787, 44.955357, 44.625, 44.4375, 44.1875, 44, 44, 43.875, 43.75, 43.482143, 43.049999, 43.020832, 42.419643, 41.988094, 41.571426, 41.25, 41.1875, 41.0625, 40.9375, 40.75, 40.526787, 40.3125, 40.1875, 40.125, 40, 39.9375, 39.6875, 39.375, 39, 38.6875, 38.625, 38.428574, 38.125, 38, 37.75, 37.6875, 37.5, 37.25, 37.026787, 36.6875, 36.5625, 36.5, 36.232143, 35.863094, 35.349998, 35.083332, 34.705357, 34.8125, 34.6875, 34.625, 34.4375, 34.1875, 34, 33.875, 33.75, 33.625, 33.38393, 32.604168, 32.375, 32.125, 32.0625, 31.9375, 31.5625, 31.276787, 31.0625, 30.9375, 30.875, 30.625, 30.375, 30.125, 30, 29.9375, 29.8125, 29.625, 29.4375, 29.116072, 28.666666, 28.383928, 28.125, 28.0625, 28, 27.866072, 27.5, 27.3125, 26.9375, 26.6875, 26.4375, 26.125, 25.9375, 25.6875, 25.5, 25.3125, 24.928572, 24.651787, 24.5625, 24.473213, 24.375, 24.142857, 24.008928, 23.875, 23.625, 23.25, 22.785713, 22.75, 22.625, 22.5, 22.375, 22.125, 22, 22, 21.75, 21.5, 21.25, 20.9375, 20.6875, 20.4375, 20.1875, 20, 20, 20, 20.125, 20.3125, 20.5, 20.75, 20.875, 20.9375, 21.1875, 21.3125, 21.4375, 21.633928, 21.8125, 21.9375, 22.25, 22.375, 22.625, 22.8125, 22.875, 23.0625, 23.125, 23.1875, 23.4375, 23.625, 23.8125, 24, 24, 24.125, 24.25, 24.5, 24.75, 24.875, 25.125, 25.1875, 25.375, 25.5625, 25.6875, 25.875, 25.9375, 26, 26.125, 26.25, 26.4375, 26.6875, 26.8125, 26.9375, 27.1875, 27.4375, 27.6875, 27.9375, 28, 28, 28.25, 28.5, 28.75, 29, 29, 29, 29.125, 29.3125, 29.5, 29.767857, 29.973213, 30, 30.0625, 29.955357, 29.80625, 30.133928, 30.732992, 30.915178, 31.59375, 31.986607, 32.1875, -10, -10, -10, -10, -10, -10, -10, -10, -10, -10, -10, -10, -10, -10, -10, -10, -10, -10, -10, -10, -10, -10, -10, -10, -10, -10, -10, -10, -10, -10, -10, -10, -10, -10, -10, -10, -10, -10, -10, -10, -10, -10, -10, -10, -10, -10, -10, -10, -10, -10, -10, -10, -10, -10, -10, -10, -10, -10, -10, -10, -10, -10, -10, -10, -10, -10, -10, -10, -10, -10, -10, -10, -10, -10, -10, -10, -10, -10, -10, -10, -10, -10, -10, -10, -10, -10, -10, -10, -10, -10, -10, -10, -10, -10, -10, -10, -10, -10, -10, -10, -10, -10, -10, -10, -10, -10, -10, -10, -10, -10, -10, -10, -10, -10, -10, -10, -10, -10, -10, -10, -10, -10, -10, -10, -10, 57.625, 57.416668, 57.3125, 57.1875, 56.9375, 56.75, 56.5625, 56.3125, 56.125, 55.9375, 55.544647, 54.788692, 54.517853, 54.375, 54.40625, 54.40625, 54.28125, 54.15625, 54.0625, 54, 54, 53.794647, 53.229168, 53.008926, 52.5625, 52.375, 52.1875, 52, 52, 52, 51.9375, 51.75, 51.5, 51.0625, 50.6875, 50.375, 50.0625, 49.866074, 49.473213, 49.205357, 49.071426, 48.848213, 48.517857, 48.258926, 47.803574, 47.625, 47.6875, 47.732143, 47.75, 47.6875, 47.4375, 47.125, 46.767857, 46.4375, 46.25, 46.0625, 45.9375, 45.642857, 45.4375, 45.25, 45.1875, 45.080357, 44.8125, 44.5625, 44.3125, 44, 43.9375, 43.875, 43.8125, 43.669643, 43.291069, 42.979164, 42.285713, 41.800594, 41.383926, 41.125, 41.0625, 41, 40.875, 40.625, 40.401787, 40.1875, 40.125, 40.1875, 40.125, 40, 39.571426, 39.142857, 38.75, 38.4375, 38.375, 38.241074, 38, 37.875, 37.75, 37.75, 37.5625, 37.4375, 37.151787, 36.8125, 36.75, 36.6875, 36.419643, 35.988094, 35.367859, 35.083332, 34.705357, 34.875, 34.785713, 34.642857, 34.446426, 34.1875, 33.9375, 33.75, 33.625, 33.5, 33.32143, 32.666668, 32.5, 32.25, 32.1875, 32, 31.5625, 31.276787, 31.0625, 30.9375, 30.803572, 30.4375, 30.25, 29.9375, 29.9375, 29.9375, 29.75, 29.5625, 29.3125, 28.9375, 28.75, 28.5, 28.25, 28.0625, 27.9375, 27.866072, 27.5, 27.375, 26.9375, 26.5625, 26.3125, 26, 25.875, 25.75, 25.5625, 25.375, 24.741072, 24.366072, 24.330357, 24.410713, 24.3125, 24.205357, 24.008928, 23.875, 23.6875, 23.375, 23.017857, 22.9375, 22.75, 22.5625, 22.375, 22.125, 22, 22, 21.741072, 21.291666, 21.080357, 20.875, 20.6875, 20.5, 20.25, 20, 20, 20, 20.125, 20.3125, 20.5, 20.75, 20.875, 20.9375, 21.1875, 21.3125, 21.5, 21.6875, 21.75, 21.9375, 22.125, 22.3125, 22.5625, 22.75, 22.875, 23.0625, 23.0625, 23.0625, 23.267857, 23.583334, 23.803572, 24, 24.0625, 24.125, 24.1875, 24.4375, 24.625, 24.8125, 25.125, 25.1875, 25.3125, 25.508928, 25.75, 25.875, 26, 26, 26.125, 26.25, 26.4375, 26.6875, 26.8125, 26.9375, 27.125, 27.375, 27.625, 27.875, 28, 28, 28.1875, 28.4375, 28.6875, 28.9375, 29.0625, 29.0625, 29.125, 29.25, 29.375, 29.642857, 29.910713, 30, 30.0625, 30.0625, 30.21875, 30.508928, 31.052084, 31.495537, 31.950893, 32.28125, 32.5, -10, -10, -10, -10, -10, -10, -10, -10, -10, -10, -10, -10, -10, -10, -10, -10, -10, -10, -10, -10, -10, -10, -10, -10, -10, -10, -10, -10, -10, -10, -10, -10, -10, -10, -10, -10, -10, -10, -10, -10, -10, -10, -10, -10, -10, -10, -10, -10, -10, -10, -10, -10, -10, -10, -10, -10, -10, -10, -10, -10, -10, -10, -10, -10, -10, -10, -10, -10, -10, -10, -10, -10, -10, -10, -10, -10, -10
-10, -10, -10, -10, -10, -10, -10, -10, -10, -10, -10, -10, -10, -10, -10, -10, -10, -10, -10, -10, -10, -10, -10, -10, -10, -10, -10, -10, -10, 57.708332, 57.26667, 57.205357, 57.0625, 56.8125, 56.625, 56.4375, 56.1875, 56.0625, 55.866074, 55.282742, 54.693451, 54.446426, 54.375, 54.40625, 54.40625, 54.28125, 54.15625, 54, 53.9375, 53.9375, 53.803574, 53.5625, 53.375, 52.875, 52.517857, 52.25, 52, 51.9375, 51.875, 51.6875, 51.375, 51.089287, 50.75, 50.4375, 50.25, 50, 49.803574, 49.535713, 49.330357, 49.196426, 49.035713, 48.705357, 48.446426, 48.053574, 47.875, 47.875, 47.857143, 47.8125, 47.6875, 47.4375, 47.125, 46.767857, 46.4375, 46.1875, 46, 45.9375, 45.75, 45.625, 45.5625, 45.4375, 45.267857, 45, 44.625, 44.4375, 44.125, 44, 44, 43.875, 43.794643, 43.335712, 42.809521, 42.107143, 41.595238, 41.258926, 41.0625, 41, 41, 40.8125, 40.5, 40.214287, 40.0625, 40.125, 40.3125, 40.303574, 39.916668, 39.383926, 38.955357, 38.625, 38.4375, 38.410713, 38.19643, 37.946426, 37.875, 37.8125, 37.875, 37.6875, 37.5625, 37.276787, 36.9375, 36.9375, 36.8125, 36.607143, 36.157738, 35.385715, 35.092262, 34.767857, 34.9375, 34.848213, 34.642857, 34.321426, 34.026787, 33.75, 33.625, 33.5625, 33.4375, 33.32143, 32.604168, 32.4375, 32.1875, 32.0625, 31.892857, 31.5625, 31.25, 31.0625, 30.875, 30.616072, 30.3125, 30.125, 29.875, 29.9375, 29.9375, 29.8125, 29.625, 29.4375, 29.0625, 28.875, 28.625, 28.104166, 27.883928, 27.6875, 27.616072, 27.3125, 27.25, 26.9375, 26.625, 26.4375, 26.1875, 26.0625, 26, 25.8125, 25.5625, 24.866072, 24.366072, 24.267857, 24.348213, 24.25, 24.205357, 24.008928, 23.8125, 23.6875, 23.4375, 23.125, 22.955357, 22.6875, 22.4375, 22.25, 22.0625, 22, 22, 21.732143, 21.083332, 20.910713, 20.75, 20.625, 20.5, 20.25, 20, 20, 20, 20.0625, 20.1875, 20.375, 20.625, 20.8125, 20.9375, 21.125, 21.25, 21.4375, 21.625, 21.75, 21.875, 22.0625, 22.25, 22.5, 22.75, 22.875, 23, 22.9375, 22.9375, 23.142857, 23.520834, 23.803572, 24, 24.125, 24.125, 24.125, 24.375, 24.5, 24.75, 25.125, 25.1875, 25.25, 25.455357, 25.8125, 25.875, 26.0625, 26, 26.0625, 26.1875, 26.375, 26.625, 26.8125, 26.9375, 27.0625, 27.3125, 27.5625, 27.8125, 28, 28, 28.1875, 28.4375, 28.6875, 28.9375, 29.125, 29.1875, 29.1875, 29.3125, 29.375, 29.580357, 29.910713, 30, 30.0625, 30, 30.15625, 30.446428, 30.989584, 31.558037, 32.075893, 32.482143, 32.708332, -10, -10, -10, -10, -10, -10, -10, -10, -10, -10, -10, -10, -10, -10, -10, -10, -10, -10, -10, -10, -10, -10, -10, -10, -10, -10, -10, -10, -10, -10, -10, -10, -10, -10, -10, -10, -10, -10, -10, -10, -10, -10, -10, -10, -10, -10, -10, -10, -10, -10, -10, -10, -10, -10, -10, -10, -10, -10, -10, -10, -10, -10, -10, -10, -10, -10, -10, -10, -10, -10, -10, -10, -10, -10, -10, -10, -10, -10, -10, -10, -10, -10, -10, -10, -10, -10, -10, -10, -10, -10, -10, -10, -10, -10, -10, -10, -10, -10, -10, -10, -10, -10, -10, -10, -10, -10, -10, -10, -10, -10, -10, -10, -10, -10, -10, -10, -10, -10, -10, -10, -10, -10, -10, -10, -10, 57.708332, 57.183334, 57.107143, 56.9375, 56.6875, 56.5625, 56.25, 55.8125, 55.8125, 55.553574, 54.997025, 54.598213, 54.375, 54.375, 54.34375, 54.21875, 53.995537, 53.84375, 53.6875, 53.6875, 53.6875, 53.6875, 53.6875, 53.5625, 53.1875, 52.705357, 52.330357, 52.03125, 51.875, 51.75, 51.4375, 51.09375, 50.839287, 50.625, 50.4375, 50.3125, 50.125, 49.866074, 49.660713, 49.4375, 49.089287, 48.99107, 48.705357, 48.571426, 48.303574, 48.125, 48.09375, 48.013393, 47.96875, 47.78125, 47.5, 47.1875, 46.767857, 46.4375, 46.1875, 45.9375, 45.9375, 45.8125, 45.6875, 45.625, 45.375, 45.25, 45.0625, 44.6875, 44.5, 44.1875, 44, 44, 43.8125, 43.741074, 43.285717, 42.601189, 42.107143, 41.479168, 41.160713, 41.0625, 41.107143, 41.125, 40.9375, 40.517857, 40.214287, 40.0625, 40.125, 40.375, 40.339287, 39.809525, 39.267857, 38.830357, 38.625, 38.625, 38.571426, 38.214287, 37.892857, 37.75, 37.75, 37.875, 37.6875, 37.625, 37.401787, 37.107143, 37, 36.8125, 36.544643, 36.148811, 35.473213, 35.133926, 34.9375, 34.9375, 34.910713, 34.705357, 34.446426, 34.151787, 33.8125, 33.517857, 33.375, 33.1875, 33.178574, 32.782738, 32.508926, 32.3125, 32.0625, 31.830357, 31.5, 31.1875, 31, 30.8125, 30.491072, 30.151787, 30, 29.8125, 29.9375, 29.9375, 29.8125, 29.625, 29.4375, 29.0625, 28.875, 28.625, 28.104166, 27.883928, 27.625, 27.491072, 27.1875, 27.125, 26.875, 26.6875, 26.5, 26.25, 26.0625, 25.862499, 25.866072, 25.607143, 25.053572, 24.428572, 24.205357, 24.303572, 24.25, 24.205357, 24.071428, 23.8125, 23.6875, 23.4375, 23.0625, 22.830357, 22.5625, 22.375, 22.223213, 21.955357, 21.821428, 21.6875, 21.482143, 20.895832, 20.785713, 20.6875, 20.5625, 20.4375, 20.1875, 20, 20, 20.0625, 20.1875, 20.25, 20.375, 20.5625, 20.6875, 20.875, 21.0625, 21.25, 21.5, 21.75, 21.9375, 22, 22.125, 22.3125, 22.5625, 22.8125, 22.9375, 23, 22.9375, 23, 23.205357, 23.583334, 23.866072, 24, 24.1875, 24.1875, 24.1875, 24.4375, 24.5, 24.75, 25.0625, 25.0625, 25.0625, 25.205357, 25.633928, 25.875, 26.0625, 26.0625, 26.0625, 26.1875, 26.4375, 26.75, 26.973213, 27.0625, 27.0625, 27.1875, 27.4375, 27.6875, 27.9375, 28, 28.1875, 28.4375, 28.6875, 28.9375, 29.1875, 29.3125, 29.3125, 29.4375, 29.5, 29.625, 29.875, 30, 30, 30, 30.1875, 30.446428, 30.958334, 31.526787, 32.013393, 32.388393, 32.6875, -10, -10, -10, -10, -10, -10, -10, -10, -10, -10, -10, -10, -10, -10, -10, -10, -10, -10, -10, -10, -10, -10, -10, -10, -10, -10, -10, -10, -10, -10, -10, -10, -10, -10, -10, -10, -10, -10, -10, -10, -10, -10, -10, -10, -10, -10, -10, -10, -10, -10, -10, -10, -10, -10, -10, -10, -10, -10, -10, -10, -10, -10, -10, -10, -10, -10, -10, -10, -10, -10, -10, -10, -10, -10, -10, -10, -10
-10, -10, -10, -10, -10, -10, -10, -10, -10, -10, -10, -10, -10, -10, -10, -10, -10, -10, -10, -10, -10, -10, -10, -10, -10, -10, -10, -10, -10, 57.458332, 57.01667, 56.919643, 56.75, 56.5, 56.375, 56.053574, 55.416668, 55.455357, 55.178574, 54.747025, 54.517853, 54.25, 54.1875, 54.09375, 53.90625, 53.683037, 53.59375, 53.5, 53.473213, 53.401787, 53.5, 53.5625, 53.5625, 53.3125, 52.830357, 52.267857, 52.09375, 51.982143, 51.875, 51.571426, 50.927082, 50.693455, 50.6875, 50.5625, 50.5, 50.25, 49.803574, 49.5, 49.357143, 49.017857, 49.11607, 48.892857, 48.821426, 48.678574, 48.57143, 48.28125, 48.138393, 48.03125, 47.78125, 47.5, 47.25, 46.875, 46.5625, 46.375, 46.044643, 45.758926, 45.666668, 45.669643, 45.669643, 45.5, 45.3125, 45.125, 44.75, 44.5625, 44.25, 44, 44, 43.8125, 43.75, 43.410717, 42.601189, 42.0625, 41.455357, 41.151787, 41.125, 41.232143, 41.25, 41.125, 40.767857, 40.4375, 40.25, 40.25, 40.4375, 40.375, 39.836311, 39.321426, 38.794643, 38.75, 38.75, 38.758926, 38.410713, 38.205357, 38, 38, 37.9375, 37.6875, 37.625, 37.4375, 37.169643, 37, 36.6875, 36.4375, 36.169643, 35.598213, 35.321426, 35.0625, 35.0625, 35.035713, 34.830357, 34.633926, 34.339287, 34, 33.642857, 33.375, 33.125, 33.0625, 32.866074, 32.625, 32.4375, 32.0625, 31.705357, 31.375, 31.0625, 30.875, 30.6875, 30.303572, 29.991072, 29.973213, 29.8125, 30, 29.9375, 29.875, 29.75, 29.553572, 29.041666, 28.758928, 28.5, 28.041666, 27.821428, 27.625, 27.5, 27.3125, 27.1875, 27, 26.8125, 26.625, 26.375, 26.0625, 25.674999, 25.741072, 25.482143, 25.0625, 24.616072, 24.267857, 24.1875, 24.0625, 24.0625, 24, 23.8125, 23.6875, 23.4375, 23, 22.705357, 22.5, 22.3125, 22.223213, 22.017857, 21.758928, 21.5625, 21.357143, 20.770832, 20.723213, 20.625, 20.5, 20.375, 20.125, 20, 20, 20.0625, 20.25, 20.375, 20.5, 20.6875, 20.8125, 20.973213, 21.125, 21.3125, 21.5, 21.75, 21.9375, 22, 22.125, 22.375, 22.625, 22.875, 23, 23, 22.9375, 23.0625, 23.267857, 23.645834, 23.928572, 24, 24.1875, 24.25, 24.3125, 24.5625, 24.625, 24.875, 25.125, 25.125, 25.125, 25.205357, 25.642857, 26, 26.125, 26.125, 26.0625, 26.1875, 26.4375, 26.75, 26.973213, 27.0625, 27.0625, 27.125, 27.375, 27.625, 27.875, 28, 28.125, 28.3125, 28.5625, 28.8125, 29.125, 29.375, 29.4375, 29.625, 29.6875, 29.75, 29.9375, 30, 30, 30, 30.25, 30.5, 30.8125, 31.3125, 31.669643, 31.982143, 32.291668, 31.833332, -10, -10, -10, -10, -10, -10, -10, -10, -10, -10, -10, -10, -10, -10, -10, -10, -10, -10, -10, -10, -10, -10, -10, -10, -10, -10, -10, -10, -10, -10, -10, -10, -10, -10, -10, -10, -10, -10, -10, -10, -10, -10, -10, -10, -10, -10, -10, -10, -10, -10, -10, -10, -10, -10, -10, -10, -10, -10, -10, -10, -10, -10, -10, -10, -10, -10, -10, -10, -10, -10, -10, -10, -10, -10, -10, -10, -10, -10, -10, -10, -10, -10, -10, -10, -10, -10, -10, -10, -10, -10, -10, -10, -10, -10, -10, -10, -10, -10, -10, -10, -10, -10, -10, -10, -10, -10, -10, -10, -10, -10, -10, -10, -10, -10, -10, -10, -10, -10, -10, -10, -10, -10, -10, -10, 57.333332, 56.933334, 56.919643, 56.8125, 56.633926, 56.333332, 55.907738, 55.130955, 55.205357, 54.8125, 54.205357, 54.026787, 53.785713, 53.75, 53.71875, 53.53125, 53.370537, 53.34375, 53.25, 53.223213, 53.151787, 53.25, 53.4375, 53.5, 53.3125, 52.663689, 52.122025, 52.177082, 52.089287, 52, 51.571426, 50.802082, 50.568455, 50.5, 50.4375, 50.375, 50.151787, 49.982143, 49.833332, 49.523811, 49.017857, 49.044643, 49.035713, 49, 49, 48.75, 48.53125, 48.28125, 48.09375, 47.71875, 47.4375, 47.1875, 46.8125, 46.625, 46.4375, 46.107143, 45.821426, 45.729168, 45.732143, 45.794643, 45.625, 45.375, 45.1875, 44.75, 44.5625, 44.3125, 44, 44, 43.8125, 43.571426, 43.065475, 42.517857, 42.008926, 41.517857, 41.214287, 41.1875, 41.357143, 41.4375, 41.375, 41.017857, 40.625, 40.330357, 40.25, 40.3125, 40.25, 39.773811, 39.5, 39.089287, 39.0625, 39.0625, 38.946426, 38.535713, 38.267857, 38.0625, 38.0625, 37.9375, 37.6875, 37.5, 37.25, 36.982143, 36.75, 36.4375, 36.25, 36.035713, 35.505356, 35.366074, 35.0625, 35, 34.9375, 34.875, 34.6875, 34.464287, 34.0625, 33.642857, 33.375, 33.125, 33.0625, 32.803574, 32.5, 32.3125, 31.875, 31.580357, 31.3125, 31, 30.8125, 30.5625, 30.25, 30.053572, 30.035713, 30, 30.0625, 29.9375, 29.875, 29.6875, 29.491072, 29.041666, 28.758928, 28.5, 28.041666, 27.883928, 27.75, 27.65625, 27.53125, 27.375, 27.1875, 27.03125, 26.78125, 26.5, 26.0625, 25.487499, 25.491072, 25.232143, 25.125, 24.875, 24.5, 24.25, 24.125, 24, 23.9375, 23.6875, 23.5, 23.25, 22.875, 22.642857, 22.5, 22.3125, 22.223213, 22.017857, 21.758928, 21.5, 21.303572, 20.916666, 20.830357, 20.75, 20.625, 20.4375, 20.1875, 20.0625, 20, 20.0625, 20.1875, 20.3125, 20.4375, 20.625, 20.8125, 20.973213, 21.1875, 21.4375, 21.625, 21.875, 22, 22, 22.1875, 22.4375, 22.6875, 22.9375, 23, 23, 23, 23.25, 23.5, 23.75, 24, 24, 24.125, 24.1875, 24.3125, 24.5625, 24.6875, 24.9375, 25.125, 25.1875, 25.25, 25.258928, 25.517857, 25.875, 25.9375, 26.0625, 26, 26.0625, 26.3125, 26.625, 26.910713, 27.0625, 27.0625, 27.0625, 27.3125, 27.5625, 27.8125, 28, 28.125, 28.25, 28.5, 28.75, 29, 29.3125, 29.375, 29.625, 29.75, 29.8125, 30, 30, 30, 30.0625, 30.25, 30.4375, 30.6875, 31, 31.25, 31.544643, 31.854168, 31.722221, -10, -10, -10, -10, -10, -10, -10, -10, -10, -10, -10, -10, -10, -10, -10, -10, -10, -10, -10, -10, -10, -10, -10, -10, -10, -10, -10, -10, -10, -10, -10, -10, -10, -10, -10, -10, -10, -10, -10, -10, -10, -10, -10, -10, -10, -10, -10, -10, -10, -10, -10, -10, -10, -10, -10, -10, -10, -10, -10, -10, -10, -10, -10, -10, -10, -10, -10, -10, -10, -10, -10, -10, -10, -10, -10, -10
-10, -10, -10, -10, -10, -10, -10, -10, -10, -10, -10, -10, -10, -10, -10, -10, -10, -10, -10, -10, -10, -10, -10, -10, -10, -10, -10, -10, -10, 57.5, 57.333332, 57.276787, 57.1875, 56.946426, 56.520832, 55.916664, 55.023811, 55.017857, 54.633926, 54.288689, 54.142857, 53.848213, 53.642857, 53.5625, 53.3125, 53.151787, 53.1875, 53.107143, 53, 52.901787, 52.875, 53, 53.0625, 53, 52.592262, 52.309525, 52.364582, 52.294643, 52.1875, 51.821426, 51.177082, 50.979168, 50.875, 50.75, 50.553574, 50.151787, 50.044643, 49.833332, 49.586311, 49.071426, 48.919643, 48.973213, 48.9375, 49, 48.6875, 48.46875, 48.21875, 48.03125, 47.71875, 47.4375, 47.1875, 46.875, 46.6875, 46.5625, 46.232143, 45.821426, 45.622025, 45.607143, 45.607143, 45.5, 45.3125, 45.0625, 44.6875, 44.4375, 44.1875, 43.9375, 43.875, 43.8125, 43.455353, 42.75, 42.375, 41.875, 41.517857, 41.214287, 41.25, 41.419643, 41.5, 41.5, 41.080357, 40.6875, 40.330357, 40.125, 40.125, 40.071426, 39.857143, 39.75, 39.339287, 39.25, 39.125, 38.848213, 38.517857, 38.258926, 38, 38, 37.8125, 37.625, 37.419643, 37.125, 37.026787, 36.625, 36.392857, 36.125, 35.928574, 35.612499, 35.482143, 35.1875, 35.0625, 34.9375, 34.9375, 34.875, 34.6875, 34.258926, 33.538689, 33.205357, 33, 33, 32.803574, 32.4375, 32.25, 31.8125, 31.625, 31.4375, 31.1875, 30.9375, 30.580357, 30.3125, 30.053572, 30.098213, 30.0625, 30.0625, 29.875, 29.75, 29.5625, 29.303572, 28.916666, 28.696428, 28.4375, 28.25, 28.0625, 27.964287, 27.864584, 27.459822, 27.232143, 26.9375, 26.84375, 26.65625, 26.5, 26.125, 25.487499, 25.383928, 25.107143, 25, 24.875, 24.5625, 24.3125, 24.1875, 24, 23.9375, 23.6875, 23.4375, 23.1875, 22.875, 22.75, 22.625, 22.4375, 22.285713, 22.017857, 21.758928, 21.4375, 21.25, 21.0625, 20.9375, 20.875, 20.6875, 20.4375, 20.1875, 20.0625, 20, 20.0625, 20.25, 20.4375, 20.5625, 20.75, 20.875, 20.973213, 21.25, 21.5, 21.6875, 21.9375, 22, 22.0625, 22.25, 22.5, 22.75, 22.9375, 23, 23, 23, 23.25, 23.5, 23.75, 24, 24, 24.0625, 24.125, 24.3125, 24.5625, 24.75, 25, 25.125, 25.1875, 25.3125, 25.25, 25.330357, 25.75, 25.75, 26, 26, 26.0625, 26.3125, 26.625, 26.910713, 27.0625, 27.0625, 27.0625, 27.3125, 27.5625, 27.875, 28.0625, 28.125, 28.25, 28.4375, 28.6875, 28.9375, 29.1875, 29.3125, 29.5625, 29.75, 29.875, 30, 30, 30, 30.0625, 30.1875, 30.375, 30.625, 30.875, 31.0625, 31.1875, 31.5, 31.666666, 31.875, 32.166664, -10, -10, -10, -10, -10, -10, -10, -10, -10, -10, -10, -10, -10, -10, -10, -10, -10, -10, -10, -10, -10, -10, -10, -10, -10, -10, -10, -10, -10, -10, -10, -10, -10, -10, -10, -10, -10, -10, -10, -10, -10, -10, -10, -10, -10, -10, -10, -10, -10, -10, -10, -10, -10, -10, -10, -10, -10, -10, -10, -10, -10, -10, -10, -10, -10, -10, -10, -10, -10, -10, -10, -10, -10, -10, -10, -10, -10, -10, -10, -10, -10, -10, -10, -10, -10, -10, -10, -10, -10, -10, -10, -10, -10, -10, -10, -10, -10, -10, -10, -10, -10, -10, -10, -10, -10, -10, -10, -10, -10, -10, -10, -10, -10, -10, -10, -10, -10, -10, -10, -10, -10, -10, 57.625, 57.5, 57.4375, 57.25, 56.946426, 56.427082, 55.822914, 55.117561, 54.986607, 54.633926, 54.395832, 54.258926, 54.035713, 53.830357, 53.8125, 53.75, 53.625, 53.625, 53.419643, 52.916668, 52.723213, 52.625, 52.6875, 52.6875, 52.625, 52.342262, 52.229168, 52.395832, 52.419643, 52.3125, 52.071426, 51.458332, 51.229168, 51.0625, 50.803574, 50.345238, 49.982143, 49.982143, 49.833332, 49.729168, 49.357147, 48.943455, 48.99107, 48.8125, 48.8125, 48.5, 48.25, 48.0625, 47.875, 47.625, 47.375, 47.125, 46.9375, 46.75, 46.625, 46.357143, 45.821426, 45.559525, 45.544643, 45.419643, 45.375, 45.25, 44.9375, 44.625, 44.375, 44.125, 43.875, 43.6875, 43.517857, 43.142853, 42.5, 42.25, 41.875, 41.642857, 41.375, 41.3125, 41.3125, 41.4375, 41.473213, 41.080357, 40.696426, 40.330357, 40.125, 40.0625, 40.035713, 39.964287, 39.866074, 39.464287, 39.3125, 39.0625, 38.75, 38.5, 38.25, 38, 38, 37.75, 37.5625, 37.294643, 37, 36.982143, 36.625, 36.348213, 36.1875, 35.928574, 35.737499, 35.669643, 35.3125, 35.1875, 35, 34.9375, 34.875, 34.75, 34.339287, 33.479164, 33.142857, 32.9375, 33, 32.8125, 32.5625, 32.375, 31.9375, 31.75, 31.625, 31.3125, 31.0625, 30.705357, 30.5, 30.276787, 30.285713, 30.1875, 30.0625, 29.8125, 29.625, 29.4375, 29.178572, 28.916666, 28.821428, 28.625, 28.428572, 27.979166, 27.919643, 27.775297, 27.290178, 27.053572, 26.6875, 26.59375, 26.46875, 26.375, 26.125, 25.6875, 25.392857, 25.125, 24.9375, 24.8125, 24.625, 24.375, 24.25, 24.0625, 23.9375, 23.75, 23.5625, 23.3125, 23.0625, 22.9375, 22.75, 22.5, 22.3125, 22.125, 21.875, 21.625, 21.375, 21.125, 21, 20.875, 20.6875, 20.4375, 20.1875, 20.0625, 20, 20.0625, 20.25, 20.5, 20.6875, 20.875, 21, 21.035713, 21.3125, 21.5625, 21.75, 22, 22, 22.0625, 22.1875, 22.4375, 22.6875, 22.875, 23, 23, 23, 23.25, 23.5, 23.75, 24, 24, 24, 24.0625, 24.3125, 24.5625, 24.8125, 25.0625, 25.125, 25.1875, 25.375, 25.3125, 25.383928, 25.6875, 25.6875, 25.9375, 26, 26.125, 26.375, 26.625, 26.875, 27, 27.0625, 27.1875, 27.4375, 27.6875, 28, 28.1875, 28.25, 28.375, 28.5, 28.6875, 28.875, 29.0625, 29.25, 29.5, 29.75, 29.9375, 30, 30, 30.0625, 30.1875, 30.3125, 30.5, 30.6875, 30.8125, 31, 31.0625, 31.3125, 31.520834, 31.833334, 32.111111, 32.125, -10, -10, -10, -10, -10, -10, -10, -10, -10, -10, -10, -10, -10, -10, -10, -10, -10, -10, -10, -10, -10, -10, -10, -10, -10, -10, -10, -10, -10, -10, -10, -10, -10, -10, -10, -10, -10, -10, -10, -10, -10, -10, -10, -10, -10, -10, -10, -10, -10, -10, -10, -10, -10, -10, -10, -10, -10, -10, -10, -10, -10, -10, -10, -10, -10, -10, -10, -10, -10, -10, -10, -10, -10
-10, -10, -10, -10, -10, -10, -10, -10, -10, -10, -10, -10, -10, -10, -10, -10, -10, -10, -10, -10, -10, -10, -10, -10, -10, -10, -10, -10, -10, 57.75, 57.583332, 57.5, 57.25, 56.946426, 56.364582, 55.769348, 55.263393, 55.09375, 54.821426, 54.520832, 54.321426, 54.160713, 54.017857, 54.044643, 53.854168, 53.696426, 53.6875, 53.392857, 52.773811, 52.651787, 52.5, 52.5625, 52.5, 52.375, 52.029762, 52.166668, 52.208332, 52.125, 52, 51.75, 51.5, 51.3125, 51.0625, 50.803574, 50.273811, 49.857143, 49.982143, 49.895832, 49.845238, 49.273811, 48.702381, 48.67857, 48.5625, 48.625, 48.4375, 48.25, 48.0625, 47.875, 47.625, 47.375, 47.0625, 46.8125, 46.625, 46.4375, 46.3125, 46.125, 45.955357, 45.875, 45.625, 45.392857, 45.25, 44.875, 44.5625, 44.3125, 44.0625, 43.8125, 43.5, 43.232143, 42.830353, 42.1875, 42.0625, 41.8125, 41.6875, 41.4375, 41.3125, 41.1875, 41.3125, 41.285713, 40.892857, 40.571426, 40.174107, 39.96875, 39.90625, 39.90625, 39.9375, 39.9375, 39.6875, 39.4375, 39.1875, 38.741074, 38.375, 38.1875, 37.9375, 38.0625, 37.848213, 37.580357, 37.30357, 37.0625, 37.080357, 36.642857, 36.357143, 36.1875, 35.928574, 35.737499, 35.732143, 35.348213, 35.080357, 34.821426, 34.6875, 34.625, 34.5625, 34.214287, 33.416664, 33.142857, 32.9375, 33, 32.75, 32.5, 32.375, 32.0625, 32, 31.9375, 31.625, 31.3125, 30.955357, 30.8125, 30.5625, 30.4375, 30.3125, 30.0625, 29.8125, 29.5625, 29.3125, 29.0625, 29, 29, 28.8125, 28.491072, 27.872025, 27.669643, 27.462797, 26.977678, 26.741072, 26.4375, 26.34375, 26.28125, 26.25, 26.125, 25.9375, 25.642857, 25.4375, 25.1875, 25, 24.8125, 24.5, 24.3125, 24.125, 23.9375, 23.8125, 23.6875, 23.4375, 23.25, 23.0625, 22.75, 22.5, 22.25, 22.0625, 21.875, 21.625, 21.4375, 21.25, 21.125, 21, 20.705357, 20.4375, 20.1875, 20.0625, 20, 20.0625, 20.1875, 20.4375, 20.6875, 20.875, 21, 21.0625, 21.3125, 21.5625, 21.8125, 22, 22, 22.0625, 22.1875, 22.375, 22.625, 22.8125, 22.9375, 23, 23, 23.25, 23.5, 23.75, 24, 24, 24.0625, 24.125, 24.375, 24.625, 24.8125, 25, 25.0625, 25.1875, 25.4375, 25.5, 25.5625, 25.75, 25.75, 25.9375, 26.0625, 26.1875, 26.4375, 26.6875, 26.9375, 27.0625, 27.1875, 27.375, 27.625, 27.8125, 28.125, 28.3125, 28.4375, 28.625, 28.6875, 28.8125, 28.9375, 29, 29.1875, 29.4375, 29.6875, 29.9375, 30, 30, 30.0625, 30.1875, 30.3125, 30.5, 30.6875, 30.8125, 31, 31.0625, 31.3125, 31.5625, 31.8125, 32.145832, 32.25, 32.5, -10, -10, -10, -10, -10, -10, -10, -10, -10, -10, -10, -10, -10, -10, -10, -10, -10, -10, -10, -10, -10, -10, -10, -10, -10, -10, -10, -10, -10, -10, -10, -10, -10, -10, -10, -10, -10, -10, -10, -10, -10, -10, -10, -10, -10, -10, -10, -10, -10, -10, -10, -10, -10, -10, -10, -10, -10, -10, -10, -10, -10, -10, -10, -10, -10, -10, -10, -10, -10, -10, -10, -10, -10, -10, -10, -10, -10, -10, -10, -10, -10, -10, -10, -10, -10, -10, -10, -10, -10, -10, -10, -10, -10, -10, -10, -10, -10, -10, -10, -10, -10, -10, -10, -10, -10, -10, -10, -10, -10, -10, -10, -10, -10, -10, -10, -10, -10, -10, -10, -10, 57.708332, 57.450001, 57.375, 57.0625, 56.8125, 56.40625, 55.852676, 55.424107, 55.15625, 55, 55, 54.785713, 54.589287, 54.392857, 54.169643, 53.934525, 53.633926, 53.5, 53.205357, 52.586311, 52.464287, 52.3125, 52.3125, 52.1875, 52.125, 52.008926, 52.125, 51.9375, 51.767857, 51.625, 51.5, 51.375, 51.25, 51.125, 50.857143, 50.190475, 49.785713, 49.6875, 49.6875, 49.866074, 49.461311, 48.988094, 48.821426, 48.5625, 48.5625, 48.375, 48.25, 48.0625, 47.875, 47.6875, 47.4375, 47.0625, 46.767857, 46.5, 46.375, 46.3125, 46.125, 46.017857, 45.9375, 45.625, 45.392857, 45.25, 44.75, 44.5, 44.25, 43.9375, 43.75, 43.4375, 43.107143, 42.821426, 42.354168, 42.1875, 42, 41.75, 41.5, 41.25, 41, 41.0625, 40.910713, 40.580357, 40.321426, 40.03125, 39.90625, 39.90625, 39.90625, 39.9375, 39.90625, 39.65625, 39.40625, 39.15625, 38.732143, 38.166668, 38.017857, 37.8125, 38, 37.848213, 37.580357, 37.30357, 37.125, 37.205357, 36.767857, 36.419643, 36.080357, 35.8125, 35.75, 35.75, 35.455357, 34.997025, 34.705357, 34.5, 34.5, 34.4375, 34.214287, 33.541664, 33.267857, 33.0625, 33.0625, 32.75, 32.5, 32.375, 32.0625, 32, 32, 31.6875, 31.4375, 31.142857, 30.9375, 30.75, 30.625, 30.5, 30.241072, 29.791666, 29.508928, 29.25, 29.0625, 29, 29, 28.8125, 28.428572, 27.773809, 27.482143, 27.181547, 26.696428, 26.428572, 26.25, 26.25, 26.25, 26.25, 26.1875, 26, 25.767857, 25.625, 25.375, 25.125, 24.901787, 24.5625, 24.3125, 24.1875, 24, 23.9375, 23.875, 23.625, 23.375, 23.125, 22.75, 22.5, 22.25, 22.0625, 21.8125, 21.5625, 21.4375, 21.3125, 21.25, 21.0625, 20.598213, 20.3125, 20.0625, 20, 20, 20.0625, 20.25, 20.5, 20.75, 20.9375, 21, 21.0625, 21.3125, 21.5625, 21.8125, 22, 22, 22.0625, 22.1875, 22.375, 22.625, 22.8125, 22.9375, 23, 23, 23.25, 23.5, 23.75, 24, 24, 24.0625, 24.1875, 24.4375, 24.6875, 24.875, 25, 25.125, 25.25, 25.5, 25.625, 25.6875, 25.9375, 25.9375, 26.0625, 26.1875, 26.3125, 26.5, 26.75, 26.9375, 27.0625, 27.3125, 27.5625, 27.8125, 27.9375, 28.25, 28.4375, 28.625, 28.875, 28.9375, 29, 29.0625, 29.0625, 29.25, 29.5, 29.75, 30, 30.0625, 30.0625, 30.125, 30.1875, 30.3125, 30.5625, 30.75, 30.9375, 31.0625, 31.125, 31.4375, 31.794643, 31.979168, 32.083332, 32.25, 32.5, -10, -10, -10, -10, -10, -10, -10, -10, -10, -10, -10, -10, -10, -10, -10, -10, -10, -10, -10, -10, -10, -10, -10, -10, -10, -10, -10, -10, -10, -10, -10, -10, -10, -10, -10, -10, -10, -10, -10, -10, -10, -10, -10, -10, -10, -10, -10, -10, -10, -10, -10, -10, -10, -10, -10, -10, -10, -10, -10, -10, -10, -10, -10, -10, -10, -10, -10, -10, -10, -10, -10, -10
-10, -10, -10, -10, -10, -10, -10, -10, -10, -10, -10, -10, -10, -10, -10, -10, -10, -10, -10, -10, -10, -10, -10, -10, -10, -10, -10, -10, -10, 57.541664, 57.050003, 57.017857, 56.6875, 56.5, 56.21875, 55.84375, 55.46875, 55.28125, 55.125, 55.03125, 54.848213, 54.651787, 54.5625, 54.263393, 53.934525, 53.540176, 53.035713, 52.879463, 52.278275, 52.151787, 52.125, 52.1875, 52.1875, 52.125, 51.875, 51.75, 51.5625, 51.375, 51.3125, 51.25, 51.25, 51.1875, 51.125, 50.919643, 50.324406, 50.071426, 49.758926, 49.607143, 49.50893, 49.175594, 48.938095, 48.714283, 48.5625, 48.4375, 48.3125, 48.1875, 48, 47.875, 47.75, 47.482143, 46.979168, 46.589287, 46.375, 46.28125, 46.28125, 46.21875, 46.15625, 46.0625, 45.75, 45.455357, 45.1875, 44.6875, 44.4375, 44.1875, 43.9375, 43.6875, 43.4375, 43.107143, 42.857143, 42.479168, 42.330357, 42.125, 41.875, 41.6875, 41.3125, 41.0625, 41.0625, 40.848213, 40.642857, 40.383926, 40.09375, 39.96875, 39.90625, 39.834824, 39.604168, 39.549107, 39.34375, 39.21875, 39.022324, 38.461311, 37.863098, 37.642857, 37.526787, 37.857143, 37.839287, 37.580357, 37.321426, 37.1875, 37.035713, 36.705357, 36.339287, 35.955357, 35.6875, 35.5625, 35.5625, 35.267857, 34.809525, 34.517857, 34.25, 34.25, 34.25, 34.142857, 33.833332, 33.5625, 33.3125, 33.1875, 32.8125, 32.625, 32.5, 32.1875, 31.955357, 31.875, 31.5625, 31.375, 31.25, 31.0625, 30.875, 30.75, 30.625, 30.348215, 29.770832, 29.455357, 29.1875, 29.0625, 29, 28.9375, 28.75, 28.428572, 27.809525, 27.410713, 27.008926, 26.674107, 26.415178, 26.34375, 26.3125, 26.3125, 26.3125, 26.1875, 26.0625, 25.875, 25.6875, 25.4375, 25.0625, 24.901787, 24.625, 24.375, 24.3125, 24.0625, 24, 24, 23.75, 23.5, 23.1875, 22.8125, 22.5625, 22.3125, 22.125, 21.8125, 21.5625, 21.5, 21.4375, 21.40625, 21.21875, 20.691963, 20.34375, 20.0625, 20, 20, 20.0625, 20.1875, 20.375, 20.625, 20.8125, 20.9375, 21.0625, 21.3125, 21.5625, 21.8125, 22, 22, 22, 22.0625, 22.25, 22.5, 22.75, 22.9375, 23, 23.0625, 23.3125, 23.5625, 23.8125, 24, 24, 24.0625, 24.1875, 24.4375, 24.6875, 24.875, 25, 25.125, 25.25, 25.5, 25.6875, 25.8125, 26.125, 26.125, 26.1875, 26.1875, 26.1875, 26.3125, 26.5625, 26.8125, 27.0625, 27.4375, 27.6875, 27.9375, 28, 28.1875, 28.4375, 28.6875, 28.9375, 29.125, 29.125, 29.125, 29.1875, 29.3125, 29.5625, 29.8125, 30, 30, 29.9375, 30, 30.0625, 30.3125, 30.625, 30.8125, 31.0625, 31.1875, 31.3125, 31.696428, 32.169643, 32.291668, -10, -10, -10, -10, -10, -10, -10, -10, -10, -10, -10, -10, -10, -10, -10, -10, -10, -10, -10, -10, -10, -10, -10, -10, -10, -10, -10, -10, -10, -10, -10, -10, -10, -10, -10, -10, -10, -10, -10, -10, -10, -10, -10, -10, -10, -10, -10, -10, -10, -10, -10, -10, -10, -10, -10, -10, -10, -10, -10, -10, -10, -10, -10, -10, -10, -10, -10, -10, -10, -10, -10, -10, -10, -10, -10, -10, -10, -10, -10, -10, -10, -10, -10, -10, -10, -10, -10, -10, -10, -10, -10, -10, -10, -10, -10, -10, -10, -10, -10, -10, -10, -10, -10, -10, -10, -10, -10, -10, -10, -10, -10, -10, -10, -10, -10, -10, -10, -10, -10, -10, -10, -10, -10, 57.541664, 57.050003, 57.017857, 56.75, 56.625, 56.4375, 56.125, 55.6875, 55.464287, 55.25, 55.15625, 55.017857, 54.607143, 54.517857, 54.138393, 53.684525, 53.245537, 52.90625, 52.629463, 52.299107, 52.205357, 52.125, 52.125, 52.125, 52, 51.75, 51.5625, 51.3125, 51.125, 51.0625, 50.9375, 50.96875, 50.96875, 50.96875, 50.959824, 50.657738, 50.49107, 50.098213, 49.461311, 49.151787, 48.818451, 48.971428, 48.714283, 48.6875, 48.4375, 48.25, 48.0625, 47.75, 47.651787, 47.803574, 47.586311, 46.9375, 46.446426, 46.1875, 46.21875, 46.28125, 46.34375, 46.34375, 46.125, 45.8125, 45.455357, 45.125, 44.6875, 44.4375, 44.1875, 43.9375, 43.6875, 43.5, 43.276787, 43.044643, 42.729168, 42.580357, 42.3125, 42.0625, 41.8125, 41.375, 41.1875, 41.125, 40.9375, 40.8125, 40.455357, 40.15625, 39.96875, 39.84375, 39.647324, 39.318455, 39.299107, 39.15625, 39.15625, 39.022324, 38.461311, 37.800598, 37.473213, 37.339287, 37.669643, 37.776787, 37.580357, 37.383926, 37.1875, 36.910713, 36.642857, 36.383926, 35.9375, 35.541668, 35.321426, 35.25, 35.080357, 34.622025, 34.330357, 34.0625, 34, 34, 34, 34, 33.75, 33.5, 33.25, 32.875, 32.75, 32.5625, 32.1875, 31.785713, 31.625, 31.375, 31.25, 31.1875, 31.0625, 30.9375, 30.8125, 30.6875, 30.348215, 29.708332, 29.392857, 29.125, 28.991072, 28.75, 28.75, 28.607143, 28.357143, 27.726189, 27.267857, 26.830357, 26.495537, 26.34375, 26.28125, 26.3125, 26.3125, 26.25, 26.125, 25.9375, 25.75, 25.625, 25.375, 25.125, 24.964287, 24.75, 24.5, 24.375, 24.125, 24, 24, 23.75, 23.5, 23.1875, 22.875, 22.625, 22.375, 22.1875, 21.8125, 21.5625, 21.5, 21.4375, 21.40625, 21.21875, 20.691963, 20.34375, 20.0625, 20, 20, 20, 20.0625, 20.25, 20.5, 20.75, 20.9375, 21.0625, 21.3125, 21.5625, 21.8125, 22, 22, 22, 22.125, 22.3125, 22.5625, 22.8125, 22.9375, 23, 23.0625, 23.3125, 23.5625, 23.8125, 24, 24, 24.0625, 24.25, 24.5, 24.75, 24.9375, 25, 25.125, 25.25, 25.4375, 25.6875, 25.723213, 25.9375, 26.116072, 26.116072, 26.1875, 26.125, 26.25, 26.5, 26.75, 27.125, 27.5, 27.75, 28, 28, 28.125, 28.3125, 28.5, 28.75, 28.9375, 29, 29.0625, 29.1875, 29.375, 29.5625, 29.75, 29.8125, 29.8125, 29.875, 30.044643, 30.1875, 30.5, 30.75, 30.9375, 31.145834, 31.166666, 31.333334, 31.761904, 32.607143, 32.729168, -10, -10, -10, -10, -10, -10, -10, -10, -10, -10, -10, -10, -10, -10, -10, -10, -10, -10, -10, -10, -10, -10, -10, -10, -10, -10, -10, -10, -10, -10, -10, -10, -10, -10, -10, -10, -10, -10, -10, -10, -10, -10, -10, -10, -10, -10, -10, -10, -10, -10, -10, -10, -10, -10, -10, -10, -10, -10, -10, -10, -10, -10, -10, -10, -10, -10, -10, -10, -10, -10, -10, -10, -10, -10, -10
-10, -10, -10, -10, -10, -10, -10, -10, -10, -10, -10, -10, -10, -10, -10, -10, -10, -10, -10, -10, -10, -10, -10, -10, -10, -10, -10, -10, -10, 57.666664, 57.133331, 57.142857, 56.9375, 56.8125, 56.75, 56.5, 56.0625, 55.785713, 55.291668, 55.21875, 55.017857, 54.607143, 54.455357, 54.03125, 53.767857, 53.361607, 52.96875, 52.65625, 52.40625, 52.25, 52.125, 52.0625, 52, 51.9375, 51.75, 51.5, 51.25, 51.0625, 51, 50.9375, 50.90625, 50.84375, 50.84375, 50.772324, 50.604168, 50.5625, 49.94558, 49.130955, 48.723213, 48.651783, 48.900002, 48.714283, 48.625, 48.25, 48, 47.75, 47.4375, 47.339287, 47.491074, 47.273811, 46.6875, 46.321426, 46.125, 46.21875, 46.21875, 46.21875, 46.15625, 45.9375, 45.6875, 45.4375, 45.125, 44.6875, 44.5, 44.25, 44, 43.75, 43.625, 43.5, 43.294643, 43.041668, 42.830357, 42.5, 42.25, 42, 41.5, 41.3125, 41.1875, 41, 40.875, 40.517857, 40.1875, 40, 39.875, 39.616074, 39.255955, 39.049107, 38.90625, 38.96875, 38.897324, 38.532738, 37.988098, 37.660713, 37.50893, 37.57143, 37.741074, 37.5625, 37.4375, 37.1875, 36.8125, 36.6875, 36.4375, 35.9375, 35.497025, 35.258926, 35.125, 35.044643, 34.666668, 34.383926, 34.125, 34, 34, 34, 34, 33.75, 33.5, 33.25, 32.9375, 32.875, 32.625, 32.1875, 31.723213, 31.5, 31.25, 31.1875, 31.125, 30.9375, 30.8125, 30.6875, 30.5625, 30.285715, 29.708332, 29.455357, 29.1875, 29, 28.458334, 28.392857, 28.294643, 28.169643, 27.645832, 27.267857, 26.99107, 26.620537, 26.486607, 26.34375, 26.3125, 26.3125, 26.25, 26.125, 25.875, 25.625, 25.4375, 25.1875, 25, 24.839287, 24.6875, 24.4375, 24.25, 24.0625, 23.9375, 23.9375, 23.75, 23.5, 23.25, 23, 22.75, 22.5, 22.25, 21.8125, 21.5625, 21.4375, 21.3125, 21.28125, 21.15625, 20.736607, 20.40625, 20.125, 20, 20, 20, 20.0625, 20.25, 20.5, 20.75, 20.9375, 21, 21.25, 21.5, 21.75, 22, 22, 22, 22.1875, 22.375, 22.625, 22.875, 22.9375, 23, 23.125, 23.375, 23.625, 23.875, 24, 24, 24, 24.1875, 24.4375, 24.6875, 24.9375, 25, 25.0625, 25.1875, 25.375, 25.625, 25.660713, 25.75, 25.928572, 25.928572, 26.0625, 26.0625, 26.1875, 26.4375, 26.6875, 27.125, 27.5, 27.75, 28, 28, 28.0625, 28.25, 28.4375, 28.625, 28.8125, 28.875, 28.9375, 29.125, 29.375, 29.5, 29.6875, 29.8125, 29.919643, 30.125, 30.419643, 30.604166, 30.583334, 30.833334, 31, 31.194445, -10, -10, -10, 32.976192, 33.055557, -10, -10, -10, -10, -10, -10, -10, -10, -10, -10, -10, -10, -10, -10, -10, -10, -10, -10, -10, -10, -10, -10, -10, -10, -10, -10, -10, -10, -10, -10, -10, -10, -10, -10, -10, -10, -10, -10, -10, -10, -10, -10, -10, -10, -10, -10, -10, -10, -10, -10, -10, -10, -10, -10, -10, -10, -10, -10, -10, -10, -10, -10, -10, -10, -10, -10, -10, -10, -10, -10, -10, -10, -10, -10, -10, -10, -10, -10, -10, -10, -10, -10, -10, -10, -10, -10, -10, -10, -10, -10, -10, -10, -10, -10, -10, -10, -10, -10, -10, -10, -10, -10, -10, -10, -10, -10, -10, -10, -10, -10, -10, -10, -10, -10, -10, -10, -10, -10, -10, -10, -10, -10, -10, 57.833332, 57.349998, 57.267857, 57.0625, 56.84375, 56.78125, 56.59375, 56.21875, 55.910713, 55.416668, 55.21875, 54.919643, 54.517857, 54.330357, 54.03125, 53.875, 53.611607, 53.28125, 53.03125, 52.78125, 52.544643, 52.229168, 52.071426, 52.0625, 51.973213, 51.705357, 51.446426, 51.1875, 51.046875, 50.96875, 50.84375, 50.75, 50.640625, 50.59375, 50.59375, 50.625, 50.54464, 49.65646, 49.005955, 48.473213, 48.339283, 48.462502, 48.285713, 48.375, 48.0625, 47.875, 47.5625, 47.1875, 46.964287, 47.053574, 46.836311, 46.375, 46.241074, 46.125, 46.21875, 46.21875, 46.15625, 46.09375, 45.875, 45.625, 45.3125, 45, 44.6875, 44.482143, 44.104168, 43.955357, 43.6875, 43.625, 43.625, 43.419643, 43.229168, 43.080357, 42.6875, 42.4375, 42.1875, 41.75, 41.5625, 41.375, 41.1875, 40.9375, 40.642857, 40.3125, 40.0625, 39.9375, 39.553574, 39.130955, 38.892857, 38.75, 38.875, 38.866074, 38.604168, 38.321426, 38.117344, 37.550598, 37.455357, 37.616074, 37.5, 37.375, 37.080357, 36.625, 36.5, 36.3125, 35.919643, 35.497025, 35.196426, 35, 34.9375, 34.75, 34.5, 34.3125, 34.125, 34.0625, 34.0625, 34, 33.75, 33.5, 33.25, 32.9375, 32.875, 32.625, 32.25, 31.848213, 31.625, 31.375, 31.25, 31.125, 30.875, 30.6875, 30.5, 30.3125, 30.107143, 29.854166, 29.669641, 29.330357, 29, 28.333334, 28.205357, 28.107143, 28.107143, 27.619049, 27.267857, 26.92857, 26.433037, 26.299107, 26.09375, 26.125, 26.1875, 26.1875, 26.125, 25.866072, 25.354166, 25.142857, 24.9375, 24.875, 24.875, 24.75, 24.4375, 24.080357, 23.875, 23.6875, 23.75, 23.6875, 23.5, 23.3125, 23.0625, 22.75, 22.5, 22.1875, 21.75, 21.5, 21.3125, 21.1875, 21.15625, 21.09375, 20.84375, 20.53125, 20.25, 20.0625, 20, 20, 20, 20.125, 20.375, 20.625, 20.875, 21, 21.1875, 21.4375, 21.6875, 21.9375, 22, 22, 22.125, 22.25, 22.5, 22.75, 22.875, 23, 23.125, 23.3125, 23.5, 23.75, 23.875, 23.9375, 24, 24.125, 24.375, 24.625, 24.875, 25, 25, 25.0625, 25.25, 25.5, 25.598213, 25.6875, 25.866072, 25.866072, 25.9375, 25.9375, 26.125, 26.375, 26.6875, 27.1875, 27.5, 27.75, 28, 28, 28, 28.125, 28.25, 28.375, 28.5, 28.5625, 28.6875, 28.9375, 29.3125, 29.5, 29.75, 29.895834, 29.809525, 30.083334, 30.671429, 30.966665, -10, -10, -10, -10, -10, -10, -10, -10, -10, -10, -10, -10, -10, -10, -10, -10, -10, -10, -10, -10, -10, -10, -10, -10, -10, -10, -10, -10, -10, -10, -10, -10, -10, -10, -10, -10, -10, -10, -10, -10, -10, -10, -10, -10, -10, -10, -10, -10, -10, -10, -10, -10, -10, -10, -10, -10, -10, -10, -10, -10, -10, -10, -10, -10, -10, -10, -10, -10, -10, -10, -10, -10, -10, -10, -10, -10, -10, -10, -10, -10, -10, -10, -10, -10
