43.375, 43.25, 43.1875, 43.1875, 43.0625, 43, 43, 42.9375, 42.9375, 43, 43, 43, 43, 42.9375, 42.9375, 42.875, 42.8125, 42.6875, 42.5, 42.375, 42.1875, 42.125, 42.0625, 42, 42, 42, 42.0625, 42.098213, 41.892857, 41.696426, 41.4375, 41.1875, 41.0625, 41.151787, 41.348213, 41.375, 41.276787, 41.0625, 40.875, 40.875, 40.8125, 40.8125, 40.875, 40.875, 40.9375, 41, 41, 41, 41, 41, 41, 41, 40.875, 40.75, 40.75, 40.598213, 40.38393, 40.133926, 40, 39.9375, 40.1875, 40.375, 40.410713, 40.392857, 40.125, 40.0625, 40.137501, 39.946426, 39.946426, 39.8125, 39.6875, 39.5625, 39.375, 39.25, 39.125, 39.0625, 39, 39, 39.0625, 39.0625, 39.0625, 38.9375, 38.875, 38.75, 38.6875, 38.5625, 38.375, 38.25, 38.25, 38.3125, 38.3125, 38.25, 38.0625, 37.9375, 37.875, 37.9375, 38.0625, 38.0625, 38.026787, 38.0625, 37.9375, 38, 37.9375, 37.9375, 37.875, 37.8125, 37.8125, 37.6875, 37.5, 37.3125, 37.125, 37, 37, 37.0625, 37.0625, 37.0625, 37.0625, 36.875, 36.625, 36.4375, 36.25, 36.25, 36.375, 36.5, 36.535713, 36.392857, 36.258926, 36.125, 36.0625, 36, 36, 36.0625, 36, 35.8125, 35.642857, 35.5, 35.4375, 35.5625, 35.625, 35.6875, 35.75, 35.625, 35.4375, 35.25, 35.0625, 35, 35, 35, 35, 35, 35, 35, 35, 35, 35.125, 35.098213, 34.839287, 34.642857, 34.375, 34.25, 34.223213, 34.151787, 34.125, 34, 34, 33.9375, 33.9375, 34, 33.9375, 33.9375, 33.9375, 33.875, 33.8125, 33.6875, 33.5625, 33.5, 33.5, 33.375, 33.25, 33.125, 33.0625, 33.0625, 33.125, 33.1875, 33.125, 33.125, 33.0625, 33, 33, 33, 33, 32.9375, 32.8125, 32.625, 32.5625, 32.5, 32.375, 32.3125, 32.125, 32, 32, 32, 31.9375, 31.9375, 31.9375, 31.9375, 31.9375, 31.875, 31.8125, 31.8125, 31.8125, 31.8125, 31.6875, 31.5, 31.375, 31.1875, 31.125, 31.0625, 31, 31, 31, 31, 30.8125, 30.6875, 30.5, 30.1875, 30.1875, 30.1875, 30.1875, 30.3125, 30.25, 30.3125, 30.196426, 29.848213, 29.705357, 29.625, 29.75, 29.875, 30, 30, 29.9375, 29.8125, 29.8125, 29.8125, 29.875, 29.875, 29.6875, 29.4375, 29.25, 29.125, 29.0625, 29.0625, 29, 29, 29, 29, 28.9375, 28.9375, 28.875, 28.75, 28.5625, 28.375, 28.25, 28.1875, 28.125, 28.0625, 28, 27.9375, 28.0625, 28.0625, 28.0625, 28.0625, 28, 28, 28, 28, 28, 28.0625, 28.3125, 28.5625, 28.8125, 29.0625, 29.3125, 29.5625, 29.8125, 30.125, 30.375, 30.625, 30.875, 31, 31, 31.0625, 31.3125, 31.5625, 31.875, 32.1875, 32.25, 32.5, 32.6875, 32.8125, 33.25, 33.5, 33.75, 34, 34, 34.125, 34.375, 34.625, 34.875, 35, 35.1875, 35.4375, 35.75, 36.098213, 36.25, 36.5, 36.6875, 36.875, 37, 37, 37.25, 37.5, 37.75, 38, 38.1875, 38.3125, 38.5625, 38.8125, 39, 39.375, 39.625, 39.9375, 40.125, 40.25, 40.5, 40.6875, 40.875, 41.125, 41.25, 41.375, 41.5625, 41.776787, 42.080357, 42.169643, 42.375, 42.5, 42.583336, -10, -10, -10, -10, -10, -10, -10, -10, -10, -10, -10, -10, -10, -10, -10, -10, -10, -10, -10, -10, -10, -10, -10, -10, -10, -10, -10, -10, -10, 43.375, 43.333332, 43.25, 43.3125, 43.1875, 43.0625, 43.0625, 42.9375, 42.9375, 43, 43, 43, 43, 42.9375, 42.875, 42.875, 42.8125, 42.75, 42.6875, 42.5, 42.3125, 42.1875, 42.0625, 42.0625, 42.0625, 42.0625, 42.0625, 41.910713, 41.642857, 41.383926, 41.1875, 41.125, 41.0625, 41.151787, 41.223213, 41.125, 41.0625, 40.875, 40.8125, 40.875, 40.9375, 41, 41.0625, 41, 41, 41, 41, 41, 41, 41, 41, 41, 40.8125, 40.625, 40.5625, 40.348213, 40.205357, 40.133926, 40, 40, 40.125, 40.3125, 40.285713, 40.267857, 40.0625, 40.0625, 40.235714, 39.964287, 39.964287, 39.75, 39.5625, 39.491074, 39.375, 39.098213, 39.035713, 38.9375, 39, 39, 39.0625, 39.125, 39.125, 39, 38.875, 38.625, 38.5, 38.375, 38.3125, 38.357143, 38.3125, 38.3125, 38.3125, 38.25, 38.125, 38.125, 38, 38, 38.0625, 38, 37.964287, 38, 37.9375, 38, 37.9375, 37.9375, 37.9375, 37.9375, 38, 37.9375, 37.6875, 37.4375, 37.1875, 37, 37, 37.0625, 37.0625, 37.0625, 37.0625, 36.875, 36.625, 36.4375, 36.1875, 36.125, 36.1875, 36.25, 36.410713, 36.392857, 36.321426, 36.25, 36.125, 36, 36, 36.0625, 36.0625, 35.875, 35.705357, 35.625, 35.5, 35.5625, 35.625, 35.732143, 35.732143, 35.625, 35.375, 35.1875, 35.0625, 35, 35, 35, 35, 35, 34.9375, 34.875, 34.875, 34.875, 35, 35.0625, 34.875, 34.642857, 34.4375, 34.3125, 34.348213, 34.339287, 34.3125, 34.1875, 34.125, 34, 34, 34, 34, 34, 34, 34, 33.9375, 33.8125, 33.75, 33.6875, 33.5625, 33.4375, 33.3125, 33.1875, 33.1875, 33.1875, 33.25, 33.3125, 33.25, 33.25, 33.125, 33, 33, 33, 33, 33, 32.9375, 32.8125, 32.8125, 32.6875, 32.5625, 32.5, 32.25, 32.125, 32.0625, 32, 31.9375, 31.9375, 31.9375, 31.9375, 31.9375, 31.875, 31.8125, 31.8125, 31.875, 31.9375, 31.875, 31.6875, 31.5, 31.25, 31.125, 31.0625, 31.0625, 31.0625, 31.0625, 31.0625, 30.8125, 30.625, 30.375, 30.125, 30.1875, 30.25, 30.25, 30.25, 30.125, 30.1875, 30.196426, 29.910713, 29.767857, 29.75, 29.785713, 29.767857, 29.821428, 29.8125, 29.875, 29.875, 29.9375, 29.9375, 29.9375, 29.875, 29.75, 29.5625, 29.4375, 29.4375, 29.375, 29.303572, 29.0625, 29, 28.9375, 29.0625, 29, 29, 28.9375, 28.75, 28.5625, 28.4375, 28.375, 28.4375, 28.473213, 28.267857, 28.133928, 28, 28, 28, 28, 28, 28, 28, 28, 28, 28, 28, 28.1875, 28.4375, 28.6875, 29, 29.3125, 29.5625, 29.875, 30.1875, 30.4375, 30.6875, 30.875, 31, 31, 31.125, 31.375, 31.625, 31.875, 32.0625, 32.125, 32.375, 32.625, 32.8125, 33.1875, 33.4375, 33.6875, 33.9375, 34.0625, 34.25, 34.5, 34.75, 34.9375, 35, 35.1875, 35.4375, 35.6875, 36, 36.1875, 36.4375, 36.6875, 36.875, 37, 37, 37.25, 37.5, 37.75, 38.0625, 38.1875, 38.25, 38.5, 38.6875, 39, 39.4375, 39.6875, 39.9375, 40, 40.125, 40.375, 40.625, 40.8125, 41.0625, 41.125
43.625, 43.5, 43.375, 43.375, 43.25, 43.1875, 43.1875, 43.0625, 43, 43, 43, 43, 43, 42.875, 42.75, 42.75, 42.75, 42.75, 42.75, 42.5625, 42.3125, 42.1875, 42.125, 42.1875, 42.25, 42.3125, 42.3125, 42.098213, 41.830357, 41.508926, 41.25, 41.1875, 41, 40.964287, 40.973213, 40.875, 40.875, 40.8125, 40.8125, 40.9375, 41.0625, 41.125, 41.1875, 41.0625, 41, 41, 41, 41, 41, 41, 41, 40.9375, 40.6875, 40.4375, 40.25, 40.0625, 40.0625, 40.0625, 40, 40, 40.0625, 40.1875, 40.160713, 40.080357, 39.9375, 40.0625, 40.235714, 40.026787, 40.026787, 39.75, 39.625, 39.678574, 39.5625, 39.056549, 38.955357, 38.75, 38.883926, 39.0625, 39.0625, 39.25, 39.1875, 39.0625, 39, 38.6875, 38.5625, 38.4375, 38.375, 38.419643, 38.3125, 38.25, 38.25, 38.1875, 38.125, 38.25, 38.125, 38.125, 38.125, 38.0625, 38.035713, 37.964287, 38.0625, 38.035713, 38, 38, 37.9375, 37.9375, 38, 37.875, 37.625, 37.375, 37.125, 37, 37, 37.0625, 37.0625, 37.0625, 37.0625, 36.9375, 36.8125, 36.625, 36.4375, 36.25, 36.125, 36.0625, 36.1875, 36.375, 36.375, 36.375, 36.1875, 36, 36, 35.9375, 35.875, 35.75, 35.625, 35.625, 35.4375, 35.3125, 35.3125, 35.419643, 35.589287, 35.5625, 35.375, 35.1875, 35.0625, 35, 35, 35, 35, 35, 34.9375, 34.875, 34.875, 34.875, 34.9375, 35, 34.875, 34.6875, 34.5, 34.4375, 34.473213, 34.526787, 34.5, 34.3125, 34.1875, 34, 34, 34, 34, 34, 33.9375, 33.9375, 33.875, 33.75, 33.78125, 33.78125, 33.65625, 33.53125, 33.375, 33.1875, 33.125, 33.125, 33.1875, 33.3125, 33.3125, 33.3125, 33.1875, 33, 33.0625, 33.0625, 33.0625, 33.0625, 33, 32.9375, 32.9375, 32.8125, 32.625, 32.5625, 32.3125, 32.1875, 32.1875, 32, 31.9375, 31.9375, 31.875, 31.9375, 31.9375, 31.875, 31.875, 31.875, 31.9375, 31.9375, 31.8125, 31.5625, 31.3125, 31.125, 31, 31, 31.125, 31.1875, 31.1875, 31.1875, 30.9375, 30.6875, 30.5, 30.3125, 30.3125, 30.4375, 30.375, 30.3125, 30.1875, 30.125, 30.133926, 29.848213, 29.705357, 29.75, 29.785713, 29.767857, 29.758928, 29.6875, 29.75, 29.8125, 29.9375, 30, 30, 29.9375, 29.875, 29.75, 29.6875, 29.6875, 29.625, 29.553572, 29.241072, 29.049999, 29.116072, 29.241072, 29.25, 29.1875, 29.0625, 28.875, 28.625, 28.5625, 28.5625, 28.5625, 28.598213, 28.330357, 28.133928, 28, 28, 28, 28, 28, 28, 28, 28, 28, 28, 28, 28.1875, 28.4375, 28.6875, 29, 29.3125, 29.625, 30.044643, 30.375, 30.625, 30.8125, 30.9375, 31, 31, 31.125, 31.375, 31.625, 31.875, 32.0625, 32.1875, 32.4375, 32.6875, 32.875, 33.125, 33.375, 33.625, 33.875, 34.125, 34.3125, 34.5625, 34.8125, 34.9375, 35.0625, 35.25, 35.5, 35.75, 36.0625, 36.3125, 36.5625, 36.8125, 36.9375, 37, 37, 37.25, 37.5, 37.75, 38.0625, 38.125, 38.1875, 38.4375, 38.625, 39, 39.4375, 39.6875, 39.9375, 40, 40.1875, 40.4375, 40.6875, 40.875, 41, 41.0625, 41.25, 41.5625, 41.75, 42.0625, 42.25, 42.5, 42.75, 42.833336, -10, -10, -10, -10, -10, -10, -10, -10, -10, -10, -10, -10, -10, -10, -10, -10, -10, -10, -10, -10, -10, -10, -10, -10, -10, -10, -10, -10, -10, 43.625, 43.5, 43.375, 43.3125, 43.214287, 43.357143, 43.357143, 43.25, 43.125, 43, 43, 43, 43, 42.875, 42.75, 42.75, 42.6875, 42.6875, 42.6875, 42.5, 42.3125, 42.1875, 42.1875, 42.3125, 42.4375, 42.5, 42.4375, 42.160713, 41.830357, 41.508926, 41.25, 41.1875, 41, 40.875, 40.8125, 40.75, 40.8125, 40.9375, 40.9375, 41.125, 41.25, 41.25, 41.3125, 41.125, 41, 41, 41, 41, 41, 41, 41, 40.875, 40.625, 40.375, 40.125, 40, 40, 40, 40, 40, 40, 40.0625, 39.973213, 39.901787, 39.9375, 40.0625, 40.298214, 40.026787, 40.026787, 39.75, 39.6875, 39.866074, 39.75, 38.952381, 38.75, 38.4375, 38.633926, 38.875, 38.9375, 39.25, 39.25, 39.25, 39.25, 38.9375, 38.6875, 38.392857, 38.25, 38.232143, 38.1875, 38.1875, 38.25, 38.25, 38.1875, 38.375, 38.25, 38.1875, 38.1875, 38.0625, 38.035713, 38.026787, 38.1875, 38.160713, 38.1875, 38.125, 38, 38, 38, 37.9375, 37.6875, 37.4375, 37.1875, 37, 37, 37, 37.0625, 37.125, 37.1875, 37.25, 37.1875, 37, 36.75, 36.392857, 36.1875, 36.125, 36.3125, 36.482143, 36.291668, 36.267857, 36.0625, 35.9375, 36, 35.875, 35.8125, 35.6875, 35.5625, 35.625, 35.366074, 34.979168, 34.955357, 35.044643, 35.276787, 35.3125, 35.1875, 35.125, 35.0625, 35.0625, 35.0625, 35, 35, 35, 35, 34.9375, 34.9375, 34.9375, 34.9375, 35, 34.9375, 34.6875, 34.5, 34.4375, 34.348213, 34.401787, 34.375, 34.1875, 34.125, 34, 34, 34, 34, 34, 33.875, 33.8125, 33.6875, 33.5, 33.53125, 33.53125, 33.46875, 33.40625, 33.3125, 33.1875, 33.125, 33.125, 33.25, 33.4375, 33.5, 33.5, 33.3125, 33.0625, 33.0625, 33.0625, 33.0625, 33.125, 33.0625, 33.0625, 33.0625, 32.8125, 32.625, 32.5, 32.25, 32.1875, 32.1875, 32.0625, 32, 32, 31.9375, 31.9375, 32, 32, 32, 32, 31.9375, 31.875, 31.75, 31.5, 31.3125, 31.125, 31, 31, 31.125, 31.1875, 31.1875, 31.1875, 31, 30.8125, 30.6875, 30.5, 30.4375, 30.5, 30.375, 30.3125, 30.25, 30.1875, 30.223213, 30.080357, 29.946428, 29.9375, 29.910713, 29.830357, 29.696428, 29.625, 29.6875, 29.75, 29.9375, 30, 30, 30, 30, 29.9375, 29.9375, 29.875, 29.8125, 29.741072, 29.366072, 29.174999, 29.241072, 29.366072, 29.375, 29.3125, 29.125, 28.875, 28.6875, 28.6875, 28.75, 28.75, 28.723213, 28.392857, 28.196428, 28.0625, 28.0625, 28.0625, 28, 28, 28, 28, 28, 28, 28, 28.0625, 28.25, 28.5, 28.75, 29.0625, 29.375, 29.6875, 30.107143, 30.4375, 30.6875, 30.875, 31, 31, 31, 31.1875, 31.4375, 31.6875, 31.9375, 32.0625, 32.25, 32.5, 32.75, 32.9375, 33.0625, 33.3125, 33.5625, 33.8125, 34.125, 34.3125, 34.5625, 34.8125, 34.9375, 35.125, 35.3125, 35.5625, 35.8125, 36.0625, 36.3125, 36.5625, 36.8125, 36.9375, 37, 37.0625, 37.3125, 37.5625, 37.8125, 38.0625, 38.0625, 38.1875, 38.375, 38.5625, 38.9375, 39.3125, 39.625, 39.875, 40, 40.25, 40.5, 40.75, 41, 41, 41.0625
43.625, 43.5, 43.375, 43.25, 43.089287, 43.169643, 43.169643, 43.125, 43.0625, 43, 43, 43, 43, 42.9375, 42.8125, 42.75, 42.625, 42.5, 42.4375, 42.25, 42.125, 42.0625, 42.1875, 42.4375, 42.5625, 42.625, 42.4375, 42.125, 41.9375, 41.625, 41.375, 41.330357, 41.333332, 41.166668, 40.895832, 40.75, 40.75, 40.9375, 41, 41.1875, 41.375, 41.375, 41.375, 41.1875, 41, 41, 41, 41, 41, 41, 41, 40.875, 40.6875, 40.4375, 40.1875, 40.125, 40.125, 40.1875, 40.1875, 40.125, 40.0625, 40, 39.9375, 39.9375, 39.9375, 40, 40.035713, 39.892857, 39.892857, 39.8125, 39.8125, 40.053574, 40.0625, 39.264881, 39.0625, 38.535713, 38.821426, 39, 39.0625, 39.3125, 39.3125, 39.4375, 39.5, 39.25, 38.9375, 38.401787, 38.080357, 38.044643, 38, 38.0625, 38.1875, 38.1875, 38.1875, 38.375, 38.1875, 38.0625, 38, 37.875, 37.910713, 38.026787, 38.3125, 38.285713, 38.3125, 38.1875, 38, 38, 38, 37.875, 37.625, 37.375, 37.125, 37, 37, 37, 37.0625, 37.125, 37.1875, 37.25, 37.25, 37.125, 36.9375, 36.642857, 36.4375, 36.375, 36.5, 36.535713, 36.083336, 36.035713, 35.875, 35.875, 35.9375, 35.75, 35.6875, 35.6875, 35.732143, 35.8125, 35.616074, 35.104168, 35.017857, 35.169643, 35.339287, 35.375, 35.25, 35.125, 35.0625, 35.0625, 35.0625, 35, 35, 35.0625, 35.125, 35.125, 35.125, 35.0625, 35, 34.9375, 34.9375, 34.75, 34.625, 34.625, 34.5, 34.625, 34.5625, 34.4375, 34.375, 34.25, 34.1875, 34.125, 34.0625, 33.9375, 33.75, 33.625, 33.4375, 33.25, 33.28125, 33.28125, 33.28125, 33.28125, 33.25, 33.1875, 33.125, 33.125, 33.25, 33.4375, 33.5, 33.5, 33.3125, 33.0625, 33.0625, 33.0625, 33.0625, 33.125, 33, 33, 32.919643, 32.526787, 32.4375, 32.3125, 32.1875, 32.1875, 32.1875, 32.0625, 32.0625, 32.0625, 32, 32, 32, 32, 31.9375, 31.875, 31.8125, 31.6875, 31.5625, 31.375, 31.1875, 31.0625, 31, 31, 31.125, 31.1875, 31.1875, 31.1875, 31.0625, 30.9375, 30.875, 30.8125, 30.6875, 30.6875, 30.5, 30.375, 30.375, 30.3125, 30.4375, 30.375, 30.3125, 30.3125, 30.223213, 30.080357, 29.821428, 29.6875, 29.6875, 29.75, 30, 30.0625, 30.0625, 30.0625, 30, 30, 29.9375, 29.8125, 29.75, 29.616072, 29.303572, 29.174999, 29.241072, 29.303572, 29.3125, 29.25, 29.125, 28.9375, 28.75, 28.75, 28.75, 28.75, 28.723213, 28.392857, 28.258928, 28.125, 28.125, 28.125, 28, 28, 28, 28, 28, 28, 28, 28.125, 28.3125, 28.5625, 28.8125, 29.0625, 29.375, 29.6875, 30.107143, 30.375, 30.5625, 30.75, 30.875, 30.9375, 31.0625, 31.25, 31.5, 31.75, 31.9375, 32.0625, 32.3125, 32.5625, 32.8125, 33, 33.0625, 33.3125, 33.5625, 33.8125, 34.125, 34.3125, 34.5625, 34.8125, 34.9375, 35.125, 35.3125, 35.5625, 35.8125, 36, 36.25, 36.5, 36.75, 36.9375, 37, 37.125, 37.375, 37.625, 37.875, 38.0625, 38.0625, 38.25, 38.375, 38.5625, 39, 39.285713, 39.5625, 39.75, 39.8125, 40.0625, 40.3125, 40.625, 40.9375, 41.035713, 41.125, 41.375, 41.5625, 41.8125, 42.125, 42.25, 42.5, 42.75, 42.833336, -10, -10, -10, -10, -10, -10, -10, -10, -10, -10, -10, -10, -10, -10, -10, -10, -10, -10, -10, -10, -10, -10, -10, -10, -10, -10, -10, -10, -10, 43.375, 43.333332, 43.3125, 43.1875, 43.151787, 43.214287, 43.07143, 43.125, 43, 43, 43, 43, 43, 42.9375, 42.875, 42.741074, 42.4375, 42.3125, 42.125, 42.125, 42.0625, 42.0625, 42.25, 42.375, 42.5, 42.5625, 42.4375, 42.25, 42.125, 41.875, 41.625, 41.580357, 41.645832, 41.425594, 40.916664, 40.75, 40.6875, 40.9375, 41, 41.125, 41.3125, 41.3125, 41.3125, 41.1875, 41, 41, 41, 41, 41, 41, 41, 40.8125, 40.625, 40.375, 40.125, 40.1875, 40.25, 40.375, 40.375, 40.25, 40.125, 40, 40.0625, 40.125, 40.107143, 39.916668, 39.892857, 39.875, 40, 40.0625, 40.0625, 40.1875, 40.0625, 39.416664, 39.151787, 39.166668, 38.821426, 39, 39.0625, 39.25, 39.25, 39.375, 39.5625, 39.410713, 39.080357, 38.535713, 38.080357, 37.9375, 37.875, 37.9375, 38.0625, 38.0625, 38.125, 38.25, 38.0625, 37.892857, 37.75, 37.6875, 37.785713, 38.026787, 38.4375, 38.410713, 38.4375, 38.25, 38, 37.9375, 37.9375, 37.8125, 37.5625, 37.375, 37.125, 37, 37, 37, 37.0625, 37.125, 37.1875, 37.25, 37.3125, 37.25, 37.125, 36.892857, 36.6875, 36.625, 36.625, 36.535713, 35.958336, 35.848213, 35.75, 35.8125, 35.9375, 35.75, 35.6875, 35.821426, 36.190475, 36.270832, 35.886902, 35.354168, 35.205357, 35.1875, 35.357143, 35.3125, 35.1875, 35.125, 35.0625, 35.0625, 35.125, 35.0625, 35.0625, 35.1875, 35.3125, 35.375, 35.3125, 35.151787, 35, 34.875, 34.9375, 34.8125, 34.75, 34.6875, 34.5625, 34.5625, 34.4375, 34.4375, 34.4375, 34.375, 34.3125, 34.1875, 34, 33.8125, 33.625, 33.4375, 33.3125, 33.1875, 33.15625, 33.21875, 33.28125, 33.34375, 33.3125, 33.25, 33.125, 33.0625, 33.25, 33.348213, 33.339287, 33.375, 33.1875, 33.0625, 33.0625, 33, 33, 33, 32.875, 33, 32.919643, 32.553574, 32.5, 32.25, 32.25, 32.1875, 32.1875, 32.0625, 32, 32.0625, 32.035713, 32.0625, 32.0625, 32, 31.9375, 31.8125, 31.625, 31.330357, 31.1875, 31.0625, 31, 31, 31, 31, 31, 31.0625, 31.0625, 31.0625, 31.0625, 31, 31, 30.9375, 30.8125, 30.6875, 30.5, 30.4375, 30.5, 30.5625, 30.5625, 30.4375, 30.3125, 30.1875, 30.1875, 30.1875, 30, 29.875, 29.8125, 29.8125, 30, 30.0625, 30.0625, 30.0625, 30, 30, 29.9375, 29.75, 29.625, 29.5, 29.303572, 29.174999, 29.303572, 29.241072, 29.25, 29.1875, 29.0625, 29, 28.8125, 28.8125, 28.8125, 28.6875, 28.6875, 28.5, 28.4375, 28.375, 28.3125, 28.25, 28.0625, 28, 28, 28, 28, 28, 28, 28.1875, 28.4375, 28.6875, 29, 29.25, 29.5, 29.8125, 30.107143, 30.25, 30.375, 30.5625, 30.78125, 30.96875, 31.21875, 31.40625, 31.625, 31.8125, 31.9375, 32.125, 32.375, 32.625, 32.875, 33, 33.0625, 33.3125, 33.5625, 33.8125, 34.125, 34.3125, 34.5625, 34.8125, 34.9375, 35.125, 35.375, 35.625, 35.875, 36.0625, 36.3125, 36.5625, 36.8125, 37, 37, 37.1875, 37.4375, 37.6875, 37.9375, 38.0625, 38.125, 38.375, 38.5, 38.6875, 39, 39.160713, 39.4375, 39.6875, 39.848213, 40.0625, 40.3125, 40.5625, 40.9375, 41.160713, 41.3125
43.125, 43.166664, 43.258926, 43.3125, 43.276787, 43.276787, 42.88393, 43, 42.875, 43, 43, 43, 42.9375, 42.875, 42.875, 42.678574, 42.375, 42.25, 42.0625, 42.1875, 42.1875, 42.1875, 42.3125, 42.3125, 42.375, 42.4375, 42.3125, 42.25, 42.1875, 42, 41.8125, 41.69643, 41.5625, 41.455784, 40.791664, 40.6875, 40.6875, 40.9375, 41.0625, 41.125, 41.25, 41.25, 41.1875, 41.125, 41, 41, 41, 41, 41, 41, 41, 40.8125, 40.625, 40.375, 40.1875, 40.3125, 40.375, 40.5, 40.5, 40.3125, 40.1875, 40.0625, 40.125, 40.3125, 40.357143, 39.997025, 39.973213, 39.9375, 40.125, 40.3125, 40.25, 40.1875, 40.026787, 39.583332, 39.357143, 39.1875, 38.928574, 38.75, 38.875, 38.982143, 39.125, 39.375, 39.5, 39.410713, 39.080357, 38.535713, 38.080357, 37.9375, 37.875, 37.875, 38, 38, 38.125, 38.25, 38.1875, 38.080357, 37.875, 37.75, 37.8125, 38.0625, 38.375, 38.375, 38.375, 38.1875, 38, 37.866074, 37.737499, 37.803574, 37.544643, 37.4375, 37.1875, 37, 37, 37, 37.0625, 37.125, 37.1875, 37.25, 37.25, 37.1875, 37.0625, 36.892857, 36.8125, 36.8125, 36.8125, 36.598213, 35.958336, 35.785713, 35.6875, 35.8125, 35.9375, 35.8125, 35.8125, 35.883926, 36.315475, 36.395832, 36.074402, 35.729168, 35.517857, 35.375, 35.3125, 35.1875, 35.0625, 35.0625, 35.0625, 35.125, 35.1875, 35.125, 35.125, 35.1875, 35.3125, 35.375, 35.25, 35.026787, 34.875, 34.75, 34.875, 34.875, 34.875, 34.75, 34.5625, 34.4375, 34.25, 34.375, 34.4375, 34.4375, 34.375, 34.1875, 34, 33.8125, 33.6875, 33.5, 33.4375, 33.3125, 33.1875, 33.25, 33.160713, 33.151787, 33.1875, 33.1875, 33.1875, 33.125, 33.3125, 33.223213, 33.214287, 33.25, 33.0625, 33.0625, 33, 32.9375, 32.9375, 32.875, 32.8125, 32.9375, 32.857143, 32.616074, 32.625, 32.3125, 32.3125, 32.1875, 32.0625, 32, 31.875, 31.9375, 31.973213, 32, 32.0625, 32, 31.9375, 31.75, 31.5, 31.205357, 31.0625, 31, 31, 31, 31, 31, 30.9375, 30.875, 30.875, 30.875, 30.875, 30.9375, 30.9375, 30.875, 30.8125, 30.6875, 30.5625, 30.5625, 30.6875, 30.8125, 30.75, 30.5625, 30.375, 30.1875, 30.1875, 30.1875, 30.0625, 30, 29.9375, 30, 30.125, 30.125, 30.125, 30.0625, 29.9375, 29.9375, 29.875, 29.625, 29.5, 29.3125, 29.125, 29.125, 29.125, 29.0625, 29.0625, 29.0625, 29, 29, 28.875, 28.875, 28.875, 28.8125, 28.8125, 28.6875, 28.6875, 28.625, 28.5625, 28.4375, 28.1875, 28.0625, 28, 28, 28, 28, 28, 28.25, 28.5, 28.75, 29.0625, 29.3125, 29.5625, 29.8125, 30, 30.0625, 30.125, 30.3125, 30.59375, 30.84375, 31.15625, 31.46875, 31.6875, 31.875, 32, 32.1875, 32.4375, 32.6875, 32.9375, 33, 33.0625, 33.25, 33.4375, 33.6875, 33.9375, 34.125, 34.4375, 34.6875, 34.875, 35.0625, 35.25, 35.5, 35.75, 36, 36.3125, 36.5625, 36.8125, 37, 37, 37.25, 37.5, 37.75, 38, 38.0625, 38.1875, 38.4375, 38.5625, 38.75, 38.9375, 39.035713, 39.3125, 39.5625, 39.848213, 40.0625, 40.3125, 40.5625, 40.875, 41.223213, 41.375, 41.625, 41.75, 41.875, 42.0625, 42.1875, 42.4375, 42.6875, 42.833336, -10, -10, -10, -10, -10, -10, -10, -10, -10, -10, -10, -10, -10, -10, -10, -10, -10, -10, -10, -10, -10, -10, -10, -10, -10, -10, -10, -10, -10, 43.125, 43.166664, 43.258926, 43.375, 43.375, 43.232143, 42.839287, 42.875, 42.8125, 43, 43, 43, 42.9375, 42.875, 42.875, 42.678574, 42.375, 42.25, 42.125, 42.25, 42.25, 42.25, 42.25, 42.1875, 42.1875, 42.25, 42.125, 42.125, 42.125, 41.9375, 41.8125, 41.75893, 41.6875, 41.384357, 41.041664, 40.9375, 40.9375, 41.125, 41.1875, 41.125, 41.125, 41.125, 41.0625, 41.0625, 41, 41, 41, 41, 41, 41, 41, 40.8125, 40.625, 40.375, 40.25, 40.4375, 40.5, 40.625, 40.5625, 40.3125, 40.1875, 40.0625, 40.125, 40.3125, 40.357143, 39.997025, 39.973213, 39.9375, 40.125, 40.375, 40.3125, 40.1875, 40.089287, 39.8125, 39.625, 39.5, 39.116074, 38.8125, 38.875, 38.857143, 38.9375, 39.1875, 39.1875, 39.160713, 38.955357, 38.580357, 38.267857, 38.125, 38, 37.9375, 38, 38, 38.125, 38.1875, 38.125, 38.017857, 37.8125, 37.75, 37.8125, 38, 38.25, 38.25, 38.25, 38.125, 38, 37.866074, 37.737499, 37.803574, 37.544643, 37.4375, 37.125, 36.9375, 36.9375, 36.9375, 37, 37, 37, 37.0625, 37.035713, 36.892857, 36.892857, 36.875, 36.875, 36.875, 36.75, 36.491074, 36.041668, 35.892857, 35.8125, 35.875, 36, 36, 36, 36.071426, 36.440475, 36.395832, 36.145832, 36.0625, 35.9375, 35.875, 35.732143, 35.4375, 35.25, 35.0625, 35.0625, 35.125, 35.25, 35.25, 35.3125, 35.375, 35.4375, 35.5, 35.3125, 34.964287, 34.75, 34.5625, 34.6875, 34.75, 34.75, 34.75, 34.5625, 34.4375, 34.375, 34.5, 34.5625, 34.5625, 34.4375, 34.125, 33.875, 33.625, 33.5625, 33.5, 33.5625, 33.5, 33.3125, 33.375, 33.285713, 33.276787, 33.3125, 33.25, 33.1875, 33.125, 33.25, 33.098213, 33.026787, 33.0625, 32.9375, 33, 33, 32.9375, 32.9375, 32.8125, 32.75, 32.875, 32.794643, 32.616074, 32.625, 32.3125, 32.3125, 32.1875, 32.0625, 32, 31.875, 31.9375, 31.973213, 32, 32.0625, 32, 31.9375, 31.75, 31.5, 31.205357, 31.0625, 31, 31, 31.0625, 31.0625, 31.0625, 30.9375, 30.8125, 30.8125, 30.8125, 30.8125, 30.875, 30.875, 30.875, 30.9375, 30.8125, 30.6875, 30.6875, 30.75, 30.875, 30.875, 30.625, 30.4375, 30.25, 30.1875, 30.1875, 30.125, 30.125, 30.0625, 30.0625, 30.089287, 30.0625, 30.0625, 30, 29.8125, 29.8125, 29.75, 29.625, 29.5, 29.25, 29.0625, 29, 29, 29, 29, 29, 29, 29, 28.875, 28.875, 28.875, 28.875, 28.9375, 28.875, 28.875, 28.8125, 28.6875, 28.5, 28.25, 28.0625, 28.0625, 28.0625, 28.0625, 28.0625, 28.0625, 28.3125, 28.5625, 28.8125, 29.0625, 29.25, 29.5, 29.75, 29.9375, 30, 30, 30.1875, 30.46875, 30.78125, 31.15625, 31.46875, 31.6875, 31.875, 32, 32.25, 32.5, 32.75, 33, 33, 33.0625, 33.25, 33.4375, 33.6875, 33.9375, 34.125, 34.4375, 34.6875, 34.875, 35, 35.125, 35.375, 35.625, 35.9375, 36.3125, 36.5625, 36.8125, 37, 37, 37.25, 37.5, 37.75, 38, 38.0625, 38.1875, 38.4375, 38.625, 38.8125, 39, 39.098213, 39.3125, 39.5625, 39.848213, 40.0625, 40.3125, 40.5625, 40.8125, 41.160713, 41.375
43.25, 43.333332, 43.446426, 43.625, 43.6875, 43.544643, 43.089287, 43, 42.875, 43, 43, 43, 42.9375, 42.875, 42.875, 42.741074, 42.5625, 42.473213, 42.339287, 42.4375, 42.3125, 42.3125, 42.1875, 42.0625, 42.125, 42.1875, 42.125, 42.1875, 42.125, 41.9375, 41.875, 41.803574, 41.541668, 41.455357, 41.145832, 41.0625, 41.0625, 41.125, 41.1875, 41.125, 41.0625, 41.0625, 41, 41, 41, 41, 41, 41, 41, 41, 41, 40.8125, 40.625, 40.375, 40.3125, 40.4375, 40.4375, 40.5, 40.375, 40.1875, 40.125, 40.0625, 40.0625, 40.1875, 40.232143, 39.934525, 39.973213, 39.9375, 40.151787, 40.482143, 40.491074, 40.4375, 40.214287, 39.8125, 39.526787, 39.375, 39.053574, 38.8125, 38.8125, 38.857143, 38.9375, 39.125, 39.125, 39.035713, 38.892857, 38.758926, 38.625, 38.5, 38.375, 38.1875, 38.125, 38.0625, 38.125, 38.1875, 38.1875, 38.080357, 37.9375, 37.9375, 38.044643, 38.125, 38.25, 38.125, 38.0625, 38, 37.9375, 37.866074, 37.737499, 37.928574, 37.794643, 37.696426, 37.125, 36.794643, 36.75, 36.8125, 36.9375, 37, 37, 37.0625, 36.973213, 36.767857, 36.767857, 36.75, 36.75, 36.75, 36.5625, 36.3125, 36.1875, 36.0625, 36, 36, 36.0625, 36.1875, 36.160713, 36.133926, 36.440475, 36.270832, 36.052082, 35.90625, 35.866074, 35.946426, 35.901787, 35.6875, 35.5, 35.25, 35.1875, 35.1875, 35.3125, 35.3125, 35.375, 35.375, 35.3125, 35.3125, 35.125, 34.776787, 34.5625, 34.4375, 34.5625, 34.625, 34.625, 34.5625, 34.375, 34.3125, 34.3125, 34.5, 34.5, 34.4375, 34.3125, 34, 33.75, 33.5625, 33.5, 33.5, 33.6875, 33.625, 33.5, 33.5, 33.410713, 33.401787, 33.375, 33.3125, 33.1875, 33.125, 33.1875, 32.973213, 32.901787, 32.9375, 32.875, 33, 33, 32.9375, 32.875, 32.75, 32.75, 32.875, 32.9375, 32.901787, 32.875, 32.5625, 32.4375, 32.25, 32.0625, 32, 31.875, 31.9375, 31.973213, 32, 32.0625, 32, 32, 31.875, 31.625, 31.392857, 31.1875, 31.0625, 31.0625, 31.0625, 31.0625, 31.0625, 30.9375, 30.8125, 30.75, 30.6875, 30.625, 30.696428, 30.875, 30.875, 31.0625, 30.9375, 30.875, 30.8125, 30.75, 30.8125, 30.75, 30.5625, 30.375, 30.1875, 30.0625, 30.0625, 30.125, 30.1875, 30.25, 30.241072, 30.026787, 30, 29.9375, 29.875, 29.6875, 29.6875, 29.6875, 29.625, 29.5625, 29.3125, 29.0625, 29, 29, 29, 29, 29, 29, 28.9375, 28.8125, 28.8125, 28.8125, 28.875, 29, 29, 28.9375, 28.875, 28.6875, 28.4375, 28.25, 28.125, 28.1875, 28.1875, 28.1875, 28.125, 28.0625, 28.3125, 28.5625, 28.8125, 29.0625, 29.25, 29.5, 29.75, 29.9375, 30, 30.0625, 30.25, 30.53125, 30.84375, 31.09375, 31.40625, 31.625, 31.8125, 32, 32.25, 32.5, 32.75, 33, 33, 33, 33.1875, 33.375, 33.625, 33.9375, 34.1875, 34.5, 34.75, 34.9375, 35, 35.0625, 35.3125, 35.5625, 35.875, 36.3125, 36.5625, 36.8125, 37, 37, 37.25, 37.5, 37.75, 38, 38.0625, 38.1875, 38.375, 38.625, 38.8125, 39, 39.1875, 39.4375, 39.75, 40.035713, 40.25, 40.5, 40.6875, 40.875, 41.125, 41.375, 41.625, 41.875, 42, 42.125, 42.375, 42.625, 42.875, 43, -10, -10, -10, -10, -10, -10, -10, -10, -10, -10, -10, -10, -10, -10, -10, -10, -10, -10, -10, -10, -10, -10, -10, -10, -10, -10, -10, -10, -10, 43.5, 43.5, 43.571426, 43.6875, 43.625, 43.5, 43.125, 43.0625, 43, 43.0625, 43.0625, 43, 42.875, 42.75, 42.75, 42.6875, 42.75, 42.660713, 42.616074, 42.625, 42.321426, 42.321426, 42.125, 42.125, 42.25, 42.3125, 42.25, 42.25, 42.125, 41.875, 41.8125, 41.678574, 41.291668, 41.258926, 41.125, 41.0625, 41.125, 41.125, 41.1875, 41.125, 41.125, 41.1875, 41.125, 41.125, 41.0625, 41, 41, 41, 41, 41, 41, 40.875, 40.75, 40.5625, 40.5, 40.5, 40.375, 40.3125, 40.1875, 40.0625, 40.0625, 40.0625, 40, 40, 40.0625, 39.955357, 40.017857, 40, 40.116074, 40.526787, 40.607143, 40.625, 40.401787, 39.9375, 39.616074, 39.4375, 39.178574, 38.9375, 38.875, 38.857143, 38.875, 39.0625, 39.0625, 39.0625, 39.0625, 39, 38.875, 38.75, 38.625, 38.375, 38.25, 38.0625, 38, 38.0625, 38.125, 38.1875, 38.125, 38.1875, 38.294643, 38.25, 38.1875, 37.892857, 37.8125, 37.8125, 37.875, 37.928574, 37.799999, 37.991074, 37.919643, 37.821426, 37.3125, 37.044643, 36.9375, 36.9375, 37, 37, 37, 37.0625, 36.973213, 36.767857, 36.830357, 36.875, 36.875, 36.8125, 36.589287, 36.4375, 36.544643, 36.482143, 36.229168, 36.133926, 36.0625, 36.25, 36.196426, 36.026787, 36.107143, 35.875, 35.90625, 35.78125, 35.741074, 35.892857, 36.026787, 35.875, 35.8125, 35.5, 35.375, 35.3125, 35.375, 35.3125, 35.375, 35.3125, 35.1875, 35.1875, 35.0625, 34.8125, 34.625, 34.5, 34.5625, 34.5625, 34.5, 34.4375, 34.1875, 34.1875, 34.3125, 34.5625, 34.625, 34.455357, 34.258926, 33.9375, 33.8125, 33.625, 33.5, 33.5625, 33.6875, 33.625, 33.5625, 33.4375, 33.285713, 33.214287, 33.1875, 33.125, 33.0625, 33.0625, 33.0625, 32.9375, 32.9375, 32.9375, 32.9375, 33, 32.9375, 32.875, 32.75, 32.696426, 32.875, 32.875, 32.9375, 32.875, 32.8125, 32.5625, 32.375, 32.1875, 32.0625, 32.035713, 31.901787, 31.875, 31.8125, 31.875, 31.9375, 32, 32, 31.875, 31.75, 31.6875, 31.4375, 31.3125, 31.1875, 31.0625, 31.0625, 31.125, 31.0625, 30.9375, 30.8125, 30.625, 30.5, 30.571428, 30.8125, 30.875, 31.0625, 31, 30.9375, 30.8125, 30.6875, 30.625, 30.625, 30.5, 30.375, 30.25, 30.0625, 30.0625, 30.125, 30.25, 30.3125, 30.303572, 30.089287, 29.9375, 29.8125, 29.75, 29.5625, 29.625, 29.625, 29.5625, 29.5, 29.25, 29.0625, 29, 29, 29, 29, 29, 29, 29, 28.910713, 28.839287, 28.875, 28.875, 28.9375, 28.875, 28.75, 28.625, 28.5, 28.375, 28.25, 28.1875, 28.25, 28.1875, 28.1875, 28.125, 28.0625, 28.3125, 28.5625, 28.8125, 29, 29.125, 29.375, 29.625, 29.875, 30.0625, 30.1875, 30.375, 30.625, 30.8125, 31, 31.3125, 31.5625, 31.8125, 32.0625, 32.3125, 32.5625, 32.8125, 33, 33.0625, 33.125, 33.3125, 33.5, 33.6875, 33.875, 34.0625, 34.375, 34.625, 34.875, 35, 35.0625, 35.3125, 35.5625, 35.875, 36.25, 36.5, 36.75, 36.9375, 37, 37.1875, 37.4375, 37.6875, 37.9375, 38.0625, 38.1875, 38.375, 38.625, 38.8125, 39, 39.25, 39.5, 39.75, 40, 40.25, 40.5, 40.75, 40.9375, 41.0625, 41.25
43.625, 43.666668, 43.6875, 43.6875, 43.553574, 43.166668, 43.017857, 43, 43.098213, 43.125, 43.125, 43, 42.9375, 42.875, 42.8125, 42.75, 42.75, 42.598213, 42.616074, 42.5625, 42.258926, 42.258926, 42.0625, 42.125, 42.3125, 42.375, 42.25, 42.1875, 42, 41.75, 41.75, 41.75, 41.5625, 41.625, 41.5, 41.3125, 41.375, 41.3125, 41.25, 41.1875, 41.1875, 41.160713, 41.017857, 41.041668, 41.0625, 41, 41.0625, 41, 41, 41, 41, 40.9375, 40.875, 40.75, 40.6875, 40.625, 40.4375, 40.3125, 40.125, 40, 40.0625, 40.0625, 40, 39.8125, 39.75, 39.75, 39.8125, 39.875, 39.928574, 40.276787, 40.419643, 40.5625, 40.4375, 40.0625, 39.741074, 39.5, 39.3125, 39.1875, 39.0625, 39, 38.9375, 39, 39, 39, 39, 39, 38.9375, 38.875, 38.8125, 38.5625, 38.375, 38.1875, 38.0625, 38.0625, 38.0625, 38, 37.9375, 38.0625, 38.232143, 38.25, 38.1875, 37.892857, 37.8125, 37.8125, 37.875, 37.9375, 37.9375, 38, 38, 37.946426, 37.5, 37.232143, 37.0625, 37, 37, 37, 37, 37.0625, 36.973213, 36.767857, 36.830357, 36.875, 36.875, 36.8125, 36.589287, 36.5, 36.732143, 36.669643, 36.1875, 36.0625, 35.9375, 36.25, 36.321426, 36.214287, 36.232143, 35.901787, 35.90625, 35.71875, 35.803574, 36.017857, 36.214287, 36.125, 36.0625, 35.75, 35.625, 35.5, 35.5625, 35.4375, 35.4375, 35.375, 35.1875, 35.1875, 35.125, 34.9375, 34.6875, 34.5625, 34.5625, 34.4375, 34.4375, 34.4375, 34.1875, 34.25, 34.375, 34.5, 34.5625, 34.392857, 34.196426, 33.9375, 33.8125, 33.625, 33.4375, 33.4375, 33.5625, 33.625, 33.723213, 33.625, 33.5625, 33.4375, 33.3125, 33.1875, 33.0625, 33.0625, 33.0625, 33.0625, 33, 33, 33, 33, 33, 32.910713, 32.642857, 32.651787, 32.8125, 32.875, 33, 32.875, 32.8125, 32.5625, 32.375, 32.25, 32.1875, 32.142857, 31.964287, 31.875, 31.75, 31.8125, 31.8125, 31.9375, 31.9375, 31.9375, 31.875, 31.8125, 31.625, 31.4375, 31.25, 31.125, 31.0625, 31.125, 31.0625, 31, 30.875, 30.6875, 30.625, 30.633928, 30.875, 30.9375, 31.0625, 31, 30.9375, 30.75, 30.5625, 30.4375, 30.5, 30.5, 30.4375, 30.375, 30.125, 30.0625, 30.125, 30.3125, 30.375, 30.303572, 30.089287, 29.875, 29.75, 29.75, 29.5625, 29.5625, 29.5, 29.4375, 29.375, 29.125, 28.9375, 28.875, 28.875, 28.875, 28.875, 28.892857, 29.083334, 29.178572, 29.160713, 29.026787, 29, 28.9375, 28.9375, 28.875, 28.75, 28.5625, 28.375, 28.25, 28.125, 28.125, 28.25, 28.1875, 28.1875, 28.125, 28.0625, 28.3125, 28.5625, 28.8125, 29, 29.0625, 29.3125, 29.5625, 29.8125, 30.0625, 30.25, 30.5, 30.75, 31, 31.1875, 31.4375, 31.6875, 31.875, 32.125, 32.375, 32.625, 32.875, 33, 33.125, 33.25, 33.5, 33.75, 33.875, 34, 34.125, 34.375, 34.625, 34.875, 35, 35.125, 35.375, 35.625, 35.875, 36.125, 36.3125, 36.5625, 36.8125, 36.9375, 37.125, 37.375, 37.625, 37.875, 38.0625, 38.1875, 38.375, 38.625, 38.8125, 39.0625, 39.375, 39.625, 39.875, 40, 40.1875, 40.4375, 40.6875, 40.9375, 41, 41.125, 41.25, 41.5, 41.75, 42, 42.375, 42.625, 42.875, 43, -10, -10, -10, -10, -10, -10, -10, -10, -10, -10, -10, -10, -10, -10, -10, -10, -10, -10, -10, -10, -10, -10, -10, -10, -10, -10, -10, -10, -10, 43.75, 43.750004, 43.6875, 43.625, 43.598213, 43.211311, 43.142857, 43.1875, 43.223213, 43.25, 43.1875, 43, 42.9375, 42.875, 42.8125, 42.6875, 42.6875, 42.535713, 42.553574, 42.625, 42.321426, 42.258926, 42.0625, 42.232143, 42.491074, 42.5625, 42.4375, 42.25, 41.9375, 41.75, 41.75, 41.8125, 41.6875, 41.6875, 41.4375, 41.1875, 41.1875, 41.1875, 41.1875, 41.1875, 41.25, 41.098213, 40.892857, 40.916668, 40.9375, 40.9375, 41.0625, 41, 41, 40.9375, 40.875, 40.8125, 40.75, 40.75, 40.75, 40.6875, 40.5, 40.3125, 40.125, 40, 40.0625, 40.0625, 40, 39.75, 39.6875, 39.6875, 39.75, 39.875, 39.928574, 40.214287, 40.357143, 40.5, 40.375, 40.125, 39.866074, 39.625, 39.4375, 39.3125, 39.125, 39.0625, 39, 39, 39.0625, 39.0625, 39.0625, 39.0625, 39, 39, 39, 38.8125, 38.625, 38.4375, 38.3125, 38.25, 38.1875, 38.125, 38, 38.125, 38.294643, 38.25, 38.1875, 37.892857, 37.8125, 37.8125, 37.875, 37.9375, 37.9375, 38, 38.0625, 38.008926, 37.625, 37.357143, 37.125, 37.0625, 37, 37, 37, 37, 36.875, 36.8125, 36.875, 36.9375, 36.9375, 36.8125, 36.589287, 36.5, 36.732143, 36.669643, 36.1875, 36.0625, 35.9375, 36.25, 36.383926, 36.276787, 36.294643, 35.964287, 35.90625, 35.71875, 35.678574, 35.830357, 36.044643, 36.0625, 36.0625, 35.8125, 35.6875, 35.5625, 35.625, 35.5, 35.3125, 35.151787, 34.9375, 34.9375, 35, 34.875, 34.75, 34.6875, 34.625, 34.5, 34.5, 34.4375, 34.25, 34.375, 34.375, 34.4375, 34.5, 34.267857, 34.133926, 34, 33.9375, 33.8125, 33.5625, 33.4375, 33.5, 33.5, 33.723213, 33.6875, 33.5625, 33.4375, 33.25, 33.1875, 33.1875, 33.1875, 33.1875, 33.125, 33, 33, 33, 33, 32.928574, 32.660713, 32.392857, 32.401787, 32.6875, 32.8125, 33, 32.875, 32.8125, 32.5625, 32.375, 32.25, 32.1875, 32.205357, 32, 31.767857, 31.642857, 31.625, 31.6875, 31.875, 31.875, 31.9375, 31.9375, 31.8125, 31.625, 31.5, 31.3125, 31.25, 31.1875, 31.1875, 31.125, 31.0625, 30.9375, 30.75, 30.6875, 30.696428, 30.9375, 31, 31.0625, 31, 31, 30.8125, 30.5625, 30.464287, 30.535713, 30.5625, 30.5625, 30.4375, 30.1875, 30.0625, 30.125, 30.3125, 30.375, 30.366072, 30.1875, 29.9375, 29.875, 29.9375, 29.794643, 29.604166, 29.446428, 29.25, 29.25, 29.035713, 28.767857, 28.732143, 28.71875, 28.78125, 28.78125, 28.830357, 29.020834, 29.178572, 29.285713, 29.151787, 29.0625, 28.830357, 28.8125, 28.75, 28.6875, 28.5, 28.3125, 28.1875, 28.0625, 28.125, 28.1875, 28.125, 28.125, 28.0625, 28, 28.25, 28.5, 28.75, 29, 29.0625, 29.3125, 29.5625, 29.8125, 30.0625, 30.25, 30.5, 30.75, 31, 31.1875, 31.4375, 31.6875, 31.875, 32.1875, 32.375, 32.5625, 32.8125, 32.875, 33.0625, 33.3125, 33.5625, 33.8125, 33.9375, 34, 34.0625, 34.3125, 34.5625, 34.8125, 35.0625, 35.1875, 35.4375, 35.6875, 35.875, 36.125, 36.3125, 36.5625, 36.8125, 36.9375, 37.0625, 37.3125, 37.5625, 37.8125, 38.0625, 38.25, 38.4375, 38.6875, 38.875, 39.125, 39.4375, 39.6875, 39.9375, 40, 40.1875, 40.4375, 40.6875, 40.9375, 41.0625, 41.1875
43.875, 43.750004, 43.625, 43.5, 43.410713, 43.086311, 43.080357, 43.25, 43.348213, 43.375, 43.3125, 43.0625, 42.9375, 42.875, 42.8125, 42.625, 42.5, 42.3125, 42.339287, 42.4375, 42.258926, 42.133926, 42.026787, 42.339287, 42.607143, 42.6875, 42.5, 42.25, 41.9375, 41.8125, 41.8125, 41.875, 41.6875, 41.5625, 41.3125, 41.0625, 41.125, 41.1875, 41.1875, 41.1875, 41.25, 41.098213, 40.892857, 40.916668, 40.9375, 40.9375, 41.0625, 41, 41, 40.875, 40.75, 40.625, 40.5625, 40.6875, 40.75, 40.8125, 40.625, 40.4375, 40.25, 40.0625, 40.125, 40.0625, 40.0625, 39.875, 39.8125, 39.8125, 39.8125, 39.9375, 39.964287, 40.107143, 40.178574, 40.25, 40.25, 40.098213, 39.866074, 39.6875, 39.4375, 39.3125, 39.125, 39, 38.9375, 38.9375, 39, 39.0625, 39.0625, 39.0625, 39, 39, 39, 38.875, 38.75, 38.625, 38.5, 38.375, 38.25, 38.1875, 38.0625, 38.125, 38.1875, 38.125, 38.0625, 37.892857, 37.875, 37.875, 37.9375, 37.9375, 37.9375, 37.9375, 37.9375, 37.9375, 37.8125, 37.625, 37.375, 37.1875, 37.0625, 37, 37, 37, 36.875, 36.875, 37, 37.098213, 37.125, 36.9375, 36.651787, 36.5625, 36.732143, 36.732143, 36.25, 36.125, 36.0625, 36.3125, 36.535713, 36.464287, 36.3125, 36.026787, 35.875, 35.75, 35.6875, 35.633926, 35.8125, 35.8125, 35.8125, 35.75, 35.625, 35.5625, 35.625, 35.4375, 35.1875, 35.026787, 34.875, 34.875, 35, 34.875, 34.8125, 34.75, 34.625, 34.5, 34.4375, 34.3125, 34.125, 34.205357, 34.333332, 34.428574, 34.5, 34.267857, 34.133926, 34, 34, 33.9375, 33.8125, 33.6875, 33.625, 33.517857, 33.660713, 33.6875, 33.5625, 33.4375, 33.25, 33.125, 33.1875, 33.1875, 33.1875, 33.125, 33, 33, 33, 33.0625, 32.991074, 32.723213, 32.517857, 32.464287, 32.75, 32.875, 33, 32.8125, 32.6875, 32.4375, 32.25, 32.1875, 32.1875, 32.205357, 32, 31.705357, 31.580357, 31.5625, 31.625, 31.875, 31.875, 31.875, 31.901787, 31.848213, 31.625, 31.517857, 31.3125, 31.25, 31.25, 31.25, 31.125, 31.026787, 30.9375, 30.8125, 30.875, 30.875, 30.9375, 31, 31, 31, 31, 30.9375, 30.75, 30.714287, 30.785713, 30.6875, 30.580357, 30.375, 30.1875, 30.125, 30.1875, 30.375, 30.3125, 30.25, 30.1875, 29.9375, 29.9375, 30, 29.919643, 29.666666, 29.446428, 29.1875, 29.1875, 29.098213, 28.875, 28.732143, 28.71875, 28.71875, 28.78125, 28.830357, 29.020834, 29.241072, 29.410713, 29.276787, 29.1875, 28.892857, 28.75, 28.625, 28.5625, 28.375, 28.25, 28.1875, 28.0625, 28.125, 28.125, 28.0625, 28.0625, 28, 28, 28.1875, 28.4375, 28.6875, 28.9375, 29, 29.25, 29.5, 29.75, 30.0625, 30.1875, 30.4375, 30.6875, 30.9375, 31.1875, 31.375, 31.625, 31.8125, 32.125, 32.3125, 32.4375, 32.6875, 32.75, 33, 33.375, 33.625, 33.875, 34, 34, 34, 34.25, 34.5, 34.75, 35.125, 35.25, 35.4375, 35.6875, 35.8125, 36.0625, 36.3125, 36.5625, 36.8125, 36.9375, 37.0625, 37.3125, 37.5625, 37.8125, 38.0625, 38.25, 38.5, 38.75, 38.9375, 39.1875, 39.4375, 39.6875, 39.9375, 40, 40.1875, 40.4375, 40.6875, 40.9375, 41.125, 41.25, 41.375, 41.625, 41.8125, 42, 42.375, 42.625, 42.9375, 43.166664, -10, -10, -10, -10, -10, -10, -10, -10, -10, -10, -10, -10, -10, -10, -10, -10, -10, -10, -10, -10, -10, -10, -10, -10, -10, -10, -10, -10, -10, 43.875, 43.750004, 43.5625, 43.375, 43.25, 42.961311, 43.017857, 43.1875, 43.348213, 43.348213, 43.214287, 43.0625, 42.9375, 43, 42.9375, 42.75, 42.5625, 42.3125, 42.25, 42.25, 42.1875, 42.0625, 41.964287, 42.151787, 42.357143, 42.4375, 42.3125, 42.1875, 41.9375, 41.875, 41.875, 41.9375, 41.8125, 41.6875, 41.5, 41.25, 41.25, 41.25, 41.1875, 41.25, 41.25, 41.035713, 40.830357, 40.791668, 40.875, 40.9375, 41.0625, 41, 41, 40.875, 40.6875, 40.5625, 40.4375, 40.5, 40.6875, 40.8125, 40.75, 40.6875, 40.4375, 40.1875, 40.1875, 40.0625, 40.0625, 39.9375, 39.875, 39.875, 39.875, 40, 40, 40, 40, 39.9375, 39.875, 39.67857, 39.526787, 39.4375, 39.25, 39.1875, 39.0625, 39, 39.0625, 39.0625, 39.0625, 39.0625, 39, 39, 39, 39, 39, 38.9375, 38.875, 38.875, 38.75, 38.5625, 38.375, 38.1875, 38.0625, 38.0625, 38.125, 38.035713, 37.892857, 37.892857, 37.875, 37.9375, 38, 37.9375, 37.9375, 37.9375, 37.875, 37.8125, 37.625, 37.375, 37.1875, 37.0625, 37, 37, 37.0625, 37.0625, 36.9375, 36.9375, 36.9375, 37.035713, 37.035713, 36.767857, 36.508926, 36.3125, 36.4375, 36.4375, 36.145832, 36.116074, 36.0625, 36.1875, 36.4375, 36.4375, 36.25, 36.089287, 35.875, 35.75, 35.6875, 35.5625, 35.5625, 35.5625, 35.5, 35.5625, 35.5, 35.5, 35.5625, 35.375, 35.125, 34.964287, 34.875, 34.8125, 34.9375, 34.8125, 34.75, 34.6875, 34.5, 34.375, 34.3125, 34.25, 34.125, 34.205357, 34.270832, 34.241074, 34.25, 34.125, 34.0625, 34, 34, 34, 33.9375, 33.8125, 33.75, 33.580357, 33.723213, 33.8125, 33.6875, 33.5, 33.25, 33.232143, 33.294643, 33.3125, 33.25, 33.125, 33, 33, 33, 33.125, 33.116074, 32.910713, 32.767857, 32.642857, 32.75, 32.875, 33, 32.875, 32.6875, 32.4375, 32.1875, 32.1875, 32.1875, 32.232143, 32.098213, 31.705357, 31.642857, 31.5625, 31.625, 31.9375, 31.9375, 32, 32.026787, 31.910713, 31.6875, 31.517857, 31.3125, 31.25, 31.3125, 31.3125, 31.1875, 31.089287, 31, 30.9375, 31, 31, 31, 31, 31, 31, 31, 31, 30.875, 30.901787, 30.973213, 30.8125, 30.642857, 30.375, 30.1875, 30.1875, 30.223213, 30.205357, 30.142857, 30.0625, 30.0625, 30, 30.0625, 30.125, 30.044643, 29.666666, 29.446428, 29.25, 29.3125, 29.276787, 28.791666, 28.625, 28.59375, 28.65625, 28.78125, 28.830357, 29.020834, 29.178572, 29.375, 29.3125, 29.1875, 28.955357, 28.75, 28.625, 28.5625, 28.375, 28.25, 28.125, 28.0625, 28.1875, 28.1875, 28.1875, 28.125, 28, 28, 28.125, 28.375, 28.625, 28.875, 29.0625, 29.3125, 29.5625, 29.8125, 30, 30.0625, 30.3125, 30.5625, 30.875, 31.125, 31.3125, 31.5625, 31.75, 32.0625, 32.25, 32.375, 32.625, 32.75, 32.9375, 33.3125, 33.5625, 33.8125, 34, 34, 34, 34.1875, 34.4375, 34.6875, 35.0625, 35.25, 35.375, 35.625, 35.75, 36.0625, 36.375, 36.625, 36.875, 36.9375, 37.125, 37.375, 37.625, 37.875, 38, 38.125, 38.375, 38.625, 38.875, 39.1875, 39.375, 39.5625, 39.8125, 39.9375, 40.232143, 40.5625, 40.8125, 41, 41.25, 41.375
43.833332, 43.433334, 43.196426, 42.9375, 42.94643, 42.982143, 43.125, 43.25, 43.375, 43.321426, 43.116074, 43.0625, 42.875, 43, 43, 42.875, 42.75, 42.5625, 42.375, 42.375, 42.3125, 42.125, 42.026787, 42.151787, 42.232143, 42.25, 42.1875, 42.0625, 41.8125, 41.75, 41.75, 41.8125, 41.8125, 41.6875, 41.5, 41.25, 41.125, 41.125, 41.0625, 41.125, 41.125, 41, 40.9375, 40.875, 40.875, 40.9375, 41, 41, 41, 40.875, 40.6875, 40.5625, 40.375, 40.375, 40.5, 40.5625, 40.625, 40.6875, 40.5, 40.3125, 40.1875, 40, 40, 39.9375, 39.9375, 39.9375, 39.9375, 40, 40, 40, 40, 39.9375, 39.875, 39.61607, 39.464287, 39.375, 39.1875, 39.1875, 39.0625, 39, 39.0625, 39.0625, 39.0625, 39.0625, 39, 38.9375, 38.875, 38.875, 38.875, 38.9375, 39, 39, 38.9375, 38.723213, 38.392857, 38.196426, 38.0625, 38.0625, 38.1875, 38.071426, 37.857143, 37.892857, 37.8125, 37.9375, 37.9375, 37.875, 37.875, 37.875, 37.875, 37.75, 37.5, 37.25, 37.125, 37.0625, 37.0625, 37.0625, 37.0625, 37, 36.875, 36.875, 36.875, 37.035713, 36.973213, 36.642857, 36.321426, 36.0625, 36.1875, 36.3125, 36.3125, 36.3125, 36.25, 36.25, 36.4375, 36.4375, 36.3125, 36.1875, 35.9375, 35.75, 35.5625, 35.375, 35.3125, 35.3125, 35.25, 35.3125, 35.25, 35.25, 35.3125, 35.1875, 35, 34.839287, 34.8125, 34.75, 34.875, 34.8125, 34.8125, 34.6875, 34.4375, 34.3125, 34.125, 34.0625, 34, 34.080357, 34.208332, 34.241074, 34.25, 34.125, 34.0625, 34, 34, 34, 34, 33.9375, 33.875, 33.642857, 33.6875, 33.6875, 33.5625, 33.5, 33.3125, 33.357143, 33.357143, 33.25, 33.0625, 32.875, 32.821426, 33.083332, 33.178574, 33.375, 33.241074, 33, 32.9375, 32.75, 32.875, 32.9375, 33, 32.875, 32.625, 32.375, 32.1875, 32.1875, 32.1875, 32.25, 32.160713, 31.767857, 31.767857, 31.6875, 31.75, 32, 32, 32, 32.026787, 31.973213, 31.75, 31.580357, 31.375, 31.3125, 31.375, 31.4375, 31.3125, 31.151787, 31.125, 31, 31.0625, 31.0625, 31, 31, 31, 31, 31, 31.0625, 31, 31.089287, 31.160713, 30.875, 30.642857, 30.3125, 30.125, 30.1875, 30.223213, 30.142857, 30.080357, 30, 30, 30, 30.0625, 30.0625, 30.044643, 29.729166, 29.571428, 29.5, 29.5, 29.464287, 28.979166, 28.75, 28.71875, 28.78125, 28.90625, 28.9375, 28.9375, 29, 29.125, 29.0625, 29, 28.830357, 28.625, 28.5, 28.4375, 28.25, 28.1875, 28.125, 28.0625, 28.1875, 28.1875, 28.1875, 28.125, 28, 28, 28.125, 28.375, 28.625, 28.9375, 29.1875, 29.4375, 29.6875, 29.875, 30, 30, 30.25, 30.5, 30.75, 31.0625, 31.25, 31.5, 31.75, 32, 32.1875, 32.3125, 32.5625, 32.75, 32.875, 33.25, 33.5, 33.75, 34, 34, 34, 34.125, 34.375, 34.625, 35, 35.25, 35.3125, 35.5625, 35.6875, 36, 36.4375, 36.6875, 36.9375, 37, 37.1875, 37.4375, 37.6875, 37.9375, 38, 38.0625, 38.3125, 38.5625, 38.8125, 39.125, 39.3125, 39.410713, 39.526787, 39.75, 40.160713, 40.535713, 40.8125, 41, 41.1875, 41.375, 41.625, 41.875, 42.0625, 42.1875, 42.4375, 42.6875, 43, 43.249996, -10, -10, -10, -10, -10, -10, -10, -10, -10, -10, -10, -10, -10, -10, -10, -10, -10, -10, -10, -10, -10, -10, -10, -10, -10, -10, -10, -10, -10, 43.583332, 43.350002, 43.169643, 42.901787, 42.839287, 42.8125, 42.9375, 43.0625, 43.25, 43.196426, 43.053574, 43.0625, 42.875, 43, 43, 42.9375, 42.8125, 42.625, 42.375, 42.25, 42.1875, 42.0625, 42.026787, 42.044643, 42.053574, 42.0625, 42.0625, 42.125, 41.973213, 41.767857, 41.767857, 41.75, 41.8125, 41.8125, 41.6875, 41.5, 41.3125, 41.25, 41.125, 41.125, 41.125, 41.0625, 41.0625, 41, 41, 41, 41, 41, 41, 40.9375, 40.8125, 40.75, 40.625, 40.5, 40.5, 40.5, 40.5625, 40.6875, 40.5625, 40.375, 40.1875, 40, 40, 40, 40, 40, 40, 40, 40, 40, 40, 39.9375, 39.875, 39.55357, 39.339287, 39.25, 39.0625, 39.125, 39.0625, 39, 39.0625, 39.0625, 39.0625, 39.0625, 39.0625, 39, 38.9375, 38.9375, 38.875, 38.9375, 39, 39, 39, 38.821426, 38.410713, 38.142857, 38, 38, 38.125, 38.071426, 37.857143, 37.892857, 37.8125, 37.9375, 37.9375, 37.8125, 37.8125, 37.8125, 37.75, 37.6875, 37.4375, 37.25, 37.25, 37.1875, 37.1875, 37.125, 37.0625, 37, 36.9375, 36.9375, 36.9375, 37.098213, 37.035713, 36.705357, 36.383926, 36.125, 36.25, 36.4375, 36.4375, 36.4375, 36.3125, 36.25, 36.357143, 36.25, 36.1875, 36.0625, 35.875, 35.625, 35.4375, 35.125, 35.0625, 35.0625, 35, 35.1875, 35.125, 35.125, 35.125, 35, 34.9375, 34.875, 34.875, 34.8125, 34.875, 34.875, 34.875, 34.6875, 34.4375, 34.3125, 34.0625, 34.080357, 34.125, 34.035713, 34.270832, 34.241074, 34.25, 34.125, 34.0625, 34, 34, 34, 34.0625, 34.0625, 34, 33.830357, 33.8125, 33.6875, 33.5625, 33.4375, 33.3125, 33.357143, 33.232143, 33.017857, 32.75, 32.5625, 32.633926, 33.020832, 33.285713, 33.5, 33.4375, 33.3125, 33.1875, 33.0625, 33.0625, 33.0625, 33.0625, 32.9375, 32.75, 32.5625, 32.375, 32.3125, 32.25, 32.1875, 32.125, 31.875, 31.875, 31.875, 31.875, 32.0625, 32.0625, 32, 32.026787, 32.035713, 31.875, 31.642857, 31.375, 31.1875, 31.1875, 31.3125, 31.25, 31.151787, 31.1875, 31.0625, 31.125, 31.125, 31, 31, 31, 31, 31, 31.0625, 31.0625, 31.125, 31.125, 30.8125, 30.517857, 30.25, 30.0625, 30.1875, 30.223213, 30.017857, 29.892857, 29.8125, 29.8125, 29.9375, 30, 29.875, 29.8125, 29.625, 29.5625, 29.5625, 29.5, 29.491072, 29.086309, 28.892857, 28.875, 28.875, 29, 29, 29, 28.9375, 28.9375, 28.875, 28.875, 28.9375, 28.6875, 28.5, 28.3125, 28.0625, 28.0625, 28.0625, 28.0625, 28.1875, 28.1875, 28.1875, 28.125, 28, 28, 28.125, 28.375, 28.625, 28.9375, 29.1875, 29.375, 29.625, 29.8125, 29.9375, 30, 30.25, 30.5625, 30.919643, 31.25, 31.4375, 31.625, 31.8125, 31.9375, 32.1875, 32.375, 32.625, 32.875, 32.9375, 33.25, 33.5, 33.75, 34, 34, 34, 34.125, 34.375, 34.625, 34.9375, 35.25, 35.3125, 35.5625, 35.75, 35.9375, 36.375, 36.625, 36.875, 37, 37.25, 37.5, 37.75, 38, 38, 38, 38.1875, 38.4375, 38.6875, 39, 39.1875, 39.285713, 39.401787, 39.75, 40.223213, 40.535713, 40.8125, 40.9375, 41.0625, 41.25
43.583332, 43.433334, 43.232143, 42.964287, 42.901787, 42.8125, 42.9375, 43, 43.125, 43.008926, 42.866074, 42.9375, 42.8125, 43, 43, 43, 42.875, 42.6875, 42.5, 42.375, 42.375, 42.375, 42.25, 42.0625, 41.9375, 41.875, 41.9375, 42.0625, 42.035713, 41.892857, 41.955357, 41.9375, 42, 42, 41.875, 41.6875, 41.4375, 41.3125, 41.125, 41.125, 41.125, 41.0625, 41.0625, 41, 41, 41, 41, 40.9375, 40.9375, 40.9375, 40.8125, 40.875, 40.75, 40.5625, 40.5625, 40.5, 40.5625, 40.625, 40.5, 40.3125, 40.125, 40, 40, 40, 40, 40, 40, 40, 39.9375, 39.9375, 39.9375, 39.875, 39.75, 39.392857, 39.1875, 39, 38.9375, 39.0625, 39.0625, 39.125, 39.1875, 39.125, 39.125, 39.0625, 39.0625, 39, 38.875, 38.875, 38.8125, 38.875, 39, 39.0625, 39.125, 38.946426, 38.49107, 38.267857, 38.0625, 38.0625, 38.1875, 38.071426, 37.794643, 37.830357, 37.75, 37.875, 37.9375, 37.75, 37.6875, 37.625, 37.5, 37.4375, 37.25, 37.125, 37.1875, 37.25, 37.25, 37.1875, 37.125, 37, 37, 37, 36.9375, 37, 36.910713, 36.580357, 36.321426, 36.125, 36.1875, 36.3125, 36.3125, 36.3125, 36.1875, 36.125, 36.169643, 36.0625, 36.0625, 35.9375, 35.75, 35.5, 35.25, 35, 34.9375, 35, 35, 35.125, 35.125, 35.0625, 35.0625, 35, 34.9375, 34.8125, 34.8125, 34.75, 34.8125, 34.9375, 34.9375, 34.75, 34.5, 34.375, 34.1875, 34.330357, 34.5, 34.330357, 34.375, 34.1875, 34.125, 34.0625, 34, 34, 34, 34, 34, 34, 34, 33.9375, 33.9375, 33.8125, 33.625, 33.5, 33.375, 33.482143, 33.339287, 32.910713, 32.571426, 32.375, 32.508926, 32.958332, 33.285713, 33.4375, 33.375, 33.1875, 33.0625, 33.0625, 33.098213, 33.125, 33.125, 33, 32.875, 32.75, 32.5625, 32.4375, 32.3125, 32.1875, 32.125, 31.9375, 31.9375, 31.9375, 31.9375, 32.0625, 32.0625, 32, 32, 31.9375, 31.875, 31.6875, 31.4375, 31.25, 31.125, 31.25, 31.3125, 31.25, 31.3125, 31.1875, 31.125, 31.1875, 31.0625, 31.0625, 31.0625, 31, 31, 31, 31, 31, 31, 30.8125, 30.5625, 30.3125, 30.0625, 30.0625, 30.035713, 29.767857, 29.642857, 29.625, 29.6875, 29.875, 30, 29.875, 29.8125, 29.625, 29.5625, 29.5625, 29.4375, 29.366072, 28.979166, 28.892857, 28.875, 28.9375, 29.0625, 29.125, 29.125, 29, 28.901787, 28.8125, 28.8125, 28.9375, 28.6875, 28.5, 28.3125, 28.0625, 28.0625, 28.0625, 28.0625, 28.125, 28.125, 28.125, 28.0625, 28, 28, 28.1875, 28.4375, 28.6875, 29.0625, 29.25, 29.4375, 29.6875, 29.8125, 29.9375, 30.0625, 30.3125, 30.625, 30.982143, 31.25, 31.4375, 31.625, 31.8125, 31.9375, 32.1875, 32.4375, 32.6875, 32.9375, 33, 33.1875, 33.375, 33.625, 33.875, 33.9375, 34, 34.0625, 34.3125, 34.5625, 34.8125, 35.25, 35.375, 35.625, 35.875, 36, 36.375, 36.625, 36.875, 37, 37.25, 37.5, 37.75, 38, 38, 38, 38.196426, 38.5625, 38.75, 39, 39.09375, 39.191963, 39.308037, 39.78125, 40.285713, 40.598213, 40.875, 40.9375, 41, 41.125, 41.375, 41.625, 41.875, 42.1875, 42.375, 42.625, 42.875, 43, -10, -10, -10, -10, -10, -10, -10, -10, -10, -10, -10, -10, -10, -10, -10, -10, -10, -10, -10, -10, -10, -10, -10, -10, -10, -10, -10, -10, -10, 43.333332, 43.183334, 43.044643, 42.901787, 42.9375, 42.875, 43, 43, 43.0625, 42.973213, 42.901787, 42.9375, 42.875, 43, 43, 43, 42.875, 42.75, 42.625, 42.5625, 42.625, 42.5625, 42.4375, 42.25, 42.0625, 42, 42, 42.0625, 42.035713, 41.955357, 42.017857, 42, 42.0625, 42, 41.875, 41.75, 41.5625, 41.4375, 41.25, 41.125, 41.0625, 41, 41, 41.0625, 41.0625, 41.0625, 41.0625, 40.875, 40.875, 40.875, 40.75, 40.8125, 40.6875, 40.5625, 40.5625, 40.5, 40.5, 40.5, 40.375, 40.25, 40.125, 40, 40, 40, 40, 40, 40, 40, 39.9375, 39.9375, 39.9375, 39.9375, 39.875, 39.6875, 39.5, 39.25, 39.125, 39.125, 39.0625, 39.125, 39.125, 39.0625, 39.0625, 39, 39.0625, 39, 38.875, 38.875, 38.8125, 38.875, 38.9375, 39, 39.125, 38.946426, 38.55357, 38.330357, 38.0625, 38.0625, 38.125, 38.035713, 37.839287, 37.8125, 37.75, 37.8125, 37.875, 37.6875, 37.5625, 37.4375, 37.3125, 37.3125, 37.1875, 37.125, 37.1875, 37.25, 37.25, 37.1875, 37.0625, 36.9375, 36.9375, 36.9375, 36.9375, 36.875, 36.75, 36.5, 36.25, 36.1875, 36.160713, 36.214287, 36.25, 36.1875, 36.1875, 36.1875, 36.232143, 36.0625, 36, 35.75, 35.5625, 35.375, 35.1875, 35, 35, 35.125, 35.125, 35.1875, 35.125, 35, 35, 35, 35, 34.848213, 34.776787, 34.8125, 34.8125, 35, 35, 34.8125, 34.5625, 34.4375, 34.3125, 34.455357, 34.6875, 34.517857, 34.5, 34.25, 34.125, 34.0625, 34, 34, 34, 34, 34, 34, 34, 34, 34, 33.875, 33.75, 33.625, 33.5, 33.4375, 33.232143, 32.785713, 32.508926, 32.375, 32.508926, 32.958332, 33.285713, 33.375, 33.3125, 33.0625, 32.9375, 33, 33.035713, 33.125, 33.125, 33, 32.9375, 32.875, 32.6875, 32.5, 32.3125, 32.125, 32.0625, 31.9375, 31.9375, 31.9375, 31.9375, 32.0625, 32.035713, 31.830357, 31.830357, 31.8125, 31.875, 31.75, 31.5, 31.375, 31.125, 31.1875, 31.25, 31.125, 31.25, 31.1875, 31.125, 31.1875, 31, 31, 31, 30.9375, 31, 31, 31, 31, 31, 30.875, 30.6875, 30.5, 30.25, 30.0625, 29.964287, 29.8125, 29.6875, 29.75, 29.75, 29.875, 30, 29.875, 29.8125, 29.6875, 29.625, 29.5625, 29.375, 29.3125, 29.125, 29, 28.892857, 28.875, 29, 29.232143, 29.25, 29.125, 28.901787, 28.6875, 28.6875, 28.8125, 28.6875, 28.5625, 28.375, 28.1875, 28.125, 28.125, 28.0625, 28, 28, 28, 28, 28, 28, 28.1875, 28.4375, 28.6875, 29.0625, 29.1875, 29.375, 29.625, 29.75, 29.9375, 30.125, 30.375, 30.6875, 31.044643, 31.25, 31.375, 31.5625, 31.75, 31.875, 32.125, 32.3125, 32.5625, 32.8125, 32.9375, 33.125, 33.25, 33.5, 33.75, 33.875, 34.0625, 34.125, 34.375, 34.625, 34.8125, 35.25, 35.4375, 35.6875, 36, 36.125, 36.4375, 36.6875, 36.875, 37, 37.25, 37.5, 37.75, 38, 38.0625, 38.125, 38.321426, 38.6875, 38.8125, 39, 39.09375, 39.254463, 39.370537, 39.78125, 40.178574, 40.410713, 40.6875, 40.8125, 40.875, 41
43.5, 43.583332, 43.473213, 43.339287, 43.25, 43.0625, 43.0625, 43, 43, 42.9375, 42.9375, 42.9375, 42.9375, 43, 43, 43, 42.803574, 42.5, 42.5, 42.482143, 42.625, 42.6875, 42.5, 42.375, 42.25, 42.125, 42.125, 42.125, 42.098213, 42.080357, 42.142857, 42.125, 42.125, 42.0625, 41.9375, 41.8125, 41.6875, 41.5, 41.3125, 41.1875, 41.125, 41.125, 41.1875, 41.3125, 41.3125, 41.25, 41.1875, 40.9375, 40.875, 40.875, 40.75, 40.75, 40.625, 40.5625, 40.5625, 40.5625, 40.5, 40.4375, 40.375, 40.3125, 40.3125, 40.1875, 40.125, 40.0625, 40, 40, 40, 40, 39.9375, 39.9375, 39.9375, 39.9375, 39.875, 39.6875, 39.5, 39.25, 39.125, 39.125, 39.0625, 39.125, 39.125, 39.0625, 39.0625, 39, 39.0625, 39.0625, 39, 39, 38.9375, 38.875, 38.8125, 38.875, 38.9375, 38.785713, 38.473213, 38.223213, 38, 38, 38.0625, 37.9375, 37.75, 37.6875, 37.6875, 37.75, 37.9375, 37.75, 37.5625, 37.375, 37.125, 37.125, 37.125, 37.098213, 37.089287, 37.1875, 37.125, 37.125, 37.0625, 37, 37, 37, 36.9375, 36.75, 36.625, 36.4375, 36.3125, 36.375, 36.285713, 36.214287, 36.1875, 36.0625, 36.125, 36.125, 36.107143, 35.875, 35.75, 35.5, 35.3125, 35.1875, 35.0625, 34.9375, 35, 35.125, 35.125, 35.1875, 35.125, 35, 35, 35, 35, 34.910713, 34.839287, 34.875, 34.9375, 35.0625, 35.0625, 34.9375, 34.75, 34.6875, 34.625, 34.767857, 34.9375, 34.767857, 34.6875, 34.375, 34.1875, 34.0625, 34, 34, 34, 34, 34, 34, 34, 34, 34, 33.9375, 33.75, 33.5625, 33.375, 33.3125, 33.169643, 32.848213, 32.696426, 32.5625, 32.75, 33, 33.294643, 33.3125, 33.25, 33, 32.875, 33, 33.035713, 33.125, 33.1875, 33.0625, 33, 32.964287, 32.6875, 32.4375, 32.25, 32, 32, 31.9375, 31.9375, 31.9375, 31.9375, 32.125, 32.071426, 31.723213, 31.651787, 31.625, 31.75, 31.6875, 31.5, 31.3125, 31.0625, 31.0625, 31.125, 31.0625, 31.0625, 31.0625, 31, 31.0625, 31, 30.9375, 30.875, 30.8125, 30.875, 30.9375, 31, 31, 30.9375, 30.8125, 30.625, 30.5, 30.3125, 30.0625, 29.857143, 29.6875, 29.5625, 29.6875, 29.75, 29.875, 30, 29.9375, 29.875, 29.6875, 29.5625, 29.4375, 29.3125, 29.375, 29.25, 29.125, 28.955357, 28.9375, 29.125, 29.357143, 29.375, 29.1875, 28.901787, 28.75, 28.75, 28.875, 28.8125, 28.6875, 28.4375, 28.25, 28.125, 28.0625, 28.0625, 28, 28, 28, 28, 28, 28, 28.125, 28.375, 28.625, 28.9375, 29.0625, 29.1875, 29.4375, 29.625, 29.875, 30.125, 30.375, 30.6875, 31.044643, 31.1875, 31.3125, 31.5, 31.6875, 31.875, 32.0625, 32.1875, 32.4375, 32.6875, 32.875, 33.125, 33.25, 33.5, 33.75, 33.875, 34.0625, 34.1875, 34.4375, 34.6875, 34.9375, 35.3125, 35.5625, 35.8125, 36.0625, 36.25, 36.5, 36.75, 36.9375, 37.0625, 37.3125, 37.5625, 37.8125, 38, 38.125, 38.25, 38.446426, 38.8125, 38.875, 39, 39.03125, 39.28125, 39.53125, 39.90625, 40.3125, 40.5, 40.75, 40.875, 41, 41.125, 41.375, 41.625, 41.8125, 42.125, 42.3125, 42.5625, 42.8125, 42.916668, -10, -10, -10, -10, -10, -10, -10, -10, -10, -10, -10, -10, -10, -10, -10, -10, -10, -10, -10, -10, -10, -10, -10, -10, -10, -10, -10, -10, -10, 43.625, 43.666668, 43.625, 43.625, 43.428574, 43.125, 43.0625, 42.9375, 43, 42.9375, 42.9375, 42.9375, 42.875, 42.9375, 42.9375, 42.875, 42.678574, 42.339287, 42.375, 42.419643, 42.625, 42.6875, 42.5, 42.4375, 42.375, 42.25, 42.25, 42.125, 42.0625, 42.1875, 42.25, 42.1875, 42.0625, 41.9375, 41.75, 41.625, 41.5625, 41.3125, 41.1875, 41.125, 41.125, 41.25, 41.375, 41.5, 41.4375, 41.3125, 41.125, 40.8125, 40.6875, 40.6875, 40.625, 40.625, 40.5625, 40.5, 40.5, 40.5, 40.375, 40.3125, 40.25, 40.25, 40.3125, 40.25, 40.25, 40.1875, 40.125, 40.0625, 40, 40, 39.9375, 39.9375, 39.9375, 39.9375, 39.875, 39.6875, 39.5625, 39.375, 39.25, 39.25, 39.125, 39.125, 39.125, 39.0625, 39.0625, 39, 39, 39, 38.9375, 38.9375, 38.9375, 38.875, 38.8125, 38.875, 38.8125, 38.625, 38.392857, 38.151787, 38, 38, 38.0625, 37.875, 37.6875, 37.625, 37.625, 37.75, 37.875, 37.6875, 37.4375, 37.1875, 37, 37, 37.0625, 37.098213, 37.026787, 37.125, 37.0625, 37.0625, 37.0625, 37, 37, 37, 36.875, 36.6875, 36.5, 36.375, 36.375, 36.5, 36.473213, 36.339287, 36.25, 36.0625, 36.0625, 36, 36.0625, 35.910713, 35.642857, 35.383926, 35.125, 35.0625, 35, 35, 35.0625, 35.1875, 35.1875, 35.1875, 35.125, 35, 35, 35, 35, 34.910713, 34.839287, 34.9375, 35.0625, 35.1875, 35.1875, 35.0625, 34.875, 34.8125, 34.8125, 34.875, 34.9375, 34.8125, 34.625, 34.375, 34.125, 34.0625, 34, 34, 34, 34, 34, 34, 34, 33.9375, 33.875, 33.875, 33.660713, 33.464287, 33.3125, 33.1875, 33.169643, 32.955357, 32.883926, 32.8125, 33, 33.125, 33.25, 33.25, 33.125, 33, 32.9375, 33, 33.098213, 33.1875, 33.3125, 33.241074, 33, 32.901787, 32.625, 32.5, 32.3125, 32.1875, 32.125, 32.0625, 32.125, 32.0625, 32.0625, 32.1875, 32.071426, 31.723213, 31.651787, 31.625, 31.75, 31.75, 31.625, 31.5, 31.25, 31.1875, 31.1875, 31.0625, 31.0625, 31.0625, 31, 31.142857, 31.25, 31.1875, 31.1875, 31, 31, 30.9375, 30.9375, 30.9375, 30.8125, 30.75, 30.5625, 30.4375, 30.3125, 30.0625, 29.857143, 29.75, 29.6875, 29.875, 29.9375, 30, 30, 29.9375, 29.9375, 29.75, 29.625, 29.4375, 29.25, 29.3125, 29.25, 29.1875, 29.017857, 29, 29.1875, 29.357143, 29.375, 29.25, 28.964287, 28.8125, 28.8125, 28.8125, 28.75, 28.625, 28.4375, 28.3125, 28.1875, 28.125, 28.0625, 28, 28, 28, 28, 28, 28, 28.125, 28.375, 28.625, 28.9375, 29.0625, 29.25, 29.5, 29.6875, 29.9375, 30.1875, 30.4375, 30.6875, 30.9375, 31, 31.133928, 31.5, 31.6875, 31.9375, 32, 32.125, 32.375, 32.625, 32.875, 33.0625, 33.1875, 33.4375, 33.6875, 33.875, 34.0625, 34.1875, 34.4375, 34.6875, 34.9375, 35.3125, 35.5625, 35.8125, 36.0625, 36.3125, 36.5625, 36.8125, 37.0625, 37.1875, 37.375, 37.5625, 37.6875, 37.8125, 38, 38.1875, 38.508926, 38.875, 38.9375, 39.0625, 39.09375, 39.34375, 39.59375, 39.90625, 40.1875, 40.4375, 40.6875, 40.875, 41.125, 41.25
43.625, 43.583336, 43.5, 43.464287, 43.303574, 43.0625, 43.0625, 43, 43.0625, 43.0625, 43.0625, 43, 42.9375, 42.9375, 42.875, 42.75, 42.616074, 42.339287, 42.5, 42.580357, 42.580357, 42.508926, 42.3125, 42.375, 42.375, 42.3125, 42.3125, 42.125, 42, 42.0625, 42.0625, 41.928574, 41.787498, 41.875, 41.666668, 41.479168, 41.5, 41.357143, 41.3125, 41.3125, 41.3125, 41.375, 41.5, 41.625, 41.5, 41.375, 41.1875, 40.8125, 40.625, 40.625, 40.5625, 40.5, 40.4375, 40.3125, 40.25, 40.25, 40.1875, 40.1875, 40.1875, 40.25, 40.3125, 40.3125, 40.375, 40.3125, 40.25, 40.125, 40, 40, 40, 40, 40, 40, 39.9375, 39.8125, 39.75, 39.5625, 39.375, 39.25, 39, 38.9375, 38.9375, 38.9375, 38.96875, 38.90625, 38.90625, 38.90625, 38.9375, 39, 39, 38.9375, 38.8125, 38.8125, 38.6875, 38.5, 38.3125, 38.026787, 37.9375, 37.9375, 38, 37.875, 37.75, 37.6875, 37.6875, 37.75, 37.75, 37.5625, 37.375, 37.25, 37.125, 37.125, 37.125, 37.098213, 37.026787, 37.0625, 37, 37, 37, 37, 37, 37, 36.875, 36.75, 36.5, 36.4375, 36.5, 36.5625, 36.598213, 36.464287, 36.3125, 36.125, 36.125, 36, 36.0625, 35.910713, 35.580357, 35.383926, 35.1875, 35.1875, 35.1875, 35.125, 35.125, 35.125, 35.125, 35.125, 35.0625, 35, 35, 35.0625, 35.1875, 35.223213, 35.214287, 35.3125, 35.375, 35.375, 35.3125, 35.1875, 35.0625, 35, 35, 35, 34.866074, 34.625, 34.4375, 34.1875, 34.125, 34.0625, 34.125, 34.125, 34.0625, 34.0625, 34, 34, 34, 33.875, 33.75, 33.75, 33.535713, 33.339287, 33.25, 33.0625, 33.0625, 33.0625, 33.125, 33.125, 33.25, 33.3125, 33.3125, 33.25, 33.125, 33.125, 33.0625, 33, 33.026787, 33.0625, 33.1875, 33.241074, 33, 32.901787, 32.6875, 32.625, 32.4375, 32.3125, 32.1875, 32.0625, 32.125, 32.0625, 32.0625, 32.1875, 32.071426, 31.785713, 31.714287, 31.6875, 31.8125, 31.8125, 31.6875, 31.625, 31.375, 31.25, 31.1875, 31.0625, 31.0625, 31.0625, 31.0625, 31.080357, 31.116072, 31, 31.035715, 30.857143, 30.875, 30.8125, 30.8125, 30.875, 30.848213, 30.75, 30.517857, 30.375, 30.25, 30.0625, 29.857143, 29.8125, 29.8125, 30, 30.0625, 30.0625, 29.9375, 29.8125, 29.8125, 29.6875, 29.625, 29.5, 29.3125, 29.375, 29.285713, 29.080357, 28.910713, 28.875, 29.0625, 29.232143, 29.25, 29.1875, 29, 28.875, 28.8125, 28.6875, 28.625, 28.5, 28.375, 28.3125, 28.1875, 28.125, 28.0625, 28, 28, 28, 28, 28, 28, 28.125, 28.375, 28.625, 28.875, 29, 29.1875, 29.4375, 29.6875, 29.9375, 30.1875, 30.4375, 30.6875, 30.9375, 31, 31.196428, 31.5625, 31.75, 32, 32, 32.125, 32.375, 32.625, 32.875, 33.0625, 33.25, 33.5, 33.75, 33.9375, 34.0625, 34.25, 34.5, 34.75, 35, 35.3125, 35.5625, 35.8125, 36.0625, 36.25, 36.5, 36.75, 37, 37.1875, 37.3125, 37.5, 37.625, 37.75, 38, 38.25, 38.5625, 38.8125, 38.9375, 39.0625, 39.1875, 39.375, 39.651787, 39.910713, 40.125, 40.4375, 40.625, 40.875, 41.1875, 41.375, 41.625, 41.875, 41.9375, 42.125, 42.375, 42.625, 42.875, 43, -10, -10, -10, -10, -10, -10, -10, -10, -10, -10, -10, -10, -10, -10, -10, -10, -10, -10, -10, -10, -10, -10, -10, -10, -10, -10, -10, -10, -10, 43.875, 43.916668, 43.75, 43.505955, 43.303574, 43, 43.0625, 43, 43.0625, 43.0625, 43.0625, 43, 42.9375, 42.9375, 42.875, 42.75, 42.616074, 42.339287, 42.5625, 42.705357, 42.6875, 42.571426, 42.4375, 42.5, 42.5625, 42.4375, 42.375, 42.125, 42, 42, 42, 41.866074, 41.724998, 41.875, 41.666668, 41.479168, 41.5, 41.419643, 41.375, 41.375, 41.375, 41.375, 41.5, 41.625, 41.5625, 41.419643, 41.174999, 40.958332, 40.508926, 40.508926, 40.4375, 40.375, 40.375, 40.25, 40.1875, 40.25, 40.25, 40.3125, 40.3125, 40.3125, 40.3125, 40.375, 40.5, 40.4375, 40.375, 40.1875, 40, 40, 40, 40, 39.9375, 39.875, 39.875, 39.75, 39.6875, 39.5625, 39.3125, 39.1875, 38.9375, 38.875, 38.875, 38.875, 38.90625, 38.78125, 38.799107, 38.989582, 39.116074, 39.1875, 39.125, 38.9375, 38.75, 38.75, 38.625, 38.5, 38.3125, 38.026787, 37.9375, 37.9375, 38, 37.875, 37.8125, 37.8125, 37.8125, 37.875, 37.75, 37.5, 37.3125, 37.1875, 37.1875, 37.1875, 37.1875, 37.223213, 37.089287, 37.1875, 37.1875, 37.1875, 37.1875, 37.125, 37.0625, 36.9375, 36.839287, 36.919643, 36.732143, 36.75, 36.75, 36.5625, 36.526787, 36.4375, 36.25, 36.1875, 36.125, 36, 36.0625, 35.973213, 35.642857, 35.508926, 35.375, 35.375, 35.375, 35.25, 35.125, 35, 35, 35.0625, 35.035713, 34.892857, 34.892857, 34.9375, 35.125, 35.25, 35.3125, 35.375, 35.4375, 35.375, 35.3125, 35.1875, 35.0625, 35, 34.9375, 34.9375, 34.741074, 34.5, 34.375, 34.125, 34.1875, 34.125, 34.25, 34.25, 34.125, 34.125, 34, 33.9375, 33.875, 33.6875, 33.5, 33.5, 33.285713, 33.151787, 33.125, 33, 33.0625, 33.0625, 33.0625, 33.089287, 33.285713, 33.3125, 33.375, 33.25, 33.125, 33.125, 33, 32.875, 32.839287, 32.8125, 33, 33.116074, 32.9375, 32.901787, 32.6875, 32.625, 32.4375, 32.3125, 32.1875, 32.125, 32.1875, 32.125, 32.125, 32.125, 32.035713, 31.892857, 31.821428, 31.8125, 31.875, 31.84375, 31.71875, 31.65625, 31.40625, 31.25, 31.125, 31, 31, 31, 31.0625, 31.080357, 31.178572, 30.714285, 30.678572, 30.794643, 30.75, 30.669643, 30.6625, 30.875, 30.848213, 30.75, 30.392857, 30.1875, 30.0625, 30, 29.892857, 29.875, 29.875, 30, 30.0625, 30.0625, 29.875, 29.776787, 29.848213, 29.6875, 29.6875, 29.5625, 29.375, 29.4375, 29.330357, 28.973213, 28.934523, 29, 29.125, 29.1875, 29.125, 29.0625, 29, 29, 28.9375, 28.8125, 28.625, 28.4375, 28.3125, 28.1875, 28.125, 28.0625, 28, 28, 28, 28, 28, 28, 28, 28.125, 28.375, 28.625, 28.875, 29, 29.1875, 29.4375, 29.6875, 29.9375, 30.125, 30.3125, 30.5625, 30.8125, 31, 31.321428, 31.6875, 31.875, 32.0625, 32.0625, 32.25, 32.5, 32.75, 32.9375, 33.0625, 33.3125, 33.5625, 33.8125, 34, 34, 34.25, 34.5, 34.75, 35.0625, 35.25, 35.5, 35.75, 36, 36.25, 36.5, 36.75, 37, 37.1875, 37.25, 37.4375, 37.5625, 37.6875, 37.9375, 38.125, 38.4375, 38.6875, 38.875, 39.0625, 39.25, 39.4375, 39.714287, 40.035713, 40.25, 40.5625, 40.75, 40.9375, 41.25, 41.5
43.458332, 43.604168, 43.5, 43.148811, 43.008926, 42.75, 42.9375, 43, 43.0625, 43.0625, 43.0625, 43, 42.9375, 42.9375, 42.875, 42.75, 42.6875, 42.589287, 42.75, 42.848213, 42.6875, 42.446426, 42.375, 42.4375, 42.5, 42.4375, 42.3125, 42.125, 42.0625, 42.0625, 42.0625, 41.866074, 41.724998, 41.8125, 41.666668, 41.541668, 41.5625, 41.607143, 41.491074, 41.229168, 41.205357, 41.125, 41.25, 41.375, 41.25, 41.107143, 40.862499, 40.645832, 40.258926, 40.258926, 40.1875, 40.25, 40.375, 40.232143, 40.174999, 40.366074, 40.366074, 40.5, 40.4375, 40.3125, 40.1875, 40.3125, 40.5, 40.5625, 40.553574, 40.1875, 39.9375, 39.8125, 39.8125, 39.75, 39.6875, 39.625, 39.625, 39.625, 39.625, 39.5625, 39.4375, 39.3125, 39.0625, 39, 39, 39, 39.09375, 39.03125, 39.049107, 39.239582, 39.303574, 39.3125, 39.1875, 38.9375, 38.75, 38.6875, 38.5625, 38.5625, 38.5, 38.205357, 38.071426, 38, 38, 37.9375, 37.9375, 37.875, 37.875, 37.875, 37.6875, 37.5, 37.3125, 37.1875, 37.1875, 37.1875, 37.125, 37.25, 37.1875, 37.3125, 37.375, 37.3125, 37.3125, 37.1875, 37.125, 36.9375, 36.901787, 37.044643, 36.919643, 36.9375, 36.8125, 36.5, 36.401787, 36.3125, 36.1875, 36.1875, 36.125, 36, 36.0625, 36.035713, 35.767857, 35.633926, 35.5, 35.4375, 35.375, 35.25, 35.1875, 35.125, 35.125, 35.25, 35.223213, 35.142857, 35.178574, 35.080357, 35.267857, 35.3125, 35.375, 35.4375, 35.375, 35.3125, 35.3125, 35.160713, 34.892857, 34.830357, 34.75, 34.8125, 34.678574, 34.375, 34.25, 34, 34.125, 34.125, 34.3125, 34.3125, 34.1875, 34.1875, 33.9375, 33.8125, 33.6875, 33.4375, 33.25, 33.25, 33.098213, 33.089287, 33.125, 33, 33.0625, 33, 33, 33.089287, 33.223213, 33.1875, 33.1875, 33.0625, 33, 33, 32.875, 32.6875, 32.651787, 32.6875, 32.8125, 32.928574, 32.8125, 32.8125, 32.75, 32.8125, 32.5625, 32.4375, 32.25, 32.125, 32.1875, 32.125, 32.125, 32.0625, 32, 32, 32.0625, 32.125, 32.125, 32.09375, 31.84375, 31.78125, 31.59375, 31.375, 31.25, 31.0625, 31.0625, 31.0625, 31.125, 31.142857, 31.178572, 30.875, 30.875, 30.732143, 30.6875, 30.607143, 30.6, 30.8125, 30.785713, 30.6875, 30.330357, 30.125, 30, 30, 30, 30, 30, 30.0625, 30.0625, 30.0625, 29.8125, 29.714287, 29.785713, 29.6875, 29.8125, 29.6875, 29.5, 29.5, 29.321426, 28.764881, 28.764881, 28.8125, 28.9375, 29.0625, 29, 29, 29, 29, 28.9375, 28.75, 28.5, 28.25, 28.125, 28.0625, 28.0625, 28.0625, 28, 28.0625, 28.0625, 28.0625, 28.0625, 28, 28, 28.125, 28.375, 28.625, 28.875, 29, 29.25, 29.5, 29.75, 30, 30.125, 30.25, 30.5, 30.75, 31, 31.383928, 31.75, 31.9375, 32.0625, 32.125, 32.375, 32.625, 32.875, 33, 33, 33.25, 33.5, 33.75, 34.0625, 34.125, 34.375, 34.625, 34.8125, 35, 35.125, 35.375, 35.625, 36, 36.3125, 36.5625, 36.8125, 37, 37.125, 37.125, 37.3125, 37.4375, 37.625, 37.875, 38.0625, 38.375, 38.625, 38.875, 39.0625, 39.25, 39.4375, 39.714287, 40.035713, 40.1875, 40.5, 40.6875, 40.875, 41.1875, 41.4375, 41.6875, 41.9375, 42, 42.1875, 42.4375, 42.6875, 42.9375, 43, -10, -10, -10, -10, -10, -10, -10, -10, -10, -10, -10, -10, -10, -10, -10, -10, -10, -10, -10, -10, -10, -10, -10, -10, -10, -10, -10, -10, 42, 43.166664, 43.3125, 43.1875, 42.863098, 42.86607, 42.75, 43, 43.0625, 43.0625, 43.0625, 43.0625, 43, 42.9375, 42.875, 42.8125, 42.75, 42.8125, 42.875, 43.0625, 43.160713, 42.9375, 42.633926, 42.5, 42.4375, 42.375, 42.3125, 42.1875, 42.125, 42.125, 42.125, 42.125, 41.928574, 41.849998, 41.9375, 41.854168, 41.791668, 41.875, 41.964287, 41.657738, 41.300598, 41.142857, 41, 41.0625, 41.1875, 41.0625, 40.919643, 40.737499, 40.520832, 40.196426, 40.196426, 40.0625, 40.1875, 40.3125, 40.294643, 40.362499, 40.616074, 40.678574, 40.8125, 40.6875, 40.4375, 40.25, 40.25, 40.375, 40.5, 40.491074, 40.1875, 39.9375, 39.6875, 39.625, 39.4375, 39.3125, 39.1875, 39.1875, 39.375, 39.544643, 39.5, 39.4375, 39.3125, 39.0625, 39.0625, 39.0625, 39, 39.09375, 39.03125, 39.049107, 39.302082, 39.366074, 39.375, 39.25, 38.875, 38.625, 38.5, 38.4375, 38.5625, 38.625, 38.455357, 38.321426, 38.1875, 38.125, 38, 37.964287, 37.9375, 37.758926, 37.696426, 37.571426, 37.575001, 37.321426, 37.258926, 37.1875, 37.1875, 37.125, 37.1875, 37.125, 37.3125, 37.375, 37.375, 37.375, 37.1875, 37.125, 36.9375, 36.964287, 37.107143, 37.107143, 37.098213, 36.767857, 36.383926, 36.151787, 36.0625, 36, 36.0625, 36.0625, 36, 36, 36, 35.875, 35.8125, 35.75, 35.6875, 35.5625, 35.375, 35.25, 35.1875, 35.1875, 35.3125, 35.348213, 35.205357, 35.303574, 35.267857, 35.392857, 35.4375, 35.4375, 35.375, 35.25, 35.125, 35.151787, 35.133926, 34.955357, 34.955357, 34.8125, 34.875, 34.678574, 34.375, 34.25, 34, 34.125, 34.125, 34.3125, 34.3125, 34.125, 34.0625, 33.75, 33.5625, 33.375, 33.1875, 33.0625, 33.0625, 33.0625, 33.125, 33.125, 33.0625, 33.0625, 33, 33, 33.089287, 33.160713, 33.125, 33.125, 33, 33.0625, 33, 32.875, 32.625, 32.464287, 32.5, 32.5, 32.625, 32.6875, 32.6875, 32.6875, 32.6875, 32.4375, 32.25, 32.1875, 32.125, 32.125, 32.125, 32.0625, 32, 32, 32, 32.0625, 32.125, 32.125, 32.09375, 31.84375, 31.71875, 31.53125, 31.3125, 31.1875, 31.0625, 31, 31, 31.0625, 31, 30.928572, 30.625, 30.5625, 30.544643, 30.5625, 30.607143, 30.6, 30.6875, 30.625, 30.5625, 30.30357, 30.1875, 30.0625, 30.0625, 30.0625, 30.0625, 30.0625, 30, 30, 29.9375, 29.6875, 29.651787, 29.723213, 29.75, 29.9375, 29.875, 29.75, 29.75, 29.508926, 28.827381, 28.764881, 28.75, 28.875, 29.0625, 29, 28.9375, 28.875, 28.8125, 28.75, 28.625, 28.4375, 28.25, 28.0625, 28, 28, 28, 28.0625, 28.1875, 28.1875, 28.1875, 28.125, 28, 28, 28.0625, 28.3125, 28.5625, 28.8125, 29, 29.1875, 29.4375, 29.6875, 29.9375, 30.0625, 30.125, 30.375, 30.625, 31, 31.4375, 31.6875, 31.9375, 32, 32.125, 32.375, 32.625, 32.875, 33, 33, 33.25, 33.5, 33.75, 34.125, 34.25, 34.5, 34.75, 34.875, 35, 35.125, 35.375, 35.625, 36, 36.25, 36.4375, 36.6875, 36.8125, 36.9375, 37, 37.25, 37.5, 37.75, 38, 38.1875, 38.4375, 38.6875, 38.9375, 39.0625, 39.25, 39.4375, 39.714287, 40.035713, 40.1875, 40.5, 40.6875, 40.875, 41.1875, 41.4375
42.791664, 43.0625, 43.0625, 42.898811, 43.261902, 43.145832, 43.166668, 43.142857, 43.0625, 43.0625, 43.0625, 43, 42.875, 42.75, 42.75, 42.75, 42.875, 43.0625, 43.125, 43.125, 42.9375, 42.625, 42.5, 42.375, 42.3125, 42.25, 42.125, 42.125, 42.125, 42.125, 42.125, 42, 42, 41.875, 41.8125, 41.8125, 41.75, 41.732143, 41.407738, 40.988098, 40.892857, 40.875, 40.9375, 41.0625, 41, 40.857143, 40.674999, 40.520832, 40.196426, 40.133926, 40, 40.1875, 40.375, 40.482143, 40.612499, 40.803574, 40.866074, 41, 40.8125, 40.5625, 40.3125, 40.1875, 40.25, 40.375, 40.366074, 40.125, 39.875, 39.5625, 39.4375, 39.1875, 39.0625, 38.875, 38.875, 39.0625, 39.232143, 39.375, 39.375, 39.3125, 39.1875, 39.125, 39.125, 39.0625, 39.125, 39.125, 39.142857, 39.395832, 39.428574, 39.375, 39.1875, 38.75, 38.4375, 38.25, 38.25, 38.375, 38.5, 38.392857, 38.258926, 38.25, 38.25, 38.1875, 38.214287, 38.116074, 37.675594, 37.651787, 37.482143, 37.405357, 37.151787, 37.008926, 37.0625, 37.125, 37.125, 37.25, 37.0625, 37.276787, 37.482143, 37.553574, 37.553574, 37.1875, 37.125, 36.875, 36.964287, 37.107143, 37.169643, 37.160713, 36.830357, 36.446426, 36.151787, 36, 36, 36.0625, 36.0625, 36.0625, 36, 36, 35.9375, 35.875, 35.8125, 35.6875, 35.5, 35.375, 35.25, 35.25, 35.25, 35.3125, 35.348213, 35.205357, 35.366074, 35.330357, 35.455357, 35.4375, 35.3125, 35.1875, 35, 34.9375, 35.026787, 35.071426, 34.892857, 34.892857, 34.75, 34.75, 34.625, 34.4375, 34.25, 34.0625, 34.0625, 34.0625, 34.1875, 34.1875, 34, 33.875, 33.5625, 33.3125, 33.1875, 33.125, 33.125, 33.1875, 33.25, 33.25, 33.1875, 33.125, 33.0625, 33, 32.9375, 32.964287, 33.035713, 33, 33.0625, 33, 33.0625, 32.9375, 32.8125, 32.6875, 32.5625, 32.5625, 32.455357, 32.4375, 32.4375, 32.4375, 32.4375, 32.4375, 32.25, 32.125, 32.125, 32.125, 32.125, 32.125, 32.0625, 32, 32, 32, 32.0625, 32.125, 32.0625, 32.03125, 31.84375, 31.65625, 31.53125, 31.3125, 31.125, 31, 30.9375, 30.9375, 31, 31, 31, 30.875, 30.75, 30.6875, 30.75, 30.794643, 30.725, 30.541666, 30.339287, 30.25, 30.160713, 30.125, 30.0625, 30, 30, 30, 30, 30, 30, 29.875, 29.6875, 29.776787, 29.883926, 29.9375, 30.125, 30, 29.875, 29.875, 29.660713, 29.122025, 29.059525, 29, 29, 29.0625, 29, 28.875, 28.75, 28.6875, 28.6875, 28.625, 28.5, 28.3125, 28.0625, 28, 28, 28, 28.0625, 28.125, 28.125, 28.125, 28.0625, 28, 28, 28.0625, 28.3125, 28.5625, 28.8125, 29, 29.125, 29.375, 29.625, 29.875, 30.0625, 30.125, 30.375, 30.6875, 31.125, 31.5625, 31.8125, 32, 32, 32.1875, 32.4375, 32.6875, 32.9375, 33, 33.0625, 33.3125, 33.5625, 33.8125, 34.1875, 34.375, 34.625, 34.875, 34.9375, 35.0625, 35.1875, 35.4375, 35.6875, 36, 36.25, 36.375, 36.625, 36.75, 36.875, 37.0625, 37.3125, 37.5625, 37.8125, 38, 38.1875, 38.4375, 38.6875, 38.9375, 39, 39.125, 39.375, 39.625, 39.9375, 40.125, 40.375, 40.625, 40.8125, 41.1875, 41.4375, 41.75, 42.0625, 42.1875, 42.375, 42.5625, 42.75, 42.9375, 43, -10, -10, -10, -10, -10, -10, -10, -10, -10, -10, -10, -10, -10, -10, -10, -10, -10, -10, -10, -10, -10, -10, -10, -10, -10, -10, -10, -10, -10, 42.541664, 42.729168, 42.8125, 42.857143, 43.261902, 43.208332, 43.166668, 43.205357, 43.125, 43.125, 43.125, 43, 42.875, 42.75, 42.75, 42.6875, 42.839287, 43.098213, 43.0625, 43.0625, 42.767857, 42.5, 42.3125, 42.25, 42.1875, 42.1875, 42.125, 42.125, 42.125, 42.125, 42.125, 42, 42, 41.8125, 41.6875, 41.625, 41.5, 41.544643, 41.345238, 41.050598, 41.017857, 41, 41, 41, 40.9375, 40.875, 40.75, 40.5625, 40.4375, 40.25, 40.125, 40.25, 40.4375, 40.607143, 40.674999, 40.803574, 40.741074, 40.6875, 40.5, 40.3125, 40.125, 40.0625, 40.1875, 40.375, 40.348213, 40.0625, 39.875, 39.4375, 39.3125, 39, 38.875, 38.75, 38.75, 38.9375, 39.107143, 39.25, 39.3125, 39.3125, 39.25, 39.1875, 39.1875, 39.125, 39.1875, 39.25, 39.25, 39.3125, 39.25, 39.1875, 39, 38.625, 38.375, 38.125, 38.125, 38.25, 38.375, 38.330357, 38.258926, 38.3125, 38.375, 38.375, 38.401787, 38.241074, 37.738094, 37.651787, 37.544643, 37.458927, 37.089287, 37.071426, 37.107143, 37.1875, 37.1875, 37.25, 37.125, 37.339287, 37.544643, 37.553574, 37.491074, 37.125, 37.0625, 36.9375, 37, 37, 37.0625, 37.035713, 36.830357, 36.571426, 36.3125, 36.125, 36.0625, 36.0625, 36.0625, 36.0625, 36, 36, 36, 35.9375, 35.875, 35.6875, 35.5, 35.4375, 35.375, 35.5, 35.5, 35.4375, 35.4375, 35.4375, 35.598213, 35.580357, 35.580357, 35.4375, 35.25, 35.125, 35, 34.9375, 35.026787, 35.071426, 34.955357, 35.017857, 34.9375, 34.875, 34.6875, 34.375, 34.09375, 33.96875, 33.90625, 33.96875, 34.0625, 34, 33.8125, 33.625, 33.3125, 33.125, 33.125, 33.1875, 33.3125, 33.4375, 33.4375, 33.375, 33.25, 33.1875, 33.125, 33.0625, 33.0625, 33, 33, 33, 33, 33, 33.0625, 33, 32.9375, 32.875, 32.8125, 32.8125, 32.642857, 32.5625, 32.4375, 32.3125, 32.3125, 32.3125, 32.1875, 32.125, 32.125, 32.125, 32.125, 32.125, 32.0625, 32, 32, 32, 32.0625, 32.125, 32.0625, 32.0625, 31.9375, 31.6875, 31.5625, 31.3125, 31.125, 31.0625, 31, 31, 31, 31, 31, 30.9375, 30.875, 30.8125, 30.875, 30.9375, 30.8125, 30.416666, 30.214287, 30.125, 30.160713, 30.1875, 30.0625, 29.9375, 30, 30.107143, 30.125, 30.125, 30.0625, 29.8125, 29.6875, 29.75, 29.723213, 29.8125, 29.875, 29.75, 29.6875, 29.75, 29.678572, 29.416666, 29.330357, 29.125, 29.0625, 29, 29, 28.875, 28.75, 28.6875, 28.6875, 28.625, 28.5, 28.3125, 28.0625, 28, 28.0625, 28.125, 28.1875, 28.25, 28.1875, 28.125, 28.0625, 28, 28, 28.0625, 28.3125, 28.5625, 28.8125, 29.0625, 29.125, 29.375, 29.625, 29.8125, 30.125, 30.25, 30.5, 30.8125, 31.1875, 31.5625, 31.8125, 32, 32.0625, 32.25, 32.5, 32.75, 32.9375, 33, 33.125, 33.375, 33.625, 33.875, 34.25, 34.5, 34.75, 35, 35, 35.0625, 35.25, 35.5, 35.75, 36, 36.125, 36.25, 36.5, 36.6875, 36.875, 37.125, 37.375, 37.625, 37.875, 38, 38.25, 38.5, 38.75, 39, 39, 39.0625, 39.3125, 39.5625, 39.8125, 40.0625, 40.3125, 40.5625, 40.8125, 41.125, 41.375
42.958332, 42.958336, 42.9375, 43.026787, 43.369045, 43.333332, 43.229168, 43.205357, 43.125, 43.125, 43.125, 43, 42.875, 42.75, 42.75, 42.6875, 42.776787, 42.973213, 42.875, 42.8125, 42.580357, 42.375, 42.1875, 42.125, 42.0625, 42.0625, 42.0625, 42.0625, 42.0625, 42.0625, 42.0625, 42, 42, 41.8125, 41.6875, 41.625, 41.4375, 41.482143, 41.354168, 41.258926, 41.25, 41.1875, 41.0625, 41, 41, 41, 40.875, 40.6875, 40.5625, 40.285713, 40.089287, 40.1875, 40.3125, 40.625, 40.75, 40.75, 40.625, 40.4375, 40.25, 40.125, 40, 39.9375, 40.0625, 40.1875, 40.107143, 40, 39.875, 39.5, 39.375, 39.0625, 38.875, 38.75, 38.75, 38.875, 39.044643, 39.25, 39.3125, 39.3125, 39.25, 39.125, 39.0625, 39, 38.9375, 38.9375, 39, 39.169643, 39.1875, 39.1875, 39, 38.616074, 38.25, 38.0625, 38, 38.0625, 38.125, 38.125, 38.0625, 38.205357, 38.375, 38.4375, 38.526787, 38.366074, 37.863094, 37.714287, 37.544643, 37.396427, 37.026787, 37.008926, 37.107143, 37.1875, 37.1875, 37.25, 37.1875, 37.339287, 37.607143, 37.616074, 37.491074, 37.1875, 37.0625, 36.9375, 37, 37, 37.0625, 36.973213, 36.767857, 36.508926, 36.25, 36.125, 36.0625, 36.0625, 36.0625, 36.125, 36.0625, 36.0625, 36.0625, 36, 36, 35.946426, 35.950001, 35.758926, 35.633926, 35.625, 35.625, 35.5, 35.5, 35.4375, 35.5625, 35.625, 35.5625, 35.4375, 35.1875, 35.0625, 35, 34.9375, 34.964287, 35.035713, 35.0625, 35.0625, 34.9375, 34.75, 34.5625, 34.3125, 34.15625, 34.15625, 34.03125, 34.09375, 34.0625, 33.9375, 33.75, 33.5625, 33.3125, 33.125, 33.125, 33.1875, 33.375, 33.5625, 33.5625, 33.4375, 33.3125, 33.25, 33.25, 33.25, 33.1875, 33.0625, 33.0625, 33.035713, 32.964287, 33, 33, 33.0625, 33.0625, 33.0625, 33, 32.9375, 32.767857, 32.6875, 32.5625, 32.375, 32.3125, 32.1875, 32.0625, 32.0625, 32.0625, 32.125, 32.125, 32.125, 32.0625, 32, 32, 32, 32, 32, 31.9375, 31.875, 31.8125, 31.5625, 31.375, 31.1875, 31, 31, 31, 31, 31, 31, 31, 31.0625, 31.0625, 31.0625, 31.125, 31.0625, 30.8125, 30.354166, 30.214287, 30.125, 30.223213, 30.25, 30.0625, 29.9375, 30, 30.107143, 30.125, 30.125, 30.0625, 29.75, 29.625, 29.625, 29.535713, 29.625, 29.625, 29.5, 29.4375, 29.5625, 29.625, 29.625, 29.5625, 29.3125, 29.125, 29, 29, 28.875, 28.75, 28.6875, 28.6875, 28.6875, 28.625, 28.4375, 28.1875, 28.125, 28.1875, 28.3125, 28.4375, 28.375, 28.25, 28.125, 28, 28, 28, 28.0625, 28.3125, 28.5625, 28.8125, 29.0625, 29.0625, 29.3125, 29.5625, 29.75, 30.1875, 30.375, 30.625, 30.9375, 31.1875, 31.5, 31.75, 31.9375, 32.125, 32.3125, 32.5625, 32.8125, 32.9375, 33, 33.1875, 33.4375, 33.6875, 33.9375, 34.25, 34.5, 34.6875, 34.9375, 34.9375, 35, 35.25, 35.4375, 35.6875, 35.9375, 36.107143, 36.1875, 36.4375, 36.625, 36.875, 37.25, 37.5, 37.75, 38, 38.125, 38.375, 38.625, 38.8125, 39, 39, 39.0625, 39.3125, 39.5625, 39.875, 40.1875, 40.4375, 40.6875, 40.875, 41.125, 41.3125, 41.625, 42, 42.3125, 42.5, 42.6875, 42.8125, 42.875, 43, -10, -10, -10, -10, -10, -10, -10, -10, -10, -10, -10, -10, -10, -10, -10, -10, -10, -10, -10, -10, -10, -10, -10, -10, -10, -10, -10, -10, -10, 43.291668, 43.383335, 43.3125, 43.375, 43.583332, 43.520832, 43.291668, 43.267857, 43.0625, 43.0625, 43.0625, 42.9375, 42.9375, 42.875, 42.875, 42.8125, 42.839287, 42.973213, 42.875, 42.75, 42.455357, 42.25, 42.0625, 42, 42, 42, 42, 42, 42, 42, 42, 42, 41.9375, 41.75, 41.625, 41.5, 41.3125, 41.3125, 41.3125, 41.25, 41.1875, 41.0625, 40.955357, 41, 41.0625, 41.1875, 41.0625, 40.875, 40.6875, 40.348213, 40.089287, 40.125, 40.25, 40.5625, 40.607143, 40.4375, 40.375, 40.160713, 40.0625, 40.0625, 39.9375, 39.9375, 40.0625, 40.125, 39.982143, 39.8125, 39.6875, 39.375, 39.375, 39.25, 39.125, 39.0625, 39, 38.9375, 39, 39.25, 39.375, 39.375, 39.3125, 39.125, 39, 38.9375, 38.8125, 38.830357, 39.083332, 39.214287, 39.25, 39.1875, 38.9375, 38.616074, 38.25, 38.0625, 37.9375, 37.9375, 37.9375, 37.875, 37.8125, 38.017857, 38.25, 38.5, 38.625, 38.428574, 38.104168, 37.830357, 37.598213, 37.25893, 36.955357, 36.9375, 37.107143, 37.25, 37.25, 37.375, 37.375, 37.401787, 37.669643, 37.616074, 37.428574, 37.1875, 37.0625, 36.9375, 37, 37, 37, 36.875, 36.75, 36.5, 36.25, 36.125, 36.0625, 36.0625, 36.0625, 36.125, 36.0625, 36.0625, 36.125, 36.125, 36.1875, 36.196426, 36.200001, 36.008926, 35.821426, 35.776787, 35.919643, 35.794643, 35.8125, 35.75, 35.75, 35.75, 35.625, 35.4375, 35.1875, 35.0625, 35, 35, 35, 35, 35, 34.9375, 34.8125, 34.5625, 34.375, 34.125, 34.09375, 34.21875, 34.21875, 34.28125, 34.1875, 34, 33.8125, 33.625, 33.375, 33.1875, 33.1875, 33.25, 33.5, 33.75, 33.75, 33.6875, 33.5625, 33.5, 33.4375, 33.375, 33.25, 33.0625, 33.0625, 33.035713, 32.964287, 33, 32.9375, 32.9375, 32.9375, 32.9375, 32.9375, 32.9375, 32.767857, 32.75, 32.625, 32.4375, 32.4375, 32.25, 32.125, 32.125, 32, 32, 32, 32, 32, 32, 32, 32, 32, 32, 31.875, 31.75, 31.625, 31.375, 31.25, 31.125, 31, 31, 31.0625, 31.0625, 31.0625, 31.0625, 31, 31.0625, 31.0625, 31.125, 31.1875, 31.125, 30.875, 30.416666, 30.392857, 30.325001, 30.258928, 30.258928, 30, 29.875, 29.9375, 30.044643, 30.0625, 30.125, 30.0625, 29.75, 29.625, 29.5625, 29.410713, 29.4375, 29.375, 29.25, 29.1875, 29.375, 29.5625, 29.625, 29.625, 29.4375, 29.1875, 29.0625, 29.0625, 28.9375, 28.875, 28.8125, 28.8125, 28.8125, 28.75, 28.5625, 28.3125, 28.25, 28.3125, 28.5, 28.5625, 28.375, 28.1875, 28, 27.9375, 28, 28, 28.125, 28.375, 28.625, 28.875, 29.0625, 29.125, 29.375, 29.625, 29.8125, 30.1875, 30.4375, 30.6875, 31, 31.25, 31.5, 31.75, 31.9375, 32.1875, 32.4375, 32.6875, 32.9375, 33, 33, 33.25, 33.5, 33.75, 34, 34.25, 34.5, 34.6875, 34.9375, 34.9375, 35, 35.25, 35.4375, 35.6875, 36, 36.169643, 36.25, 36.4375, 36.5625, 36.875, 37.357143, 37.625, 37.875, 38.125, 38.25, 38.5, 38.75, 38.875, 39, 39, 39, 39.25, 39.5625, 39.982143, 40.3125, 40.5625, 40.75, 40.875, 41.125, 41.3125
43.541668, 43.633335, 43.5625, 43.625, 43.5, 43.4375, 43.375, 43.375, 43.25, 43.1875, 43.125, 43, 43.0625, 43.0625, 43, 42.901787, 42.776787, 42.723213, 42.625, 42.5, 42.3125, 42.1875, 42.125, 42.125, 42.107143, 42, 42, 41.9375, 42, 42, 42, 42, 41.9375, 41.8125, 41.75, 41.625, 41.5, 41.5, 41.4375, 41.375, 41.25, 41.125, 41.017857, 41.0625, 41.125, 41.1875, 41.0625, 40.9375, 40.8125, 40.535713, 40.339287, 40.3125, 40.375, 40.553574, 40.407143, 40.428574, 40.366074, 40.223213, 40.125, 40.0625, 39.9375, 39.9375, 40.0625, 40.125, 39.919643, 39.75, 39.625, 39.375, 39.5, 39.375, 39.25, 39.1875, 39.0625, 39, 39.0625, 39.1875, 39.3125, 39.3125, 39.25, 39.125, 39, 38.9375, 38.75, 38.794643, 39.190475, 39.32143, 39.375, 39.1875, 38.8125, 38.491074, 38.294643, 38.241074, 38.125, 38.125, 38.0625, 37.9375, 37.875, 37.955357, 38.125, 38.3125, 38.4375, 38.3125, 38.25, 38, 37.75, 37.491074, 37.125, 37.0625, 37.107143, 37.1875, 37.1875, 37.3125, 37.5, 37.5625, 37.6875, 37.5625, 37.3125, 37.1875, 37.0625, 37, 37, 37.0625, 37.0625, 36.9375, 36.75, 36.5, 36.25, 36.125, 36.0625, 36, 36.0625, 36.1875, 36.1875, 36.1875, 36.1875, 36.125, 36.1875, 36.258926, 36.325001, 36.133926, 36.008926, 36.026787, 36.169643, 36.107143, 36.125, 36, 35.9375, 35.875, 35.6875, 35.4375, 35.1875, 35.0625, 35, 35, 35, 35, 35, 34.9375, 34.75, 34.5, 34.3125, 34.0625, 34.09375, 34.28125, 34.34375, 34.46875, 34.4375, 34.1875, 34, 33.8125, 33.5625, 33.375, 33.25, 33.1875, 33.3125, 33.5, 33.5, 33.5625, 33.5625, 33.625, 33.625, 33.4375, 33.142857, 32.9375, 32.9375, 32.973213, 32.964287, 33, 32.9375, 32.9375, 32.9375, 32.8125, 32.8125, 32.9375, 32.910713, 32.9375, 32.767857, 32.5, 32.4375, 32.25, 32.125, 32.125, 32, 32, 32, 32, 32, 32, 32, 32, 32, 32, 31.875, 31.6875, 31.5, 31.3125, 31.1875, 31.125, 31, 30.875, 30.9375, 30.9375, 31, 31.0625, 31, 31.0625, 31.125, 31.25, 31.25, 31.1875, 30.9375, 30.5625, 30.580357, 30.512501, 30.321428, 30.321428, 30.0625, 30, 30, 30, 30, 30, 30, 29.8125, 29.625, 29.4375, 29.1875, 29.125, 29.0625, 29, 29, 29.25, 29.5, 29.5625, 29.5625, 29.375, 29.125, 29.0625, 29.0625, 29, 28.9375, 28.8125, 28.75, 28.75, 28.6875, 28.5625, 28.375, 28.3125, 28.348213, 28.464287, 28.625, 28.473213, 28.3125, 28.125, 28, 28, 28, 28.125, 28.375, 28.625, 28.875, 29.125, 29.25, 29.5, 29.75, 29.9375, 30.25, 30.5, 30.75, 30.9375, 31.1875, 31.4375, 31.6875, 31.9375, 32.1875, 32.375, 32.625, 32.875, 32.9375, 33, 33.1875, 33.375, 33.625, 33.875, 34.1875, 34.5, 34.6875, 34.9375, 34.9375, 34.9375, 35.1875, 35.375, 35.625, 36, 36.169643, 36.25, 36.375, 36.508926, 37.020832, 37.473213, 37.75, 37.9375, 38.1875, 38.375, 38.5625, 38.8125, 38.875, 38.9375, 39, 39, 39.25, 39.5625, 40.044643, 40.375, 40.625, 40.8125, 40.875, 41.125, 41.3125, 41.5, 41.8125, 42.125, 42.285713, 42.5625, 42.75, 42.875, 43.083332, -10, -10, -10, -10, -10, -10, -10, -10, -10, -10, -10, -10, -10, -10, -10, -10, -10, -10, -10, -10, -10, -10, -10, -10, -10, -10, -10, -10, -10, 43.708336, 43.933334, 43.8125, 44, 43.875, 43.794643, 43.541668, 43.383926, 43.25, 43.25, 43.1875, 43.125, 43.125, 43, 42.9375, 42.901787, 42.75, 42.6875, 42.5625, 42.375, 42.25, 42.125, 42.1875, 42.1875, 42.169643, 42.0625, 42, 41.9375, 42, 42, 42, 42, 41.875, 41.8125, 41.8125, 41.8125, 41.785713, 41.580357, 41.383926, 41.1875, 41.0625, 41, 40.955357, 41.0625, 41.0625, 41.0625, 40.9375, 40.75, 40.625, 40.410713, 40.214287, 40.25, 40.3125, 40.428574, 40.282143, 40.366074, 40.428574, 40.410713, 40.375, 40.25, 40.0625, 40, 40, 40, 39.8125, 39.75, 39.625, 39.4375, 39.5, 39.375, 39.25, 39.1875, 39.0625, 39, 39.0625, 39.125, 39.25, 39.25, 39.1875, 39.125, 38.9375, 38.875, 38.625, 38.607143, 39.065475, 39.19643, 39.3125, 39.125, 38.75, 38.428574, 38.294643, 38.366074, 38.3125, 38.3125, 38.1875, 38, 37.875, 37.892857, 38, 38.125, 38.25, 38.1875, 38.1875, 38, 37.6875, 37.4375, 37.1875, 37, 37.0625, 37.125, 37.125, 37.25, 37.375, 37.375, 37.4375, 37.375, 37.1875, 37.0625, 36.9375, 36.875, 36.875, 37, 37.0625, 36.9375, 36.75, 36.5625, 36.3125, 36.1875, 36.1875, 36.125, 36.25, 36.4375, 36.375, 36.375, 36.294643, 36.017857, 36.080357, 36.196426, 36.325001, 36.196426, 36.071426, 36.026787, 36.169643, 36.169643, 36.25, 36.125, 36.0625, 36, 35.75, 35.5, 35.25, 35.0625, 35, 35, 35, 35, 35, 34.9375, 34.75, 34.5625, 34.4375, 34.3125, 34.375, 34.5625, 34.5625, 34.5625, 34.5625, 34.3125, 34.1875, 34.0625, 33.8125, 33.5625, 33.3125, 33.0625, 33.089287, 33.357143, 33.419643, 33.5625, 33.5625, 33.5625, 33.5, 33.25, 32.892857, 32.75, 32.8125, 32.910713, 32.964287, 33, 32.875, 32.875, 32.875, 32.6875, 32.75, 32.9375, 32.946426, 32.9375, 32.723213, 32.4375, 32.375, 32.25, 32.125, 32.125, 32, 32, 32, 32, 32, 32, 31.9375, 31.9375, 31.9375, 31.9375, 31.875, 31.6875, 31.5, 31.375, 31.3125, 31.375, 31.25, 30.916666, 30.9375, 30.875, 31, 31.0625, 31, 31.0625, 31.125, 31.25, 31.25, 31.1875, 30.9375, 30.5625, 30.517857, 30.387501, 30.196428, 30.258928, 30.1875, 30.169643, 29.916666, 29.785713, 29.75, 29.8125, 29.9375, 29.875, 29.6875, 29.4375, 29.1875, 29.0625, 29, 29, 29, 29.1875, 29.375, 29.375, 29.375, 29.25, 29.0625, 29.0625, 29.0625, 29, 28.9375, 28.875, 28.8125, 28.8125, 28.75, 28.625, 28.4375, 28.375, 28.348213, 28.339287, 28.4375, 28.285713, 28.25, 28.160713, 28.0625, 28.0625, 28, 28.1875, 28.4375, 28.6875, 28.9375, 29.125, 29.3125, 29.5625, 29.8125, 30.0625, 30.3125, 30.5625, 30.8125, 30.9375, 31.1875, 31.4375, 31.6875, 31.9375, 32.125, 32.25, 32.4375, 32.6875, 32.8125, 32.9375, 33.125, 33.3125, 33.625, 33.982143, 34.3125, 34.625, 34.75, 34.9375, 34.9375, 34.9375, 35.125, 35.3125, 35.5625, 35.9375, 36.169643, 36.1875, 36.3125, 36.508926, 37.127975, 37.598213, 37.875, 38, 38.25, 38.5, 38.625, 38.8125, 38.8125, 38.8125, 38.9375, 39, 39.25, 39.5625, 40.107143, 40.4375, 40.6875, 40.875, 40.875, 41.0625, 41.214287
43.833336, 44.100002, 44.0625, 44.375, 44.3125, 44.232143, 43.854168, 43.455357, 43.142857, 43.125, 43.0625, 43, 43, 42.875, 42.8125, 42.839287, 42.875, 42.875, 42.8125, 42.6875, 42.4375, 42.3125, 42.375, 42.375, 42.357143, 42.1875, 42.0625, 41.9375, 42, 42, 42, 41.9375, 41.75, 41.75, 41.75, 41.8125, 41.848213, 41.517857, 41.258926, 41.0625, 40.9375, 40.9375, 40.955357, 41.0625, 41.0625, 41.0625, 40.9375, 40.75, 40.5625, 40.375, 40.25, 40.25, 40.3125, 40.366074, 40.282143, 40.428574, 40.553574, 40.535713, 40.4375, 40.25, 40.0625, 40.0625, 40.0625, 40.0625, 39.9375, 39.8125, 39.6875, 39.5, 39.5, 39.375, 39.25, 39.1875, 39.0625, 39, 39.0625, 39.0625, 39.0625, 39.0625, 39, 39, 38.875, 38.8125, 38.5625, 38.544643, 39.002975, 39.026787, 39.125, 38.875, 38.5, 38.25, 38.357143, 38.401787, 38.339287, 38.3125, 38.125, 38.0625, 38, 38, 38, 38.0625, 38.125, 38.125, 38.125, 38, 37.6875, 37.4375, 37.1875, 37, 37.0625, 37.125, 37.125, 37.1875, 37.25, 37.25, 37.25, 37.1875, 37.0625, 36.9375, 36.8125, 36.75, 36.75, 36.875, 37, 37, 36.875, 36.75, 36.5625, 36.375, 36.375, 36.3125, 36.4375, 36.5625, 36.4375, 36.375, 36.294643, 36.142857, 36.1875, 36.125, 36.0625, 36, 35.9375, 35.964287, 36.169643, 36.107143, 36.125, 36, 35.9375, 36, 35.8125, 35.5625, 35.3125, 35.0625, 35, 35, 35, 35, 35, 35, 34.875, 34.75, 34.625, 34.5, 34.5, 34.5625, 34.5625, 34.5, 34.5, 34.3125, 34.1875, 34.0625, 33.875, 33.625, 33.375, 33.0625, 33.026787, 33.523811, 33.586311, 33.604168, 33.508926, 33.4375, 33.25, 32.9375, 32.580357, 32.508926, 32.833332, 32.982143, 33.125, 33.0625, 32.875, 32.75, 32.75, 32.5625, 32.6875, 32.9375, 32.946426, 32.875, 32.598213, 32.3125, 32.1875, 32.125, 32.0625, 32.0625, 32, 32, 32, 32, 32, 32, 31.875, 31.8125, 31.75, 31.6875, 31.6875, 31.625, 31.5625, 31.5, 31.4375, 31.4375, 31.25, 30.916666, 30.9375, 30.875, 31, 31.0625, 31.0625, 31.125, 31.1875, 31.3125, 31.25, 31.1875, 30.9375, 30.5625, 30.455357, 30.325001, 30.133928, 30.196428, 30.1875, 30.169643, 29.916666, 29.785713, 29.75, 29.8125, 29.9375, 29.9375, 29.8125, 29.5625, 29.3125, 29.1875, 29.125, 29.1875, 29.1875, 29.25, 29.3125, 29.25, 29.25, 29.1875, 29.0625, 29.0625, 29.125, 29.0625, 29, 29, 28.875, 28.875, 28.75, 28.5625, 28.375, 28.3125, 28.285713, 28.214287, 28.1875, 27.973213, 28.017857, 28.098213, 28.0625, 28.125, 28, 28.1875, 28.4375, 28.6875, 28.9375, 29.1875, 29.4375, 29.6875, 29.9375, 30.125, 30.25, 30.5, 30.75, 30.875, 31.25, 31.5, 31.75, 32, 32.0625, 32.125, 32.25, 32.5, 32.6875, 32.9375, 33.125, 33.3125, 33.625, 33.919643, 34.25, 34.5, 34.6875, 34.875, 34.875, 34.964287, 35.160713, 35.3125, 35.625, 35.875, 36, 36.125, 36.25, 36.508926, 37.127975, 37.535713, 37.75, 37.875, 38.125, 38.3125, 38.4375, 38.5625, 38.625, 38.6875, 38.875, 39, 39.1875, 39.5, 39.982143, 40.25, 40.5625, 40.75, 40.75, 41, 41.151787, 41.419643, 41.741074, 42, 42.160713, 42.4375, 42.6875, 42.9375, 43.166664, -10, -10, -10, -10, -10, -10, -10, -10, -10, -10, -10, -10, -10, -10, -10, -10, -10, -10, -10, -10, -10, -10, -10, -10, -10, -10, -10, -10, -10, 43.916668, 44.133335, 44.1875, 44.5, 44.5, 44.419643, 43.979168, 43.455357, 43.098213, 43.0625, 43, 42.919643, 42.75, 42.6875, 42.669643, 42.839287, 43, 43, 42.9375, 42.8125, 42.5625, 42.5, 42.625, 42.625, 42.544643, 42.3125, 42.125, 41.9375, 42, 42, 42, 41.875, 41.75, 41.75, 41.6875, 41.75, 41.660713, 41.330357, 41.196426, 41.0625, 41.0625, 41.125, 41.0625, 41.0625, 41.0625, 41, 41, 40.848213, 40.580357, 40.455357, 40.3125, 40.3125, 40.3125, 40.241074, 40.237499, 40.491074, 40.553574, 40.5, 40.3125, 40.125, 40, 40, 40, 40.0625, 40.035713, 40, 39.9375, 39.75, 39.75, 39.535713, 39.267857, 39.133926, 39, 39, 39, 39, 38.9375, 38.875, 38.839287, 38.875, 38.8125, 38.8125, 38.5625, 38.464287, 38.732143, 38.794643, 39, 38.848213, 38.392857, 38.133926, 38.232143, 38.339287, 38.339287, 38.3125, 38.125, 38.0625, 38, 38, 38, 38, 38.0625, 38.0625, 38.0625, 38.0625, 37.75, 37.5, 37.3125, 37.0625, 37.125, 37.1875, 37.1875, 37.1875, 37.1875, 37.1875, 37.125, 37.125, 37.0625, 36.9375, 36.75, 36.625, 36.625, 36.75, 36.9375, 37.0625, 37, 36.9375, 36.8125, 36.625, 36.5625, 36.4375, 36.5, 36.5625, 36.4375, 36.375, 36.294643, 36.05357, 35.892857, 35.767857, 35.75, 35.75, 35.8125, 35.875, 35.9375, 35.875, 35.875, 35.8125, 35.8125, 35.875, 35.75, 35.5, 35.25, 35.0625, 35, 35, 35, 35, 35, 35, 34.9375, 34.875, 34.8125, 34.75, 34.6875, 34.6875, 34.625, 34.5, 34.5, 34.25, 34.125, 34.0625, 33.9375, 33.75, 33.5, 33.125, 33.026787, 33.523811, 33.523811, 33.479168, 33.321426, 33.1875, 33, 32.6875, 32.392857, 32.446426, 32.940475, 33.107143, 33.25, 33.125, 32.8125, 32.75, 32.75, 32.625, 32.8125, 33, 33.071426, 32.875, 32.473213, 32.151787, 31.9375, 31.9375, 32, 32.0625, 32.0625, 32.0625, 32.0625, 32, 32, 32, 31.875, 31.75, 31.625, 31.5, 31.5625, 31.625, 31.6875, 31.75, 31.6875, 31.6875, 31.4375, 31.041666, 30.9375, 30.8125, 30.9375, 31, 31.125, 31.1875, 31.25, 31.3125, 31.1875, 31.125, 30.9375, 30.625, 30.4375, 30.1875, 30.0625, 30.125, 30.1875, 30.169643, 29.916666, 29.785713, 29.75, 29.8125, 29.9375, 30, 29.9375, 29.75, 29.5625, 29.4375, 29.3125, 29.375, 29.3125, 29.25, 29.25, 29.1875, 29.1875, 29.125, 29.0625, 29, 29.125, 29.125, 29.0625, 29.125, 28.9375, 28.9375, 28.8125, 28.625, 28.4375, 28.3125, 28.223213, 28.026787, 28, 27.848213, 27.955357, 28.098213, 28.0625, 28.125, 28, 28.1875, 28.4375, 28.6875, 28.9375, 29.25, 29.5, 29.75, 30, 30.125, 30.3125, 30.5625, 30.8125, 30.9375, 31.1875, 31.375, 31.625, 31.875, 31.9375, 32.0625, 32.125, 32.375, 32.625, 32.875, 33.0625, 33.25, 33.5625, 33.857143, 34.1875, 34.375, 34.5625, 34.8125, 34.982143, 35.151787, 35.285713, 35.3125, 35.5625, 35.6875, 35.875, 36.0625, 36.25, 36.571426, 37.127975, 37.428574, 37.5625, 37.6875, 37.9375, 38.125, 38.25, 38.375, 38.5, 38.625, 38.9375, 39.125, 39.3125, 39.5625, 39.875, 40.125, 40.40625, 40.65625, 40.71875, 40.96875, 41.089287
