50.1875, 49.875, 49.5625, 49.25, 48.875, 48.5, 48, 47.455357, 46.955357, 46.5, 46.0625, 45.580357, 45.1875, 44.642857, 44.375, 44, 43.6875, 43.241074, 42.559525, 42.133926, 41.625, 41.3125, 40.767857, 40.3125, 39.767857, 39.25, 38.75, 38.3125, 37.8125, 37.321426, 36.583332, 36.080357, 35.776787, 35.544643, 35.276787, 35.0625, 34.5625, 34.017857, 33.401787, 32.830357, 32.4375, 32, 31.5625, 31.3125, 30.9375, 30.553572, 29.800594, 28.880953, 28.401785, 28, 27.71875, 27.40625, 26.96875, 26.504463, 26, 25.517857, 25.0625, 24.5625, 24.3125, 23.875, 23.5625, 23.1875, 22.625, 22.142857, 21.705357, 21.178572, 20.559525, 20.1875, 19.6875, 19.375, 18.830357, 18.339287, 18.008928, 17.9375, 18.169643, 18.482143, 18.794643, 18.9375, 19, 18.9375, 18.875, 18.625, 18.4375, 18.375, 18.4375, 18.75, 19.03125, 19.34375, 19.821428, 20.455357, 20.825893, 21.15625, 21.3125, 21.5, 21.625, 21.8125, 22, 22.25, 22.5625, 22.875, 22.9375, 22.875, 22.80357, 22.875, 22.875, 23, 22.9375, 22.84375, 22.84375, 22.90625, 23.03125, 23.09375, 23.09375, 23.15625, 23.15625, 23.1875, 23.1875, 23.0625, 23, 23, 23.0625, 23.0625, 23.0625, 23.0625, 23, 23.15625, 23.46875, 23.691963, 23.736607, 23.758928, 23.5625, 23.625, 23.625, 23.71875, 23.90625, 23.96875, 23.96875, 23.875, 23.8125, 23.75, 23.723213, 23.776787, 23.875, 23.9375, 24.0625, 24, 23.9375, 23.964287, 24, 24.125, 24.1875, 24.1875, 24.25, 24.25, 24.3125, 24.25, 24.1875, 24.1875, 24.1875, 24.107143, 23.9375, 23.875, 23.9375, 24.0625, 24.1875, 24.25, 24.0625, 23.875, 23.714287, 23.625, 23.455357, 23.482143, 23.495537, 23.566963, 23.53125, 23.5, 23.4375, 23.348213, 23.151787, 23.0625, 22.875, 22.75, 22.5625, 22.553574, 22.62245, 22.825893, 22.96875, 22.950893, 22.71875, 22.6875, 22.5625, 22.5, 22.5, 22.4375, 22.526787, 22.866072, 23.065475, 23, 22.675594, 22.383928, 22.25, 22.25, 22.3125, 22.4375, 22.4375, 22.3125, 21.973213, 21.020834, 20.535713, 19.964285, 19.595238, 19.050594, 18.758928, 18.625, 18.625, 18.75, 18.833334, 17.985714, 17.489796, 15.116667, 13.255952, 12.366072, 11.875, 11.75, 11.625, 11.428572, 11.125, 11.0625, 10.9375, 11, 11, 11, 11, 10.9375, 10.9375, 10.9375, 10.9375, 11, 11, 11, 10.9375, 10.964286, 10.875, 10.696428, 10.508928, 10.25, 10.1875, 10.0625, 10.0625, 10.125, 10.125, 10.0625, 10.125, 10.0625, 10.0625, 10.0625, 10, 10, 9.9375, 9.875, 9.875, 9.875, 9.9375, 10, 10, 9.9375, 9.875, 9.875, 9.875, 9.9375, 9.8125, 9.5625, 9.3125, 9.0625, 9, 8.9107141, 8.8571424, 9, 8.9375, 9.0625, 9, 9, 9, 9, 9, 9, 9.125, 9.375, 9.5, -10, -10, -10, -10, -10, -10, -10, -10, -10, -10, -10, 29.125, 29.395834, 29.5625, 29.8125, 30, 29.8125, 29.6875, 29.4375, 29.09375, 28.78125, 28.40625, 28.03125, 27.625, 27.196428, 26.604166, 26.3125, 26.0625, 26.0625, 26, 26, 26.15625, 26.300594, 26.694445, 26.904762, 27.1, 27.693878, 27.5, -10, -10, -10, -10, -10, -10, -10, -10, -10, -10, -10, -10, -10, -10, -10, -10, -10, -10, -10, -10, -10, -10, -10, -10, -10, -10, -10, -10, -10, -10, -10, -10, -10, -10, -10, -10, 55.875, 55.666664, 55.517857, 55.375, 54.875, 54.392857, 53.785713, 53.3125, 52.875, 52.5, 51.946426, 51.154762, 50.625, 50.169643, 49.78125, 49.46875, 49.09375, 48.6875, 48.375, 47.9375, 47.491074, 46.872025, 46.446426, 46, 45.580357, 45.1875, 44.642857, 44.3125, 43.830357, 43.5625, 43.116074, 42.541668, 42.071426, 41.5625, 41.25, 40.705357, 40.375, 39.9375, 39.428574, 38.791668, 38.25, 37.75, 37.3125, 36.8125, 36.3125, 35.964287, 35.669643, 35.339287, 35.125, 34.571426, 34.017857, 33.339287, 32.767857, 32.375, 31.9375, 31.5625, 31.25, 30.8125, 30.428572, 29.738094, 28.988094, 28.342262, 27.9375, 27.59375, 27.28125, 26.90625, 26.486607, 26.0625, 25.571428, 24.916666, 24.446428, 24.125, 23.6875, 23.4375, 23, 22.5, 22.142857, 21.8125, 21.366072, 20.747025, 20.196428, 19.642857, 19.3125, 18.767857, 18.1875, 17.616072, 17.5, 17.607143, 18.044643, 18.482143, 18.794643, 18.875, 18.8125, 18.6875, 18.4375, 18.3125, 18.25, 18.3125, 18.5625, 18.78125, 19.03125, 19.446428, 20.035713, 20.424107, 20.65625, 20.8125, 21.035713, 21.1875, 21.4375, 21.5625, 21.8125, 22.125, 22.4375, 22.5, 22.580357, 22.67857, 22.8125, 22.9375, 22.9375, 22.8125, 22.65625, 22.59375, 22.59375, 22.65625, 22.6875, 22.75, 22.8125, 22.8125, 22.875, 22.75, 22.625, 22.625, 22.625, 22.75, 22.8125, 22.8125, 22.8125, 22.75, 22.875, 23.125, 23.348213, 23.330357, 23.321428, 23.1875, 23.1875, 23.1875, 23.3125, 23.5625, 23.75, 23.8125, 23.6875, 23.526787, 23.5, 23.473213, 23.589287, 23.75, 23.8125, 24, 23.875, 23.6875, 23.589287, 23.5, 23.6875, 23.875, 24, 24.125, 24.125, 24.125, 24.0625, 24, 24, 24, 23.857143, 23.6875, 23.625, 23.6875, 23.8125, 23.9375, 24, 23.875, 23.6875, 23.526787, 23.4375, 23.375, 23.4375, 23.401787, 23.410713, 23.3125, 23.25, 23.1875, 23.035713, 22.714287, 22.526787, 22.4375, 22.482143, 22.3125, 22.303574, 22.388393, 22.450893, 22.71875, 22.763393, 22.65625, 22.5625, 22.375, 22.3125, 22.178572, 21.987499, 22.276787, 22.616072, 22.815475, 22.714287, 22.363094, 22.133928, 22.125, 22.125, 22.1875, 22.1875, 22.0625, 21.875, 21.410713, 20.413691, 19.683672, 19.285715, 19.041666, 18.696428, 18.5, 18.375, 18.375, 18.285713, 18.09524, 14.710713, 12.742857, 13.111112, 12.435374, 12.1875, 11.9375, 11.8125, 11.6875, 11.491072, 11.25, 11.1875, 11.0625, 11.0625, 11, 11, 11, 10.9375, 10.9375, 11, 11, 11.0625, 11.0625, 11, 11, 11, 10.875, 10.875, 10.6875, 10.4375, 10.3125, 10.1875, 10.125, 10.1875, 10.1875, 10.0625, 10.125, 10.0625, 10.0625, 10.125, 10.0625, 10.0625, 10, 9.875, 9.875, 9.875, 9.9375, 10, 10, 9.875, 9.8125, 9.75, 9.6875, 9.75, 9.625, 9.4375, 9.25, 9.0625, 9, 8.9107141, 8.9196424, 9.0625, 9, 9.125, 9, 9, 9, 9, 9, 9, 9.0625, 9.3125, 9.416667, -10, -10, -10, -10, -10, -10, -10, -10, -10, -10, 29, 29.104166, 29.364584, 29.5625, 29.8125, 30, 29.8125, 29.625, 29.375, 29, 28.6875, 28.375, 28, 27.625, 27.133928, 26.434523, 26.1875, 25.9375, 26, 26, 26, 26.15625, 26.258928, -10, -10, -10, 28.571428, 28.542858, -10, -10, -10
50.25, 49.78125, 49.34375, 48.861607, 48.5, 48.25, 47.875, 47.491074, 46.809525, 46.383926, 45.9375, 45.5625, 45.1875, 44.642857, 44.25, 43.660713, 43.375, 42.875, 42.5, 42, 41.5, 41.1875, 40.6875, 40.4375, 40, 39.553574, 38.979168, 38.428574, 37.791668, 37.3125, 36.8125, 36.375, 36.089287, 35.857143, 35.51786, 35.104168, 34.517857, 33.955357, 33.339287, 32.767857, 32.375, 31.9375, 31.5625, 31.1875, 30.6875, 30.3125, 29.758928, 29.050594, 28.360119, 28, 27.65625, 27.28125, 26.799107, 26.361607, 26, 25.616072, 24.979166, 24.464285, 24.0625, 23.625, 23.375, 22.9375, 22.5625, 22.25, 21.875, 21.459822, 20.778275, 20.165178, 19.611607, 19.3125, 18.8125, 18.25, 17.571428, 17.3125, 17.3125, 17.732143, 18.107143, 18.482143, 18.5625, 18.5, 18.4375, 18.25, 18.1875, 18.125, 18.1875, 18.375, 18.5, 18.75, 19.071428, 19.59375, 20.017857, 20.25, 20.5, 20.691963, 20.84375, 21.09375, 21.15625, 21.40625, 21.6875, 21.946428, 22.214287, 22.5, 22.660713, 22.8125, 22.9375, 22.8125, 22.6875, 22.53125, 22.40625, 22.40625, 22.46875, 22.4375, 22.5, 22.5, 22.5625, 22.625, 22.5, 22.4375, 22.375, 22.375, 22.5, 22.5625, 22.5, 22.5, 22.4375, 22.5, 22.6875, 22.8125, 22.830357, 22.883928, 22.9375, 23, 23, 23.125, 23.3125, 23.5, 23.5625, 23.4375, 23.276787, 23.25, 23.223213, 23.276787, 23.4375, 23.5625, 23.75, 23.6875, 23.4375, 23.214287, 23.125, 23.3125, 23.625, 23.75, 23.875, 23.8125, 23.6875, 23.714287, 23.723213, 23.6875, 23.6875, 23.482143, 23.3125, 23.3125, 23.375, 23.5, 23.625, 23.6875, 23.625, 23.5625, 23.526787, 23.5, 23.5, 23.5625, 23.4375, 23.375, 23.3125, 23.125, 23, 22.8125, 22.4375, 22.214287, 22.1875, 22.169643, 22.125, 22.089287, 22.03125, 22.0625, 22.28125, 22.263393, 22.236607, 22.208334, 21.955357, 22.0625, 21.785715, 21.487499, 21.776787, 22.053572, 22.315475, 22.214287, 21.988094, 21.821428, 21.875, 21.875, 21.8125, 21.75, 21.625, 21.392857, 20.598213, 19.583334, 19.035713, 18.75, 18.625, 18.375, 18.25, 18.125, 17.910713, 17.469387, 15.174603, 13.323469, 12.530612, 12.02381, 12.026786, 11.875, 11.875, 11.75, 11.5625, 11.375, 11.25, 11.1875, 11.125, 11.0625, 11, 11, 11, 10.9375, 10.9375, 11, 11, 11.0625, 11.0625, 11, 11, 11, 10.875, 10.875, 10.75, 10.5, 10.375, 10.25, 10.125, 10.125, 10.125, 10, 10.0625, 10.0625, 10.0625, 10.125, 10.0625, 10.0625, 10, 9.875, 9.875, 9.875, 9.9375, 10, 10, 9.9375, 9.8125, 9.75, 9.625, 9.5625, 9.5, 9.3125, 9.1875, 9.0625, 9, 8.9107141, 8.9196424, 9.0625, 9, 9.125, 9.0625, 9.0625, 9.0625, 9.0625, 9, 9, 9, 9.25, 9.333333, -10, -10, -10, -10, -10, -10, -10, -10, -10, -10, 29, 29.166666, 29.40625, 29.59375, 29.84375, 30, 29.75, 29.5, 29.25, 28.875, 28.625, 28.375, 28, 27.65625, 27.21875, 26.674107, 26.34375, 26.0625, 26, 26, 25.9375, 26.058037, 26.246429, -10, -10, -10, 29.428572, 29.428572, -10, -10, -10, -10, -10, -10, -10, -10, -10, -10, -10, -10, -10, -10, -10, -10, -10, -10, -10, -10, -10, -10, -10, -10, -10, -10, -10, -10, -10, -10, -10, -10, -10, -10, -10, 55, 55.416664, 55.291664, 55.3125, 55.3125, 54.9375, 54.625, 53.833336, 53.321426, 52.875, 52.5, 52.125, 51.508926, 50.910713, 50.3125, 49.78125, 49.34375, 48.799107, 48.4375, 48.1875, 47.8125, 47.491074, 46.872025, 46.446426, 46, 45.580357, 45.25, 44.705357, 44.3125, 43.723213, 43.375, 42.875, 42.5, 42.0625, 41.5625, 41.1875, 40.642857, 40.375, 39.9375, 39.553574, 38.979168, 38.220238, 37.613094, 37.1875, 36.75, 36.4375, 36.1875, 35.9375, 35.678574, 35.104168, 34.517857, 33.892857, 33.321426, 32.830357, 32.4375, 32, 31.580357, 31.125, 30.625, 30.25, 29.8125, 29.220238, 28.485119, 28.1875, 27.8125, 27.229166, 26.776785, 26.330357, 26, 25.616072, 24.979166, 24.464285, 24, 23.5625, 23.3125, 22.875, 22.5625, 22.25, 21.875, 21.459822, 20.778275, 20.165178, 19.611607, 19.3125, 18.8125, 18.25, 17.571428, 17.25, 17.0625, 17.3125, 17.607143, 17.982143, 18.1875, 18.1875, 18.1875, 18, 17.9375, 17.9375, 18, 18.125, 18.25, 18.5, 18.857143, 19.28125, 19.705357, 19.875, 20.1875, 20.352678, 20.40625, 20.59375, 20.763393, 21.022322, 21.25, 21.508928, 21.875, 22.125, 22.375, 22.5, 22.625, 22.5625, 22.5, 22.375, 22.25, 22.21875, 22.15625, 22.09375, 22.15625, 22.1875, 22.375, 22.4375, 22.25, 22.151787, 22, 22, 22.125, 22.1875, 22.1875, 22.125, 22.125, 22.125, 22.1875, 22.375, 22.5625, 22.75, 22.9375, 23, 23, 23.0625, 23.1875, 23.375, 23.40625, 23.28125, 23.183037, 23.03125, 23, 23.125, 23.1875, 23.375, 23.5, 23.4375, 23.125, 22.901787, 22.8125, 23, 23.375, 23.5, 23.625, 23.5625, 23.375, 23.401787, 23.410713, 23.3125, 23.3125, 23.125, 23.0625, 23.0625, 23.125, 23.1875, 23.3125, 23.375, 23.375, 23.3125, 23.366072, 23.410713, 23.375, 23.4375, 23.125, 23.0625, 23, 22.8125, 22.8125, 22.625, 22.1875, 21.919643, 21.8125, 21.794643, 21.90625, 21.96875, 22, 22.03125, 22.09375, 21.950893, 21.924107, 21.895834, 21.705357, 21.8125, 21.441965, 21.206249, 21.40625, 21.357143, 21.561224, 21.520407, 21.666666, 21.571428, 21.5625, 21.5625, 21.5, 21.4375, 21.267857, 20.642857, 19.561224, 19, 18.607143, 18.375, 18.25, 18.125, 18.0625, 17.785713, 17.183674, 14.851192, 13.721089, 12.251785, 11.625, 11.625, 11.6875, 11.8125, 11.875, 11.6875, 11.4375, 11.25, 11.125, 11.125, 11.125, 11.0625, 11, 11, 11, 10.9375, 10.9375, 11, 11, 11.0625, 11, 10.9375, 10.9375, 10.9375, 10.9375, 10.875, 10.75, 10.5, 10.3125, 10.25, 10.125, 10.125, 10.125, 10, 10, 10, 10, 10.0625, 10.0625, 10.0625, 10.0625, 10, 10, 10, 10, 10, 10, 9.875, 9.75, 9.625, 9.5, 9.4375, 9.375, 9.3125, 9.25, 9.1875, 9.0625, 8.9375, 8.9553566, 9.0625, 9.0625, 9.125, 9.0625, 9.0625, 9.0625, 9.0625, 9, 9, 9, 9.25, 9.333333, -10, -10, -10, -10, -10, -10, -10, -10, -10, -10, -10, 29.291666, 29.489582, 29.65625, 29.90625, 30, 29.75, 29.5, 29.25, 28.875, 28.6875, 28.4375, 28.0625, 27.745537, 27.46875, 27.12755, 26.933672, 26.785715, 26.785715, 26.7551, 26.547621, 26.637756, 26.771427, -10, -10, -10, 31.75, 31.75, -10, -10, -10
50.4375, 49.96875, 49.46875, 48.986607, 48.5625, 48.25, 47.875, 47.553574, 46.979168, 46.508926, 46, 45.517857, 45.25, 44.75, 44.375, 43.848213, 43.4375, 42.9375, 42.517857, 42.0625, 41.5625, 41.1875, 40.642857, 40.375, 39.9375, 39.553574, 38.979168, 38.011906, 37.434525, 37.0625, 36.71875, 36.46875, 36.15625, 35.84375, 35.491074, 34.854168, 34.267857, 33.705357, 33.3125, 32.875, 32.5, 32, 31.517857, 31, 30.5, 30.125, 29.6875, 29.366072, 28.601191, 28.3125, 27.875, 27.220238, 26.630951, 26.258928, 25.9375, 25.616072, 25.010416, 24.495535, 23.96875, 23.53125, 23.25, 22.75, 22.5, 22.1875, 21.78125, 21.4375, 20.892857, 20.321428, 19.736607, 19.3125, 18.767857, 18.25, 17.61607, 17.3125, 17.0625, 17.125, 17.25, 17.544643, 17.6875, 17.8125, 17.9375, 17.9375, 18, 18, 18, 17.9375, 18, 18.25, 18.651787, 19.0625, 19.441963, 19.625, 20, 20.196428, 20.25, 20.40625, 20.450893, 20.709822, 21, 21.366072, 21.6875, 21.9375, 22.125, 22.1875, 22.375, 22.3125, 22.25, 22.0625, 21.875, 21.78125, 21.65625, 21.65625, 21.71875, 21.75, 21.9375, 21.9375, 21.8125, 21.776787, 21.75, 21.875, 22.035713, 22.0625, 22, 21.875, 21.875, 21.875, 21.9375, 22.125, 22.375, 22.625, 22.8125, 22.875, 22.875, 22.875, 23, 23.125, 23.09375, 22.96875, 22.808037, 22.65625, 22.642857, 22.895834, 22.991072, 23.1875, 23.25, 23.25, 23.125, 23.0625, 23, 23.125, 23.3125, 23.3125, 23.375, 23.3125, 23.125, 23.151787, 23.160713, 23.0625, 23.125, 23, 23, 22.9375, 22.9375, 22.9375, 22.9375, 22.9375, 22.9375, 22.875, 22.964287, 23.098213, 23.0625, 23.0625, 22.875, 22.875, 22.794643, 22.5625, 22.5625, 22.232143, 21.799999, 21.651787, 21.5625, 21.651787, 21.65625, 21.897322, 21.897322, 21.96875, 21.96875, 21.78125, 21.799107, 21.708334, 21.517857, 21.5625, 21.191965, 20.956249, 21.03125, 20.96875, 21.0625, 21.026787, 21.25, 21.375, 21.4375, 21.4375, 21.3125, 21.1875, 20.946428, 19.829931, 19.098213, 18.53125, 18.15625, 17.96875, 17.84375, 17.8125, 17.642857, 17.159864, 14.809525, 13.551021, 12.530612, 12.089286, 11.75, 11.625, 11.5625, 11.6875, 11.6875, 11.5625, 11.375, 11.1875, 11.125, 11.125, 11.125, 11.0625, 11, 11, 11, 11, 11, 11.0625, 11.0625, 11.0625, 11, 10.9375, 10.9375, 10.9375, 10.9375, 10.875, 10.8125, 10.625, 10.4375, 10.3125, 10.125, 10.0625, 10.0625, 10, 10, 10, 10, 10.0625, 10.0625, 10.0625, 10.0625, 10, 10, 10, 10, 10, 10, 9.8125, 9.6875, 9.5625, 9.4375, 9.375, 9.375, 9.375, 9.375, 9.375, 9.25, 9.125, 9.0625, 9.0625, 9.0625, 9.0625, 9.0625, 9.0625, 9.0625, 9.0625, 9, 9, 9, 9.25, 9.333333, -10, -10, -10, -10, -10, -10, -10, -10, -10, -10, -10, 29.416666, 29.593748, 29.71875, 29.96875, 30, 29.75, 29.5, 29.25, 29, 28.875, 28.6875, 28.375, 28.084822, 28.075893, 28.735121, 28.991072, 29.208334, 29.416666, 29.303572, 28.986113, 28.934525, 29.088888, 31.107143, 32.083336, 32.607143, 32.42857, 32.5, -10, -10, -10, -10, -10, -10, -10, -10, -10, -10, -10, -10, -10, -10, -10, -10, -10, -10, -10, -10, -10, -10, -10, -10, -10, -10, -10, -10, -10, -10, -10, -10, -10, -10, -10, 55.375, 55.583332, 55.5, 55.375, 55.3125, 54.9375, 54.544647, 53.726192, 53.258926, 52.8125, 52.5, 52.125, 51.625, 50.872025, 50.330357, 49.9375, 49.5, 49.080357, 48.75, 48.375, 47.9375, 47.517857, 47.0625, 46.5625, 46.0625, 45.517857, 45.25, 44.75, 44.4375, 43.955357, 43.5, 43, 42.309525, 41.883926, 41.4375, 41.0625, 40.580357, 40.3125, 39.8125, 39.5, 39.0625, 38.136906, 37.559525, 37.125, 36.84375, 36.53125, 36.15625, 35.736607, 35.303574, 34.666668, 34.258926, 33.8125, 33.5, 33.0625, 32.580357, 32.0625, 31.517857, 31, 30.5, 30.125, 29.625, 29.3125, 28.767857, 28.375, 27.892857, 27.220238, 26.568451, 26.258928, 25.875, 25.5625, 25.09375, 24.549107, 24.03125, 23.53125, 23.25, 22.75, 22.5, 22.1875, 21.71875, 21.3125, 20.723213, 20.25, 19.71875, 19.25, 18.705357, 18.25, 17.660713, 17.375, 17.1875, 17.125, 17.125, 17.25, 17.3125, 17.4375, 17.6875, 17.8125, 17.9375, 18, 17.9375, 17.6875, 17.625, 17.919643, 18.339287, 18.8125, 19.263393, 19.5625, 20, 20.160713, 20.1875, 20.21875, 20.263393, 20.522322, 20.8125, 21.178572, 21.5, 21.625, 21.75, 21.8125, 22, 21.982143, 21.875, 21.75, 21.5625, 21.53125, 21.46875, 21.53125, 21.53125, 21.5625, 21.6875, 21.625, 21.5625, 21.526787, 21.5, 21.625, 21.785713, 21.8125, 21.75, 21.6875, 21.75, 21.75, 21.875, 22, 22.1875, 22.4375, 22.5625, 22.625, 22.6875, 22.75, 22.875, 22.9375, 22.84375, 22.71875, 22.59375, 22.46875, 22.517857, 22.770834, 22.803572, 22.9375, 22.875, 22.8125, 22.75, 22.75, 22.8125, 22.9375, 23.125, 23.125, 23.1875, 23.125, 22.875, 22.693451, 22.785713, 22.794643, 22.9375, 22.875, 22.8125, 22.625, 22.625, 22.625, 22.625, 22.6875, 22.75, 22.75, 22.776787, 22.910713, 22.875, 22.875, 22.8125, 22.803572, 22.461309, 22.205357, 22.1875, 21.901787, 21.487499, 21.4375, 21.3125, 21.419643, 21.40625, 21.709822, 21.772322, 21.78125, 21.71875, 21.46875, 21.361607, 21.333334, 21.142857, 21.125, 20.888393, 20.71875, 20.59375, 20.53125, 20.625, 20.6875, 21, 21.1875, 21.1875, 21.1875, 21.0625, 21, 20.678572, 19.392857, 18.571428, 18.013393, 17.78125, 17.59375, 17.46875, 17.321428, 16.90136, 14.706349, 13.551021, 12.530612, 12.214286, 11.8125, 11.625, 11.4375, 11.3125, 11.4375, 11.5, 11.4375, 11.3125, 11.125, 11, 11, 11, 11, 11, 11, 11, 11, 11, 11, 11, 11, 10.9375, 10.9375, 10.9375, 10.9375, 10.9375, 10.875, 10.8125, 10.6875, 10.5, 10.3125, 10.125, 10, 10, 10, 10, 10, 10, 10, 10, 10, 10, 10, 10, 10, 10, 10, 10, 9.875, 9.75, 9.6875, 9.625, 9.5, 9.5, 9.5, 9.5, 9.5, 9.4375, 9.3125, 9.125, 9.125, 9.0625, 9, 9.0625, 9.0625, 9.0625, 9.0625, 9, 9, 9, 9.25, 9.333333, -10, -10, -10, -10, -10, -10, -10, -10, -10, -10, -10, 29.375, 29.607141, 29.75, 30, 30, 29.78125, 29.53125, 29.34375, 29.21875, 29.25, 29.25, 29.0625, 28.834822, 28.888393, 29.477041, 29.706633, 30, 30.321428, 30.367346, 30.202381, 30.193878, 30.314285, 31.404762, 32.138889, 32.57143, 32.8125, 32.916668, -10, -10, -10
50.258926, 49.830357, 49.5625, 49.223213, 48.830357, 48.446426, 47.9375, 47.517857, 47.125, 46.625, 46.125, 45.464287, 45.080357, 44.625, 44.375, 44, 43.5, 42.955357, 42.184525, 41.758926, 41.375, 41, 40.580357, 40.3125, 39.875, 39.553574, 38.916668, 38.029762, 37.580357, 37.25, 36.96875, 36.59375, 36.15625, 35.549107, 35.017857, 34.5625, 34.1875, 33.875, 33.5625, 33.125, 32.598213, 32.0625, 31.517857, 31, 30.5, 30.125, 29.625, 29.375, 28.875, 28.4375, 27.955357, 27.282738, 26.675594, 26.321428, 25.9375, 25.553572, 24.947916, 24.477678, 23.96875, 23.53125, 23.1875, 22.6875, 22.4375, 22.125, 21.71875, 21.28125, 20.691963, 20.21875, 19.6875, 19.1875, 18.642857, 18.25, 17.767857, 17.625, 17.4375, 17.25, 17.214287, 17.1875, 17.1875, 17.3125, 17.5, 17.6875, 17.8125, 17.875, 17.75, 17.4375, 17.375, 17.607143, 18.026787, 18.53125, 19.129465, 19.544643, 19.9375, 20.129463, 20.09375, 20.0625, 20.107143, 20.366072, 20.6875, 21.044643, 21.25, 21.25, 21.3125, 21.375, 21.5, 21.607143, 21.5, 21.4375, 21.3125, 21.28125, 21.28125, 21.40625, 21.53125, 21.598213, 21.517857, 21.383928, 21.25, 21.214287, 21.25, 21.375, 21.535713, 21.5, 21.4375, 21.375, 21.4375, 21.5, 21.5625, 21.6875, 21.8125, 22.0625, 22.25, 22.3125, 22.4375, 22.5625, 22.75, 22.8125, 22.71875, 22.59375, 22.40625, 22.28125, 22.330357, 22.520834, 22.553572, 22.625, 22.5625, 22.5, 22.5, 22.5625, 22.625, 22.6875, 22.75, 22.75, 22.8125, 22.8125, 22.6875, 22.541666, 22.5625, 22.607143, 22.6875, 22.625, 22.5625, 22.375, 22.375, 22.375, 22.375, 22.4375, 22.5, 22.5, 22.464287, 22.598213, 22.5625, 22.5625, 22.5, 22.428572, 22.023809, 21.767857, 21.875, 21.714287, 21.424999, 21.3125, 21.017857, 21.044643, 20.90625, 21.272322, 21.397322, 21.4375, 21.40625, 21.15625, 21.03125, 20.9375, 20.8125, 20.6875, 20.59375, 20.59375, 20.46875, 20.46875, 20.375, 20.375, 20.625, 20.8125, 20.875, 20.875, 20.8125, 20.6875, 20.25, 18.708334, 18.142857, 17.65625, 17.53125, 17.34375, 17.040178, 16.605442, 14.513889, 13.462585, 12.530612, 12.214286, 12, 11.75, 11.5625, 11.4375, 11.25, 11.375, 11.375, 11.25, 11.1875, 11.0625, 11, 11, 11, 11, 11, 11, 11, 11, 11, 11, 11, 11, 10.9375, 10.9375, 10.9375, 10.9375, 11, 10.9375, 10.875, 10.8125, 10.5625, 10.375, 10.1875, 10, 10, 10, 10, 10, 10, 10, 10, 10, 10, 10, 10, 10, 10, 10, 10, 9.875, 9.8125, 9.75, 9.75, 9.6875, 9.6875, 9.75, 9.75, 9.6875, 9.625, 9.5, 9.25, 9.25, 9.125, 9, 9, 9, 9, 9, 9, 9, 9, 9.25, 9.333333, -10, -10, -10, -10, -10, -10, -10, -10, -10, -10, 28.625, 29.291666, 29.534225, 29.75, 30, 30, 29.84375, 29.727678, 29.864584, 29.825893, 29.9375, 29.9375, 29.964285, 29.867346, 29.908163, 30.116074, 30.450893, 30.78125, 31.21875, 31.258928, 31.208334, 31.357143, 31.428572, 31.553572, 32.104168, 32.428574, 32.5625, 32.666668, -10, -10, -10, -10, -10, -10, -10, -10, -10, -10, -10, -10, -10, -10, -10, -10, -10, -10, -10, -10, -10, -10, -10, -10, -10, -10, -10, -10, -10, -10, -10, -10, -10, -10, -10, 55.833332, 55.916668, 55.791668, 55.5625, 55.375, 54.875, 54.3125, 53.67857, 53.3125, 52.875, 52.5625, 52.25, 51.75, 51.041668, 50.339287, 49.892857, 49.625, 49.330357, 48.848213, 48.383926, 47.875, 47.455357, 47, 46.5625, 46.0625, 45.383926, 44.910713, 44.5, 44.25, 43.9375, 43.4375, 42.848213, 42.122025, 41.633926, 41.3125, 40.9375, 40.5625, 40.3125, 39.875, 39.553574, 38.916668, 38.238098, 37.758926, 37.375, 37.03125, 36.59375, 36.09375, 35.424107, 34.785713, 34.375, 34.0625, 33.8125, 33.5625, 33.0625, 32.535713, 32, 31.5, 31.0625, 30.5625, 30.1875, 29.642857, 29.375, 28.875, 28.4375, 27.955357, 27.491072, 26.854166, 26.446428, 26, 25.553572, 24.947916, 24.477678, 24.03125, 23.59375, 23.1875, 22.642857, 22.375, 22, 21.65625, 21.28125, 20.736607, 20.28125, 19.8125, 19.25, 18.705357, 18.330357, 17.9375, 17.75, 17.6875, 17.4375, 17.339287, 17.25, 17.0625, 17.125, 17.25, 17.4375, 17.5625, 17.625, 17.5, 17.25, 17.1875, 17.357143, 17.669643, 18.15625, 18.691965, 19.301022, 19.673471, 19.84375, 19.986607, 20.0625, 20.0625, 20.3125, 20.625, 20.982143, 21.0625, 21, 21, 21.0625, 21.25, 21.357143, 21.25, 21.25, 21.098213, 21.026787, 21.125, 21.1875, 21.3125, 21.285713, 21.017857, 20.821428, 20.8125, 20.875, 21, 21.1875, 21.285713, 21.25, 21.1875, 21.1875, 21.25, 21.3125, 21.375, 21.375, 21.4375, 21.625, 21.8125, 21.9375, 22.125, 22.3125, 22.4375, 22.4375, 22.3125, 22.1875, 22, 21.9375, 22.017857, 22.208334, 22.303572, 22.375, 22.3125, 22.25, 22.3125, 22.375, 22.4375, 22.5, 22.5, 22.5, 22.5625, 22.5625, 22.5, 22.354166, 22.375, 22.419643, 22.4375, 22.375, 22.3125, 22.125, 22.125, 22.1875, 22.1875, 22.25, 22.3125, 22.3125, 22.1875, 22.1875, 22.1875, 22.0625, 22.125, 22.053572, 21.586309, 21.392857, 21.4375, 21.276787, 21.049999, 20.982143, 20.705357, 20.794643, 20.625, 20.991072, 21.116072, 21.125, 21.125, 20.875, 20.6875, 20.625, 20.5, 20.4375, 20.4375, 20.375, 20.25, 20.125, 19.9375, 20, 20.25, 20.5, 20.625, 20.625, 20.491072, 20.104166, 19.607143, 18.333334, 17.848215, 17.40625, 17.28125, 16.977678, 16.355442, 14.382937, 13.333334, 12.636905, 12.214286, 12, 12, 11.75, 11.5625, 11.4375, 11.25, 11.375, 11.375, 11.25, 11.1875, 11.0625, 11, 11, 11, 11, 11, 11, 11, 11, 11, 11, 11, 11, 11, 11, 11, 11, 10.9375, 10.875, 10.875, 10.875, 10.6875, 10.5, 10.25, 10, 10, 10, 10, 10, 10, 10, 10, 10, 10, 10, 10, 10, 10, 10, 10, 9.9375, 9.9375, 9.9375, 9.9375, 9.875, 9.75, 9.75, 9.6875, 9.5625, 9.625, 9.5625, 9.375, 9.375, 9.1875, 9, 9, 9, 9, 9, 9, 9, 9, 9.25, 9.333333, -10, -10, -10, -10, -10, -10, -10, -10, -10, -10, 28.75, 29.25, 29.492559, 29.75, 30, 30, 29.90625, 29.852678, 30.238096, 30.336735, 30.535715, 30.678572, 30.642857, 30.62245, 30.419643, 30.5625, 30.879463, 31.03125, 31.40625, 31.4375, 31.5625, 31.625, 31.6875, 31.8125, 32.0625, 32.21875, 32.21875, 32.291668, -10, -10, -10
50.433037, 49.861607, 49.59375, 49.205357, 48.723213, 48.321426, 47.8125, 47.455357, 47.0625, 46.625, 46.1875, 45.508926, 44.764881, 44.383926, 44.125, 43.8125, 43.3125, 42.67857, 42.041668, 41.571426, 41.3125, 40.875, 40.5, 40.1875, 39.75, 39.491074, 38.854168, 38.383926, 37.830357, 37.4375, 37.0625, 36.625, 36.1875, 35.517857, 34.848213, 34.392857, 34.125, 33.875, 33.625, 33.1875, 32.598213, 32.0625, 31.517857, 31.125, 30.625, 30.25, 29.660713, 29.375, 28.875, 28.4375, 27.892857, 27.4375, 27, 26.553572, 25.979166, 25.464285, 24.822916, 24.415178, 24.03125, 23.625, 23.25, 22.705357, 22.375, 21.9375, 21.5625, 21.1875, 20.642857, 20.25, 19.8125, 19.3125, 18.8125, 18.392857, 18.0625, 17.875, 17.875, 17.625, 17.464287, 17.3125, 17.0625, 17.0625, 17.125, 17.25, 17.3125, 17.375, 17.25, 17.0625, 17, 17.107143, 17.3125, 17.6875, 17.908163, 17.946428, 18.339285, 19.5, 19.785713, 20, 20.0625, 20.25, 20.4375, 20.625, 20.6875, 20.6875, 20.6875, 20.75, 20.875, 20.794643, 20.625, 20.6875, 20.598213, 20.714287, 21, 21.0625, 21.1875, 21.098213, 20.767857, 20.571428, 20.625, 20.75, 20.875, 21, 21, 20.9375, 20.875, 20.9375, 21, 21.0625, 21.125, 21.125, 21.1875, 21.3125, 21.5625, 21.75, 21.9375, 22.125, 22.125, 22.0625, 22, 22, 22, 22.0625, 22.125, 22.125, 22.125, 22.125, 22.0625, 22, 22, 22, 22.0625, 22.125, 22.1875, 22.25, 22.3125, 22.3125, 22.25, 22.104166, 22.0625, 22.044643, 22.0625, 22, 21.9375, 21.8125, 21.8125, 21.8125, 21.8125, 21.875, 21.875, 21.9375, 21.8125, 21.75, 21.75, 21.625, 21.6875, 21.616072, 21.229166, 21.142857, 21.125, 21.044643, 20.8125, 20.625, 20.392857, 20.4375, 20.375, 20.5625, 20.6875, 20.625, 20.625, 20.366072, 20.0625, 20.0625, 19.9375, 20, 20.0625, 19.982143, 19.8125, 19.75, 19.5625, 19.75, 19.9375, 20.125, 20.25, 20.178572, 19.845238, 19.119047, 18.571428, 17.8125, 17.419643, 17.125, 16.946428, 16.391157, 14.341269, 13.292518, 12.595239, 12.116072, 11.9375, 11.9375, 11.9375, 11.8125, 11.6875, 11.625, 11.5, 11.5625, 11.5, 11.3125, 11.1875, 11.0625, 11, 11, 11, 11, 11, 11, 11, 11, 11, 11, 11, 11, 11, 11, 10.9375, 10.875, 10.8125, 10.6875, 10.75, 10.8125, 10.625, 10.5, 10.25, 10, 10, 10, 10, 10, 10, 10, 10, 10, 10, 10, 10, 10, 10, 10, 10, 10, 10, 10, 10, 9.9375, 9.75, 9.6875, 9.5625, 9.375, 9.5, 9.5, 9.375, 9.4375, 9.25, 9.0625, 9.0625, 9, 9, 9, 9, 9, 9, 9.25, 9.333333, -10, -10, -10, -10, -10, -10, -10, -10, -10, -10, 28.75, 29.125, 29.409227, 29.6875, 29.9375, 30, 29.96875, 29.977678, 30.302084, 30.450893, 30.6875, 30.875, 30.9375, 30.9375, 30.8125, 30.785713, 30.941963, 30.96875, 31.392857, 31.34375, 31.5, 31.6875, 31.8125, 31.875, 32.0625, 31.986607, 31.53125, 31.441666, -10, -10, -10, -10, -10, -10, -10, -10, -10, -10, -10, -10, -10, -10, -10, -10, -10, -10, -10, -10, -10, -10, -10, -10, -10, -10, -10, -10, -10, -10, -10, -10, -10, -10, -10, -10, 56.25, 56, 55.705357, 55.3125, 54.875, 54.375, 53.785713, 53.464287, 52.982143, 52.309525, 52.017857, 51.5625, 51.21875, 50.620537, 50.049107, 49.71875, 49.267857, 48.660713, 48.258926, 47.75, 47.4375, 47.125, 46.6875, 46.3125, 45.633926, 44.619049, 44.267857, 44, 43.75, 43.25, 42.57143, 42.1875, 41.6875, 41.4375, 41, 40.5625, 40.1875, 39.705357, 39.428574, 38.791668, 38.383926, 37.830357, 37.4375, 37.0625, 36.625, 36.25, 35.625, 34.910713, 34.410713, 34.125, 33.875, 33.625, 33.1875, 32.598213, 32.0625, 31.455357, 31.017857, 30.5625, 30.125, 29.598213, 29.25, 28.75, 28.4375, 27.9375, 27.5, 27.0625, 26.553572, 26.010416, 25.47991, 24.838541, 24.399553, 23.984375, 23.59375, 23.21875, 22.705357, 22.375, 21.875, 21.5, 21.1875, 20.6875, 20.375, 19.9375, 19.375, 18.830357, 18.330357, 18, 17.875, 17.8125, 17.6875, 17.50893, 17.214287, 17.0625, 17, 17.0625, 17.125, 17.125, 17.125, 17, 16.9375, 16.9375, 16.9375, 17.0625, 17.25, 17.491072, 17.489796, 17.862246, 18.9375, 19.348213, 19.6875, 19.919643, 20.125, 20.3125, 20.4375, 20.4375, 20.4375, 20.4375, 20.4375, 20.5, 20.4375, 20.375, 20.5, 20.473213, 20.526787, 20.75, 20.6875, 20.8125, 20.723213, 20.455357, 20.321428, 20.3125, 20.4375, 20.59375, 20.78125, 20.90625, 20.84375, 20.75, 20.75, 20.75, 20.875, 20.9375, 20.9375, 21, 21.0625, 21.375, 21.5625, 21.75, 21.875, 21.75, 21.75, 21.75, 21.875, 22, 22.0625, 22.0625, 22, 22, 22, 22, 22, 22, 22, 22, 22, 22, 22, 22, 22, 22, 22.0625, 22, 21.875, 21.8125, 21.625, 21.5, 21.4375, 21.4375, 21.5, 21.5625, 21.625, 21.5625, 21.5625, 21.4375, 21.375, 21.375, 21.25, 21.25, 21.125, 20.9375, 20.8125, 20.75, 20.6875, 20.5625, 20.375, 20.142857, 20.0625, 19.9375, 20, 20.0625, 20, 20, 19.803572, 19.5625, 19.59375, 19.59375, 19.696428, 19.616072, 19.491072, 19.25, 19.1875, 19.0625, 19.25, 19.4375, 19.6875, 19.75, 19.386906, 18.880951, 18.229166, 17.758928, 17.145834, 16.741072, 16.476191, 16.163265, 14.103175, 13.292517, 12.595239, 12.178572, 11.875, 11.8125, 11.8125, 11.8125, 11.8125, 11.8125, 11.8125, 11.6875, 11.6875, 11.5625, 11.375, 11.25, 11.125, 11.0625, 11, 11, 11, 11, 11, 11, 11, 11, 11, 11, 11, 11, 11, 10.9375, 10.875, 10.75, 10.625, 10.6875, 10.75, 10.625, 10.5, 10.3125, 10.125, 10.107143, 9.916667, 9.8928566, 9.875, 9.9375, 10, 10, 9.9375, 9.9375, 9.9375, 9.9375, 10, 10, 10, 10, 10, 10, 10, 10, 10, 9.8125, 9.6875, 9.5, 9.25, 9.3125, 9.3125, 9.25, 9.3125, 9.1875, 9.0625, 9.0625, 9, 9, 9, 9, 9, 9, 9.25, 9.375, -10, -10, -10, -10, -10, -10, -10, -10, -10, -10, -10, 29.125, 29.385418, 29.625, 29.875, 30, 30, 30.071428, 30.395834, 30.607143, 30.8125, 30.9375, 31, 30.9375, 30.8125, 30.785713, 30.910713, 30.875, 30.821428, 31, 31.0625, 31.1875, 31.383928, 31.525, 31.714285, 31.290178, 30.535715, 30.409525, -10, -10, -10
50.611607, 50.15625, 49.772324, 49.148811, 48.589287, 48.1875, 47.75, 47.4375, 47.0625, 46.625, 46.3125, 45.8125, 44.904762, 44.372025, 44.071426, 43.75, 43.25, 42.57143, 42.25, 41.8125, 41.5625, 41.125, 40.580357, 40.1875, 39.705357, 39.428574, 38.791668, 38.383926, 37.830357, 37.4375, 37.0625, 36.625, 36.25, 35.6875, 35.017857, 34.473213, 34.125, 33.75, 33.5, 33.0625, 32.517857, 31.955357, 31.330357, 30.892857, 30.5, 30, 29.535713, 29.125, 28.625, 28.375, 27.9375, 27.5625, 27.125, 26.571428, 26.010416, 25.488838, 24.984375, 24.399553, 23.939732, 23.53125, 23.21875, 22.767857, 22.4375, 21.9375, 21.5, 21.1875, 20.6875, 20.4375, 20, 19.5, 19.017857, 18.455357, 18.0625, 17.705357, 17.5625, 17.4375, 17.294643, 17.089287, 17, 16.9375, 17, 17, 17, 17, 16.875, 16.875, 16.875, 16.875, 17, 17.0625, 17.0625, 17.1875, 17.598213, 18.544643, 19.035713, 19.4375, 19.732143, 19.9375, 20.125, 20.25, 20.1875, 20.25, 20.25, 20.25, 20.3125, 20.25, 20.25, 20.4375, 20.473213, 20.464287, 20.5625, 20.375, 20.3125, 20.25, 20.125, 20.0625, 20.125, 20.1875, 20.34375, 20.53125, 20.65625, 20.65625, 20.625, 20.625, 20.625, 20.6875, 20.75, 20.8125, 20.9375, 21, 21.25, 21.375, 21.5, 21.5625, 21.375, 21.375, 21.375, 21.5, 21.6875, 21.8125, 21.875, 21.9375, 22, 22, 22, 22, 22, 22, 22, 22, 22, 22, 22, 22, 22, 22, 21.875, 21.6875, 21.5625, 21.375, 21.25, 21.1875, 21.1875, 21.25, 21.25, 21.25, 21.1875, 21.125, 21.0625, 21.0625, 21.0625, 21, 20.991072, 20.75, 20.625, 20.5, 20.4375, 20.3125, 20.1875, 20.125, 20.125, 20.125, 20, 19.830357, 19.75, 19.625, 19.553572, 19.241072, 19, 18.96875, 19, 19.040178, 18.959822, 18.834822, 18.696428, 18.65625, 18.71875, 18.96875, 19.1875, 19.5, 19.392857, 18.442179, 17.741497, 17.095238, 16.9375, 16.544643, 16.09864, 14.301587, 13.738095, 13.088435, 12.595238, 12.178572, 12, 11.875, 11.8125, 11.8125, 11.8125, 11.875, 11.875, 11.875, 11.8125, 11.75, 11.6875, 11.5625, 11.4375, 11.3125, 11.1875, 11.0625, 11, 11, 11, 11, 11, 11, 11, 11, 11, 11, 11, 11, 10.9375, 10.875, 10.6875, 10.5, 10.5625, 10.625, 10.5625, 10.5, 10.375, 10.1875, 10.169643, 9.979167, 9.8928566, 9.875, 9.9375, 10, 10, 9.875, 9.8125, 9.8125, 9.8125, 9.9375, 10, 10, 10, 10, 10, 10, 10, 10, 9.8125, 9.625, 9.375, 9.125, 9.125, 9.125, 9.125, 9.1875, 9.125, 9.0625, 9.0625, 9, 9, 9, 9, 9, 9, 9.25, 9.416666, 9.666667, -10, -10, -10, -10, -10, -10, -10, -10, -10, -10, 29.083334, 29.375002, 29.5625, 29.8125, 30, 30, 30, 30.0625, 30.3125, 30.5, 30.75, 30.875, 30.75, 30.6875, 30.571428, 30.428572, 30.357143, 30.321428, 30.357143, 30.5625, 30.65625, 30.821428, 30.9, 30.5, 30.528061, 29.910715, 29.861906, -10, -10, -10, -10, -10, -10, -10, -10, -10, -10, -10, -10, -10, -10, -10, -10, -10, -10, -10, -10, -10, -10, -10, -10, -10, -10, -10, -10, -10, -10, -10, -10, -10, -10, -10, 56, 56.25, 56.020832, 55.705357, 55.3125, 54.875, 54.5, 54, 53.589287, 53.107143, 52.247025, 51.785713, 51.3125, 50.96875, 50.59375, 50.21875, 49.772324, 49.166668, 48.696426, 48.1875, 47.8125, 47.4375, 47.1875, 46.6875, 46.4375, 46, 45.136909, 44.622025, 44.214287, 43.645832, 43.116074, 42.49107, 42.1875, 41.75, 41.4375, 41, 40.517857, 40.125, 39.705357, 39.428574, 38.791668, 38.383926, 37.830357, 37.4375, 37.0625, 36.625, 36.3125, 35.8125, 35.1875, 34.553574, 34.1875, 33.75, 33.5, 33.125, 32.57143, 31.872023, 31.276787, 30.767857, 30.4375, 29.9375, 29.517857, 29.09375, 28.59375, 28.28125, 27.84375, 27.5, 27.0625, 26.571428, 26.072916, 25.551338, 25.046875, 24.41741, 23.939732, 23.53125, 23.21875, 22.767857, 22.40625, 21.90625, 21.46875, 21.09375, 20.625, 20.375, 19.875, 19.4375, 18.955357, 18.4375, 18.0625, 17.767857, 17.625, 17.5, 17.357143, 17.089287, 17.0625, 17.0625, 17.125, 17.125, 17.0625, 17, 16.875, 16.875, 16.875, 16.875, 17, 17, 17, 17.1875, 17.575893, 18.325893, 18.799107, 19.15625, 19.419643, 19.625, 19.75, 19.8125, 19.8125, 19.875, 19.875, 19.875, 19.955357, 19.950001, 19.821428, 19.946428, 20.071428, 20.0625, 20.1875, 20.125, 20.125, 20.125, 20.0625, 20.0625, 20.0625, 20.0625, 20.15625, 20.28125, 20.40625, 20.40625, 20.375, 20.4375, 20.5, 20.5625, 20.625, 20.625, 20.6875, 20.75, 20.9375, 21.0625, 21.1875, 21.25, 21.1875, 21.1875, 21.1875, 21.3125, 21.5, 21.6875, 21.8125, 21.9375, 22, 22, 22, 22, 22, 22, 22, 22, 22, 22, 22, 22, 22, 21.9375, 21.75, 21.5, 21.3125, 21.125, 21, 20.875, 20.8125, 20.75, 20.6875, 20.6875, 20.625, 20.625, 20.625, 20.6875, 20.6875, 20.625, 20.616072, 20.375, 20.3125, 20.25, 20.1875, 20.125, 20, 20.026787, 20.125, 20.017857, 19.928572, 19.410713, 19.196428, 19, 18.928572, 18.678572, 18.5, 18.46875, 18.5, 18.477678, 18.397322, 18.366072, 18.337053, 18.453125, 18.640625, 18.859375, 18.96875, 19.133928, 18.601191, 17.421768, 16.829931, 16.428572, 16.294643, 15.812925, 14.039681, 13.258504, 12.775511, 12.416667, 12.178572, 12, 12, 11.875, 11.8125, 11.8125, 11.8125, 11.9375, 12, 12, 11.875, 11.6875, 11.5, 11.4375, 11.375, 11.3125, 11.25, 11.0625, 11, 11, 11, 11, 11, 11, 11, 11, 11, 11, 11, 10.9375, 10.875, 10.8125, 10.6875, 10.5625, 10.5625, 10.5625, 10.4375, 10.375, 10.375, 10.25, 10.232143, 10.041667, 9.8928566, 9.875, 9.9375, 10, 10, 9.875, 9.8125, 9.8125, 9.8125, 9.9375, 10, 10, 10, 10, 10, 10, 9.9375, 9.875, 9.6875, 9.4375, 9.25, 9.0625, 9, 9, 9, 9.0625, 9.0625, 9.0625, 9.0625, 9, 9, 9, 9, 9, 9, 9.25, 9.520833, 9.8444443, -10, -10, -10, -10, -10, -10, -10, -10, -10, -10, 29, 29.333334, 29.5, 29.75, 30, 30, 30, 30, 30.1875, 30.3125, 30.4375, 30.5625, 30.4375, 30.375, 30.25, 30.0625, 30, 29.875, 29.875, 30, 30.03125, 30.133928, 29.952042, 29.785715, 29.977678, 29.59375, 29.608334, -10, -10, -10
50.5, 50.25, 49.803574, 49.229168, 48.714287, 48.1875, 47.8125, 47.4375, 47.1875, 46.6875, 46.4375, 46, 45.282738, 44.693455, 44.214287, 43.520832, 42.94643, 42.410713, 42.0625, 41.6875, 41.375, 40.9375, 40.455357, 40.017857, 39.642857, 39.366074, 38.791668, 38.446426, 37.9375, 37.5, 37.0625, 36.5625, 36.25, 35.75, 35.1875, 34.553574, 34.1875, 33.75, 33.5, 33.0625, 32.44643, 31.702381, 31.196428, 30.642857, 30.375, 29.875, 29.5, 29.03125, 28.53125, 28.15625, 27.71875, 27.4375, 26.9375, 26.517857, 26.15625, 25.640625, 25.203125, 24.51116, 24.033482, 23.59375, 23.21875, 22.767857, 22.40625, 21.90625, 21.46875, 21.03125, 20.5625, 20.3125, 19.8125, 19.4375, 18.955357, 18.4375, 18, 17.642857, 17.5, 17.375, 17.294643, 17.151787, 17.1875, 17.25, 17.3125, 17.25, 17.125, 17, 16.875, 16.875, 16.875, 16.875, 17, 17, 17, 17.1875, 17.53125, 18.013393, 18.513393, 18.78125, 19.044643, 19.1875, 19.3125, 19.4375, 19.5, 19.5625, 19.5625, 19.53125, 19.549107, 19.668751, 19.602678, 19.758928, 19.714285, 19.9375, 20, 20, 20, 20, 20, 19.9375, 19.8125, 19.8125, 19.84375, 19.96875, 20.15625, 20.21875, 20.25, 20.375, 20.5, 20.5, 20.5, 20.4375, 20.375, 20.4375, 20.5625, 20.6875, 20.875, 21, 21.0625, 21.125, 21.125, 21.1875, 21.375, 21.5625, 21.75, 21.9375, 22, 22, 22, 22, 22, 22, 22, 22, 22, 22, 22, 22, 21.9375, 21.8125, 21.625, 21.375, 21.1875, 21, 20.875, 20.75, 20.625, 20.625, 20.5625, 20.5, 20.5, 20.4375, 20.4375, 20.5, 20.5, 20.5, 20.491072, 20.25, 20.1875, 20, 19.875, 19.8125, 19.6875, 19.714287, 19.75, 19.580357, 19.428572, 18.910713, 18.758928, 18.6875, 18.785715, 18.571428, 18.25, 18.075893, 18.125, 17.950893, 17.736607, 17.821428, 18.015625, 18.310268, 18.578125, 18.627232, 18.28125, 18.241072, 17.401361, 16.779762, 16.392857, 15.982143, 15.527211, 13.873016, 13.034013, 12.476191, 12.142857, 12, 12, 12, 12, 11.9375, 11.875, 11.875, 11.875, 11.9375, 12, 12, 11.875, 11.625, 11.4375, 11.375, 11.3125, 11.3125, 11.25, 11.0625, 11, 11, 11, 11, 11, 11, 11, 11, 11, 11, 11, 10.9375, 10.9375, 10.9375, 10.8125, 10.6875, 10.5625, 10.5, 10.4375, 10.4375, 10.5, 10.375, 10.294643, 10.041667, 9.8928566, 9.875, 9.9375, 10, 10, 9.875, 9.8125, 9.8125, 9.8125, 9.9375, 10, 10, 9.9375, 9.9642859, 10.107143, 10.107143, 10, 9.7678566, 9.5625, 9.3125, 9.1875, 9.0625, 9, 9, 9, 9, 9, 9, 9, 9, 9, 9, 9, 9, 9, 9.25, 9.6160717, 10.070834, -10, -10, -10, -10, -10, -10, -10, -10, -10, -10, 29.125, 29.416668, 29.5625, 29.8125, 30, 30, 29.9375, 29.875, 29.90625, 29.84375, 29.928572, 30.133928, 30.044643, 30, 29.8125, 29.5625, 29.5, 29.4375, 29.348213, 29.339287, 29.34375, 29.294643, 29.364286, 29.25, 29.272322, 29.34375, 29.458334, -10, -10, -10, -10, -10, -10, -10, -10, -10, -10, -10, -10, -10, -10, -10, -10, -10, -10, -10, -10, -10, -10, -10, -10, -10, -10, -10, -10, -10, -10, -10, -10, -10, -10, -10, -10, 56.083332, 55.787498, 55.571426, 55.3125, 54.9375, 54.553574, 53.979168, 53.4375, 52.9375, 52.455357, 51.99107, 51.455357, 51, 50.5625, 50.1875, 49.625, 48.997025, 48.589287, 48.125, 47.875, 47.5625, 47.25, 46.75, 46.375, 45.892857, 45.366074, 44.747025, 44.214287, 43.395832, 42.776787, 42.330357, 42, 41.6875, 41.3125, 40.839287, 40.375, 39.848213, 39.571426, 39.303574, 38.854168, 38.5, 37.854168, 37.446426, 36.9375, 36.5, 36.125, 35.625, 35.1875, 34.598213, 34.25, 33.75, 33.4375, 33, 32.428574, 31.702381, 31.258928, 30.75, 30.4375, 29.9375, 29.5, 29.03125, 28.53125, 28.15625, 27.71875, 27.4375, 26.9375, 26.517857, 26.125, 25.625, 25.25, 24.589285, 24.205357, 23.75, 23.3125, 22.830357, 22.46875, 22.013393, 21.486607, 20.96875, 20.5, 20.25, 19.75, 19.5, 19.0625, 18.5625, 18.125, 17.705357, 17.625, 17.375, 17.375, 17.375, 17.3125, 17.5, 17.4375, 17.3125, 17.1875, 17, 16.9375, 16.9375, 16.875, 16.8125, 16.875, 16.875, 16.9375, 17.0625, 17.34375, 17.825893, 18.308037, 18.53125, 18.6875, 18.75, 18.8125, 19, 19.0625, 19.125, 19.1875, 19.09375, 19.111607, 19.293751, 19.227678, 19.260204, 19.625, 19.6875, 19.75, 19.75, 19.8125, 19.875, 19.9375, 19.90625, 19.78125, 19.71875, 19.65625, 19.75, 19.8125, 19.875, 19.9375, 20.0625, 20.3125, 20.348213, 20.3125, 20.25, 20.125, 20.1875, 20.25, 20.375, 20.5625, 20.75, 20.9375, 21, 21, 21, 21.125, 21.375, 21.625, 21.875, 22, 22, 22, 22, 22, 22, 22, 22, 22, 22, 22, 22, 21.9375, 21.75, 21.5, 21.25, 21.0625, 21, 20.9375, 20.8125, 20.625, 20.4375, 20.3125, 20.1875, 20.1875, 20.1875, 20.1875, 20.1875, 20.1875, 20.25, 20.276785, 20.125, 20.125, 19.9375, 19.9375, 19.8125, 19.479166, 19.392857, 19.142857, 18.948978, 18.739796, 18.410713, 18.196428, 18.25, 18.265306, 17.974489, 17.632654, 17.461309, 17.459822, 17.272322, 17.183037, 17.4375, 17.872768, 18.310268, 18.479912, 18.359694, 17.629463, 17.132654, 16.605442, 16.321428, 15.964287, 15.455782, 13.873016, 13.034014, 12.47619, 12.142857, 12, 12, 12, 12, 12, 12, 12, 11.9375, 11.9375, 11.9375, 11.9375, 11.9375, 11.8125, 11.5625, 11.375, 11.3125, 11.25, 11.25, 11.1875, 11.125, 11.0625, 11.0625, 11.0625, 11, 11, 11, 11, 11, 11, 11, 11, 10.9375, 10.9375, 10.875, 10.6875, 10.464286, 10.375, 10.419643, 10.4375, 10.5625, 10.5625, 10.4375, 10.3125, 10.1875, 10.0625, 10, 10, 10, 10, 9.9375, 9.875, 9.875, 9.875, 9.9375, 10, 10, 9.8660717, 9.7142859, 9.8571434, 9.7946434, 9.75, 9.5178566, 9.375, 9.1875, 9.125, 9.0625, 9, 9, 9, 9, 9, 9, 9, 9, 9, 9, 9, 9, 9.0625, 9.3125, 9.7410717, 10.404167, -10, -10, -10, -10, -10, -10, -10, -10, -10, -10, 29.375, 29.583334, 29.6875, 29.875, 30, 29.9375, 29.8125, 29.6875, 29.59375, 29.40625, 29.455357, 29.669643, 29.544643, 29.517857, 29.3125, 29.0625, 29, 28.9375, 28.848213, 28.673471, 28.90625, 28.785713, 28.776787, 28.875, 28.96875, 29.21875, 29.375, -10, -10, -10
50.5, 50.125, 49.571426, 49.142857, 48.767857, 48.3125, 48, 47.580357, 47.3125, 46.8125, 46.375, 45.785713, 45.25, 44.767857, 44.267857, 43.458332, 42.776787, 42.330357, 42, 41.625, 41.1875, 40.669643, 40.294643, 39.723213, 39.446426, 39.1875, 38.875, 38.553574, 37.916668, 37.383926, 36.830357, 36.4375, 36.0625, 35.625, 35.25, 34.660713, 34.375, 33.875, 33.5, 33.0625, 32.491074, 31.809525, 31.383928, 30.875, 30.5, 30.0625, 29.625, 29.209822, 28.572916, 28.165178, 27.65625, 27.375, 26.875, 26.5, 26.125, 25.625, 25.3125, 24.767857, 24.4375, 23.9375, 23.375, 22.785713, 22.34375, 21.888393, 21.424107, 20.90625, 20.5, 20.1875, 19.6875, 19.4375, 18.96875, 18.53125, 18.09375, 17.78125, 17.75, 17.5625, 17.625, 17.553572, 17.3125, 17.4375, 17.3125, 17.25, 17.125, 17, 17, 17, 16.875, 16.75, 16.6875, 16.625, 16.75, 16.8125, 17.03125, 17.40625, 17.808037, 18.09375, 18.25, 18.3125, 18.375, 18.5, 18.5625, 18.625, 18.75, 18.71875, 18.736607, 18.918751, 18.790178, 18.946428, 19.125, 19.25, 19.3125, 19.3125, 19.375, 19.375, 19.4375, 19.486607, 19.575893, 19.575893, 19.53125, 19.625, 19.625, 19.6875, 19.75, 19.8125, 20.125, 20.285713, 20.419643, 20.3125, 20.125, 20.0625, 20, 20.125, 20.3125, 20.5625, 20.8125, 20.9375, 21, 21, 21.125, 21.375, 21.625, 21.875, 22, 22, 22, 22, 22, 22, 22, 22, 22, 22, 22, 21.9375, 21.8125, 21.5625, 21.3125, 21.125, 21, 20.9375, 20.8125, 20.625, 20.375, 20.125, 20.0625, 19.96875, 19.90625, 19.90625, 19.78125, 19.6875, 19.6875, 19.75, 19.848213, 19.875, 19.9375, 19.9375, 20.044643, 19.883928, 19.229166, 18.9375, 18.6875, 18.517857, 18.334822, 17.924107, 17.727678, 17.285715, 16.928572, 16.797619, 16.642859, 17.148809, 17.116072, 16.928572, 16.848215, 17.302084, 17.593006, 17.961735, 18.002552, 16.730654, 16.415815, 15.969389, 15.809525, 15.571428, 15.265306, 13.68254, 13.034014, 12.476191, 12.142857, 12, 12, 12, 12, 12, 12, 12, 12, 11.9375, 11.9375, 11.9375, 11.875, 11.8125, 11.625, 11.375, 11.1875, 11.125, 11.0625, 11.0625, 11.0625, 11.0625, 11.125, 11.125, 11.125, 11.0625, 11, 11, 11, 11, 11, 11, 11, 10.9375, 10.9375, 10.875, 10.6875, 10.464286, 10.3125, 10.294643, 10.3125, 10.4375, 10.5, 10.5, 10.375, 10.25, 10.125, 10, 10, 10, 10, 10, 10, 10, 10, 10, 10, 10, 9.8660717, 9.7142859, 9.8571434, 9.7946434, 9.6875, 9.4553566, 9.3125, 9.125, 9.125, 9.0625, 9, 9, 9, 9, 9, 9, 9, 9, 9, 9, 9, 9, 9, 9.2142859, 9.7827387, 10.6125, -10, -10, -10, -10, -10, -10, -10, -10, -10, -10, 29.375, 29.583334, 29.6875, 29.875, 30, 29.875, 29.6875, 29.5, 29.21875, 28.96875, 28.892857, 28.982143, 28.857143, 28.767857, 28.633928, 28.5625, 28.5, 28.5, 28.410713, 28.464287, 28.625, 28.535713, 28.589287, 28.607143, 28.526787, 28.8125, 28.833332, -10, -10, -10, -10, -10, -10, -10, -10, -10, -10, -10, -10, -10, -10, -10, -10, -10, -10, -10, -10, -10, -10, -10, -10, -10, -10, -10, -10, -10, -10, -10, -10, -10, -10, -10, 56, 56, 55.724998, 55.508926, 55.25, 54.9375, 54.428574, 53.764881, 53.25, 52.75, 52.455357, 52.098213, 51.434525, 51.008926, 50.446426, 49.955357, 49.446426, 49.017857, 48.705357, 48.375, 47.955357, 47.580357, 47.25, 46.8125, 46.3125, 45.67857, 45.1875, 44.642857, 44.25, 43.625, 42.910713, 42.410713, 42, 41.625, 41.25, 40.732143, 40.294643, 39.6875, 39.383926, 39.125, 38.9375, 38.607143, 37.833336, 37.330357, 36.767857, 36.4375, 36, 35.5625, 35.25, 34.705357, 34.375, 33.830357, 33.4375, 32.9375, 32.4375, 31.892857, 31.4375, 30.9375, 30.5, 30.125, 29.6875, 29.241072, 28.559523, 28.133928, 27.625, 27.375, 26.875, 26.5, 26.0625, 25.5625, 25.3125, 24.8125, 24.5, 24, 23.4375, 22.892857, 22.375, 21.875, 21.392857, 20.875, 20.5, 20.125, 19.625, 19.375, 18.90625, 18.46875, 17.924107, 17.65625, 17.625, 17.5625, 17.75, 17.741072, 17.4375, 17.4375, 17.25, 17.125, 17.0625, 17, 17, 17, 16.875, 16.6875, 16.625, 16.5625, 16.6875, 16.75, 16.875, 17.125, 17.401787, 17.6875, 17.875, 17.9375, 18.0625, 18.125, 18.125, 18.15625, 18.28125, 18.3125, 18.3125, 18.40625, 18.40625, 18.625, 18.982143, 19.125, 19.125, 19, 19, 19, 19.0625, 19.111607, 19.075893, 19.013393, 19.03125, 19.232143, 19.3125, 19.4375, 19.5625, 19.625, 19.875, 20.035713, 20.107143, 20, 19.9375, 19.9375, 19.9375, 20.0625, 20.1875, 20.375, 20.625, 20.8125, 20.9375, 21, 21.0625, 21.25, 21.5, 21.75, 21.9375, 22, 22, 22, 22, 22, 22, 22, 22, 22, 22, 21.875, 21.6875, 21.4375, 21.1875, 21.0625, 21, 20.875, 20.6875, 20.5, 20.21875, 19.96875, 19.90625, 19.8125, 19.78125, 19.78125, 19.65625, 19.5, 19.375, 19.5, 19.598213, 19.625, 19.8125, 19.8125, 19.866072, 19.467262, 18.791666, 18.410715, 18.1875, 18.125, 17.90625, 17.78125, 17.59375, 17.28125, 16.673468, 16.540815, 16.607143, 16.898809, 16.901785, 16.741072, 16.839285, 17.125, 17.077381, 16.547619, 16.244049, 15.816327, 15.380952, 15.132653, 13.666667, 13.476192, 13.238095, 12.870749, 12.476191, 12.142857, 12, 12, 12, 12, 12, 12, 12, 12, 12, 11.9375, 11.9375, 11.9375, 11.875, 11.75, 11.5625, 11.3125, 11.125, 11.0625, 11, 11, 11, 11.0625, 11.125, 11.125, 11.125, 11.0625, 11, 11, 11, 11, 11, 11, 11, 11, 11, 10.9375, 10.75, 10.464286, 10.3125, 10.294643, 10.25, 10.375, 10.4375, 10.473214, 10.375, 10.25, 10.125, 10, 10, 10, 10, 10, 10, 10, 10, 10, 10, 10, 9.8660717, 9.7142859, 9.8571434, 9.7946434, 9.6875, 9.5178566, 9.4375, 9.25, 9.25, 9.125, 9, 9, 9, 9, 9, 9, 9, 9, 9, 9, 8.9375, 8.9642859, 9.1071434, 9.3303576, 9.8452387, 10.75, -10, -10, -10, -10, -10, -10, -10, -10, -10, -10, 29.375, 29.583334, 29.6875, 29.875, 30, 29.8125, 29.5625, 29.3125, 28.90625, 28.59375, 28.517857, 28.544643, 28.357143, 28.020407, 27.946428, 27.875, 27.8125, 27.8125, 27.723213, 27.852041, 28.132654, 28.285713, 28.517857, 28.607143, 28.401787, 28.5, 28.416666, -10, -10, -10
50.5, 49.892857, 49.508926, 49.080357, 48.875, 48.455357, 48.017857, 47.580357, 47.1875, 46.75, 46.25, 45.61607, 45.21875, 44.71875, 44.28125, 43.71875, 43.080357, 42.535713, 42.1875, 41.75, 41.25, 40.6875, 40.232143, 39.669643, 39.383926, 39.0625, 38.875, 38.482143, 37.708336, 37.267857, 36.705357, 36.4375, 35.9375, 35.5, 35.25, 34.75, 34.375, 33.785713, 33.375, 32.875, 32.5, 32, 31.5, 31, 30.5, 30.125, 29.6875, 29.241072, 28.559523, 28.133928, 27.625, 27.375, 26.875, 26.5, 26.0625, 25.5625, 25.25, 24.75, 24.4375, 23.9375, 23.375, 22.714285, 22.142857, 21.6875, 21.205357, 20.75, 20.4375, 20, 19.5625, 19.3125, 18.84375, 18.40625, 17.816963, 17.65625, 17.625, 17.625, 17.8125, 17.678572, 17.3125, 17.25, 17.0625, 17, 17, 17, 17, 17, 16.875, 16.6875, 16.625, 16.5625, 16.6875, 16.6875, 16.75, 16.875, 16.982143, 17.3125, 17.5625, 17.6875, 17.8125, 17.8125, 17.6875, 17.6875, 17.875, 18, 18.09375, 18.15625, 18.15625, 18.34375, 18.669643, 18.875, 18.8125, 18.625, 18.5625, 18.5625, 18.625, 18.736607, 18.763393, 18.638393, 18.65625, 18.857143, 18.9375, 19.0625, 19.25, 19.3125, 19.5, 19.723213, 19.794643, 19.6875, 19.6875, 19.6875, 19.75, 19.875, 20, 20.1875, 20.375, 20.625, 20.8125, 20.9375, 21, 21.125, 21.3125, 21.5625, 21.8125, 21.9375, 22, 22, 22, 22, 22, 21.9375, 21.9375, 21.875, 21.8125, 21.6875, 21.5, 21.3125, 21.125, 21.0625, 20.9375, 20.75, 20.4375, 20.125, 19.84375, 19.53125, 19.46875, 19.4375, 19.46875, 19.59375, 19.59375, 19.4375, 19.1875, 19.151787, 19.160713, 19.1875, 19.4375, 19.5625, 19.678572, 19.279762, 18.604166, 18.285715, 18.125, 18.0625, 17.799107, 17.65625, 17.34375, 16.84375, 16.303572, 16.1875, 16.294643, 16.898809, 16.946428, 16.622023, 16.625, 16.6875, 16.461309, 15.765306, 15.316328, 14.910714, 13.940475, 13.446429, 13, 12.765306, 12.489797, 12.333333, 12.142857, 12, 12, 12, 12, 12, 12, 12, 12, 12, 12, 11.9375, 11.9375, 11.9375, 11.875, 11.6875, 11.4375, 11.1875, 11, 11, 11, 11, 11, 11.0625, 11.125, 11.125, 11.125, 11.0625, 11, 11, 11, 11, 11, 11, 10.9375, 10.9375, 10.9375, 10.875, 10.75, 10.464286, 10.3125, 10.232143, 10.125, 10.25, 10.375, 10.473214, 10.4375, 10.3125, 10.125, 10, 10, 10, 10, 10, 10, 10, 10, 10, 10, 10, 9.9285717, 9.75, 9.75, 9.6875, 9.5625, 9.5, 9.4375, 9.25, 9.25, 9.125, 9, 9, 9, 9, 9, 9, 9, 9, 9, 9, 8.9375, 9.0267859, 9.2321434, 9.4553576, 9.916667, -10, -10, -10, -10, -10, -10, -10, -10, -10, -10, -10, 29.25, 29.500002, 29.625, 29.8125, 30, 29.75, 29.5, 29.25, 28.8125, 28.5625, 28.401787, 28.160713, 27.875, 27.642857, 27.446428, 27.5, 27.5, 27.5, 27.40625, 27.178572, 27.265306, 27.84375, 28.234694, 28.301022, 27.964287, 28.0625, 28, -10, -10, -10, -10, -10, -10, -10, -10, -10, -10, -10, -10, -10, -10, -10, -10, -10, -10, -10, -10, -10, -10, -10, -10, -10, -10, -10, -10, -10, -10, -10, -10, -10, -10, -10, 56, 56.166668, 55.962502, 55.458332, 55.116074, 54.6875, 54.1875, 53.723213, 53.232143, 52.598213, 52.321426, 51.875, 51.354168, 51.008926, 50.428574, 49.747025, 49.508926, 49.125, 48.875, 48.455357, 47.892857, 47.455357, 47.0625, 46.625, 46.1875, 45.598213, 45.21875, 44.71875, 44.34375, 43.84375, 43.3125, 42.723213, 42.3125, 41.8125, 41.3125, 40.723213, 40.3125, 39.88393, 39.526787, 39.205357, 38.666668, 38.232143, 37.604168, 37.258926, 36.705357, 36.4375, 35.9375, 35.5, 35.1875, 34.6875, 34.3125, 33.723213, 33.375, 32.875, 32.5, 32, 31.5, 31, 30.5, 30.125, 29.6875, 29.241072, 28.559523, 28.133928, 27.6875, 27.4375, 26.9375, 26.517857, 26.0625, 25.5625, 25.1875, 24.6875, 24.375, 23.875, 23.375, 22.714285, 21.872023, 21.401785, 21, 20.625, 20.375, 19.875, 19.5, 19.1875, 18.71875, 18.34375, 17.754463, 17.59375, 17.5625, 17.5625, 17.6875, 17.553572, 17.1875, 17.0625, 16.9375, 16.9375, 16.9375, 17, 17, 17, 16.9375, 16.8125, 16.75, 16.6875, 16.75, 16.6875, 16.75, 16.8125, 16.8125, 17.0625, 17.25, 17.375, 17.5, 17.5, 17.375, 17.375, 17.5, 17.6875, 17.78125, 17.84375, 17.90625, 18.015625, 18.357143, 18.5, 18.375, 18.265625, 18.125, 18.125, 18.1875, 18.267857, 18.357143, 18.294643, 18.4375, 18.669643, 18.8125, 19, 19.125, 19.0625, 19.026787, 19.1875, 19.339287, 19.3125, 19.5, 19.5625, 19.625, 19.75, 19.8125, 19.9375, 20.125, 20.375, 20.625, 20.8125, 20.9375, 21.0625, 21.1875, 21.375, 21.625, 21.8125, 21.9375, 22, 22, 22, 22, 21.9375, 21.9375, 21.8125, 21.6875, 21.5, 21.25, 21.125, 21, 21, 20.875, 20.5625, 20.142857, 19.8125, 19.46875, 19.21875, 19.15625, 19.125, 19.21875, 19.28125, 19.21875, 19.0625, 18.75, 18.714287, 18.6875, 18.6875, 19, 19.125, 19.178572, 18.842262, 18.3125, 18.107143, 18, 17.875, 17.674107, 17.59375, 17.379463, 16.924107, 16.482143, 16.4375, 16.5625, 16.982143, 17.017857, 16.4375, 16.357143, 16.1875, 15.666666, 14.9375, 14.482143, 14.035714, 13.5625, 13.125, 12.5, 12.232143, 12, 12, 12.0625, 12.0625, 12.0625, 12.0625, 12, 12, 12, 12, 12, 12, 12, 12, 12, 12, 11.9375, 11.6875, 11.4375, 11.25, 11.0625, 11.0625, 11.0625, 11, 11, 11, 11.0625, 11.0625, 11.0625, 11.0625, 11, 11, 11, 11, 11, 11, 10.9375, 10.9375, 10.9375, 10.9375, 10.9375, 10.75, 10.5625, 10.3125, 10.0625, 10.0625, 10.1875, 10.285714, 10.3125, 10.25, 10, 9.875, 9.8125, 9.75, 9.8125, 9.875, 9.9375, 10, 10, 10, 10, 10, 10, 10, 10, 10, 9.8125, 9.75, 9.625, 9.375, 9.3125, 9.125, 9, 9, 9, 9, 9, 9, 9, 9, 9, 9, 8.9375, 9.0267859, 9.1696434, 9.3928576, 9.75, -10, -10, -10, -10, -10, -10, -10, -10, -10, -10, -10, 29, 29.333334, 29.5, 29.75, 30, 29.75, 29.5, 29.25, 28.75, 28.5, 28.25, 27.8125, 27.5625, 27.3125, 27.133928, 27.1875, 27.125, 27.0625, 26.96875, 26.90625, 26.765306, 27.285715, 27.303572, 27.586735, 27.589287, 27.625, 27.5, -10, -10, -10
50.345242, 49.630951, 49.383926, 49.0625, 48.8125, 48.392857, 47.830357, 47.4375, 47.0625, 46.625, 46.1875, 45.598213, 45.21875, 44.71875, 44.28125, 43.736607, 43.25, 42.705357, 42.3125, 41.875, 41.4375, 40.892857, 40.392857, 39.94643, 39.526787, 39.142857, 38.479168, 38.044643, 37.416668, 37.258926, 36.75, 36.5, 36, 35.5, 35.125, 34.625, 34.25, 33.660713, 33.375, 32.875, 32.5, 32.0625, 31.5625, 31.125, 30.625, 30.1875, 29.6875, 29.1875, 28.642857, 28.1875, 27.75, 27.4375, 27, 26.580357, 26.0625, 25.517857, 25.0625, 24.5625, 24.3125, 23.8125, 23.4375, 22.821428, 21.934523, 21.419641, 21, 20.625, 20.375, 19.9375, 19.5625, 19.1875, 18.642857, 18.25, 17.723213, 17.5625, 17.5625, 17.5, 17.5, 17.4375, 17.1875, 17.125, 17.0625, 17, 17, 17, 17, 17, 17, 16.9375, 16.9375, 16.9375, 16.9375, 16.875, 16.875, 16.875, 16.875, 17, 17.125, 17.1875, 17.25, 17.25, 17.125, 17.125, 17.1875, 17.3125, 17.40625, 17.40625, 17.53125, 17.671875, 17.982143, 18.125, 18, 17.984375, 17.9375, 18, 18.0625, 18, 17.8125, 17.6875, 17.8125, 18.107143, 18.375, 18.625, 18.8125, 18.8125, 18.714287, 18.8125, 18.794643, 18.75, 19, 19.0625, 19.25, 19.4375, 19.5, 19.6875, 19.875, 20.125, 20.375, 20.625, 20.8125, 20.9375, 21.0625, 21.1875, 21.4375, 21.6875, 21.875, 22, 22, 22, 22, 21.9375, 21.875, 21.6875, 21.5, 21.3125, 21.125, 21.0625, 21, 20.9375, 20.75, 20.375, 19.892857, 19.5625, 19.21875, 18.96875, 18.84375, 18.84375, 18.9375, 19, 19, 18.8125, 18.5, 18.464287, 18.4375, 18.4375, 18.6875, 18.6875, 18.571428, 18.270834, 18.0625, 18, 17.9375, 17.8125, 17.642857, 17.625, 17.464285, 16.872023, 16.428572, 16.28125, 16.34375, 16.700893, 16.674107, 16.0625, 15.581633, 14.972789, 14.6875, 14.125, 13.75, 13.348214, 12.8125, 12.482143, 12.25, 12.125, 12, 12, 12.0625, 12.0625, 12.0625, 12.0625, 12, 12, 12, 12, 12, 12, 12, 12, 12, 12, 12, 11.8125, 11.5625, 11.375, 11.1875, 11.1875, 11.169643, 11, 11, 10.9375, 11, 11, 11, 10.9375, 10.9375, 10.9375, 10.9375, 11, 11, 11, 10.9375, 10.9375, 10.9375, 10.9375, 11, 10.875, 10.6875, 10.4375, 10.125, 10.0625, 10.125, 10.160714, 10.1875, 10.125, 9.9375, 9.875, 9.8125, 9.75, 9.8125, 9.875, 9.9375, 10, 10, 10, 10, 10, 10, 10, 10, 10, 9.8125, 9.6875, 9.5625, 9.3125, 9.25, 9.125, 9, 9, 9, 9, 9, 9, 9, 9, 9, 9, 8.9375, 9.0267859, 9.2321434, 9.4910717, 9.770833, -10, -10, -10, -10, -10, -10, -10, -10, -10, -10, -10, 29, 29.333334, 29.5, 29.75, 30, 29.75, 29.5, 29.25, 28.75, 28.4375, 28.080357, 27.6875, 27.4375, 27.25, 27, 26.8125, 26.6875, 26.5, 26.40625, 26.34375, 26.450893, 26.90625, 27.142857, 27.3125, 27.3125, 27.375, 27.333334, -10, -10, -10, -10, -10, -10, -10, -10, -10, -10, -10, -10, -10, -10, -10, -10, -10, -10, -10, -10, -10, -10, -10, -10, -10, -10, -10, -10, -10, -10, -10, -10, -10, -10, -10, -10, 56.375, 56.087502, 55.601189, 55.241074, 54.741074, 54.205357, 53.9375, 53.401787, 52.764881, 52.3125, 51.666668, 51.383926, 50.982147, 50.190479, 49.559525, 49.321426, 49.0625, 48.8125, 48.455357, 47.9375, 47.4375, 46.955357, 46.5, 46.0625, 45.580357, 45.21875, 44.71875, 44.21875, 43.629463, 43.25, 42.75, 42.4375, 42, 41.4375, 40.848213, 40.392857, 39.982143, 39.589287, 39.142857, 38.309525, 37.866074, 37.375, 37.25, 36.75, 36.5, 36, 35.5, 35.0625, 34.5625, 34.1875, 33.642857, 33.375, 32.875, 32.5, 32.125, 31.625, 31.25, 30.75, 30.25, 29.75, 29.25, 28.75, 28.3125, 27.875, 27.5, 27.125, 26.642857, 26.125, 25.535713, 25.0625, 24.5625, 24.3125, 23.8125, 23.4375, 22.821428, 21.934523, 21.419641, 21, 20.625, 20.375, 19.9375, 19.5625, 19.125, 18.580357, 18.25, 17.767857, 17.5625, 17.5, 17.3125, 17.25, 17.1875, 17, 17, 17, 17, 17, 17, 17, 17, 17, 17, 17, 17, 17, 16.875, 16.875, 16.875, 16.875, 16.9375, 17, 17, 17, 17.0625, 17, 17.03125, 17.09375, 17.15625, 17.1875, 17.21875, 17.40625, 17.546875, 17.732143, 17.6875, 17.5625, 17.546875, 17.5, 17.589287, 17.723213, 17.625, 17.625, 17.5, 17.5625, 17.75, 18, 18.1875, 18.375, 18.375, 18.276787, 18.5, 18.607143, 18.625, 18.8125, 18.8125, 18.9375, 19.125, 19.25, 19.5, 19.71875, 20, 20.3125, 20.5625, 20.78125, 20.9375, 21, 21.0625, 21.3125, 21.5625, 21.8125, 21.9375, 21.875, 21.8125, 21.75, 21.6875, 21.625, 21.4375, 21.25, 21.125, 21, 21, 21, 20.875, 20.59375, 20.15625, 19.611607, 19.28125, 19, 18.75, 18.625, 18.5, 18.4375, 18.4375, 18.375, 18.25, 18.125, 18.151787, 18.125, 18.0625, 18.089287, 18, 17.9375, 17.875, 17.75, 17.75, 17.625, 17.625, 17.517857, 17.482143, 17.276785, 16.747023, 16.285713, 16.049107, 16.03125, 15.954082, 15.811225, 15.3125, 14.794643, 14.267857, 13.75, 13.341836, 13.25, 12.955357, 12.75, 12.5, 12.3125, 12.125, 12, 12, 12.0625, 12.0625, 12.0625, 12.0625, 12, 12, 12, 12, 12, 12, 12, 12, 12, 12, 12, 11.875, 11.625, 11.4375, 11.25, 11.1875, 11.232143, 11.125, 11.125, 11.0625, 11.0625, 11, 11, 10.875, 10.8125, 10.8125, 10.8125, 10.9375, 11, 11, 10.9375, 10.9375, 10.9375, 10.9375, 11, 10.9375, 10.75, 10.5, 10.25, 10.125, 10.125, 10.125, 10.125, 10.0625, 9.9375, 9.875, 9.8125, 9.75, 9.8125, 9.875, 9.9375, 10, 10, 10, 10, 10, 10, 10, 10, 10, 9.875, 9.75, 9.625, 9.375, 9.3125, 9.1875, 9.0625, 9.0625, 9, 9, 9, 9, 9, 9, 9, 9, 9, 9.0625, 9.125, 9.375, 9.708333, 10.2, -10, -10, -10, -10, -10, -10, -10, -10, -10, -10, 29, 29.333334, 29.5, 29.75, 30, 29.75, 29.5, 29.25, 28.741072, 28.229166, 27.839285, 27.4375, 27.25, 27.125, 26.875, 26.6875, 26.5, 26.3125, 26.28125, 26.34375, 26.46875, 26.53125, 26.625, 26.6875, 26.6875, 26.8125, 26.833334, -10, -10, -10
50.074406, 49.497025, 49.196426, 49.0625, 48.785713, 48.455357, 47.9375, 47.4375, 46.955357, 46.5, 46, 45.517857, 45.125, 44.625, 44.1875, 43.598213, 43.1875, 42.6875, 42.375, 41.9375, 41.4375, 40.848213, 40.455357, 40.044643, 39.651787, 39.205357, 38.309525, 37.866074, 37.375, 37.1875, 36.6875, 36.4375, 36, 35.5625, 35.125, 34.625, 34.1875, 33.642857, 33.375, 32.875, 32.5, 32.125, 31.625, 31.25, 30.75, 30.25, 29.75, 29.3125, 28.8125, 28.4375, 28, 27.5625, 27.21875, 26.674107, 26.21875, 25.629463, 25.125, 24.580357, 24.25, 23.75, 23.4375, 22.9375, 22.166666, 21.607141, 21.125, 20.642857, 20.375, 20, 19.625, 19.1875, 18.642857, 18.25, 17.767857, 17.5, 17.375, 17.1875, 17.125, 17.125, 17, 17, 17, 17, 17, 17, 17, 17, 17, 17, 17, 17, 17, 16.9375, 16.9375, 16.9375, 16.9375, 16.9375, 16.9375, 16.9375, 16.875, 16.9375, 16.9375, 16.9375, 17, 17, 17, 17.0625, 17.1875, 17.265625, 17.294643, 17.0625, 16.9375, 16.921875, 16.9375, 17.089287, 17.223213, 17.125, 17.1875, 17.1875, 17.348213, 17.5, 17.6875, 17.75, 17.8125, 17.75, 17.714287, 17.9375, 18.107143, 18.25, 18.4375, 18.5, 18.625, 18.75, 18.875, 19.1875, 19.575893, 19.9375, 20.3125, 20.5625, 20.78125, 20.9375, 21, 21, 21.1875, 21.375, 21.625, 21.8125, 21.75, 21.75, 21.625, 21.5625, 21.5, 21.3125, 21.1875, 21.0625, 21, 21, 20.9375, 20.75, 20.40625, 19.84375, 19.325893, 19.09375, 18.875, 18.75, 18.5625, 18.3125, 18.017857, 17.875, 17.6875, 17.5625, 17.5625, 17.6875, 17.6875, 17.625, 17.589287, 17.5, 17.5, 17.5, 17.4375, 17.5, 17.4375, 17.446428, 17.125, 17.065475, 17.047619, 16.604166, 16.205357, 15.816964, 15.59375, 15.107142, 14.770408, 14.458333, 14.044643, 13.642857, 13.375, 13.080357, 12.9375, 12.8125, 12.625, 12.5, 12.3125, 12.125, 12.0625, 12, 12.0625, 12.0625, 12.0625, 12.0625, 12, 12, 12, 12, 12, 12, 12, 12, 11.9375, 11.875, 11.8125, 11.75, 11.5625, 11.4375, 11.3125, 11.1875, 11.294643, 11.25, 11.25, 11.1875, 11.125, 11, 11, 10.875, 10.8125, 10.8125, 10.8125, 10.9375, 11, 11, 11, 11, 11, 11, 11, 11, 10.8125, 10.5625, 10.3125, 10.125, 10.125, 10.1875, 10.1875, 10.125, 10, 9.875, 9.8125, 9.75, 9.8125, 9.875, 9.9375, 10, 10, 10, 10, 10, 10, 10, 10, 10, 9.9375, 9.875, 9.8125, 9.5625, 9.4375, 9.3125, 9.125, 9.125, 9.0625, 9, 9, 9, 9, 9, 9, 9, 9, 9, 9, 9.28125, 9.583333, 10.2, -10, -10, -10, -10, -10, -10, -10, -10, -10, -10, 29.083334, 29.375002, 29.5, 29.75, 30, 29.75, 29.5, 29.25, 28.741072, 28.166666, 27.669643, 27.3125, 27.125, 27.0625, 26.8125, 26.5625, 26.3125, 26.0625, 26.0625, 26.1875, 26.3125, 26.375, 26.4375, 26.4375, 26.5, 26.5625, 26.583334, -10, -10, -10, -10, -10, -10, -10, -10, -10, -10, -10, -10, -10, -10, -10, -10, -10, -10, -10, -10, -10, -10, -10, -10, -10, -10, -10, -10, -10, -10, -10, -10, -10, -10, -10, -10, 55.958332, 55.729168, 55.580357, 55.375, 54.857147, 54.184525, 53.821426, 53.357143, 52.916668, 52.303574, 51.577381, 51.133926, 50.607147, 49.958336, 49.517853, 49.25, 49.125, 48.660713, 48.392857, 47.875, 47.4375, 46.955357, 46.5, 46, 45.517857, 45.125, 44.625, 44.125, 43.535713, 43.125, 42.625, 42.375, 41.9375, 41.375, 40.741074, 40.330357, 39.9375, 39.625, 39.1875, 38.517857, 38.0625, 37.5625, 37.25, 36.8125, 36.5, 36.0625, 35.580357, 35.1875, 34.6875, 34.1875, 33.598213, 33.3125, 32.8125, 32.5, 32.125, 31.625, 31.3125, 30.875, 30.428572, 29.791666, 29.383928, 28.875, 28.4375, 27.892857, 27.4375, 27.09375, 26.59375, 26.111607, 25.504463, 25, 24.517857, 24.125, 23.6875, 23.375, 22.875, 22.375, 21.785713, 21.3125, 20.767857, 20.4375, 20.0625, 19.625, 19.25, 18.705357, 18.25, 17.723213, 17.4375, 17.25, 17.125, 17.0625, 17.0625, 17, 17, 17, 17, 17, 17, 17, 17, 17, 17, 17, 17, 17, 17, 17, 17, 17, 17, 17, 17, 16.875, 16.8125, 16.75, 16.75, 16.875, 16.9375, 17, 16.9375, 16.9375, 16.90625, 16.794643, 16.625, 16.5625, 16.53125, 16.5625, 16.651787, 16.723213, 16.625, 16.6875, 16.6875, 16.785713, 16.9375, 17.125, 17.125, 17.25, 17.25, 17.3125, 17.5625, 17.6875, 17.875, 18, 18, 18.125, 18.25, 18.4375, 18.991072, 19.495537, 19.875, 20.3125, 20.5625, 20.78125, 20.9375, 21, 21, 21.125, 21.3125, 21.5625, 21.75, 21.75, 21.75, 21.5625, 21.4375, 21.3125, 21.125, 21.0625, 21, 21, 20.9375, 20.8125, 20.5625, 20.21875, 19.709822, 19.099703, 18.852678, 18.6875, 18.625, 18.4375, 18.125, 17.705357, 17.5, 17.3125, 17.25, 17.3125, 17.375, 17.3125, 17.25, 17.089287, 17, 17.0625, 17.0625, 17.125, 17.1875, 17.125, 17.071428, 16.75, 16.752975, 16.869049, 16.648809, 16.321428, 15.816964, 15.302083, 14.552083, 14.120536, 13.75, 13.4375, 13.205357, 13.0625, 12.9375, 12.875, 12.8125, 12.5625, 12.4375, 12.25, 12.0625, 12.0625, 12, 12, 12, 12, 12, 12, 12, 12, 12, 12, 12, 12, 12, 11.9375, 11.875, 11.75, 11.75, 11.5625, 11.375, 11.3125, 11.125, 11.232143, 11.25, 11.25, 11.1875, 11.125, 11, 11, 10.875, 10.8125, 10.8125, 10.8125, 10.875, 10.9375, 10.9375, 10.9375, 11, 11, 11, 11, 11, 10.75, 10.5, 10.25, 10.125, 10.25, 10.375, 10.375, 10.25, 10.125, 10, 10, 10, 10, 10, 10, 10, 10, 10, 10, 10, 10, 10, 10, 10, 9.9375, 9.875, 9.875, 9.625, 9.5, 9.375, 9.1875, 9.1875, 9.125, 9.0625, 9, 9, 9, 9, 9, 9, 9, 9.0625, 9.1875, 9.5758934, 9.916667, -10, -10, -10, -10, -10, -10, -10, -10, -10, -10, 29.5, 29.208334, 29.458334, 29.5625, 29.8125, 30, 29.75, 29.5, 29.25, 28.741072, 28.166666, 27.607143, 27.25, 27, 26.875, 26.625, 26.375, 26.1875, 26, 26, 26.125, 26.125, 26.0625, 26.125, 26.0625, 26.25, 26.4375, 26.5, -10, -10, -10
50.166668, 49.696426, 49.392857, 49.125, 48.598213, 48.267857, 47.75, 47.375, 46.830357, 46.4375, 45.9375, 45.5, 45.125, 44.625, 44.125, 43.535713, 43.1875, 42.6875, 42.4375, 41.9375, 41.3125, 40.678574, 40.25, 39.830357, 39.5625, 39.125, 38.642857, 38.1875, 37.6875, 37.3125, 36.9375, 36.5625, 36.125, 35.598213, 35.25, 34.75, 34.1875, 33.55357, 33.25, 32.75, 32.5, 32.125, 31.625, 31.3125, 30.875, 30.428572, 29.791666, 29.383928, 28.875, 28.375, 27.785713, 27.375, 26.96875, 26.46875, 25.941963, 25.424107, 24.9375, 24.517857, 24.125, 23.6875, 23.375, 22.875, 22.4375, 21.892857, 21.375, 20.892857, 20.5625, 20.178572, 19.604166, 19.258928, 18.75, 18.25, 17.61607, 17.3125, 17.0625, 17, 17, 17, 17, 17, 17, 17, 17, 17, 17, 17, 17, 17, 17, 17, 17, 17, 17, 17, 17, 17, 17, 17, 16.875, 16.75, 16.625, 16.5625, 16.625, 16.6875, 16.75, 16.6875, 16.625, 16.5625, 16.419643, 16.25, 16.25, 16.1875, 16.1875, 16.214287, 16.285713, 16.3125, 16.5, 16.625, 16.723213, 16.75, 16.875, 16.8125, 16.875, 16.9375, 17, 17.1875, 17.375, 17.59375, 17.71875, 17.84375, 17.96875, 18.0625, 18.3125, 18.866072, 19.47768, 19.875, 20.3125, 20.5625, 20.78125, 20.9375, 21, 21, 21.0625, 21.25, 21.4375, 21.5625, 21.625, 21.5625, 21.375, 21.25, 21.125, 21, 21, 21, 21, 20.875, 20.6875, 20.4375, 20.09375, 19.638393, 18.891369, 18.611607, 18.4375, 18.4375, 18.25, 17.875, 17.455357, 17.1875, 17, 17, 17.0625, 17.0625, 16.9375, 16.875, 16.651787, 16.5625, 16.6875, 16.6875, 16.8125, 16.875, 16.8125, 16.696428, 16.3125, 16.377975, 16.502977, 16.607143, 16.321428, 15.473214, 14.860119, 14.083333, 13.651786, 13.375, 13.1875, 13.0625, 13, 13, 13, 13, 12.75, 12.5625, 12.3125, 12.0625, 12.0625, 12, 12, 12, 12, 12, 11.9375, 11.9375, 11.9375, 11.9375, 12, 12, 12, 12, 11.9375, 11.875, 11.6875, 11.6875, 11.5, 11.3125, 11.25, 11, 11.125, 11.25, 11.25, 11.25, 11.125, 11, 11, 10.9375, 10.875, 10.9375, 11, 11, 11.0625, 11, 10.9375, 11, 11, 11, 11, 11, 10.75, 10.5, 10.25, 10.125, 10.3125, 10.5, 10.5, 10.375, 10.1875, 10, 10, 10, 10, 10.0625, 10.0625, 10.0625, 10.0625, 10, 10, 10, 10, 10, 10, 10, 10, 10, 10, 9.8125, 9.625, 9.4375, 9.25, 9.1875, 9.125, 9.0625, 9, 9, 9, 9, 9, 9, 9.0625, 9.25, 9.5446434, 10.013393, 10.3125, -10, -10, -10, -10, -10, -10, -10, -10, -10, -10, -10, 29.333334, 29.541666, 29.625, 29.875, 30, 29.8125, 29.5625, 29.3125, 28.803572, 28.291666, 27.785715, 27.145834, 26.857143, 26.625, 26.4375, 26.25, 26.125, 26, 26, 26.0625, 25.9375, 25.75, 25.6875, 25.732143, 25.919643, 26.151787, 26.299999, -10, -10, -10, -10, -10, -10, -10, -10, -10, -10, -10, -10, -10, -10, -10, -10, -10, -10, -10, -10, -10, -10, -10, -10, -10, -10, -10, -10, -10, -10, -10, -10, -10, -10, -10, 54.666668, 55.083332, 54.979168, 55, 54.9375, 54.544647, 53.851192, 53.455353, 53.0625, 52.75, 52.3125, 51.723213, 51.125, 50.678574, 50.375, 49.875, 49.607143, 49.232143, 48.553574, 48.214287, 47.6875, 47.4375, 46.9375, 46.5, 46, 45.5, 45.125, 44.625, 44.125, 43.535713, 43.1875, 42.6875, 42.4375, 41.9375, 41.3125, 40.678574, 40.25, 39.892857, 39.660713, 39.133926, 38.678574, 38.1875, 37.6875, 37.3125, 37, 36.625, 36.1875, 35.61607, 35.25, 34.75, 34.1875, 33.55357, 33.25, 32.75, 32.5, 32.125, 31.625, 31.3125, 30.875, 30.366072, 29.684523, 29.321428, 28.8125, 28.3125, 27.67857, 27.25, 26.78125, 26.28125, 25.754463, 25.34375, 24.8125, 24.455357, 24.0625, 23.625, 23.3125, 22.767857, 22.4375, 21.9375, 21.4375, 21.017857, 20.616072, 20.095238, 19.550594, 19.196428, 18.75, 18.25, 17.61607, 17.3125, 17.0625, 17, 17, 17, 17, 17, 17, 17, 17, 17, 17, 17, 17, 16.9375, 16.9375, 16.9375, 16.9375, 17, 17, 17, 17, 16.9375, 16.875, 16.875, 16.75, 16.6875, 16.625, 16.5625, 16.5625, 16.5625, 16.5625, 16.4375, 16.3125, 16.1875, 16.0625, 16, 16, 16, 16, 16, 16, 16.0625, 16.25, 16.5, 16.598213, 16.625, 16.625, 16.571428, 16.700001, 16.642857, 16.8125, 16.8125, 17, 17.21875, 17.34375, 17.53125, 17.71875, 17.8125, 18.125, 18.741072, 19.428572, 19.8125, 20.1875, 20.4375, 20.6875, 20.875, 21, 21, 21, 21.125, 21.25, 21.4375, 21.625, 21.6875, 21.5625, 21.375, 21.1875, 21, 21, 21, 21, 20.8125, 20.5625, 20.3125, 19.9375, 19.482143, 18.690475, 18.392857, 18.116072, 18, 17.875, 17.5, 17.205357, 16.9375, 16.8125, 16.8125, 16.875, 16.8125, 16.625, 16.625, 16.4375, 16.375, 16.5, 16.4375, 16.5625, 16.625, 16.5625, 16.383928, 15.9375, 16.020832, 16.252977, 16.3125, 16.081633, 14.9375, 14.297619, 13.645833, 13.276786, 13.0625, 12.9375, 12.875, 12.875, 12.9375, 13, 13, 12.75, 12.5625, 12.3125, 12.0625, 12.0625, 12, 12, 12, 12, 11.9375, 11.8125, 11.8125, 11.8125, 11.875, 12, 12, 12, 12, 11.9375, 11.8125, 11.5625, 11.5625, 11.4375, 11.375, 11.375, 11.125, 11.125, 11.125, 11.125, 11.125, 11.0625, 11, 11, 11, 11, 11.0625, 11.125, 11.0625, 11.0625, 11, 10.9375, 11, 10.9375, 10.9375, 10.9375, 10.9375, 10.8125, 10.5625, 10.3125, 10.1875, 10.3125, 10.5, 10.5625, 10.4375, 10.25, 10.125, 10.0625, 10.0625, 10.0625, 10.0625, 10.0625, 10.0625, 10.0625, 10, 10, 10, 10, 10, 10, 10, 10, 9.9375, 9.9375, 9.8125, 9.625, 9.5625, 9.375, 9.25, 9.1875, 9.0625, 9, 9, 9, 9, 9, 9.0625, 9.1875, 9.4375, 9.7946434, 10.200893, 10.446428, -10, -10, -10, -10, -10, -10, -10, -10, -10, -10, -10, 29.333334, 29.541666, 29.625, 29.875, 30, 29.875, 29.625, 29.4375, 28.982143, 28.416666, 27.630953, 26.967262, 26.642857, 26.4375, 26.3125, 26.125, 26.0625, 26, 25.9375, 25.875, 25.625, 25.4375, 25.375, 25.482143, 25.747768, 26.011162, 26.195835, -10, -10, -10
50.4375, 49.9375, 49.544643, 49, 48.392857, 48.133926, 47.6875, 47.455357, 46.9375, 46.5, 46, 45.5, 45.125, 44.625, 44.125, 43.535713, 43.25, 42.75, 42.5, 42, 41.375, 40.848213, 40.375, 40.080357, 39.848213, 39.3125, 38.720238, 38.258926, 37.75, 37.4375, 37.125, 36.6875, 36.1875, 35.42857, 35.0625, 34.5625, 34.1875, 33.598213, 33.3125, 32.8125, 32.5, 32.1875, 31.6875, 31.375, 30.892857, 30.366072, 29.684523, 29.321428, 28.8125, 28.258928, 27.386904, 26.946428, 26.5, 26.0625, 25.535713, 25.125, 24.625, 24.375, 24.0625, 23.6875, 23.3125, 22.723213, 22.375, 21.875, 21.5, 21.125, 20.678572, 20.095238, 19.488094, 19.133928, 18.6875, 18.25, 17.61607, 17.3125, 17.0625, 17, 17, 17, 17, 17, 17, 17, 17, 17, 17, 17, 16.9375, 16.875, 16.875, 16.875, 16.9375, 17, 17, 17, 17, 16.9375, 16.875, 16.875, 16.8125, 16.75, 16.625, 16.5, 16.375, 16.3125, 16.3125, 16.1875, 16.125, 16.0625, 16, 16, 16, 16, 16, 16, 16, 16.0625, 16.1875, 16.3125, 16.375, 16.4375, 16.46875, 16.508928, 16.575001, 16.455357, 16.59375, 16.625, 16.875, 17.09375, 17.25, 17.40625, 17.59375, 17.75, 18.09375, 18.709822, 19.35268, 19.71875, 20.03125, 20.3125, 20.5625, 20.8125, 21, 21, 21, 21.125, 21.1875, 21.375, 21.5625, 21.5625, 21.5, 21.3125, 21.125, 21, 21, 21, 20.96875, 20.71875, 20.46875, 20.21875, 19.866072, 19.336309, 18.476189, 18.080357, 17.741072, 17.5, 17.375, 17.0625, 16.875, 16.625, 16.625, 16.598213, 16.517857, 16.455357, 16.1875, 16.25, 16.125, 16.0625, 16.25, 16.1875, 16.25, 16.1875, 16, 15.8125, 15.616072, 15.738096, 15.806122, 15.806122, 14.505952, 14.015306, 13.578232, 13.333333, 13.133928, 13, 12.9375, 12.875, 12.875, 12.9375, 12.9375, 12.875, 12.625, 12.375, 12.1875, 12, 12, 12, 12, 12, 12, 11.9375, 11.8125, 11.75, 11.75, 11.8125, 11.875, 11.9375, 11.9375, 11.875, 11.875, 11.75, 11.5, 11.5625, 11.5, 11.5, 11.5, 11.25, 11.125, 11, 11, 11, 11, 11, 11, 11, 11, 11.0625, 11.125, 11.0625, 11.0625, 11, 10.9375, 11, 10.9375, 10.875, 10.875, 10.875, 10.8125, 10.625, 10.375, 10.1875, 10.1875, 10.3125, 10.4375, 10.375, 10.25, 10.25, 10.125, 10.125, 10.125, 10.0625, 10.0625, 10.0625, 10.0625, 10, 10, 10, 10, 10, 10, 9.9375, 9.9375, 9.875, 9.875, 9.8125, 9.6875, 9.625, 9.5, 9.4375, 9.3125, 9.1875, 9.0625, 9, 9, 9, 9, 9.125, 9.375, 9.7946434, 10.151786, 10.357143, 10.642857, 10.875, -10, -10, -10, -10, -10, -10, -10, -10, -10, -10, 29.25, 29.5, 29.625, 29.875, 30, 29.875, 29.6875, 29.482143, 28.9375, 28.425594, 27.675594, 27.029762, 26.705357, 26.375, 26.25, 26.0625, 26, 26, 25.875, 25.75, 25.5, 25.25, 25.1875, 25.294643, 25.466518, 25.792412, 25.987499, -10, -10, -10, -10, -10, -10, -10, -10, -10, -10, -10, -10, -10, -10, -10, -10, -10, -10, -10, -10, -10, -10, -10, -10, -10, -10, -10, -10, -10, -10, -10, -10, -10, -10, -10, 54.75, 54.75, 54.75, 54.8125, 54.8125, 54.553574, 54.059525, 53.633926, 53.125, 52.705357, 52.3125, 51.767857, 51.3125, 50.866074, 50.5, 50.0625, 49.607143, 49.125, 48.642857, 48.196426, 47.705357, 47.392857, 46.875, 46.5, 46, 45.5, 45.125, 44.6875, 44.232143, 43.55357, 43.258926, 42.75, 42.5, 42, 41.4375, 41.017857, 40.5, 40.205357, 39.910713, 39.3125, 38.720238, 38.258926, 37.75, 37.4375, 37.0625, 36.625, 36.125, 35.410713, 35, 34.5, 34.1875, 33.642857, 33.375, 32.875, 32.5, 32.1875, 31.6875, 31.3125, 30.767857, 30.25, 29.705357, 29.375, 28.875, 28.321428, 27.494047, 26.946428, 26.455357, 26.0625, 25.580357, 25.1875, 24.642857, 24.375, 24.125, 23.75, 23.3125, 22.678572, 22.3125, 21.8125, 21.5, 21.125, 20.678572, 20.157738, 19.550594, 19.196428, 18.75, 18.104166, 17.544641, 17.3125, 17.1875, 17.1875, 17.1875, 17.125, 17.0625, 17, 17, 17, 17, 17, 17, 17, 16.9375, 16.875, 16.875, 16.875, 16.9375, 17, 17, 17, 17, 16.9375, 16.875, 16.875, 16.875, 16.875, 16.75, 16.5625, 16.375, 16.1875, 16.125, 16.0625, 16, 16, 16, 16, 16, 16, 16, 16, 16, 16.0625, 16.1875, 16.3125, 16.375, 16.375, 16.34375, 16.383928, 16.450001, 16.392857, 16.59375, 16.625, 16.875, 16.96875, 16.96875, 17, 17.125, 17.517857, 17.892857, 18.392857, 18.78125, 19.53125, 19.861607, 20.1875, 20.4375, 20.6875, 20.9375, 21, 21, 21.0625, 21.0625, 21.1875, 21.3125, 21.3125, 21.3125, 21.1875, 21.0625, 21, 21, 21, 20.9375, 20.6875, 20.4375, 20.013393, 19.370749, 18.751699, 17.996597, 17.446428, 17.241072, 17.0625, 17, 16.75, 16.5625, 16.276787, 16.375, 16.348213, 16.160713, 16.098213, 15.8125, 15.9375, 15.875, 15.875, 16.0625, 15.9375, 15.9375, 15.8125, 15.5625, 15.375, 15.071428, 14.347222, 14.136905, 14.011905, 13.755102, 13.482143, 13.214286, 13.125, 13.0625, 13, 12.9375, 12.875, 12.875, 12.9375, 12.875, 12.75, 12.5, 12.25, 12.125, 12, 12, 12.0625, 12.0625, 12.0625, 12, 11.875, 11.6875, 11.5625, 11.5625, 11.5625, 11.6875, 11.8125, 11.875, 11.8125, 11.75, 11.625, 11.4375, 11.5, 11.5625, 11.625, 11.5625, 11.375, 11.25, 11.0625, 11.0625, 11.0625, 11, 11, 11, 11, 11, 11.0625, 11.125, 11.125, 11.125, 11.0625, 11, 11, 10.9375, 10.8125, 10.8125, 10.8125, 10.8125, 10.6875, 10.4375, 10.1875, 10.0625, 10.125, 10.25, 10.25, 10.1875, 10.25, 10.125, 10.125, 10.125, 10, 10, 10, 10, 10, 10, 10, 10, 10, 10, 9.9375, 9.9375, 9.875, 9.8125, 9.75, 9.625, 9.5625, 9.5, 9.4375, 9.3125, 9.1875, 9.0625, 9, 9, 9, 9.0625, 9.1875, 9.4375, 9.7946434, 9.9642859, 10.0625, 10.413691, 10.650001, -10, -10, -10, -10, -10, -10, -10, -10, -10, -10, 29.125, 29.416666, 29.5625, 29.8125, 30, 29.875, 29.6875, 29.419643, 28.875, 28.363094, 27.613094, 27.092262, 26.830357, 26.5625, 26.4375, 26.1875, 26.0625, 26, 25.8125, 25.625, 25.375, 25.0625, 25, 25.107143, 25.216518, 25.604912, 25.870834, -10, -10, -10
50.5, 50.125, 49.714287, 49.3125, 48.830357, 48.267853, 47.723213, 47.330357, 46.8125, 46.375, 45.875, 45.4375, 45, 44.625, 44.169643, 43.535713, 43.196426, 42.6875, 42.4375, 41.9375, 41.4375, 41.080357, 40.625, 40.4375, 40.098213, 39.5, 38.907738, 38.446426, 38, 37.633926, 36.958332, 36.508926, 36, 35.392857, 34.9375, 34.4375, 34.125, 33.625, 33.3125, 32.8125, 32.4375, 32.0625, 31.625, 31.1875, 30.642857, 30.1875, 29.705357, 29.428572, 28.791666, 28.330357, 27.538691, 27.008928, 26.517857, 26.125, 25.75, 25.3125, 24.830357, 24.5, 24.1875, 23.8125, 23.104166, 22.5, 22.1875, 21.75, 21.5, 21.0625, 20.553572, 20.041666, 19.571428, 19.25, 18.8125, 18.104166, 17.544641, 17.375, 17.3125, 17.3125, 17.3125, 17.1875, 17.0625, 17, 17, 17, 17, 17, 17, 17, 16.9375, 16.875, 16.875, 16.875, 16.9375, 17, 17, 17, 17, 16.9375, 16.875, 16.875, 16.8125, 16.8125, 16.6875, 16.5, 16.375, 16.1875, 16.125, 16.0625, 16, 16, 16, 16, 16, 16, 16, 16, 16, 16, 16.0625, 16.125, 16.1875, 16.25, 16.21875, 16.258928, 16.325001, 16.142857, 16.28125, 16.25, 16.4375, 16.5625, 16.5, 16.46875, 16.46875, 16.208334, 16.645834, 17.300596, 18.117346, 19.09375, 19.549107, 19.982143, 20.3125, 20.625, 20.875, 21, 21, 21, 21, 21.125, 21.1875, 21.25, 21.25, 21.125, 21.0625, 21, 21, 21, 20.90625, 20.65625, 20.40625, 19.84375, 17.910715, 17.176588, 16.595238, 16.607143, 16.616072, 16.4375, 16.4375, 16.25, 16.125, 15.839286, 15.875, 15.848214, 15.660713, 15.660713, 15.4375, 15.5625, 15.5625, 15.5625, 15.6875, 15.625, 15.5625, 15.375, 14.979167, 14.75, 14.153061, 13.761905, 13.510203, 13.367347, 13.25, 13.107143, 13, 13, 13, 12.9375, 12.875, 12.875, 12.875, 12.9375, 12.875, 12.75, 12.5, 12.3125, 12.1875, 12.0625, 12.0625, 12.125, 12.125, 12.125, 12.0625, 11.875, 11.75, 11.625, 11.625, 11.5625, 11.625, 11.75, 11.8125, 11.8125, 11.75, 11.625, 11.5, 11.5, 11.625, 11.75, 11.625, 11.5625, 11.375, 11.125, 11.125, 11.0625, 11, 11, 11, 11, 11, 11, 11, 11, 11, 11, 11, 11, 10.9375, 10.8125, 10.8125, 10.8125, 10.875, 10.75, 10.5625, 10.3125, 10.0625, 10.0625, 10.125, 10.125, 10.125, 10.25, 10.125, 10.125, 10.125, 9.9375, 9.9375, 9.9375, 9.9375, 10, 10, 10, 10, 10, 10, 9.9375, 9.9375, 9.875, 9.8125, 9.75, 9.6875, 9.625, 9.5625, 9.5, 9.3125, 9.1875, 9.0625, 9, 9, 9, 9.0625, 9.1875, 9.375, 9.6071434, 9.6071434, 9.625, 10.017857, 10.5375, -10, -10, -10, -10, -10, -10, -10, -10, -10, -10, 29, 29.333334, 29.5, 29.75, 30, 29.8125, 29.5625, 29.25893, 28.875, 28.425594, 27.684523, 27.455357, 27.160713, 26.9375, 26.6875, 26.3125, 26.125, 26, 25.75, 25.5, 25.25, 25, 25, 25, 25.171875, 25.515625, 25.737501, -10, -10, -10, -10, -10, -10, -10, -10, -10, -10, -10, -10, -10, -10, -10, -10, -10, -10, -10, -10, -10, -10, -10, -10, -10, -10, -10, -10, -10, -10, -10, -10, -10, -10, -10, -10, 55.5, 55.333336, 55.25, 55, 54.625, 54.375, 53.9375, 53.5, 52.955357, 52.392857, 51.830357, 51.375, 50.830357, 50.4375, 50.0625, 49.625, 49.205357, 48.8125, 48.196426, 47.660713, 47.267857, 46.8125, 46.428574, 45.791668, 45.383926, 44.875, 44.5625, 44.169643, 43.580357, 43.196426, 42.642857, 42.375, 41.9375, 41.5625, 41.3125, 40.8125, 40.4375, 39.955357, 39.491074, 38.979168, 38.665176, 38.28125, 37.852676, 37.052082, 36.392857, 35.830357, 35.25, 34.8125, 34.3125, 34, 33.5, 33.125, 32.6875, 32.3125, 32, 31.625, 31.125, 30.535713, 30.125, 29.6875, 29.428572, 28.791666, 28.392857, 27.645834, 27.133928, 26.642857, 26.25, 25.875, 25.375, 24.892857, 24.5, 24.1875, 23.803572, 22.958332, 22.428572, 22.125, 21.75, 21.5, 21, 20.5, 20.1875, 19.6875, 19.375, 18.830357, 18.041666, 17.482141, 17.3125, 17.3125, 17.375, 17.375, 17.3125, 17.125, 17.0625, 17.0625, 17, 17, 17, 17, 17, 16.9375, 16.9375, 16.9375, 16.9375, 17, 17, 17, 17, 17, 17, 17, 17, 16.875, 16.75, 16.5, 16.25, 16.1875, 16.0625, 16.0625, 16.0625, 16, 16, 16, 16, 16, 16, 16, 16, 16, 16, 16, 15.9375, 16, 16.0625, 16.09375, 16.1875, 16.125, 15.9375, 15.90625, 15.9375, 16.0625, 16.25, 16.25, 16.09375, 15.75, 15.714286, 16.017857, 16.897322, 17.566963, 18.4375, 18.955357, 19.491072, 20.1875, 20.580357, 20.875, 21, 21, 21, 21, 21.0625, 21.0625, 21.125, 21.125, 21.0625, 21.0625, 21, 21, 21, 20.84375, 20.433037, 19.869049, 19.137754, 17.119049, 16.258503, 15.857142, 15.9375, 15.8125, 15.8125, 15.8125, 15.75, 15.714286, 15.5625, 15.5625, 15.598214, 15.223214, 15.223214, 15.0625, 15.1875, 15.3125, 15.3125, 15.4375, 15.375, 15.1875, 14.830357, 14.416667, 14.0625, 13.633928, 13.184524, 12.883928, 12.75, 12.75, 12.75, 12.8125, 12.875, 12.9375, 13, 13, 13, 13, 13, 12.875, 12.75, 12.5, 12.3125, 12.1875, 12.0625, 12.0625, 12.125, 12.125, 12.125, 12.0625, 11.9375, 11.875, 11.75, 11.75, 11.625, 11.625, 11.75, 11.8125, 11.75, 11.6875, 11.625, 11.5, 11.5, 11.5625, 11.5625, 11.4375, 11.5, 11.375, 11.1875, 11.25, 11.1875, 11.125, 11.125, 11.0625, 11, 11, 11, 11, 11, 11, 11, 11, 11, 11, 10.875, 10.875, 10.875, 10.875, 10.8125, 10.6875, 10.4375, 10.1875, 10.125, 10.0625, 10.0625, 10.0625, 10.125, 10.0625, 10.0625, 10.0625, 9.9375, 9.9375, 9.9375, 9.9375, 10, 10, 10, 10, 10, 10, 9.9375, 9.9375, 9.9375, 9.875, 9.8125, 9.6875, 9.5, 9.4375, 9.375, 9.25, 9.1875, 9.0625, 9, 9, 9, 9.0625, 9.125, 9.25, 9.4196434, 9.3571434, 9.4375, 9.8839283, 10.337501, -10, -10, -10, -10, -10, -10, -10, -10, -10, -10, 29.083334, 29.375002, 29.5, 29.75, 30, 29.75, 29.5, 29.13393, 28.705357, 28.508928, 28.080357, 27.821428, 27.5, 27.1875, 26.8125, 26.4375, 26.1875, 26, 25.78125, 25.5625, 25.3125, 25, 24.96875, 24.9375, 25.15625, 25.53125, 25.758333, -10, -10, -10
50.241074, 49.875, 49.5625, 49.25, 48.8125, 48.133926, 47.535713, 47.1875, 46.75, 46.428574, 45.854168, 45.446426, 44.9375, 44.580357, 44.169643, 43.642857, 43.258926, 42.705357, 42.321426, 41.830357, 41.5, 41.1875, 40.696426, 40.020832, 39.464287, 39.0625, 38.875, 38.65625, 38.34375, 37.870537, 37.052082, 36.330357, 35.723213, 35.3125, 34.875, 34.428574, 33.854168, 33.3125, 32.875, 32.5, 32.1875, 31.9375, 31.625, 31.125, 30.535713, 30.1875, 29.75, 29.428572, 28.747023, 28.383928, 27.875, 27.4375, 26.892857, 26.4375, 26, 25.5, 25.017857, 24.5625, 24.25, 23.803572, 22.958332, 22.5, 22.169643, 21.705357, 21.446428, 20.9375, 20.5, 20.25, 19.75, 19.4375, 18.892857, 18.041666, 17.482141, 17.3125, 17.3125, 17.375, 17.375, 17.375, 17.25, 17.1875, 17.1875, 17.0625, 17, 17, 17, 17, 17, 17, 17, 17, 17, 17, 17, 17, 17, 17, 17, 17, 16.875, 16.75, 16.5, 16.25, 16.1875, 16.0625, 16.0625, 16.0625, 16, 15.9375, 15.9375, 15.9375, 15.9375, 16, 16, 16, 16, 16, 16, 15.875, 15.875, 15.875, 15.875, 16, 16, 15.875, 15.75, 15.6875, 15.75, 15.875, 15.90625, 15.71875, 15.46875, 15.40625, 15.625, 16.241072, 16.973213, 17.959822, 18.59375, 19.178572, 20, 20.5, 20.8125, 21, 21, 21, 21, 21, 21, 21.125, 21.1875, 21.1875, 21.1875, 21.0625, 21, 21, 20.8125, 20.241072, 18.013889, 16.976191, 15.809524, 15.642857, 15.375, 15.3125, 15.25, 15.3125, 15.214286, 15.142858, 15.276786, 15.1875, 15.125, 15.25, 15.017857, 14.955357, 14.875, 14.9375, 15, 15, 15, 14.875, 14.75, 14.392857, 13.979167, 13.625, 13.205357, 13.017857, 12.75, 12.625, 12.625, 12.625, 12.75, 12.875, 12.9375, 13, 13, 13, 13, 12.9375, 12.8125, 12.6875, 12.4375, 12.3125, 12.1875, 12.0625, 12.0625, 12.125, 12.125, 12.125, 12.0625, 11.9375, 11.875, 11.8125, 11.8125, 11.6875, 11.75, 11.8125, 11.875, 11.875, 11.8125, 11.75, 11.625, 11.5, 11.4375, 11.375, 11.25, 11.375, 11.3125, 11.25, 11.375, 11.375, 11.3125, 11.25, 11.125, 11, 11, 11, 11, 11, 11, 11, 11, 11, 11, 10.9375, 10.9375, 10.875, 10.8125, 10.75, 10.6875, 10.5, 10.3125, 10.1875, 10, 10, 10, 10, 10, 10, 10, 9.9375, 9.9375, 9.9375, 9.9375, 10, 10, 10, 10, 10, 9.9375, 9.9375, 9.9375, 9.9375, 9.9375, 9.875, 9.6875, 9.4375, 9.3125, 9.125, 9.0625, 9.0625, 9, 9, 9, 9, 9.0625, 9.0625, 9.0625, 9.0625, 9, 9.25, 9.645833, 10.2, -10, -10, -10, -10, -10, -10, -10, -10, -10, 29.5, 29.083334, 29.375002, 29.5, 29.75, 30, 29.75, 29.4375, 29.089287, 28.75, 28.5625, 28.205357, 27.883928, 27.5625, 27.3125, 26.875, 26.5, 26.25, 25.9375, 25.71875, 25.5, 25.25, 25, 24.96875, 24.9375, 25.1875, 25.5625, 25.799999, -10, -10, -10, -10, -10, -10, -10, -10, -10, -10, -10, -10, -10, -10, -10, -10, -10, -10, -10, -10, -10, -10, -10, -10, -10, -10, -10, -10, -10, -10, -10, -10, -10, -10, -10, -10, 56.125, 55.750004, 55.455357, 54.964287, 54.5, 54.25, 54, 53.6875, 53.25, 52.625, 51.895832, 51.366074, 50.663689, 50.294643, 49.729168, 49.446426, 49.125, 48.75, 48.196426, 47.642857, 47.25, 46.8125, 46.428574, 45.916668, 45.5, 44.9375, 44.580357, 44.125, 43.8125, 43.375, 42.830357, 42.267857, 41.723213, 41.4375, 41.0625, 40.633926, 39.895832, 39.130955, 38.758926, 38.625, 38.53125, 38.34375, 37.924107, 36.96875, 36.276787, 35.660713, 35.25, 34.767857, 34.334824, 33.729168, 33.25, 32.8125, 32.46875, 32.1875, 32, 31.6875, 31.1875, 30.553572, 30.1875, 29.75, 29.366072, 28.639879, 28.321428, 27.8125, 27.5, 27.0625, 26.553572, 25.979166, 25.508928, 25.0625, 24.625, 24.3125, 23.803572, 23.020832, 22.607143, 22.232143, 21.767857, 21.446428, 20.9375, 20.5, 20.25, 19.75, 19.4375, 18.892857, 18.1875, 17.55357, 17.3125, 17.1875, 17.1875, 17.1875, 17.25, 17.1875, 17.1875, 17.1875, 17.0625, 17, 17, 17, 17, 17, 17, 17, 17, 17, 17, 17, 17, 17, 17, 17, 17, 16.875, 16.75, 16.5625, 16.375, 16.25, 16.125, 16.0625, 16, 16, 15.875, 15.8125, 15.830357, 15.9375, 16, 16.0625, 16, 16, 16, 16, 15.875, 15.875, 15.875, 15.875, 16, 16, 15.875, 15.625, 15.5, 15.5, 15.625, 15.8125, 15.6875, 15.4375, 15.3125, 15.4375, 15.991072, 16.625, 17.352678, 18.367559, 19.035715, 20, 20.5, 20.8125, 21, 21, 21, 21, 21, 21, 21.125, 21.1875, 21.1875, 21.1875, 21.0625, 21, 21, 20.78125, 20.147322, 17.8125, 16.632654, 15.476191, 15.392857, 15.1875, 15.0625, 14.875, 14.8125, 14.75, 14.6875, 14.714286, 14.723214, 14.625, 14.75, 14.625, 14.5625, 14.5625, 14.5625, 14.625, 14.625, 14.5625, 14.5, 14.375, 14.080357, 13.729167, 13.4375, 13.125, 12.955357, 12.8125, 12.6875, 12.6875, 12.6875, 12.75, 12.875, 12.9375, 13, 13, 13, 13, 12.9375, 12.8125, 12.6875, 12.4375, 12.3125, 12.1875, 12.0625, 12.0625, 12.0625, 12.0625, 12.0625, 12.0625, 12, 12, 12, 12, 11.9375, 11.9375, 11.875, 11.8125, 11.8125, 11.75, 11.6875, 11.5625, 11.375, 11.25, 11.1875, 11.125, 11.25, 11.1875, 11.1875, 11.3125, 11.3125, 11.3125, 11.25, 11.125, 11, 11, 11, 11, 11, 11, 11, 11, 11, 11, 11, 10.9375, 10.875, 10.8125, 10.75, 10.75, 10.5625, 10.375, 10.1875, 10, 10, 10, 10, 10, 10, 10, 10, 10, 10, 10, 10, 10, 10, 10, 9.9375, 9.8125, 9.8125, 9.8125, 9.875, 10, 9.9375, 9.75, 9.5, 9.25, 9.0625, 9, 9, 9, 9, 8.9375, 8.875, 8.875, 8.875, 9, 9.125, 9.1071434, 9.2375002, 9.6083336, -10, -10, -10, -10, -10, -10, -10, -10, -10, -10, -10, 29.083334, 29.375002, 29.5, 29.75, 30, 29.75, 29.5, 29.276787, 28.982143, 28.666666, 28.339285, 27.883928, 27.5625, 27.3125, 26.875, 26.5625, 26.3125, 26, 25.71875, 25.5625, 25.375, 25.1875, 25.15625, 25, 25.125, 25.3125, 25.416666, -10, -10, -10
50.357143, 49.729168, 49.339283, 49, 48.625, 48.25, 47.8125, 47.4375, 47, 46.57143, 46.041668, 45.5625, 45.0625, 44.642857, 44.25, 43.9375, 43.5, 42.955357, 42.267857, 41.67857, 41.3125, 40.875, 40.446426, 39.645832, 38.880955, 38.508926, 38.375, 38.28125, 38.15625, 37.790176, 37.072918, 36.276787, 35.616074, 35.1875, 34.705357, 34.272324, 33.657738, 33.28125, 32.90625, 32.625, 32.196426, 31.955357, 31.625, 31.125, 30.553572, 30.1875, 29.6875, 29.25, 28.61607, 28.3125, 27.8125, 27.5, 27.125, 26.607143, 25.833332, 25.392857, 24.9375, 24.5625, 24.25, 23.696428, 23.104166, 22.660715, 22.294643, 21.767857, 21.446428, 20.9375, 20.5, 20.1875, 19.6875, 19.375, 18.830357, 18.25, 17.660713, 17.3125, 17.125, 17.0625, 17.0625, 17.25, 17.25, 17.25, 17.25, 17.0625, 17, 17, 17, 17, 17, 17, 17, 17, 17, 16.9375, 16.9375, 16.9375, 16.9375, 17, 17, 16.9375, 16.8125, 16.6875, 16.5, 16.375, 16.25, 16.125, 16.0625, 16, 16, 15.8125, 15.75, 15.767857, 15.875, 16, 16.0625, 16, 16, 16, 16, 15.875, 15.875, 15.875, 15.875, 16, 16, 15.9375, 15.75, 15.6875, 15.6875, 15.75, 15.875, 15.6875, 15.4375, 15.1875, 15.214286, 15.669643, 16.196428, 16.995535, 18.346725, 19.035715, 20, 20.4375, 20.75, 20.9375, 21, 21, 21, 21, 21, 21.125, 21.1875, 21.1875, 21.1875, 21.0625, 21, 20.9375, 20.6875, 19.848215, 17.6, 15.959184, 14.875, 14.75, 14.6875, 14.625, 14.5, 14.4375, 14.375, 14.3125, 14.339286, 14.410714, 14.375, 14.5, 14.375, 14.3125, 14.3125, 14.3125, 14.375, 14.375, 14.3125, 14.125, 14, 13.767857, 13.5625, 13.375, 13.125, 12.892857, 12.8125, 12.6875, 12.6875, 12.6875, 12.75, 12.875, 12.9375, 13, 13, 12.9375, 12.875, 12.75, 12.625, 12.5625, 12.4375, 12.3125, 12.1875, 12.0625, 12, 12, 12, 12, 12, 12, 12, 12, 12, 12, 12, 11.9375, 11.875, 11.8125, 11.75, 11.6875, 11.5625, 11.4375, 11.25, 11.125, 11.0625, 11.0625, 11.0625, 11.125, 11.25, 11.3125, 11.3125, 11.25, 11.125, 11, 11, 11, 11, 11, 11, 11, 11, 11, 11, 10.9375, 10.875, 10.8125, 10.75, 10.8125, 10.75, 10.5625, 10.375, 10.125, 10, 10, 10, 10, 10, 10, 10, 10, 10, 10, 10, 10, 10, 10, 10, 9.9375, 9.8125, 9.8125, 9.8125, 9.875, 10, 9.875, 9.625, 9.375, 9.125, 9.0625, 9.0357141, 8.9642859, 9, 8.9375, 8.9375, 8.8125, 8.8125, 8.875, 9.1071434, 9.375, 9.4821434, 9.5500002, 9.8374996, -10, -10, -10, -10, -10, -10, -10, -10, -10, -10, -10, 29.083334, 29.375002, 29.5, 29.75, 30, 29.8125, 29.625, 29.5, 29.089287, 28.559523, 28.267857, 27.8125, 27.5625, 27.3125, 26.875, 26.5625, 26.3125, 26, 25.75, 25.625, 25.4375, 25.25, 25.1875, 25, 25.0625, 25.1875, 25.25, -10, -10, -10, -10, -10, -10, -10, -10, -10, -10, -10, -10, -10, -10, -10, -10, -10, -10, -10, -10, -10, -10, -10, -10, -10, -10, -10, -10, -10, -10, -10, -10, -10, -10, -10, -10, 56.125, 55.916668, 55.642857, 55.276787, 54.875, 54.5, 54.125, 53.642857, 53.1875, 52.607143, 51.895832, 51.428574, 50.833332, 50.419643, 49.791668, 49.339283, 49.0625, 48.6875, 48.375, 48, 47.5625, 47.0625, 46.535713, 46.125, 45.616074, 45.1875, 44.705357, 44.25, 43.892857, 43.5, 43.0625, 42.383926, 41.595238, 41.196426, 40.6875, 40.321426, 39.583332, 38.800594, 38.339287, 38.1875, 38.0625, 37.9375, 37.633926, 36.979168, 36.267857, 35.616074, 35.25, 34.767857, 34.334824, 33.747025, 33.46875, 33.138393, 32.729168, 32.267857, 31.955357, 31.625, 31.125, 30.553572, 30.25, 29.75, 29.25, 28.571428, 28.1875, 27.6875, 27.4375, 27.0625, 26.544643, 25.726189, 25.330357, 24.9375, 24.625, 24.3125, 23.767857, 23.25, 22.732143, 22.294643, 21.705357, 21.321428, 20.8125, 20.4375, 20.0625, 19.625, 19.375, 18.875, 18.375, 17.785713, 17.375, 17.1875, 17.0625, 17.0625, 17.1875, 17.1875, 17.1875, 17.1875, 17.0625, 17, 17, 17, 17, 17, 17, 17, 17, 17, 16.9375, 16.9375, 16.9375, 16.9375, 17, 16.9375, 16.8125, 16.6875, 16.5625, 16.4375, 16.375, 16.25, 16.125, 16.0625, 16, 16, 15.8125, 15.75, 15.767857, 15.875, 16, 16.0625, 16, 16, 15.9375, 15.9375, 15.875, 15.875, 15.9375, 15.9375, 16, 16, 16, 15.875, 15.8125, 15.75, 15.6875, 15.6875, 15.5, 15.3125, 15.125, 15.214286, 15.607143, 15.991072, 16.857141, 18.607141, 19.32143, 20, 20.357143, 20.625, 20.875, 21, 21, 21, 21, 21, 21.0625, 21.125, 21.125, 21.125, 21.0625, 21, 20.875, 20.625, 19.741072, 16.690477, 15.408163, 14.625, 14.5, 14.4375, 14.4375, 14.375, 14.3125, 14.25, 14.1875, 14.125, 14.125, 14.125, 14.1875, 14.1875, 14.125, 14.125, 14.125, 14.125, 14.0625, 13.9375, 13.75, 13.75, 13.75, 13.5625, 13.4375, 13.1875, 13, 13, 12.9375, 12.9375, 12.9375, 12.9375, 13, 13, 13, 13, 12.875, 12.75, 12.5625, 12.4375, 12.4375, 12.4375, 12.375, 12.25, 12.125, 12, 12, 12, 12, 12, 12, 12, 12, 12, 12, 12, 11.9375, 11.875, 11.8125, 11.6875, 11.5625, 11.5, 11.4375, 11.375, 11.3125, 11.1875, 11.0625, 11, 11.0625, 11.125, 11.1875, 11.1875, 11.125, 11.0625, 11, 11, 11, 11, 11, 11, 11, 11, 11, 11, 10.875, 10.8125, 10.75, 10.625, 10.6875, 10.5625, 10.375, 10.25, 10.125, 10.125, 10.125, 10.125, 10.0625, 10, 10, 10, 10, 10, 10, 10, 10, 10, 10, 10, 9.9375, 9.8125, 9.8125, 9.8125, 9.875, 10, 9.8125, 9.5625, 9.3125, 9.0625, 9.0625, 9.0357141, 8.9642859, 9, 8.9375, 8.9375, 8.75, 8.6875, 8.6875, 8.8571434, 9.2321434, 9.5821428, 9.5589285, 9.9624996, -10, -10, -10, -10, -10, -10, -10, -10, -10, -10, -10, 29, 29.333334, 29.5, 29.75, 30, 29.875, 29.6875, 29.5625, 29.214287, 28.622023, 28.330357, 27.875, 27.5625, 27.3125, 26.875, 26.5625, 26.3125, 26, 25.78125, 25.6875, 25.5, 25.3125, 25.21875, 25, 25, 25.133928, 25.333332, -10, -10, -10
50.616074, 50.041668, 49.526783, 49.25, 48.875, 48.5625, 48.1875, 47.642857, 47.125, 46.535713, 46.0625, 45.553574, 45.1875, 44.75, 44.375, 43.955357, 43.5, 43.0625, 42.375, 41.595238, 41.196426, 40.6875, 40.375, 39.875, 39.104168, 38.651787, 38.3125, 38.125, 37.9375, 37.616074, 36.979168, 36.122025, 35.544643, 35.1875, 34.705357, 34.21875, 33.723213, 33.53125, 33.200893, 32.791668, 32.330357, 31.883928, 31.4375, 31, 30.473213, 30.25, 29.8125, 29.366072, 28.595238, 28.196428, 27.6875, 27.4375, 27.0625, 26.544643, 25.726189, 25.330357, 24.9375, 24.625, 24.3125, 23.758928, 23.104166, 22.589287, 22.1875, 21.75, 21.34375, 20.84375, 20.40625, 19.96875, 19.5625, 19.25, 18.75, 18.375, 17.830357, 17.4375, 17.3125, 17.125, 17.125, 17.1875, 17.0625, 17.0625, 17.0625, 17, 17, 17, 17, 17, 17, 17, 17, 17, 17, 16.9375, 16.9375, 16.9375, 16.9375, 16.9375, 16.8125, 16.625, 16.4375, 16.3125, 16.25, 16.25, 16.1875, 16.125, 16.0625, 16, 16, 15.875, 15.8125, 15.830357, 15.9375, 16, 16.0625, 16, 16, 16, 15.973214, 15.758928, 15.729167, 15.857143, 15.928572, 16, 16, 15.9375, 15.875, 15.875, 15.8125, 15.75, 15.625, 15.375, 15.1875, 15, 15.089286, 15.357143, 15.553572, 16.357141, 18.583332, 19.392859, 20.09375, 20.34375, 20.59375, 20.84375, 21, 21, 21, 21, 21, 21, 21, 21, 21, 21, 21, 20.8125, 20.5625, 19.776787, 17.003969, 15.442177, 14.553572, 14.25, 14.1875, 14.1875, 14.125, 14.0625, 14, 14, 14, 14, 14, 14, 14, 14, 14, 14, 13.9375, 13.8125, 13.6875, 13.5, 13.5625, 13.6875, 13.5625, 13.5, 13.25, 13, 13.0625, 13.0625, 13.0625, 13.0625, 13, 13, 12.9375, 12.875, 12.875, 12.75, 12.625, 12.5625, 12.5, 12.5625, 12.6875, 12.5625, 12.375, 12.1875, 12, 12, 12, 12, 12, 12, 12, 12, 12, 12, 12, 11.9375, 11.875, 11.75, 11.5625, 11.4375, 11.4375, 11.5, 11.5625, 11.5625, 11.4375, 11.25, 11.125, 11.0625, 11, 11, 11, 11, 11, 11, 11, 11, 11, 11, 11, 11, 11, 11, 11, 10.875, 10.8125, 10.8125, 10.75, 10.8125, 10.6875, 10.4375, 10.25, 10.1875, 10.25, 10.25, 10.25, 10.125, 10, 10, 10, 10, 10, 10, 10, 10, 10, 10, 10, 9.9375, 9.875, 9.875, 9.8125, 9.8125, 9.8125, 9.5625, 9.375, 9.1875, 9, 9.0625, 9.0357141, 8.9642859, 9, 8.9375, 8.9375, 8.75, 8.6875, 8.6875, 8.9196434, 9.3571434, 9.7696428, 9.7464285, 10.191667, 10.266666, -10, -10, -10, -10, -10, -10, -10, -10, -10, -10, 29, 29.333334, 29.5, 29.75, 30, 29.9375, 29.8125, 29.71875, 29.433037, 28.840773, 28.486607, 28.008928, 27.479166, 27.25, 26.8125, 26.5625, 26.3125, 26.0625, 25.90625, 25.875, 25.75, 25.5, 25.34375, 25.0625, 25, 25.196428, 25.466667, -10, -10, -10, -10, -10, -10, -10, -10, -10, -10, -10, -10, -10, -10, -10, -10, -10, -10, -10, -10, -10, -10, -10, -10, -10, -10, -10, -10, -10, -10, -10, -10, -10, -10, -10, -10, 56, 55.854168, 55.6875, 55.3125, 54.875, 54.5, 53.9375, 53.517857, 53, 52.375, 51.785713, 51.375, 50.9375, 50.5625, 50.125, 49.580357, 49.3125, 48.9375, 48.625, 48.25, 47.589287, 47.017857, 46.473213, 45.9375, 45.5, 45.25, 44.75, 44.4375, 43.892857, 43.4375, 43, 42.428574, 41.702381, 41.258926, 40.75, 40.375, 39.875, 39.3125, 38.892857, 38.5, 38.25, 37.9375, 37.5, 36.883926, 35.943451, 35.419643, 35.125, 34.75, 34.25, 33.75, 33.59375, 33.245537, 32.739586, 32.276787, 31.758928, 31.375, 30.9375, 30.455357, 30.1875, 29.6875, 29.196428, 28.514881, 28.071428, 27.625, 27.375, 26.9375, 26.491072, 25.809523, 25.383928, 25, 24.625, 24.3125, 23.758928, 23.041666, 22.482143, 22.0625, 21.625, 21.28125, 20.78125, 20.40625, 19.90625, 19.5, 19.125, 18.625, 18.3125, 17.8125, 17.4375, 17.3125, 17.125, 17.125, 17.1875, 17.0625, 17.0625, 17.0625, 17, 17, 17, 17, 17, 17, 17, 17, 17, 17, 16.9375, 16.9375, 16.9375, 16.9375, 16.9375, 16.75, 16.5, 16.25, 16.0625, 16, 16, 16, 16, 16, 16, 16, 15.9375, 15.9375, 15.9375, 15.9375, 16, 16, 16, 16, 16, 15.901786, 15.558928, 15.657739, 15.785714, 15.928572, 16, 16, 15.875, 15.875, 15.875, 15.8125, 15.75, 15.5, 15.25, 15.0625, 14.9375, 15.026786, 15.232143, 15.366072, 16.107141, 18.416666, 19.285715, 19.96875, 20.28125, 20.53125, 20.78125, 21, 21, 21, 21, 21, 21, 21, 21, 21, 21, 21, 20.8125, 20.625, 19.901787, 18.238096, 15.511905, 14.464286, 14.0625, 14, 14, 14, 14, 14, 14, 14, 14, 14, 14, 14, 14, 14, 14, 13.875, 13.6875, 13.5, 13.25, 13.3125, 13.4375, 13.375, 13.375, 13.1875, 13.0625, 13.0625, 13.0625, 13.0625, 13, 13, 13, 12.9375, 12.875, 12.875, 12.75, 12.625, 12.5625, 12.5625, 12.6875, 12.875, 12.8125, 12.625, 12.375, 12.0625, 11.964286, 11.9375, 11.9375, 12, 12, 12, 12, 12, 12, 12, 12, 12, 11.8125, 11.625, 11.4375, 11.375, 11.5, 11.5625, 11.625, 11.5625, 11.375, 11.3125, 11.25, 11.125, 11.125, 11.0625, 11, 11, 11, 11, 11, 11, 11, 11, 11, 11, 11, 11, 10.875, 10.875, 10.8125, 10.75, 10.8125, 10.6875, 10.5, 10.3125, 10.3125, 10.375, 10.375, 10.375, 10.1875, 10, 10, 10, 10, 10, 10, 10, 10, 10, 10, 10, 10, 10, 10, 9.9375, 9.875, 9.8125, 9.5625, 9.375, 9.1875, 9, 9.0625, 9.0357141, 8.9642859, 9, 8.9375, 9, 8.875, 8.8125, 8.8125, 8.9196434, 9.2321434, 9.7250004, 9.8214283, 10.291667, 10.288888, -10, -10, -10, -10, -10, -10, -10, -10, -10, -10, 29, 29.333334, 29.5, 29.75, 30, 29.9375, 29.75, 29.53125, 29.200893, 28.799107, 28.477678, 28.133928, 27.604166, 27.3125, 26.875, 26.625, 26.375, 26.125, 26.03125, 25.9375, 25.8125, 25.5625, 25.40625, 25.25, 25.25, 25.508928, 25.799999, -10, -10, -10
