-10, -10, -10, -10, -10, -10, -10, -10, -10, -10, -10, -10, -10, 55.333336, 55.357143, 55.392857, 55.4375, 55.5, 55.625, 55.6875, 55.5625, 55.5, 55.57143, 55.57143, 55.375, 55.25, 55.125, 54.9375, 54.9375, 54.9375, 55.25, 55.625, 55.541668, 55.5, 55.25, 55.285713, 55.25, 55.25, 55.0625, 55, 55, 55.142857, 55.291668, 55.25, 55.357143, 55.42857, 55.42857, 55.392857, 55.357143, 55.32143, 55.32143, 55.17857, 55.17857, 55.214287, 55.122448, 55.05714, 55.346943, 55.382656, 55.57143, 55.67857, 55.4375, 55.714287, 55.714287, 55.714287, 55.714287, 55.714287, 55.714287, 55.642857, 55.57143, 55.464287, 55.392857, 55.464287, 55.535713, 55.57143, 55.57143, 55.464287, 55.1875, 55.1875, 55.1875, 55.25, 55.464287, 55.666668, 55.583332, 55.541668, 55.25, 55.0625, 55.125, 55.1875, 55.3125, 55.375, 55.4375, 55.375, 55.375, 55.4375, 55.375, 55.375, 55.25, 55.125, 55.392857, 55.392857, 55.464287, 55.3125, 55.25, 55.3125, 55.5, 55.669643, 55.857143, 55.908165, 55.785713, 55.67857, 55.607143, 55.464287, 55.464287, 55.464287, 55.57143, 55.57143, 55.535713, 55.5, 55.5, 55.4375, 55.473213, 55.42857, 55.112244, 55, 54.92857, 55.142857, 55.25, 55.357143, 55.357143, 55.392857, 55.535713, 55.57653, 55.438774, 55.666668, 55.625, 55.625, 55.666668, 55.510201, 55.645832, 55.732143, 55.75, 55.75, 55.625, 55.75, 55.67857, 55.791668, 55.75, 55.666668, 55.464287, 55.535713, 55.607143, 55.67857, 55.67857, 55.57143, 55.535713, 55.535713, 55.57143, 55.67857, 55.714287, 55.714287, 55.714287, 55.714287, 55.375, 55.464287, 55.357143, 55.32143, 55.464287, 55.5, 55.464287, 55.5, 55.464287, 55.535713, 55.67857, 55.67857, 55.67857, 55.693878, 55.410713, 55.1875, 55.1875, 55.232143, 55.333332, 55.57143, 55.642857, 55.67857, 55.714287, 55.642857, 55.57143, 55.25, 55.125, 55.285713, 55.357143, 55.42857, 55.464287, 55.375, 55.535713, 55.607143, 55.714287, 55.410713, 55.401787, 55.544643, 55.482143, 55.5625, 55.785713, 55.4375, 55.464287, 55.7551, 55.642857, 55.714287, 55.642857, 55.57143, 55.642857, 55.642857, 55.642857, 55.714287, 55.4375, 55.4375, 55.602043, 55.55714, 55.690479, 55.547619, 55.419643, 55.25, 55.3125, 55.3125, 55.375, 55.4375, 55.348213, 54.959187, 55.3125, 55.25, 55.3125, 55.5, 55.25, 55.25, 55.25, 55.25, 55.3125, 55.25, 55.535713, 55.607143, 55.5, 55.42857, 55.357143, 55.214287, 55.25, 55.357143, 55.42857, 55.3125, 55.3125, 55.3125, 55.25, 55.25, 55.25, 55.535713, 55.535713, 55.535713, 55.375, 55.375, 55.375, 55.57143, 55.5, 55.464287, 55.464287, 55.464287, 55.535713, 55.57143, 55.625, 55.732143, 55.660713, 55.660713, 55.4375, 55.410713, 55.339287, 55.375, 55.535713, 55.566326, 55.765308, 55.765308, 55.75, 55.67857, 55.607143, 55.607143, 55.642857, 55.607143, 55.3125, 55.267857, 55.275002, 55.270832, 55.710884, 54.877552, 55.309525, 55.375, 55.40625, 55.46875, 55.28125, 55.15625, 55.42857, 55.42857, 55.464287, 55.42857, 55.32143, 55.357143, 55.42857, 55.5, 55.035713, 54.964287, 55.1875, 55.25, 55.3125, 55.642857, 55.714287, 55.714287, 55.714287, 55.714287, 55.67857, 55.607143, 55.28125, 55.15625, 55.125, 55.1875, 55.3125, 55.4375, 55.785713, 55.714287, 55.642857, 55.714287, 55.375, 55.375, 55.107143, 55, 55.1875, 55.125, 55.133926, 55.642857, 55.714287, 55.714287, 55.520409, 55.464287, 55.464287, 55.57143, 55.67857, 55.714287, 55.714287, 55.607143, 55.619049, 55.200001, -10, -10, -10, -10, -10, -10, -10, -10, -10, -10, -10, -10, -10, -10, -10, -10, -10, -10, -10, -10, -10, -10, -10, -10, -10, -10, -10, -10, -10, -10, -10, -10, -10, -10, -10, -10, -10, -10, -10, -10, -10, -10, -10, 55.900002, 56.523811, 56.595238, 56.67857, 56.67857, 56.5, 56.714287, 56.4375, 56.375, 56.25, 56.25, 56.25, 56.125, 56, 55.75, 55.892857, 56, 56.214287, 56.42857, 56.42857, 56.5, 56.166668, 55.964287, 56.25, 56.57143, 56.57143, 56.392857, 56.198978, 56.107143, 56.142857, 56.25, 56.357143, 56.464287, 56.25, 56.25, 56.392857, 56.357143, 56.392857, 56.25, 56.214287, 56.17857, 55.928574, 56, 56.220238, 56.410713, 56.4375, 56.5625, 56.642857, 56.714287, 56.642857, 56.57143, 56.57143, 56.57143, 56.642857, 56.4375, 56.375, 56.25, 56.1875, 56.464287, 56.535713, 56.642857, 56.57143, 56.5, 56.42857, 56.392857, 56.464287, 56.5, 56.607143, 56.57143, 56.5, 56.464287, 56.0625, 56, 56.0625, 56.125, 56.392857, 56.535713, 56.57143, 56.5, 56.57143, 56.642857, 56.57143, 56.57143, 56.464287, 56.42857, 56.5, 56.464287, 56.392857, 56.25, 56.035713, 56.127552, 56.630951, 56.877552, 56.964287, 56.92857, 56.82143, 56.5625, 56.5, 56.40625, 56.40625, 56.40625, 56.46875, 56.67857, 56.642857, 56.607143, 56.607143, 56.57143, 56.607143, 56.178574, 55.9375, 55.9375, 55.607143, 55.857143, 55.92857, 56, 56, 56, 56.375, 56.348213, 56.397957, 56.357143, 56.32143, 56.392857, 56.42857, 56.540813, 56.520832, 56.607143, 56.6875, 56.625, 56.785713, 56.75, 56.714287, 56.67857, 56.642857, 56.57143, 56.607143, 56.642857, 56.67857, 56.67857, 56.607143, 56.28125, 56.21875, 56.1875, 56.25, 56.57143, 56.642857, 56.714287, 56.642857, 56.642857, 56.3125, 56.25, 56.25, 56.25, 56.375, 56.607143, 56.57143, 56.5, 56.42857, 56.392857, 56.5, 56.5, 56.5, 56.5, 56.125, 56, 56.008926, 56.075001, 56.142857, 56.375, 56.375, 56.714287, 56.642857, 56.25, 56.017857, 55.8125, 55.794643, 56.104168, 56.25, 56.375, 56.375, 56.4375, 56.4375, 56.5, 56.714287, 56.375, 56.339287, 56.693878, 56.765308, 56.857143, 56.857143, 56.714287, 56.67347, 56.7551, 56.67857, 56.75, 56.67857, 56.642857, 56.67857, 56.67857, 56.67857, 56.714287, 56.642857, 56.642857, 56.642857, 56.642857, 56.714287, 56.375, 56.25, 56.1875, 56.1875, 56.3125, 56.375, 56.57143, 56.5, 56.666668, 56.57143, 56.375, 56.375, 56.107143, 56.25, 56.25, 56.464287, 56.464287, 56.535713, 56.3125, 56.375, 56.4375, 56.3125, 56.25, 56.1875, 56.0625, 56.0625, 56.125, 56.1875, 56.25, 56.3125, 56.5, 56.25, 56.25, 56.3125, 56.375, 56.607143, 56.535713, 56.464287, 56.464287, 56.464287, 56.57143, 56.607143, 56.607143, 56.607143, 56.535713, 56.5, 56.42857, 56.464287, 56.4375, 56.4375, 56.5, 56.4375, 56.375, 56.57143, 56.57143, 56.375, 56.401787, 56.836735, 56.836735, 56.857143, 56.785713, 56.714287, 56.642857, 56.57143, 56.5, 56.392857, 56.448978, 56.528572, 56.452381, 56.726192, 56.666668, 56.591835, 56.57143, 56.607143, 56.535713, 56.392857, 56.15625, 56.1875, 56.169643, 56.0625, 56.0625, 56.044643, 56.5, 56.714287, 56.82143, 57.041668, 56.875, 56.5, 56.5, 56.5, 56.535713, 56.5, 56.510201, 56.657143, 56.591835, 56.46875, 56.34375, 56.21875, 56.03125, 55.9375, 56.008926, 56.262501, 56.438774, 56.581631, 56.535713, 56.57143, 56.714287, 56.642857, 56.67857, 56.958332, 56.833332, 56.3125, 56.25, 56.258926, 56.714287
-10, -10, -10, -10, -10, -10, -10, -10, -10, -10, -10, -10, -10, -10, 57.666668, 57.702381, 57.714287, 57.642857, 57.57143, 57.5, 57.42857, 57.25, 57.125, 57.0625, 57.0625, 57.07143, 57.035713, 57, 56.75, 56.9375, 57.1875, 57.375, 57.375, 57.642857, 57.791668, 57.791668, 57.875, 57.714287, 57.75, 57.607143, 57.377552, 57.0625, 57.0625, 57.125, 57.1875, 57.464287, 57.42857, 57.357143, 57.357143, 57.0625, 57.1875, 57.1875, 57.479591, 57.125, 56.988098, 57.357143, 57.430271, 57.647957, 57.642857, 57.67857, 57.535713, 57.57143, 57.3125, 57.3125, 57.375, 57.375, 57.4375, 57.642857, 57.57143, 57.464287, 57.464287, 57.535713, 57.607143, 57.714287, 57.4375, 57.607143, 57.57143, 57.464287, 57.464287, 57.42857, 57.42857, 57.3125, 57.3125, 57.3125, 57.392857, 57.285713, 57.285713, 57.285713, 57.0625, 57.392857, 57.464287, 57.5, 57.642857, 57.607143, 57.5, 57.42857, 57.285713, 57.285713, 57.32143, 57.1875, 57.15625, 57.09375, 56.67857, 56.734692, 57.458332, 57.806122, 57.82143, 57.67857, 57.581631, 57.657143, 57.438774, 57.403057, 57.392857, 57.464287, 57.607143, 57.714287, 57.714287, 57.714287, 57.714287, 57.4375, 57.4375, 57.241074, 57.0625, 57.285713, 57.458332, 57.625, 57.625, 57.583332, 57.5, 57.416668, 57.285713, 57.1875, 57.25, 57.3125, 57.25, 57.3125, 57.375, 57.473213, 57.5, 57.785713, 57.857143, 57.857143, 57.785713, 57.455357, 57.375, 57.375, 57.375, 57.57143, 57.642857, 57.642857, 57.714287, 57.46875, 57.40625, 57.28125, 57.21875, 56.92857, 57.25, 57.375, 57.4375, 57.642857, 57.375, 57.4375, 57.57653, 57.535713, 57.535713, 57.535713, 57.714287, 57.785713, 57.714287, 57.267857, 57.0625, 56.9375, 57.0625, 57.169643, 57.25, 57.25, 57.0625, 56.9375, 57.008926, 57.371429, 57.142857, 57.448978, 57.1875, 57.5, 57.3125, 57.1875, 56.734692, 56.5, 56.479591, 57.333336, 57.5, 57.642857, 57.607143, 57.607143, 57.535713, 57.5, 57.42857, 57.32143, 57.387756, 57.622448, 57.693878, 57.75, 57.67857, 57.57143, 57.586735, 57.504463, 57.714287, 57.5625, 57.714287, 57.714287, 57.785713, 57.7551, 57.714287, 57.836735, 57.67857, 57.75, 57.607143, 57.535713, 57.5, 57.1875, 57.32143, 57.32143, 57.392857, 57.535713, 57.607143, 57.642857, 57.607143, 57.57143, 57.67857, 57.642857, 57.607143, 57.791668, 57.464287, 57.535713, 57.57143, 57.535713, 57.5, 57.357143, 57.32143, 57.42857, 57.392857, 57.42857, 57.42857, 57.285713, 57.17857, 57.0625, 57.125, 57.392857, 57.57143, 57.607143, 57.535713, 57.464287, 57.5, 57.535713, 57.607143, 57.607143, 57.3125, 57.375, 57.375, 57.5, 57.785713, 57.642857, 57.57143, 57.3125, 57.25, 57.25, 57.3125, 57.375, 57.3125, 57.5, 57.392857, 57.392857, 57.5, 57.57143, 57.607143, 57.637756, 57.836735, 57.836735, 57.857143, 57.785713, 57.714287, 57.4375, 57.375, 57.3125, 57.5, 57.581631, 57.585716, 57.547615, 57.479168, 57.5, 57.653057, 57.642857, 57.589287, 57.517857, 57.339287, 57.19643, 57.214287, 56.919643, 56.8125, 56.946426, 57.169643, 57.57143, 57.892857, 57.92857, 57.892857, 57.785713, 57.67857, 57.642857, 57.607143, 57.375, 57.3125, 57.321426, 57.450001, 57.330357, 57.607143, 57.28125, 57.357143, 57.25, 57.17857, 57.260201, 57.514286, 57.258926, 57.383926, 57.375, 57.4375, 57.5625, 57.75, 57.785713, 57.82143, 57.714287, 57.642857, 57.642857, 57.612244, 57.785713, 57.5625, 57.4375, 57.267857, 57.25, 57.3125, 57.642857, 57.714287, 57.714287, 57.785713, 57.785713, 57.809528, -10, -10, -10, -10, -10, -10, -10, -10, -10, -10, -10, -10, -10, -10, -10, -10, -10, -10, -10, -10, -10, -10, -10, -10, -10, -10, -10, -10, -10, -10, -10, -10, -10, -10, -10, -10, -10, -10, -10, -10, -10, -10, -10, -10, -10, 58.200001, 58.630951, 58.559521, 58.464287, 58.1875, 58.125, 58.125, 58.1875, 58.285713, 58.32143, 58.357143, 58.25, 58, 58.32143, 58.25, 58.285713, 58.392857, 58.5, 58.535713, 58.642857, 58.535713, 58.464287, 58.57143, 58.67857, 58.714287, 58.67857, 58.377552, 58.25, 58.25, 58.285713, 58.357143, 58.392857, 58.25, 57.875, 57.892857, 57.958332, 58.116074, 58.5, 58.622448, 58.833332, 58.785717, 58.614285, 58.578236, 58.867348, 58.785713, 58.5625, 58.4375, 58.375, 58.375, 58.375, 58.642857, 58.642857, 58.642857, 58.67857, 58.642857, 58.57143, 58.57143, 58.607143, 58.642857, 58.714287, 58.642857, 58.642857, 58.57143, 58.3125, 58.3125, 58.25, 58, 58.25, 58.1875, 58.357143, 58.32143, 58.285713, 58.25, 58.285713, 58.0625, 58.1875, 58.3125, 58.375, 58.642857, 58.375, 58.3125, 58.3125, 58, 58, 58.017857, 58.017857, 58.05357, 58.017857, 58.75893, 58.442463, 58.462585, 58.330357, 58.40625, 58.34375, 58.321426, 58.512501, 58.321426, 58.290176, 58, 58.28125, 58.40625, 58.714287, 58.714287, 58.714287, 58.714287, 58.57143, 58.5, 58.316326, 58.142857, 58.214287, 58.17857, 58.285713, 58.285713, 58.295918, 58.523808, 58.202381, 58.291668, 58.285717, 58.464287, 58.5, 58.1875, 58.3125, 58.57143, 58.683674, 58.714287, 58.785713, 58.857143, 58.857143, 58.785713, 58.392857, 58.107143, 58.107143, 58.107143, 58.4375, 58.4375, 58.4375, 58.714287, 58.67857, 58.607143, 58.5, 58.42857, 58.625, 58.464287, 58.57143, 58.642857, 58.4375, 58.375, 58.642857, 58.647957, 58.642857, 58.67857, 58.67857, 58.785713, 58.82143, 58.67857, 58.142857, 57.9375, 57.8125, 57.9375, 58.044643, 58.0625, 58.0625, 58.17857, 58.214287, 58.403057, 58.514286, 58.341835, 58.377552, 58.0625, 58.1875, 58.25, 58.32143, 58.345234, 58.333332, 58.363098, 58.440479, 58.642857, 58.75, 58.714287, 58.67857, 58.375, 58.3125, 58, 57.92857, 58.214287, 58.419643, 58.482143, 58.5, 58.46875, 58.40625, 58.40625, 58.46875, 58.714287, 58.714287, 58.714287, 58.714287, 58.785713, 58.7551, 58.714287, 58.836735, 58.714287, 58.714287, 58.4375, 58.261902, 58.17347, 58.010201, 58.5, 58.464287, 58.535713, 58.642857, 58.67857, 58.642857, 58.57143, 58.5, 58.57143, 58.607143, 58.642857, 58.67857, 58.607143, 58.642857, 58.67857, 58.4375, 58.375, 58.25, 57.92857, 58.1875, 58.125, 58.392857, 58.42857, 58.392857, 58.357143, 58.357143, 58.392857, 58.5, 58.67857, 58.642857, 58.607143, 58.535713, 58.535713, 58.607143, 58.4375, 58.642857, 58.57143, 58.642857, 58.642857, 58.714287, 58.785713, 58.4375, 58.375, 58.3125, 58.25, 58.25, 58.42857, 58.42857, 58.32143, 58.125, 58.125, 58.1875, 58.3125, 58.375, 58.607143, 58.622448, 58.607143, 58.669643, 58.75, 58.6875, 58.857143, 58.714287, 58.57143, 58.57143, 58.57143, 58.642857, 58.4375, 58.4375, 58.375, 58.3125, 58.5, 58.42857, 58.25, 58.25, 58.125, 58, 57.9375, 57.794643, 57.6875, 58.188774, 58.586735, 58.785713, 59.07143, 58.875, 58.875, 58.8125, 58.857143, 58.591835, 58.42857, 58.357143, 58.357143, 58.438774, 58.657143, 58.392857, 58.441963, 58.395409, 58.359692, 58.30357, 58.32143, 58.510201, 58.69286, 58.510201, 58.469387, 58.42857, 58.5, 58.5, 58.5625, 58.625, 58.6875, 58.857143, 58.82143, 58.82143, 58.75, 58.785713
-10, -10, -10, -10, -10, -10, -10, -10, -10, -10, -10, -10, -10, -10, -10, 58.944443, 59.3125, 59.3125, 59.071426, 59.017857, 59.0625, 59.392857, 59.42857, 59.5, 59.5, 59.42857, 59.708332, 59.535713, 59.5, 59.5, 59.535713, 59.57143, 59.607143, 59.5, 59.375, 59.25, 59.3125, 59.375, 59.4375, 59.5625, 59.330357, 59.535713, 59.535713, 59.464287, 59.42857, 59.125, 58.9375, 58.75, 58.556122, 59.056549, 59.489799, 59.714287, 59.765308, 59.75, 59.82653, 59.899998, 59.809521, 59.794643, 59.857143, 59.75, 59.642857, 59.57143, 59.607143, 59.642857, 59.714287, 59.714287, 59.67857, 59.714287, 59.714287, 59.67857, 59.67857, 59.67857, 59.607143, 59.642857, 59.535713, 59.464287, 59.464287, 59.392857, 59.25, 59.25, 59.666668, 59.464287, 59.392857, 59.214287, 59.25, 59.071426, 59.008926, 59, 59.214287, 59.32143, 59.535713, 59.535713, 59.3125, 59.25, 59.1875, 59.42857, 59.833332, 59.916668, 60.041668, 60.041668, 60.020832, 59.895832, 59.614799, 59.34354, 59.217262, 58.969387, 59.28125, 59.28125, 59.321426, 59.799999, 59.653057, 59.510201, 59.744049, 59.612244, 59.714287, 59.92857, 59.857143, 59.857143, 59.785713, 59.607143, 59.3125, 59.116074, 58.791668, 58.830357, 58.875, 59.107143, 59.1875, 59.258926, 59.666664, 59.94643, 60.041668, 60.029766, 59.714287, 59.75, 59.607143, 59.642857, 59.642857, 59.719387, 59.75, 59.785713, 59.625, 59.625, 59.5625, 59.591835, 59.791668, 59.791668, 59.791668, 59.57143, 59.5, 59.42857, 59.42857, 59.410713, 59.375, 59.410713, 59.44643, 59.5, 59.607143, 59.642857, 59.67857, 59.642857, 59.607143, 59.67857, 59.719387, 59.67857, 59.642857, 59.57143, 59.642857, 59.714287, 59.5, 59.267857, 59.285713, 59.17857, 59.17857, 59.301022, 59.32143, 59.25, 59.214287, 59.285713, 59.469387, 59.325001, 59.142857, 59.080357, 58.9375, 59.0625, 59.392857, 59.464287, 59.367348, 59.32143, 59.346935, 59.523808, 59.642857, 59.5625, 59.5625, 59.5, 59.375, 59.3125, 59.583332, 59.583332, 59.25, 59.3125, 59.375, 59.4375, 59.46875, 59.40625, 59.525513, 59.57143, 59.607143, 59.67857, 59.642857, 59.67347, 59.908165, 59.877552, 59.857143, 59.908165, 59.714287, 59.5, 59.642857, 60.027775, 59.94643, 59.857143, 59.535713, 59.464287, 59.464287, 59.42857, 59.42857, 59.1875, 59.125, 59.0625, 59.125, 59.125, 59.214287, 59.419643, 59.632656, 59.714287, 59.714287, 59.642857, 59.57143, 59.5, 59.666668, 59.25, 59.25, 59.3125, 59.375, 59.607143, 59.535713, 59.464287, 59.464287, 59.535713, 59.642857, 59.4375, 59.5, 59.5, 59.5, 59.785713, 59.642857, 59.535713, 59.42857, 59.42857, 59.510201, 59.75, 59.785713, 59.714287, 59.5, 59.4949, 59.622448, 59.658165, 59.67857, 59.57143, 59.125, 59.151787, 59.294643, 59.428574, 59.214287, 59.25, 59.5625, 59.5, 59.714287, 59.785713, 59.857143, 59.857143, 59.857143, 59.75, 59.67857, 59.75, 59.75, 59.785713, 59.714287, 59.642857, 59.375, 59.3125, 59.3125, 59, 59.25, 59.25, 59.285713, 59.142857, 58.8125, 58.669643, 58.92857, 59.260201, 59.704079, 59.857143, 60, 59.8125, 59.8125, 59.92857, 59.892857, 59.455357, 59.035713, 58.964287, 59.464287, 59.540813, 59.685711, 59.653065, 59.683674, 59.330357, 59.303574, 59.459187, 59.535713, 59.612244, 59.757141, 59.612244, 59.57143, 59.464287, 59.42857, 59.535713, 59.57143, 59.5, 59.625, 59.5625, 59.5, 59.517857, 59.785713, 59.714287, 59.627552, 59.5, 59.5, 59.57143, 59.67857, 59.714287, 59.714287, 59.714287, 59.785713, 59.857143, 59.466667, -10, -10, -10, -10, -10, -10, -10, -10, -10, -10, -10, -10, -10, -10, -10, -10, -10, -10, -10, -10, -10, -10, -10, -10, -10, -10, -10, -10, -10, -10, -10, -10, -10, -10, -10, -10, -10, -10, -10, -10, -10, -10, -10, -10, -10, -10, -10, 59.666668, 60.464287, 59.925594, 60.127552, 60.107143, 60.285713, 60.357143, 60.5, 60.57143, 60.535713, 60.67857, 60.714287, 60.714287, 60.67857, 60.642857, 60.642857, 60.642857, 60.642857, 60.3125, 60.125, 60.0625, 60.09375, 60.15625, 60.607143, 60.607143, 60.642857, 60.67857, 60.535713, 60.392857, 60, 59.75, 59.625, 60.17857, 60.243198, 60.418369, 60.5, 60.419643, 60.5, 60.625, 60.892857, 60.857143, 60.92857, 60.857143, 60.75, 60.714287, 60.642857, 60.714287, 60.75, 60.785713, 60.785713, 60.714287, 60.714287, 60.714287, 60.714287, 60.714287, 60.714287, 60.4375, 60.5, 60.214287, 60.142857, 60.375, 60.142857, 60.285713, 60.25, 60.285713, 60.32143, 60.214287, 60.280613, 60.357143, 60.008926, 60.008926, 60, 60.285713, 60.357143, 60.464287, 60.42857, 60.1875, 60.125, 60.285713, 60.32143, 60.5, 60.642857, 60.82143, 60.92857, 60.964287, 60.92857, 60.616074, 60.291668, 60.196426, 60.541668, 60.357143, 60.535713, 60.612244, 60.828571, 60.683674, 60.540813, 60.566326, 60.612244, 60.75, 60.92857, 60.857143, 60.785713, 60.642857, 60.5, 60.42857, 60.241074, 59.654762, 59.627552, 59.67857, 60.107143, 60.1875, 60.474487, 60.738094, 60.811226, 60.892857, 60.918369, 60.82143, 60.857143, 60.67857, 60.67857, 60.642857, 60.473213, 60.5625, 60.53125, 60.46875, 60.40625, 60.535713, 60.438778, 60.464287, 60.464287, 60.392857, 60.438774, 60.3125, 60.25, 60.035713, 60, 60, 60.107143, 60.410713, 60.401787, 60.714287, 60.642857, 60.642857, 60.535713, 60.464287, 60.5, 60.410713, 60.4375, 60.4375, 60.375, 60.4375, 60.5, 60.5, 60.581635, 60.5, 60.392857, 60.285713, 60.275509, 60.17857, 60.107143, 60, 60.0625, 60.1875, 60.25, 60.125, 60.017857, 60.25, 60.32143, 60.5, 60.607143, 60.57143, 60.375, 60.375, 60.375, 60.4375, 60.714287, 60.714287, 60.67857, 60.57143, 60.535713, 60.57143, 60.57143, 60.607143, 60.642857, 60.57143, 60.642857, 60.69643, 60.625, 60.579082, 60.375, 60.40625, 60.46875, 60.4375, 60.464287, 60.872448, 60.857143, 60.857143, 60.607143, 60.57143, 60.375, 60.535713, 60.809521, 60.811226, 60.770409, 60.642857, 60.3125, 60.3125, 60, 60.1875, 60.125, 60.0625, 60, 59.785713, 59.785713, 59.887756, 60.294643, 60.366074, 60.642857, 60.642857, 60.607143, 60.57143, 60.464287, 60.42857, 60.535713, 60.612244, 60.67857, 60.714287, 60.607143, 60.57143, 60.5, 60.5, 60.607143, 60.4375, 60.642857, 60.714287, 60.75, 60.75, 60.82143, 60.67857, 60.375, 60.25, 60.25, 60.321426, 60.5, 60.5625, 60.75, 60.57143, 60.602043, 60.765308, 60.801022, 60.785713, 60.642857, 60.392857, 60.387756, 60.586735, 60.739799, 61.041668, 61, 60.785713, 60.714287, 60.714287, 60.785713, 60.857143, 60.857143, 60.857143, 60.785713, 60.75, 60.82143, 60.82143, 60.82143, 60.75, 60.67857, 60.607143, 60.535713, 60.5, 60.666668, 60.464287, 60.535713, 60.42857, 60.392857, 59.916668, 59.791668, 60, 60.297619, 60.6875, 61, 60.75, 60.857143, 60.857143, 60.857143, 60.857143, 60.663265, 60.791668, 60.791668, 60.57143, 60.642857, 60.714287, 60.75, 60.647957, 60.586735, 60.719387, 60.44643, 60.785713, 60.5625, 60.785713, 60.714287, 60.7449, 60.4375, 60.375, 60.4375, 60.3125, 60.3125, 60.57143, 60.3125, 60.3125, 60.455357, 60.5625, 60.5
-10, -10, -10, -10, -10, -10, -10, -10, -10, -10, -10, -10, -10, -10, -10, -10, -10, 61.049999, 61.022106, 61.056122, 60.875, 61.0625, 61.1875, 61.3125, 61.375, 61.4375, 61.598213, 61.625, 61.5625, 61.57143, 61.464287, 61.464287, 61.535713, 61.607143, 61.57143, 61.392857, 61.32143, 61.09375, 61.15625, 61.34375, 61.535713, 61.5, 61.535713, 61.464287, 61.1875, 61.0625, 60.75, 61.07143, 61.224487, 61.119049, 61.241074, 61.25, 61.25, 61.4375, 61.5625, 61.92857, 61.857143, 61.5625, 61.5, 61.4375, 61.5, 61.642857, 61.5, 61.5, 61.4375, 61.5, 61.642857, 61.642857, 61.714287, 61.714287, 61.714287, 61.714287, 61.642857, 61.714287, 61.916668, 61.875, 61.607143, 61.205357, 61.1875, 60.92857, 61.178574, 61, 60.9375, 60.9375, 61.25, 61.045918, 61.117344, 61.214287, 61.15625, 61.28125, 61.34375, 61.28125, 61.125, 61.151787, 61.223213, 61.1875, 61.330357, 61.4375, 61.59375, 61.71875, 61.71875, 61.59375, 61.491074, 61.380955, 61.32653, 61.357143, 61.32143, 61.42857, 61.464287, 61.375, 61.3125, 61.1875, 61.276787, 61.285713, 61.57143, 61.714287, 61.57143, 61.383926, 61.520832, 61.153065, 61.354168, 61.632656, 61.569447, 61.511902, 61.541668, 61.479591, 61.642857, 61.7551, 61.708332, 61.741074, 61.8125, 61.866074, 62, 62, 61.82143, 61.5, 61.4375, 61.4375, 61.642857, 61.40625, 61.34375, 61.28125, 61.34375, 61.3125, 61.375, 61.375, 61.07143, 61.321426, 61.57143, 61.42857, 61.666668, 61.583332, 61.583332, 61.791668, 61.612244, 61.401787, 61.714287, 61.375, 61.3125, 61.267857, 61.119049, 61.17347, 61.25, 61.5, 61.642857, 61.5, 61.5, 61.57143, 61.67857, 61.714287, 61.714287, 61.642857, 61.57143, 61, 60.857143, 60.785713, 60.82143, 61.0625, 61.125, 61.125, 61.285713, 61.357143, 61.42857, 61.5, 61.607143, 61.67857, 61.57143, 61.535713, 61.535713, 61.535713, 61.642857, 61.714287, 61.714287, 61.714287, 61.642857, 61.642857, 61.714287, 61.642857, 61.607143, 61.535713, 61.464287, 61.607143, 61.714287, 61.714287, 61.632656, 61.607143, 61.607143, 61.67857, 61.642857, 61.67347, 61.836735, 61.836735, 61.785713, 61.375, 61.267857, 61.3125, 61.375, 61.708332, 61.678574, 61.642857, 61.5, 61.57143, 61.5, 61.666668, 61.1875, 61.32143, 61.285713, 61.25, 61.541668, 61.541668, 61.601192, 61.294643, 61.366074, 61.5, 61.5625, 61.32143, 61.616074, 61.291668, 61.267857, 61.535713, 61.683674, 61.785713, 61.785713, 61.67857, 61.375, 61.339287, 61.410713, 61.642857, 61.714287, 61.75, 61.82143, 61.892857, 61.892857, 61.785713, 61.57143, 61.357143, 61.0625, 61.0625, 61.196426, 61.4375, 61.714287, 61.785713, 61.642857, 61.67347, 61.765308, 61.693878, 61.67857, 61.57143, 61.464287, 61.566326, 61.765308, 61.811226, 61.892857, 61.82143, 61.75, 61.75, 61.714287, 61.5625, 61.625, 61.625, 61.625, 61.5625, 61.67857, 61.67857, 61.67857, 61.67857, 61.642857, 61.642857, 61.535713, 61.5, 61.464287, 61.42857, 61.464287, 61.42857, 61.42857, 61.42857, 61.583332, 61.625, 61.791668, 61.916668, 61.857143, 61.92857, 61.6875, 61.6875, 61.75, 61.732143, 61.541668, 61.520405, 61.464287, 61.535713, 61.57143, 61.67857, 61.714287, 61.5625, 61.473213, 61.683674, 61.816326, 61.724491, 61.82143, 61.75, 61.5625, 61.714287, 61.765308, 61.67857, 61.607143, 61.642857, 61.3125, 61.3125, 61.375, 61.3125, 61.3125, 61.591835, 61.714287, 61.57143, 61.520409, 61.5, 61.5, 61.375, 61.4375, 61.375, 61.3125, 61.57143, 61.57143, 61.619049, -10, -10, -10, -10, -10, -10, -10, -10, -10, -10, -10, -10, -10, -10, -10, -10, -10, -10, -10, -10, -10, -10, -10, -10, -10, -10, -10, -10, -10, -10, -10, -10, -10, -10, -10, -10, -10, -10, -10, -10, -10, -10, -10, -10, -10, -10, -10, -10, -10, -10, 61.317459, 61.734692, 62, 62.125, 62.25, 62.3125, 62.375, 62.642857, 62.7551, 62.714287, 62.57143, 62.25, 62.1875, 62.25, 62.375, 62.4375, 62.67857, 62.57143, 62.42857, 62.32143, 62.285713, 62.21875, 62.28125, 62.3125, 62.375, 62.25, 62.392857, 62.357143, 62.458332, 62.32143, 62.32143, 62.035713, 62.026787, 62.107143, 62.178574, 62.642857, 62.75, 62.6875, 62.6875, 62.357143, 62.285713, 62.214287, 62.5, 62.375, 62.3125, 62.3125, 62.1875, 62.25, 62.25, 62.1875, 62.5, 62.57143, 62.642857, 62.714287, 62.67857, 62.75, 62.785713, 62.75, 62.714287, 62.520409, 62.464287, 62.75, 62.303574, 61.82143, 61.82143, 61.857143, 62.1875, 61.915176, 61.946426, 62.25, 62.357143, 62.42857, 62.392857, 62.357143, 62.32143, 62.42347, 62.540813, 62.392857, 62.142857, 62.1875, 62.3125, 62.4375, 62.4375, 62.25, 62.125, 62.0625, 62.125, 62.25, 62.035713, 62.125, 62.125, 62.125, 62.017857, 61.857143, 62.214287, 62.07653, 62.410713, 62.392857, 62.267857, 62.258926, 62.630951, 62.940475, 62.958332, 62.780613, 62.630955, 62.581631, 62.607143, 62.704082, 62.82143, 62.857143, 62.857143, 62.785713, 62.785713, 62.892857, 62.92857, 62.92857, 62.5625, 62.4375, 62.642857, 62.683674, 62.5, 62.46875, 62.34375, 62.28125, 62.535713, 62.5, 62.5, 62.5, 62.666668, 62.474487, 62.642857, 62.535713, 62.57143, 62.57143, 62.57143, 62.75, 62.7551, 62.637756, 62.785713, 62.4375, 62.375, 62.330357, 62.819443, 62.94643, 63, 62.75, 62.642857, 62.464287, 62.392857, 62.357143, 62.42857, 62.3125, 62.375, 62.375, 62.57143, 62.875, 62.833332, 62.791668, 62.708332, 62.357143, 62.357143, 62.357143, 62.387756, 62.658165, 62.729591, 62.714287, 62.556122, 62.5, 62.1875, 62.32143, 62.32143, 62.32143, 62.464287, 62.57143, 62.714287, 62.785713, 62.75, 62.75, 62.75, 62.67857, 62.4375, 62.375, 62.25, 62.375, 62.4375, 62.642857, 62.67347, 62.660713, 62.660713, 62.69643, 62.67857, 62.693878, 62.607143, 62.607143, 62.5625, 62.375, 62.267857, 62.57143, 62.57143, 62.714287, 62.714287, 62.714287, 62.67857, 62.642857, 62.535713, 62.42857, 62.357143, 62.357143, 62.42857, 62.5, 62.642857, 62.607143, 62.622448, 62.632656, 62.602043, 62.714287, 62.785713, 62.958332, 62.775513, 62.229168, 62.205357, 62.4375, 62.598213, 62.6875, 62.6875, 62.5, 62.375, 62.566326, 62.647957, 62.67857, 62.75, 62.785713, 62.82143, 62.625, 62.625, 62.5, 62.3125, 61.964287, 62.083332, 62.42857, 62.540813, 62.57143, 62.57143, 62.455357, 62.67857, 62.693878, 62.607143, 62.482143, 62.4375, 62.3125, 62.392857, 62.408165, 62.419643, 62.491074, 62.625, 62.625, 62.5625, 62.5, 62.57143, 62.57143, 62.57143, 62.57143, 62.607143, 62.607143, 62.375, 62.4375, 62.46875, 62.40625, 62.3125, 62.3125, 62.25, 62.3125, 62.375, 62.375, 62.3125, 62.1875, 62.125, 62.285713, 62.32143, 62.42857, 62.607143, 62.714287, 62.82143, 62.857143, 62.785713, 62.785713, 62.857143, 62.908165, 62.604168, 62.224487, 62.214287, 62.5, 62.4375, 62.714287, 62.714287, 62.642857, 62.5, 62.339287, 62.392857, 62.530613, 62.642857, 62.607143, 62.642857, 62.714287, 62.785713, 62.75, 62.785713, 62.785713, 62.642857, 62.607143, 62.57143, 62.535713, 62.5, 62.510201, 62.57143, 62.535713
-10, -10, -10, -10, -10, -10, -10, -10, -10, -10, -10, -10, -10, -10, -10, -10, -10, -10, -10, 62.875, 63.392857, 63.464287, 63.535713, 63.5, 63.535713, 63.607143, 63.683674, 63.5, 63.303574, 62.916668, 62.830357, 62.875, 63.285713, 63.5, 63.642857, 63.67857, 63.57143, 63.482143, 63.15625, 63.15625, 63.21875, 63.25, 63.42857, 63.392857, 63.42857, 63.464287, 63.5, 63.464287, 63.32143, 62.875, 62.839287, 63.265308, 63.382656, 63.642857, 63.67857, 63.714287, 63.785713, 63.916668, 63.916668, 63.833332, 63.57143, 63.25, 63.1875, 63.25, 63.1875, 63.25, 63.25, 62.92857, 63.3125, 63.3125, 63.401787, 63.7551, 63.714287, 63.625, 63.625, 63.625, 63.5625, 63.653065, 63.607143, 63.642857, 63.632656, 63.75, 63.791668, 63.648808, 63.357143, 63.25, 63.0625, 63.1875, 63.482143, 63.34375, 63.3125, 63.3125, 63.607143, 63.709187, 63.7551, 63.607143, 63.413265, 63.285713, 63.0625, 63.1875, 63.25, 63.1875, 63.1875, 63.0625, 63.0625, 63.32143, 63.583332, 63.708332, 63.791668, 63.791668, 63.666668, 63.625, 63.464287, 63.75, 63.540813, 63.205357, 63.142857, 63.196426, 63.738094, 63.877552, 63.892857, 63.82143, 63.59375, 63.5625, 63.5625, 63.785713, 63.857143, 63.857143, 63.857143, 63.785713, 63.714287, 63.714287, 63.642857, 63.642857, 63.535713, 63.535713, 63.67857, 63.719387, 63.714287, 63.69643, 63.589287, 63.482143, 63.482143, 63.392857, 63.392857, 63.464287, 63.42857, 63.469387, 63.5, 63.42857, 63.375, 63.642857, 63.714287, 63.82143, 63.806122, 63.693878, 63.785713, 63.67857, 63.607143, 63.591835, 63.702381, 63.882656, 64, 63.964287, 63.625, 63.4375, 63.3125, 63, 63, 63, 63.3125, 63.3125, 63.642857, 63.75, 63.642857, 63.642857, 63.67857, 63.57653, 63.67857, 63.642857, 63.602043, 63.872448, 63.836735, 63.785713, 63.330357, 63.1875, 63.080357, 62.92857, 62.92857, 62.964287, 63.3125, 63.4375, 63.857143, 64, 64, 63.92857, 63.625, 63.5, 63.5, 63.4375, 63.3125, 63.375, 63.375, 63.4375, 63.714287, 63.714287, 63.714287, 63.714287, 63.714287, 63.714287, 63.714287, 63.714287, 63.642857, 63.535713, 63.520409, 63.714287, 63.785713, 63.892857, 63.857143, 63.785713, 63.714287, 63.714287, 63.4375, 63.375, 63.3125, 63.3125, 63.607143, 63.67857, 63.785713, 63.785713, 63.785713, 63.82143, 63.75, 63.82143, 63.892857, 63.82143, 63.739799, 63.333336, 63.306122, 63.5, 63.663265, 63.82143, 63.739799, 63.507141, 63.607143, 63.637756, 63.790813, 63.714287, 63.785713, 63.785713, 63.785713, 63.5, 63.5625, 63.5, 63.419643, 63.791668, 63.666668, 63.464287, 63.535713, 63.464287, 63.3125, 63.330357, 63.714287, 63.642857, 63.57143, 63.42857, 63.1875, 63.1875, 63.25, 63, 63.25, 63.1875, 63.267857, 63.738098, 63.765308, 63.5625, 63.4375, 63.375, 63.375, 63.375, 63.40625, 63.40625, 63.28125, 63.28125, 63.5, 63.25, 63.25, 63.3125, 63.25, 63.3125, 63.57143, 63.5, 63.1875, 63, 63.008926, 62.92857, 63, 63.375, 63.375, 63.4375, 63.5, 63.5625, 63.5625, 63.785713, 63.857143, 63.908165, 63.761906, 63.880951, 63.875, 63.642857, 63.642857, 63.714287, 63.785713, 63.5, 63.375, 63.066326, 63.122448, 63.122448, 63.4375, 63.4375, 63.375, 63.57143, 63.4375, 63.4375, 63.75, 63.82143, 63.75, 63.714287, 63.57143, 63.57143, 63.535713, 63.3125, 63.375, 63.375, 63.683674, 63.714287, 63.785713, 63.75, 63.75, 63.67857, 63.607143, 63.642857, 63.666668, -10, -10, -10, -10, -10, -10, -10, -10, -10, -10, -10, -10, -10, -10, -10, -10, -10, -10, -10, -10, -10, -10, -10, -10, -10, -10, -10, -10, -10, -10, -10, -10, -10, -10, -10, -10, -10, -10, -10, -10, -10, -10, -10, -10, -10, -10, -10, -10, -10, -10, -10, -10, -10, 64.050003, 64.64286, 64.583328, 64.535713, 64.535713, 64.375, 64.473213, 64.4375, 64.178574, 63.791668, 63.705357, 63.535713, 63.857143, 64.25, 64.375, 64.64286, 64.571426, 64.571426, 64.5, 64.464287, 64.5, 64.464287, 64.464287, 64.428574, 64.39286, 64.3125, 64.571426, 64.3125, 64.25, 64.0625, 64.026787, 64.372452, 64.454086, 64.4375, 64.4375, 64.5, 64.85714, 64.85714, 64.85714, 64.785713, 64.375, 64.25, 64.125, 64.42347, 64.551018, 64.586739, 64.60714, 64.708336, 64.5, 64.375, 64.464287, 64.82653, 64.714287, 64.64286, 64.591835, 64.657143, 64.510201, 64.510201, 64.5, 64.64286, 64.744896, 64.714287, 64.678574, 64.448982, 64.25, 64.224487, 64.488098, 64.622452, 64.714287, 64.714287, 64.916664, 64.916664, 64.714287, 64.801018, 64.806122, 64.75, 64.510208, 64.35714, 64.285713, 64.125, 64.39286, 64.35714, 64.428574, 64.397957, 64.166664, 64.25, 64.60714, 64.678574, 64.678574, 64.678574, 64.60714, 64.5, 64.535713, 64.678574, 64.770409, 64.60714, 64.448982, 64.540817, 64.520836, 64.70536, 64.71875, 64.59375, 64.53125, 64.64286, 64.571426, 64.375, 64.4375, 64.5, 64.5625, 64.5625, 64.5, 64.5, 64.375, 64.375, 64.3125, 64.3125, 64.714287, 64.755104, 64.75, 64.75, 64.60714, 64.464287, 64.25, 64.1875, 64.25, 64.375, 64.3125, 64.25, 64.1875, 64.125, 64.25, 64.60714, 64.60714, 64.571426, 64.5, 64.428574, 64.5, 64.545914, 64.714287, 64.724495, 64.645836, 64.741074, 64.8125, 65, 64.89286, 64.714287, 64.5, 64.619049, 64.809525, 64.809525, 64.64286, 64.64286, 64.5, 64.625, 64.5625, 64.5625, 64.5625, 64.719383, 64.821426, 64.75, 64.709183, 64.979591, 64.877556, 64.744896, 64.330353, 64.125, 64.080353, 64.625, 64.625, 64.708336, 64.5, 64.64286, 64.85714, 65, 65, 64.928574, 64.785713, 64.678574, 64.785713, 64.821426, 64.821426, 64.85714, 64.75, 64.785713, 64.85714, 64.928574, 64.928574, 64.85714, 64.785713, 64.714287, 64.714287, 64.714287, 64.678574, 64.64286, 64.653061, 64.785713, 64.928574, 65.035713, 65, 64.928574, 64.785713, 64.714287, 64.64286, 64.571426, 64.571426, 64.571426, 64.64286, 64.714287, 64.85714, 64.85714, 64.85714, 64.928574, 64.785713, 64.821426, 64.6875, 64.625, 64.553574, 64.291664, 64.020409, 64.416664, 64.821426, 64.85714, 64.491074, 64.349998, 64.678574, 64.693878, 64.806122, 64.714287, 64.5625, 64.625, 64.6875, 64.625, 64.89286, 64.821426, 64.693878, 64.678574, 64.60714, 64.571426, 64.375, 64.375, 64.348213, 64.223213, 64.619041, 64.520836, 64.482147, 64.333336, 64.5, 64.428574, 64.464287, 64.666664, 64.3125, 64, 64.392853, 64.916672, 64.872452, 64.785713, 64.64286, 64.571426, 64.571426, 64.571426, 64.60714, 64.60714, 64.5, 64.464287, 64.428574, 64.285713, 64.214287, 64.321426, 64.35714, 64.5, 64.64286, 64.571426, 64.428574, 64.25, 64.071426, 64.75, 64.76786, 64.404762, 64.107147, 64.15625, 64.28125, 64.40625, 64.714287, 64.5625, 64.625, 64.66964, 64.809525, 64.755104, 64.75, 64.714287, 64.678574, 64.785713, 64.85714, 64.785713, 64.714287, 64.791664, 64.666664, 64.583336, 64.459183, 64.693878, 64.482147, 64.214287, 64.4375, 64.375, 64.5, 64.785713, 64.785713, 64.785713, 64.4375, 64.375, 64.25, 64.125, 64.35714, 64.464287
-10, -10, -10, -10, -10, -10, -10, -10, -10, -10, -10, -10, -10, -10, -10, -10, -10, -10, -10, -10, -10, 65.199997, 65.416664, 65.375, 65.3125, 65.25, 65.5, 65.464287, 65.275513, 65.047623, 65.020409, 65.375, 65.583336, 65.25, 65.3125, 65.375, 65.60714, 65.64286, 65.678574, 65.678574, 65.714287, 65.678574, 65.4375, 65.60714, 65.3125, 65.535713, 65.535713, 65.464287, 65.428574, 65.428574, 65.408165, 65.489799, 65.530617, 65.375, 65.375, 65.64286, 65.821426, 65.6875, 65.6875, 65.6875, 65.5625, 65.678574, 65.571426, 65.602043, 65.729591, 65.729591, 65.75, 65.64286, 65.678574, 65.714287, 65.780617, 65.969383, 65.85714, 65.35714, 65.32653, 65.351021, 65.224487, 65.14286, 65.229164, 65.330353, 65.4375, 65.625, 65.598213, 65.339287, 65.125, 65.040176, 65.595238, 65.693878, 65.803574, 65.785713, 65.785713, 65.785713, 65.803574, 65.76786, 65.714287, 65.714287, 65.535713, 65.5, 65.428574, 65.428574, 65.5, 65.5, 65.60714, 65.57653, 65.833336, 65.875, 65.678574, 65.59375, 65.59375, 65.59375, 65.53125, 65.4375, 65.4375, 65.5625, 65.85714, 65.704086, 65.510201, 65.5, 65.464287, 65.64286, 65.64286, 65.571426, 65.571426, 65.3125, 65.3125, 65.3125, 65.3125, 65.375, 65.4375, 65.714287, 65.571426, 65.428574, 65.125, 65.125, 65.39286, 65.535713, 65.714287, 65.535713, 65.5625, 65.5625, 65.4375, 65.3125, 65.25, 65.125, 65.1875, 65.5, 65.25, 65.25, 65.125, 65.0625, 65.1875, 65.3125, 65.375, 65.375, 65.071426, 65, 65.071426, 65.383926, 65.5625, 65.5625, 65.714287, 65.714287, 65.785713, 65.85714, 65.89286, 65.714287, 65.464287, 65.387756, 65.551018, 65.622452, 65.75, 65.714287, 65.678574, 65.714287, 65.571426, 65.602043, 65.755104, 65.755104, 65.928574, 65.821426, 65.765305, 65.732147, 65.64286, 65.526787, 65.510201, 65.25, 65.234695, 65.285713, 65.285713, 65.35714, 65.39286, 65.571426, 65.785713, 65.75, 65.75, 65.6875, 65.785713, 65.714287, 65.85714, 65.928574, 65.964287, 65.964287, 65.821426, 65.821426, 65.85714, 65.928574, 65.928574, 65.85714, 65.714287, 65.571426, 65.571426, 65.571426, 65.64286, 65.714287, 65.714287, 65.785713, 65.928574, 66, 66, 65.928574, 65.785713, 65.714287, 65.678574, 65.64286, 65.64286, 65.64286, 65.678574, 65.714287, 65.821426, 65.821426, 65.821426, 65.89286, 65.714287, 65.714287, 65.714287, 65.60714, 65.60714, 65.60714, 65.875, 65.958336, 65.821426, 65.75, 65.366074, 65.400002, 65.5, 65.5, 65.571426, 65.5, 65.571426, 65.714287, 65.85714, 65.821426, 65.89286, 65.89286, 65.801018, 65.5625, 65.4375, 65.401787, 65.473213, 65.60714, 65.68367, 65.223213, 65.416664, 65.738098, 65.729591, 65.916664, 65.60714, 65.571426, 65.60714, 65.571426, 65.678574, 65.916664, 65.770409, 66.023811, 65.908165, 65.821426, 65.714287, 65.64286, 65.64286, 65.64286, 65.660713, 65.660713, 65.589287, 65.28125, 65.25, 65.0625, 64.9375, 65, 65.285713, 65.464287, 65.64286, 65.571426, 65.464287, 65.35714, 65.403061, 65.714287, 65.693878, 65.511902, 65.107147, 65.15625, 65.28125, 65.40625, 65.714287, 65.714287, 65.714287, 65.5, 65.5625, 65.5625, 65.5625, 65.5625, 65.714287, 65.785713, 65.85714, 65.75, 65.714287, 65.60714, 65.571426, 65.64286, 65.709183, 65.908165, 65.801018, 65.916664, 65.64286, 65.571426, 65.4375, 65.4375, 65.4375, 65.4375, 65.571426, 65.375, 65.25, 65.125, 64.964287, 65.375, 65.535713, 65.625, 65.625, 65.5625, 65.5625, 65.5625, 65.5625, 65.5625, 65.583336, -10, -10, -10, -10, -10, -10, -10, -10, -10, -10, -10, -10, -10, -10, -10, -10, -10, -10, -10, -10, -10, -10, -10, -10, -10, -10, -10, -10, -10, -10, -10, -10, -10, -10, -10, -10, -10, -10, -10, -10, -10, -10, -10, -10, -10, -10, -10, -10, -10, -10, -10, -10, -10, -10, -10, 66.066666, 66.60714, 66.535713, 66.1875, 66.1875, 66.1875, 66.053574, 66.166672, 66.153061, 66.214287, 66.35714, 66.428574, 66.535713, 66.375, 66.64286, 66.714287, 66.785713, 66.785713, 66.785713, 66.678574, 66.571426, 66.5, 66.35714, 66.403061, 66.375, 66.535713, 66.64286, 66.64286, 66.64286, 66.60714, 66.60714, 66.60714, 66.60714, 66.678574, 66.785713, 66.785713, 66.785713, 66.821426, 66.785713, 66.714287, 66.64286, 66.637756, 66.765305, 66.836739, 66.85714, 66.785713, 66.785713, 66.821426, 66.836739, 66.948982, 66.85714, 67.125, 67.142853, 67.085716, 67.047615, 66.940475, 66.354164, 66.375, 66.3125, 66.64286, 66.540817, 66.42347, 66.321426, 66.133926, 66.738098, 66.638397, 66.938774, 66.553574, 66.446426, 66.375, 66.375, 66.375, 66.375, 66.4375, 66.375, 66.60714, 66.571426, 66.571426, 66.60714, 66.535713, 66.571426, 66.57653, 66.64286, 66.714287, 66.714287, 66.678574, 66.64286, 66.64286, 66.64286, 66.64286, 66.64286, 66.714287, 66.836739, 66.544647, 66.40625, 66.196426, 66.125, 66.53125, 66.5, 66.375, 66.375, 66.375, 66.375, 66.5, 66.459183, 66.5, 66.571426, 66.714287, 66.678574, 66.571426, 66.464287, 66.39286, 66.35714, 66.464287, 66.571426, 66.714287, 66.785713, 66.785713, 66.714287, 66.535713, 66.5, 66.39286, 66.39286, 66.428574, 66.285713, 66.214287, 66.10714, 66.035713, 66.214287, 66.1875, 66.348213, 66.571426, 66.75, 66.666664, 66.666664, 66.510201, 66.714287, 66.64286, 66.4375, 66.4375, 66.5, 66.625, 66.6875, 66.625, 66.4375, 66.17347, 66.372452, 66.669647, 67.071426, 66.928574, 66.785713, 66.785713, 66.60714, 66.637756, 66.755104, 66.535713, 66.625, 66.5, 66.4375, 66.5, 66.68367, 66.67347, 66.60714, 66.428574, 66.205353, 66, 66.035713, 66.14286, 66.14286, 66.285713, 66.625, 66.6875, 66.6875, 66.625, 66.5625, 66.714287, 66.625, 66.6875, 66.75, 66.75, 66.785713, 66.714287, 66.714287, 66.785713, 66.85714, 66.85714, 66.5, 66.375, 66.375, 66.375, 66.4375, 66.714287, 66.714287, 66.5625, 66.75, 66.875, 66.875, 66.8125, 66.85714, 66.64286, 66.64286, 66.64286, 66.64286, 66.64286, 66.64286, 66.64286, 66.714287, 66.785713, 66.785713, 66.625, 66.5, 66.4375, 66.464287, 66.473213, 66.678574, 66.714287, 66.64286, 66.64286, 66.75, 66.607147, 66.204086, 66.423805, 66.153061, 66.112244, 66.178574, 66.10714, 66.4375, 66.5625, 66.85714, 66.85714, 66.6875, 66.6875, 66.607147, 66.714287, 66.60714, 66.602043, 66.68367, 66.785713, 66.93367, 66.770409, 66.833328, 66.916672, 66.765305, 66.64286, 66.591835, 66.678574, 66.64286, 66.67347, 66.821426, 66.897957, 66.867348, 66.735123, 66.607147, 66.5625, 66.5625, 66.714287, 66.714287, 66.714287, 66.714287, 66.714287, 66.678574, 66.535713, 66.39286, 66, 65.875, 65.875, 66, 66.1875, 66.375, 66.60714, 66.571426, 66.535713, 66.612244, 66.85714, 66.801018, 66.511902, 66.372452, 66.35714, 66.464287, 66.64286, 66.64286, 66.571426, 66.571426, 66.3125, 66.4375, 66.5, 66.5, 66.785713, 66.714287, 66.785713, 66.625, 66.5625, 66.5625, 66.5, 66.714287, 66.785713, 66.81633, 66.908165, 66.801018, 66.714287, 66.64286, 66.714287, 66.678574, 66.4375, 66.4375, 66.375, 66.60714, 66.60714, 66.535713, 66.464287, 66.791664, 66.64286
-10, -10, -10, -10, -10, -10, -10, -10, -10, -10, -10, -10, -10, -10, -10, -10, -10, -10, -10, -10, -10, -10, -10, 67.150002, 67.60714, 67.464287, 67.25, 67.1875, 67.35714, 67.428574, 67.428574, 67.25, 67.3125, 67.535713, 67.60714, 67.60714, 67.60714, 67.571426, 67.64286, 67.64286, 67.714287, 67.714287, 67.40625, 67.272324, 67.018753, 67.1875, 67.525513, 67.60714, 67.714287, 67.714287, 67.714287, 67.678574, 67.60714, 67.60714, 67.60714, 67.64286, 67.5625, 67.5625, 67.5625, 67.625, 67.85714, 67.5625, 67.75, 67.464287, 67.544647, 67.669647, 67.75, 67.6875, 67.928574, 67.6875, 67.625, 67.6875, 67.85714, 67.928574, 67.979591, 68.002037, 67.969383, 67.877548, 67.726189, 67.64286, 67.535713, 67.678574, 67.540817, 67.494896, 67.428574, 67.397957, 67.552086, 67.638397, 67.696426, 67.491074, 67.321426, 67, 67, 67.25, 67.25, 67.3125, 67.571426, 67.714287, 67.785713, 67.785713, 67.75, 67.60714, 67.375, 67.473213, 67.35714, 67.71875, 67.71875, 67.59375, 67.46875, 67.4375, 67.4375, 67.678574, 67.60714, 67.67347, 67.642853, 67.607147, 67.821426, 68.041664, 68, 67.714287, 67.535713, 67.35714, 67.367348, 67.60714, 67.714287, 67.821426, 67.780617, 67.458336, 67.75, 67.785713, 67.714287, 67.64286, 67.60714, 67.535713, 67.25, 67.3125, 67.4375, 67.785713, 67.85714, 67.928574, 67.821426, 67.714287, 67.714287, 67.571426, 67.535713, 67.3125, 67.1875, 66.85714, 66.821426, 66.76786, 66.910713, 67.571426, 67.647957, 67.678574, 67.64286, 67.571426, 67.571426, 67.68367, 67.785713, 67.5625, 67.544647, 67.267853, 67.267853, 67.375, 67.5, 67.75, 67.64286, 67.89286, 68.071434, 67.846939, 68, 67.89286, 67.785713, 67.714287, 67.571426, 67.602043, 67.68367, 67.714287, 67.5, 67.3125, 67.25, 67.25, 67.285713, 67.551018, 67.5, 67.39286, 67.285713, 67.333336, 67.416664, 67.5, 67.541664, 67.583336, 67.510201, 67.714287, 67.714287, 67.785713, 67.64286, 67.60714, 67.46875, 67.53125, 67.65625, 67.6875, 67.5, 67.40625, 67.40625, 67.46875, 67.59375, 67.625, 67.5, 67.571426, 67.571426, 67.571426, 67.64286, 67.714287, 67.714287, 67.714287, 67.821426, 67.928574, 67.928574, 67.928574, 67.89286, 67.5625, 67.321426, 67.35714, 67.35714, 67.35714, 67.35714, 67.321426, 67.625, 67.625, 67.5625, 67.5625, 67.64286, 67.375, 67.401787, 67.68367, 67.714287, 67.5625, 67.5, 67.5, 67.5625, 67.801018, 68.083336, 68.130951, 67.898811, 67.803566, 67.791664, 67.791664, 67.64286, 67.75, 67.625, 67.625, 67.625, 67.5625, 67.714287, 67.714287, 67.571426, 67.530617, 67.612244, 67.678574, 67.948982, 67.938774, 67.952377, 67.976189, 67.607147, 67.5, 67.517853, 67.85714, 67.321426, 67.387756, 67.571426, 67.910713, 67.8125, 67.714287, 67.5625, 67.5625, 67.928574, 67.918373, 67.619041, 67.591835, 67.571426, 67.64286, 67.714287, 67.535713, 67.428574, 67.25, 67.071426, 66.571426, 67, 67.1875, 67.375, 67.64286, 67.64286, 67.571426, 67.375, 67.5, 67.450897, 67.260414, 67.454086, 67.446426, 67.51786, 67.625, 67.4375, 67.375, 67.375, 67.3125, 67.64286, 67.714287, 67.64286, 67.64286, 67.5, 67.375, 67.375, 67.3125, 67.375, 67.5, 67.64286, 67.821426, 67.836739, 67.669647, 67.607147, 67.5625, 67.5, 67.785713, 67.714287, 67.64286, 67.64286, 67.571426, 67.64286, 67.678574, 67.64286, 67.60714, 67.678574, 67.714287, 67.75, 67.785713, 67.785713, 67.785713, 67.785713, 67.785713, 67.714287, 67.714287, -10, -10, -10, -10, -10, -10, -10, -10, -10, -10, -10, -10, -10, -10, -10, -10, -10, -10, -10, -10, -10, -10, -10, -10, -10, -10, -10, -10, -10, -10, -10, -10, -10, -10, -10, -10, -10, -10, -10, -10, -10, -10, -10, -10, -10, -10, -10, -10, -10, -10, -10, -10, -10, -10, -10, -10, -10, -10, 68.150002, 68.428574, 68.309525, 68.35714, 68.35714, 68.39286, 68.464287, 68.464287, 68.464287, 68.464287, 68.535713, 68.535713, 68.375, 68.375, 68.4375, 68.4375, 68.4375, 68.40625, 68.34375, 68.209824, 68.081253, 68.1875, 68.303574, 68.60714, 68.678574, 68.64286, 68.571426, 68.5, 68.25, 68.3125, 68.375, 68.4375, 68.714287, 68.714287, 68.714287, 68.5625, 68.625, 68.625, 68.625, 68.625, 68.85714, 68.928574, 69, 68.928574, 68.821426, 68.75, 68.5625, 68.732147, 68.8125, 68.75, 68.82653, 68.81633, 68.821426, 68.875, 68.952377, 68.846939, 68.785713, 68.928574, 68.32653, 68.58036, 68.60714, 68.571426, 68.64286, 68.785713, 68.795914, 68.632652, 68.510201, 68.666664, 68.666664, 68.464287, 68.464287, 68.535713, 68.64286, 68.75, 68.821426, 68.821426, 68.785713, 68.64286, 68.5, 68.571426, 68.833336, 68.75, 68.89286, 68.75, 68.75, 68.714287, 68.714287, 68.785713, 68.5, 68.526787, 68.755104, 68.709183, 68.821426, 68.821426, 68.89286, 68.785713, 68.60714, 68.1875, 68.258926, 68.785713, 68.89286, 69, 68.887756, 69.125, 68.928574, 69, 68.964287, 68.85714, 68.785713, 68.64286, 68.535713, 68.571426, 68.64286, 68.785713, 68.928574, 69.071426, 69, 68.928574, 68.85714, 68.678574, 68.60714, 68.60714, 68.64286, 68.625, 68.724998, 69.083336, 69.035713, 68.801018, 68.632652, 68.663261, 68.64286, 68.571426, 68.64286, 68.714287, 68.714287, 68.785713, 68.729591, 68.267853, 68.267853, 68.3125, 68.4375, 68.821426, 68.85714, 68.928574, 69, 68.89286, 68.85714, 68.785713, 68.64286, 68.3125, 68.39286, 68.214287, 68.348213, 68.64286, 68.4375, 68.25, 68.125, 68.0625, 68.1875, 68.3125, 68.25, 68.285713, 68.10714, 68.122452, 68.275513, 68.166664, 67.928574, 68, 68.321426, 68.714287, 68.714287, 68.785713, 68.4375, 68.40625, 68.40625, 68.46875, 68.59375, 68.928574, 68.285713, 68.178574, 68.178574, 68.14286, 68.53125, 68.785713, 68.678574, 68.64286, 68.571426, 68.5, 68.535713, 68.571426, 68.64286, 68.714287, 68.785713, 68.85714, 68.85714, 68.85714, 68.85714, 68.785713, 69.041664, 69.125, 69.125, 69.125, 69.125, 69.041664, 68.785713, 68.785713, 68.714287, 68.714287, 68.678574, 68.60714, 68.637756, 68.719383, 68.714287, 68.64286, 68.464287, 68.464287, 68.535713, 68.765305, 68.928574, 68.969383, 68.770409, 68.688774, 68.678574, 68.678574, 68.785713, 68.89286, 68.836739, 68.714287, 68.714287, 68.64286, 68.714287, 68.714287, 68.60714, 68.339287, 68.410713, 68.4375, 68.6875, 69, 69, 68.928574, 68.714287, 68.571426, 68.663261, 68.85714, 69.041664, 69.14286, 69.208336, 69.005104, 68.89286, 68.709183, 68.64286, 68.714287, 68.85714, 68.918373, 68.479164, 68.455353, 68.4375, 68.5, 68.714287, 68.678574, 68.678574, 68.291664, 68.525513, 68.541664, 68.39286, 68.428574, 68.60714, 68.678574, 68.678574, 68.60714, 68.3125, 68.375, 68.34375, 68.28125, 68.21875, 68.21875, 68.25, 68.375, 68.64286, 68.571426, 68.571426, 68.535713, 68.678574, 68.75, 68.678574, 68.4375, 68.3125, 68.3125, 68.3125, 68.25, 68.375, 68.348213, 68.401787, 68.625, 68.5625, 68.5625, 68.5, 68.64286, 68.64286, 68.785713, 68.75, 68.714287, 68.714287, 68.571426, 68.60714, 68.64286, 68.571426, 68.64286, 68.4375, 68.375
-10, -10, -10, -10, -10, -10, -10, -10, -10, -10, -10, -10, -10, -10, -10, -10, -10, -10, -10, -10, -10, -10, -10, -10, -10, 68.75, 69.083336, 69.309525, 69.35714, 69.35714, 69.5, 69.571426, 69.571426, 69.25, 69.3125, 69.3125, 69.3125, 69.571426, 69.64286, 69.64286, 69.4375, 69.178574, 69.10714, 69.217262, 69.432144, 69.530617, 69.366074, 69.4375, 69.5, 69.4375, 69.375, 69.3125, 69.25, 69.3125, 69.375, 69.64286, 69.714287, 69.714287, 69.64286, 69.64286, 69.64286, 69.678574, 69.821426, 69.964287, 70.035713, 70.071426, 70, 69.785713, 69.455353, 69.5, 69.785713, 70.051018, 70.071426, 70.5, 70.583336, 70.625, 70.541664, 70.127548, 69.8125, 69.669647, 69.928574, 70.071426, 70.333336, 70.132652, 69.583336, 69.85714, 69.59375, 69.6875, 69.665176, 69.852043, 69.862244, 69.775513, 69.571426, 69.60714, 69.5, 69.60714, 69.678574, 69.75, 69.821426, 69.821426, 69.785713, 69.678574, 69.571426, 69.64286, 69.714287, 69.714287, 69.821426, 69.714287, 69.714287, 69.75, 69.75, 69.785713, 69.714287, 69.744896, 69.755104, 69.526787, 69.65625, 69.6875, 69.75, 69.625, 69.40625, 69.428574, 69.510201, 69.821426, 70.035713, 70.122452, 69.965309, 70.086739, 69.964287, 70.071426, 69.964287, 69.89286, 69.821426, 69.714287, 69.64286, 69.64286, 69.785713, 69.85714, 70.035713, 70.25, 70.178574, 70.14286, 70.071426, 69.85714, 69.821426, 69.928574, 69.928574, 70.208336, 70.25, 70, 70.030617, 70.051018, 69.584824, 69.580353, 69.5, 69.375, 69.4375, 69.5, 69.5, 69.821426, 69.801018, 69.556122, 69.627548, 69.714287, 69.785713, 69.964287, 69.964287, 69.928574, 69.8125, 69.6875, 69.625, 69.5, 69.375, 69.25, 69.1875, 69.25, 69.3125, 69.375, 69.464287, 69.285713, 69.071426, 69.081627, 69.488098, 69.455353, 69.46875, 68.98214, 68.803574, 69.075897, 69.178574, 69.428574, 69.428574, 69.464287, 69.321426, 69.64286, 69.571426, 69.663261, 69.64286, 69.60714, 69.678574, 69.678574, 69.821426, 69.928574, 70.083336, 70.020836, 70.020836, 69.854164, 69.744896, 69.908165, 69.918373, 69.928574, 69.5625, 69.4375, 69.375, 69.375, 69.4375, 69.714287, 69.5625, 69.6875, 69.75, 69.75, 69.75, 69.89286, 69.964287, 70.035713, 70.035713, 70.035713, 69.964287, 69.89286, 69.821426, 69.785713, 69.714287, 69.714287, 69.64286, 69.60714, 69.622452, 69.473213, 69.64286, 69.375, 69.464287, 69.464287, 69.40625, 69.638397, 69.8125, 69.848213, 69.642853, 69.571426, 69.625, 69.625, 69.89286, 69.964287, 69.836739, 69.714287, 69.64286, 69.375, 69.64286, 69.64286, 69.571426, 69.5, 69.571426, 69.544647, 69.75, 69.875, 69.8125, 69.6875, 69.714287, 69.64286, 69.724487, 69.785713, 69.75, 69.836739, 69.85714, 69.660713, 69.85714, 69.464287, 69.678574, 69.75, 69.625, 69.918373, 69.690475, 69.663261, 69.64286, 69.714287, 69.714287, 69.714287, 69.75, 69.958336, 69.739799, 69.571426, 69.535713, 69.428574, 69.556122, 69.657143, 69.510201, 69.438774, 69.285713, 69.35714, 69.410713, 69.375, 69.15625, 69.15625, 69.1875, 69.375, 69.60714, 69.5, 69.5, 69.5, 69.64286, 69.5625, 69.5, 69.4375, 69.5, 69.5, 69.5, 69.5, 69.64286, 69.612244, 69.401787, 69.714287, 69.4375, 69.60714, 69.535713, 69.464287, 69.464287, 69.5, 69.598213, 69.625, 69.625, 69.5, 69.5625, 69.5625, 69.25, 69.321426, 69.214287, 69.14286, 69.10714, 69, 69.375, 69.4375, 69.5, 69.5625, 69.714287, 69.714287, -10, -10, -10, -10, -10, -10, -10, -10, -10, -10, -10, -10, -10, -10, -10, -10, -10, -10, -10, -10, -10, -10, -10, -10, -10, -10, -10, -10, -10, -10, -10, -10, -10, -10, -10, -10, -10, -10, -10, -10, -10, -10, -10, -10, -10, -10, -10, -10, -10, -10, -10, -10, -10, -10, -10, -10, -10, -10, -10, -10, 69.611115, 69.611115, 69.666664, 70.25, 70.375, 70.64286, 70.64286, 70.3125, 70.3125, 70.375, 70.60714, 70.714287, 70.785713, 70.785713, 70.75, 71, 71, 70.869049, 70.671432, 70.67347, 70.602043, 70.64286, 70.571426, 70.571426, 70.571426, 70.622452, 70.60714, 70.678574, 70.678574, 70.678574, 70.714287, 70.785713, 70.5625, 70.5625, 70.5625, 70.625, 71, 71.14286, 71.214287, 71.035713, 70.6875, 70.5, 70.455353, 70.625, 70.928574, 71.193878, 71.14286, 71.285713, 71.35714, 71.464287, 71.464287, 71.341835, 71.219383, 70.948982, 71.010201, 71.071426, 71.178574, 71.168373, 71.125, 70.89286, 70.785713, 70.821426, 70.821426, 70.89286, 70.964287, 70.918373, 70.714287, 70.714287, 70.60714, 70.678574, 70.696426, 70.53125, 70.59375, 70.59375, 70.5625, 70.714287, 70.64286, 70.5, 70.5625, 70.53125, 70.59375, 70.53125, 70.53125, 70.785713, 70.785713, 70.785713, 70.75, 70.765305, 70.598213, 70.714287, 70.571426, 70.736603, 70.65625, 70.46875, 70.51786, 70.464287, 70.612244, 70.785713, 70.964287, 70.857147, 70.737503, 70.919647, 70.875, 71.25, 70.916664, 71.071426, 70.928574, 70.785713, 70.714287, 70.714287, 70.821426, 70.821426, 70.964287, 71.14286, 71.10714, 71.10714, 71.035713, 70.85714, 70.85714, 71, 71.10714, 71.321426, 71.35714, 71.0625, 71.058037, 71.247452, 71.038261, 71.020409, 70.85714, 70.714287, 70.714287, 70.5, 70.5, 70.625, 70.607147, 70.653061, 70.724487, 70.785713, 70.821426, 70.928574, 70.928574, 70.85714, 70.85714, 70.785713, 70.64286, 70.375, 70.3125, 70.39286, 70.39286, 70.464287, 70.535713, 70.375, 70.3125, 70.1875, 69.714287, 70.331627, 70.702385, 70.806122, 70.821426, 70.75, 70.583336, 70.372452, 70.418373, 70.35714, 70.285713, 70.25, 70.336739, 70.4375, 70.375, 70.517853, 70.60714, 70.446426, 70.405617, 70.375, 70.553574, 70.785713, 70.89286, 70.946426, 70.946426, 70.803574, 70.558037, 70.908165, 70.918373, 70.85714, 70.714287, 70.571426, 70.5, 70.571426, 70.64286, 70.714287, 70.714287, 70.785713, 70.85714, 70.85714, 70.89286, 70.75, 70.875, 71, 71.0625, 71, 70.875, 70.75, 70.6875, 70.625, 70.85714, 70.85714, 70.5, 70.5, 70.4375, 70.4375, 70.4375, 70.375, 70.34375, 70.34375, 70.678574, 70.75, 70.785713, 70.785713, 70.785713, 70.85714, 70.928574, 70.928574, 70.928574, 70.85714, 70.765305, 70.64286, 70.375, 70.375, 70.4375, 70.4375, 70.60714, 70.571426, 70.64286, 70.765305, 70.85714, 70.89286, 70.821426, 70.5625, 70.64286, 70.60714, 70.46875, 70.46875, 70.59375, 70.5, 70.5, 70.75, 70.75, 70.5625, 70.5625, 70.625, 70.625, 70.678574, 70.666664, 70.581627, 70.5, 70.535713, 70.64286, 70.75, 70.780617, 70.821426, 70.668373, 70.5, 70.25, 70.1875, 70.330353, 70.449997, 70.321426, 70.196426, 70, 70, 70.285713, 70.125, 70.39286, 70.464287, 70.464287, 70.60714, 70.4375, 70.375, 70.3125, 70.339287, 70.473213, 70.714287, 70.75, 70.64286, 70.60714, 70.60714, 70.535713, 70.464287, 70.571426, 70.469383, 70.42347, 70.571426, 70.5, 70.4375, 70.214287, 70.178574, 70.17347, 70.4375, 70.755104, 70.714287, 70.785713, 70.714287, 70.785713, 70.785713, 71, 71.041664, 70.916664, 70.875
-10, -10, -10, -10, -10, -10, -10, -10, -10, -10, -10, -10, -10, -10, -10, -10, -10, -10, -10, -10, -10, -10, -10, -10, -10, -10, -10, -10, -10, 71.35714, 71.511902, 71.60714, 71.678574, 71.571426, 71.571426, 71.64286, 71.678574, 71.714287, 71.81633, 71.979591, 72.025513, 72.14286, 72.071426, 71.928574, 71.89286, 71.678574, 71.535713, 71.464287, 71.403061, 71.702385, 71.765305, 71.872452, 71.821426, 71.714287, 71.678574, 71.64286, 71.64286, 71.785713, 71.785713, 71.785713, 71.85714, 71.964287, 72.10714, 72.214287, 72, 71.75, 71.625, 71.4375, 71.627548, 71.89286, 71.928574, 72.204086, 71.9375, 72.125, 72.25, 72.3125, 72.375, 72.510201, 72.352043, 71.818031, 71.651787, 71.6875, 71.8125, 71.866074, 71.928574, 71.85714, 71.75, 71.75, 71.75, 71.821426, 71.964287, 71.918373, 71.714287, 71.714287, 71.64286, 71.714287, 71.714287, 71.714287, 71.714287, 71.714287, 71.714287, 71.714287, 71.678574, 71.678574, 71.678574, 71.60714, 71.64286, 71.64286, 71.5, 71.5625, 71.5625, 71.5625, 71.5625, 71.5625, 71.785713, 71.979591, 72.208336, 71.913261, 71.785713, 71.366074, 71.175003, 71.303574, 71.428574, 71.5, 71.5625, 71.482147, 71.557144, 71.801018, 71.85714, 72.10714, 72.291664, 72, 71.821426, 71.64286, 71.5, 71.428574, 71.5, 71.5, 71.5, 71.625, 71.625, 71.6875, 71.625, 71.85714, 71.928574, 71.8125, 71.90625, 72.03125, 72.03125, 72.03125, 72.026787, 72.204086, 72.153061, 72.081627, 71.928574, 71.714287, 71.678574, 71.60714, 71.60714, 71.64286, 71.64286, 71.64286, 71.714287, 71.85714, 71.785713, 71.5625, 71.5625, 71.5, 71.5625, 71.5625, 71.60714, 71.464287, 71.428574, 71.39286, 71.39286, 71.464287, 71.428574, 71.321426, 71.321426, 71.39286, 71.630951, 71.581627, 71.916672, 71.913261, 71.928574, 71.714287, 71.678574, 71.739799, 71.724495, 71.229164, 71.071426, 71.03125, 71.133926, 71.571426, 71.571426, 71.663261, 71.5, 71.14286, 71.102043, 71.071426, 71.178574, 71.5625, 71.6875, 71.6875, 71.625, 71.5, 71.464287, 71.607147, 71.918373, 71.625, 71.75, 71.571426, 71.428574, 71.428574, 71.464287, 71.571426, 71.64286, 71.785713, 71.85714, 71.85714, 71.85714, 71.85714, 71.928574, 72, 72.071426, 72, 71.85714, 71.785713, 71.785713, 71.785713, 71.928574, 72, 71.85714, 71.85714, 71.714287, 71.64286, 71.64286, 71.60714, 71.589287, 71.51786, 71.589287, 71.625, 71.64286, 71.714287, 71.785713, 71.85714, 71.928574, 71.928574, 71.89286, 71.625, 71.544647, 71.4375, 71.375, 71.60714, 71.64286, 71.64286, 71.571426, 71.5, 71.5, 71.622452, 71.714287, 71.85714, 71.928574, 71.85714, 71.5625, 71.46875, 71.40625, 71.34375, 71.60714, 71.916664, 71.916664, 71.785713, 71.85714, 71.75, 71.75, 71.75, 71.678574, 71.714287, 71.5625, 71.285713, 71.214287, 71.214287, 71.5, 71.5625, 71.589287, 71.625, 71.491074, 71.3125, 71.035713, 71, 71.455353, 71.800003, 71.581627, 71.258926, 71.125, 71.0625, 71.125, 71.125, 71.428574, 71.5, 71.5, 71.60714, 71.571426, 71.571426, 71.3125, 71.339287, 71.68367, 71.714287, 71.785713, 71.714287, 71.714287, 71.714287, 71.4375, 71.375, 71.5, 71.18367, 71.137756, 71.25, 71.14286, 71.785713, 72.083336, 72.208336, 72.279762, 71.583336, 71.969383, 71.625, 71.85714, 71.678574, 71.678574, 71.678574, 71.714287, 71.75, 71.64286, 71.60714, 71.535713, 71.5, 71.60714, 71.64286, 71.75, 71.785713, 71.809525, -10, -10, -10, -10, -10, -10, -10, -10, -10, -10, -10, -10, -10, -10, -10, -10, -10, -10, -10, -10, -10, -10, -10, -10, -10, -10, -10, -10, -10, -10, -10, -10, -10, -10, -10, -10, -10, -10, -10, -10, -10, -10, -10, -10, -10, -10, -10, -10, -10, -10, -10, -10, -10, -10, -10, -10, -10, -10, -10, -10, -10, -10, -10, -10, 72.5, 72.354164, 72.375, 72.571426, 72.464287, 72.39286, 72.545914, 72.692856, 72.392853, 72.589287, 72.943878, 73.096939, 73.214287, 73.14286, 72.928574, 72.616074, 72.166664, 72.041664, 72.145836, 72.1875, 72.738098, 72.836739, 72.979591, 72.928574, 72.5625, 72.5, 72.4375, 72.375, 72.64286, 72.678574, 72.75, 73.015305, 73.10714, 73.178574, 73.14286, 72.8125, 72.625, 72.714287, 72.714287, 72.867348, 73.14286, 72.64286, 73.125, 73, 73.0625, 73.321426, 73.321426, 73.39286, 73.428574, 73.280617, 72.559525, 72.526787, 72.5, 72.5625, 72.75, 72.8125, 72.535713, 72.464287, 72.65625, 72.59375, 72.59375, 72.71875, 72.678574, 72.714287, 72.714287, 72.678574, 72.714287, 72.714287, 72.714287, 72.714287, 72.714287, 72.785713, 72.85714, 72.928574, 72.928574, 72.785713, 72.678574, 72.801018, 72.801018, 72.821426, 72.785713, 72.64286, 72.571426, 72.571426, 72.571426, 72.714287, 73, 73.071426, 72.877548, 72.64286, 72.178574, 71.987503, 72.178574, 72.303574, 72.375, 72.375, 72.169647, 72.076782, 72.330353, 72.375, 72.625, 72.785713, 72.785713, 72.4375, 72.4375, 72.348213, 72, 72.17347, 72.132652, 72.285713, 72.321426, 72.5, 72.5625, 72.625, 72.6875, 72.75, 72.8125, 72.75, 72.75, 72.6875, 73, 73.035713, 72.875, 72.9375, 72.875, 72.75, 72.5625, 72.5, 72.4375, 72.5, 72.5, 72.5, 72.5, 72.5, 72.625, 72.5625, 72.5, 72.375, 72.3125, 72.375, 72.64286, 72.4375, 72.375, 72.14286, 72.419647, 72.229164, 72.196426, 72.0625, 71.9375, 71.9375, 72.25, 72.397957, 72.612244, 72.645836, 72.705353, 72.71875, 72.59375, 72.803574, 72.839287, 72.801018, 72.476189, 72.071426, 71.96875, 72.008926, 72.39286, 72.35714, 72.510201, 72.571426, 72.791664, 72.851189, 72.791664, 72.75, 72.571426, 72.571426, 72.3125, 72.25, 72.1875, 72.276787, 72.482147, 72.553574, 72.5, 72.4375, 72.375, 72.3125, 72.3125, 72.3125, 72.375, 72.4375, 72.5625, 72.625, 72.625, 72.625, 72.625, 72.6875, 72.75, 72.8125, 72.75, 72.85714, 72.785713, 72.785713, 72.785713, 72.928574, 73, 72.89286, 72.89286, 72.75, 72.60714, 72.535713, 72.535713, 72.535713, 72.535713, 72.375, 72.375, 72.375, 72.4375, 72.785713, 72.85714, 72.6875, 72.6875, 72.6875, 72.5625, 72.714287, 72.714287, 72.60714, 72.678574, 72.75, 72.75, 72.678574, 72.375, 72.3125, 72.419647, 72.5625, 72.6875, 72.964287, 72.928574, 72.785713, 72.678574, 72.60714, 72.571426, 72.678574, 72.714287, 72.64286, 72.60714, 72.64286, 72.64286, 72.714287, 72.785713, 72.785713, 72.785713, 72.785713, 73, 72.875, 72.875, 72.64286, 72.571426, 72.530617, 72.5, 72.428574, 72.5, 72.75, 72.833336, 72.724487, 72.757141, 72.540817, 72.32653, 72.14286, 72.035713, 72.14286, 72.285713, 72.464287, 72.535713, 72.535713, 72.3125, 72.464287, 72.64286, 72.693878, 72.744896, 72.862244, 72.785713, 72.785713, 72.64286, 72.64286, 72.64286, 72.571426, 72.571426, 72.64286, 72.875, 72.958336, 73, 72.916664, 72.821426, 72.928574, 73.035713, 73.168373, 73.208336, 73.020409, 72.89286, 72.821426, 72.5, 72.5, 72.5, 72.625, 72.428574, 72.39286, 72.39286
-10, -10, -10, -10, -10, -10, -10, -10, -10, -10, -10, -10, -10, -10, -10, -10, -10, -10, -10, -10, -10, -10, -10, -10, -10, -10, -10, -10, -10, 73, 73.066666, 73.375, 73.275002, 73.112503, 73.178574, 73.3125, 73.512497, 73.392853, 73.526787, 73.669647, 74.025513, 74.10714, 74.035713, 73.85714, 73.491074, 72.833328, 72.761902, 73.145836, 73.1875, 73.773811, 73.836739, 73.732147, 73.6875, 73.5625, 73.5, 73.64286, 73.375, 73.5, 73.35714, 73.464287, 73.982147, 74.214287, 74.14286, 73.8125, 73.75, 73.85714, 73.708336, 73.875, 74.041664, 74.208336, 74.666664, 74.306114, 74.178574, 74.14286, 74.285713, 74.321426, 74.428574, 74.10714, 73.979599, 73.773811, 73.651787, 73.64286, 73.64286, 73.785713, 73.85714, 74.125, 74.125, 73.785713, 73.714287, 73.64286, 73.64286, 73.64286, 73.64286, 73.64286, 73.714287, 73.714287, 73.714287, 73.714287, 73.714287, 73.714287, 73.785713, 73.85714, 73.928574, 73.928574, 73.785713, 73.714287, 73.836739, 73.836739, 73.85714, 73.785713, 73.5, 73.214287, 73.214287, 73.214287, 73.5625, 73.75, 73.8125, 73.642853, 73.4375, 73.178574, 73.050003, 73.241074, 73.303574, 73.25, 73.125, 72.875, 72.839287, 73.035713, 73.125, 73.375, 73.4375, 73.4375, 73.3125, 73.25, 73.32653, 73.5, 73.821434, 73.809525, 73.875, 73.791664, 73.5, 73.64286, 73.714287, 73.85714, 73.928574, 73.85714, 73.5625, 73.5625, 73.5625, 73.6875, 73.8125, 73.8125, 73.875, 73.8125, 73.6875, 73.625, 73.625, 73.765312, 73.714287, 73.714287, 73.64286, 73.714287, 73.64286, 73.714287, 73.64286, 73.5, 73.25, 73.25, 73.3125, 73.4375, 73.64286, 73.64286, 73.916664, 73.693886, 73.291664, 73.196426, 72.785713, 72.714287, 72.785713, 73.125, 73.223213, 73.3125, 73.375, 73.4375, 73.5, 73.64286, 73.64286, 73.714287, 73.693886, 73.511902, 73.438774, 73.321426, 73.32653, 73.25, 73, 73.375, 73.375, 73.678574, 73.693886, 73.75, 73.68367, 73.602043, 73.535713, 73.1875, 73.1875, 73.1875, 73.3125, 73.375, 73.375, 73.3125, 73.3125, 73.535713, 73.464287, 73.428574, 73.428574, 73.5, 73.64286, 73.714287, 73.714287, 73.714287, 73.714287, 73.5, 73.5, 73.5, 73.5625, 73.5625, 73.5625, 73.625, 73.6875, 73.6875, 73.8125, 73.8125, 73.6875, 73.625, 73.64286, 73.3125, 73.25, 73.3125, 73.375, 73.375, 73.375, 73.4375, 73.419647, 73.291664, 73.479164, 73.708336, 73.732147, 73.75, 73.89286, 73.75, 73.75, 73.75, 73.678574, 73.714287, 73.85714, 73.928574, 73.928574, 73.85714, 73.64286, 73.571426, 73.64286, 73.785713, 73.928574, 73.928574, 73.821426, 73.73214, 73.660713, 73.73214, 73.65625, 73.464287, 73.428574, 73.35714, 73.321426, 73.321426, 73.39286, 73.75, 74, 73.928574, 73.89286, 73.85714, 73.75, 73.75, 73.678574, 73.375, 73.339287, 73.3125, 73.535713, 73.60714, 73.678574, 73.785713, 73.821426, 73.5625, 73.4375, 73.25, 72.85714, 72.714287, 73.321426, 73.428574, 73.535713, 73.375, 73.375, 73.3125, 73.3125, 73.714287, 73.801025, 73.836739, 73.877548, 73.785713, 73.5625, 73.4375, 73.4375, 73.4375, 73.60714, 73.571426, 73.67347, 73.790817, 73.821426, 73.928574, 73.785713, 73.85714, 73.75, 73.875, 73.991074, 74.071426, 74, 73.89286, 73.785713, 73.64286, 73.571426, 73.571426, 73.64286, 73.916664, 74, 74, 73.916664, 73.64286, 73.571426, 73.5, 73.5, 73.571426, 73.619057, -10, -10, -10, -10, -10, -10, -10, -10, -10, -10, -10, -10, -10, -10, -10, -10, -10, -10, -10, -10, -10, -10, -10, -10, -10, -10, -10, -10, -10, -10, -10, -10, -10, -10, -10, -10, -10, -10, -10, -10, -10, -10, -10, -10, -10, -10, -10, -10, -10, -10, -10, -10, -10, -10, -10, -10, -10, -10, -10, -10, -10, -10, -10, -10, -10, -10, 74.60714, 74.275002, 74.112503, 74.178574, 74.25, 74.657143, 74.556114, 74.693886, 74.607147, 74.741074, 74.8125, 74.75, 74.6875, 74.553574, 74.652779, 74.611107, 74.416672, 74.530617, 74.583336, 74.607147, 74.625, 74.5625, 74.678574, 74.75, 74.821426, 74.75, 74.85714, 75.083336, 75.125, 75.158165, 75, 74.75, 74.6875, 74.943886, 75, 75.375, 75.583336, 75.708336, 75.75, 75.535713, 75.377548, 75.285713, 75.03125, 75.125, 75, 75.026787, 75.601189, 75.571434, 75.125847, 75.010201, 74.785713, 74.714287, 74.821426, 74.89286, 74.964287, 74.964287, 74.821426, 74.75, 74.678574, 74.4375, 74.4375, 74.4375, 74.4375, 74.64286, 74.64286, 74.64286, 74.64286, 74.714287, 74.714287, 74.714287, 74.714287, 74.785713, 74.785713, 74.714287, 74.714287, 74.836739, 74.836739, 74.85714, 74.785713, 74.714287, 74.916664, 74.916664, 74.833336, 74.571426, 74.375, 74.3125, 74.25, 74.1875, 74.17347, 74.099998, 74.244896, 74.31633, 74.125, 74.214287, 73.964287, 73.780617, 73.660713, 73.71875, 73.96875, 74.09375, 74.15625, 74.0625, 74, 74.219383, 74.285713, 74.632652, 74.693886, 74.75, 74.678574, 74.60714, 74.714287, 74.785713, 74.85714, 74.89286, 74.625, 74.5, 74.4375, 74.4375, 74.5, 74.821426, 74.821426, 74.821426, 74.785713, 74.714287, 74.75, 74.821426, 74.801025, 74.75, 74.75, 74.678574, 74.75, 74.678574, 74.714287, 74.678574, 74.571426, 74.5, 74.5, 74.535713, 74.64286, 74.678574, 74.64286, 74.714287, 74.693886, 74.476189, 74.367348, 74.494049, 74.64286, 74.684525, 74.39286, 74.1875, 74.1875, 74.25, 74.375, 74.4375, 74.4375, 74.4375, 74.428574, 74.282143, 74.513603, 74.530617, 74.535713, 74.5, 74.464287, 74.666664, 74.5, 74.4375, 74.5625, 74.625, 74.6875, 74.598213, 74.464287, 74.34375, 74.09375, 74.25, 74.25, 74.428574, 74.535713, 74.64286, 74.714287, 74.714287, 74.75, 74.571426, 74.364281, 74.617348, 74.653061, 74.89286, 74.85714, 74.785713, 74.785713, 74.714287, 74.5, 74.410713, 74.205353, 74.133926, 74.125, 74.25, 74.64286, 74.785713, 74.85714, 74.89286, 74.6875, 74.6875, 74.6875, 74.285713, 74.178574, 74.071426, 74.375, 74.64286, 74.60714, 74.64286, 74.714287, 74.765312, 74.416664, 74.541664, 74.952385, 74.979599, 74.928574, 74.928574, 74.85714, 74.785713, 74.785713, 74.714287, 74.714287, 74.85714, 74.928574, 74.964287, 74.928574, 74.75, 74.678574, 74.714287, 74.785713, 74.6875, 74.6875, 74.625, 74.5625, 74.714287, 74.714287, 74.81633, 75.089287, 75.083336, 75.125, 74.958336, 75, 75.041664, 74.928574, 75, 74.928574, 74.89286, 74.6875, 74.5625, 74.5, 74.3125, 74.285713, 74.285713, 74.367348, 74.738098, 74.836739, 74.6875, 74.6875, 74.625, 74.5625, 74.4375, 74.5, 74.666664, 74.625, 74.464287, 74.464287, 74.464287, 74.464287, 74.464287, 74.464287, 74.535713, 74.64286, 74.693886, 74.714287, 74.714287, 74.714287, 74.714287, 74.64286, 74.64286, 74.64286, 74.64286, 74.4375, 74.589287, 74.723213, 74.75, 74.875, 74.75, 74.75, 74.6875, 74.580353, 74.6875, 74.6875, 74.6875, 74.6875, 74.5625, 74.678574, 74.64286, 74.64286, 74.714287, 74.785713, 74.85714, 74.85714
-10, -10, -10, -10, -10, -10, -10, -10, -10, -10, -10, -10, -10, -10, -10, -10, -10, -10, -10, -10, -10, -10, -10, -10, -10, -10, -10, -10, -10, -10, -10, 75.150002, 75.242859, 75.092857, 75.204086, 75.244896, 75.471428, 75.510201, 75.64286, 75.714287, 75.625, 75.625, 75.625, 75.928574, 75.81633, 75.666664, 75.666664, 75.690483, 75.81633, 75.928574, 75.928574, 75.85714, 75.785713, 75.714287, 75.785713, 75.85714, 75.89286, 76, 76, 75.964287, 75.763397, 75.5625, 75.5, 75.5625, 76.108162, 76.081627, 76.306114, 76.464287, 76.64286, 76.4375, 76.40625, 76.174103, 76.03125, 76.03125, 76, 75.875, 75.839287, 76.301025, 76.387756, 76.387756, 76.285713, 76, 75.85714, 75.625, 75.6875, 75.75, 75.75, 75.625, 75.5625, 75.714287, 75.64286, 75.64286, 75.64286, 75.571426, 75.375, 75.375, 75.375, 75.5, 75.755104, 75.67347, 75.5, 75.4375, 75.5625, 75.5625, 75.4375, 75.64286, 75.544647, 75.544647, 75.625, 75.59375, 75.85714, 75.89286, 75.89286, 75.785713, 75.3125, 75.1875, 75.125, 75.0625, 75.0625, 74.785713, 74.991074, 74.925003, 75.116074, 75.116074, 75.428574, 75, 74.851189, 74.57653, 74.5, 74.96875, 75.35714, 75.10714, 74.989799, 74.75, 74.848213, 75.107147, 75.491074, 75.607147, 75.625, 75.5625, 75.64286, 75.714287, 75.625, 75.660713, 75.6875, 75.625, 75.64286, 75.714287, 75.785713, 75.765312, 75.690475, 75.663261, 75.64286, 75.714287, 75.714287, 75.785713, 75.85714, 75.836739, 75.5625, 75.5, 75.464287, 75.598213, 75.714287, 75.785713, 75.714287, 75.64286, 75.60714, 75.60714, 75.60714, 75.678574, 75.64286, 75.375, 75.4375, 75.419647, 75.523804, 75.540817, 75.530617, 75.693886, 75.622452, 75.35714, 75.096939, 75, 75.071426, 75.39286, 75.535713, 75.535713, 75.5, 75.241074, 75.112503, 75.366074, 75.428574, 75.678574, 75.714287, 75.678574, 75.571426, 75.484688, 75.428574, 75.464287, 75.60714, 75.785713, 75.897957, 75.887756, 75.479164, 75.25, 75.21875, 75.120537, 75.25, 75.60714, 75.785713, 75.85714, 75.785713, 75.678574, 75.5, 75.162498, 75.653061, 75.724487, 75.928574, 75.85714, 75.785713, 75.785713, 75.714287, 75.714287, 75.612244, 75.142853, 75.098213, 74.877548, 75.25, 75.5, 75.5625, 75.85714, 75.85714, 75.785713, 75.785713, 75.785713, 75.916664, 75.958336, 75.833336, 75.64286, 75.714287, 75.678574, 75.75, 75.821426, 75.872452, 75.726189, 75.761902, 76.023811, 76.122452, 76.071426, 76.035713, 75.89286, 75.5625, 75.5, 75.714287, 75.885719, 75.625, 75.830353, 75.8125, 75.75, 75.734688, 75.571426, 75.383926, 75.645836, 75.669647, 75.6875, 75.785713, 75.714287, 75.714287, 75.5, 75.589287, 75.93367, 75.928574, 75.964287, 75.821426, 75.85714, 75.89286, 75.928574, 75.75, 75.6875, 75.625, 75.5625, 75.4375, 75.375, 75.035713, 74.89286, 74.89286, 75.258926, 75.773811, 75.836739, 75.785713, 75.64286, 75.571426, 75.535713, 75.5, 75.464287, 75.35714, 75.35714, 75.464287, 75.5, 75.3125, 75.3125, 75.3125, 75.571426, 75.571426, 75.401787, 75.589287, 75.583336, 75.5, 75.5, 75.64286, 75.60714, 75.535713, 75.535713, 75.535713, 75.571426, 75.744896, 75.82653, 75.785713, 75.928574, 75.85714, 75.85714, 75.785713, 75.392853, 75.5, 75.5, 75.5625, 75.625, 75.714287, 75.64286, 75.571426, 75.5, 75.375, 75.5, 75.625, 75.6875, 75.5625, 75.464287, 75.693886, 75.595238, 75.666664, 75.5, -10, -10, -10, -10, -10, -10, -10, -10, -10, -10, -10, -10, -10, -10, -10, -10, -10, -10, -10, -10, -10, -10, -10, -10, -10, -10, -10, -10, -10, -10, -10, -10, -10, -10, -10, -10, -10, -10, -10, -10, -10, -10, -10, -10, -10, -10, -10, -10, -10, -10, -10, -10, -10, -10, -10, -10, -10, -10, -10, -10, -10, -10, -10, -10, -10, -10, -10, -10, 75.533333, 75.800003, 76.011909, 76.053574, 76.25, 76.375, 76.4375, 76.714287, 76.785713, 76.785713, 76.785713, 76.928574, 76.85714, 76.85714, 76.85714, 76.785713, 76.85714, 76.928574, 76.928574, 76.85714, 76.785713, 76.64286, 76.714287, 76.85714, 76.969383, 77.10714, 76.875, 76.75, 76.65625, 76.4375, 76.375, 76.714287, 77.072449, 76.883926, 77.142853, 77.25, 77.4375, 77.4375, 77.34375, 77.111603, 77.214287, 77.178574, 77.10714, 76.8125, 76.776787, 77.107147, 77.214287, 77.214287, 77.321426, 77.035713, 76.821426, 76.5625, 76.5625, 76.5625, 76.5625, 76.714287, 76.714287, 76.785713, 76.75, 76.75, 76.75, 76.60714, 76.4375, 76.4375, 76.4375, 76.785713, 76.755104, 76.464287, 76.714287, 76.4375, 76.714287, 76.785713, 76.25, 76.321426, 76.321426, 76.5, 76.632652, 76.64286, 76.75, 76.6875, 76.71875, 76.625, 76.375, 76.1875, 76.1875, 76.1875, 76.25, 76.666664, 76.116074, 75.987503, 76.053574, 76.346939, 76.5, 76.708336, 76.791664, 76.75, 76.479164, 76.285713, 76.464287, 75.816963, 75.528572, 75.607147, 75.669647, 76.107147, 76.464287, 76.571426, 76.571426, 76.571426, 76.375, 76.5, 76.5625, 76.598213, 76.821426, 76.785713, 76.678574, 76.75, 76.821426, 76.801025, 76.479164, 76.455353, 76.4375, 76.4375, 76.571426, 76.4375, 76.5, 76.544647, 76.714287, 76.4375, 76.637756, 76.755104, 76.714287, 76.785713, 76.64286, 76.535713, 76.535713, 76.535713, 76.60714, 76.714287, 76.4375, 76.3125, 76.3125, 76.25, 76.25, 76.428574, 76.387756, 76.551025, 76.366074, 76.119057, 75.836731, 75.714287, 75.714287, 76.21875, 76.34375, 76.34375, 76.571426, 76.489799, 76.342857, 76.596939, 76.632652, 76.714287, 76.785713, 76.785713, 76.714287, 76.392853, 76.3125, 76.3125, 76.46875, 76.6875, 77.020409, 77.051018, 77.145836, 76.9375, 76.571426, 76.459183, 76.3125, 76.64286, 76.85714, 76.85714, 76.714287, 76.3125, 76.0625, 75.912498, 76.474487, 76.617348, 76.928574, 77, 76.928574, 76.928574, 76.785713, 76.75, 76.68367, 76.413261, 76.362244, 76.630951, 76.39286, 76.60714, 76.5, 76.5625, 76.625, 76.5625, 76.714287, 76.75, 76.714287, 76.785713, 76.785713, 76.75, 76.785713, 76.714287, 76.5625, 76.625, 76.669647, 76.809525, 76.809525, 76.770836, 77.061226, 77, 77.035713, 77, 76.928574, 76.35714, 76.666664, 77.171432, 76.5, 77.163261, 76.875, 76.75, 76.517853, 76.375, 76.321426, 76.809525, 76.836739, 76.85714, 76.785713, 76.714287, 76.785713, 76.625, 76.776787, 76.68367, 76.714287, 76.785713, 76.875, 76.75, 76.651787, 76.625, 76.65625, 76.71875, 76.65625, 76.821426, 76.714287, 76.64286, 76.958336, 76.916664, 77, 76.724487, 76.880959, 76.836739, 76.4375, 76.25, 76.125, 76.1875, 76.25, 76.3125, 76.3125, 76.3125, 76.375, 76.375, 76.571426, 76.571426, 76.571426, 76.64286, 76.4375, 76.401787, 76.765312, 76.738098, 76.64286, 76.714287, 76.4375, 76.4375, 76.375, 76.375, 76.375, 76.60714, 76.765305, 76.598213, 76.785713, 76.6875, 76.85714, 76.785713, 76.64286, 76.448975, 76.571426, 76.765312, 76.928574, 77, 76.85714, 76.5, 76.375, 76.3125, 76.3125, 76.375, 76.4375, 76.714287
-10, -10, -10, -10, -10, -10, -10, -10, -10, -10, -10, -10, -10, -10, -10, -10, -10, -10, -10, -10, -10, -10, -10, -10, -10, -10, -10, -10, -10, -10, -10, -10, -10, 76.333336, 76.44445, 77.041664, 77.400002, 77.666672, 77.547615, 77.510201, 77.5, 77.5, 77.571426, 77.5625, 77.5625, 77.625, 77.5625, 77.64286, 77.64286, 77.714287, 77.785713, 77.785713, 77.85714, 77.5625, 77.39286, 77.8125, 77.848213, 77.8125, 77.625, 77.375, 77.21875, 77.25, 77.25, 77.428574, 77.532143, 77.580353, 78.091835, 78.071426, 78.285713, 78.214287, 78.23214, 78.160713, 78.089287, 77.90625, 78, 77.928574, 77.836739, 77.989799, 77.928574, 78, 78.14286, 77.964287, 77.785713, 77.714287, 77.714287, 77.714287, 77.714287, 77.714287, 77.714287, 77.785713, 77.85714, 77.85714, 77.785713, 77.602043, 77.60714, 77.60714, 77.678574, 77.821426, 77.82653, 77.81633, 77.89286, 77.928574, 77.908165, 77.81633, 78, 78.041664, 78.125, 77.785713, 77.491074, 77.4375, 77.5, 77.5, 77.678574, 77.60714, 77.428574, 77.39286, 77.5, 77.5, 77.571426, 77.571426, 77.418373, 77.271431, 77.382652, 77.489799, 77.64286, 77.714287, 77.714287, 77.60714, 77.410713, 77.375, 77.51786, 76.941963, 76.282654, 76.872452, 76.872452, 77.193886, 77.321426, 77.3125, 77.446426, 77.46875, 77.46875, 77.678574, 77.714287, 77.755104, 77.714287, 77.714287, 77.714287, 77.82653, 77.928574, 77.908165, 77.619041, 77.591835, 77.571426, 77.375, 77.375, 77.375, 77.375, 77.4375, 77.714287, 77.64286, 77.67347, 77.755104, 77.714287, 77.785713, 77.4375, 77.375, 77.4375, 77.410713, 77.330353, 77.591835, 77.5, 77.39286, 77.464287, 77.260201, 76.708336, 76.791664, 77.089287, 77.122452, 77.221939, 77.986115, 77.928566, 78, 77.854164, 77.678574, 77.678574, 77.678574, 77.785713, 77.81633, 77.450005, 77.887756, 77.81633, 77.785713, 77.785713, 77.785713, 77.714287, 77.591835, 77.5, 77.5, 77.678574, 77.85714, 78, 78.071426, 78.01786, 77.875, 77.76786, 77.655617, 77.64286, 77.75, 77.625, 77.625, 77.5, 77.3125, 76.85714, 76.685715, 77.321426, 77.446426, 77.6875, 77.928574, 77.89286, 77.89286, 77.714287, 77.5, 77.473213, 77.510201, 77.5, 77.469383, 77.39286, 77.5, 77.464287, 77.3125, 77.571426, 77.571426, 77.4375, 77.5625, 77.5625, 77.625, 77.625, 77.5, 77.4375, 77.571426, 77.571426, 77.64286, 77.5625, 77.625, 77.625, 77.6875, 77.75, 77.6875, 77.964287, 77.964287, 77.928574, 78.125, 78.166664, 78.171432, 78.166664, 78.091835, 77.928574, 77.785713, 77.591835, 77.5, 77.581627, 77.952385, 77.979599, 77.928574, 77.785713, 77.836739, 77.989799, 78.035713, 78.051025, 78.273811, 78.166664, 78.208336, 77.928574, 77.785713, 77.464287, 77.4375, 77.46875, 77.821426, 77.821426, 77.821426, 77.75, 77.714287, 77.821426, 77.785713, 77.85714, 77.82653, 77.645836, 77.607147, 77.4375, 77.035713, 76.928574, 77.035713, 77.14286, 77.178574, 77.64286, 77.571426, 77.571426, 77.60714, 77.714287, 77.714287, 77.714287, 77.821426, 77.714287, 77.780617, 78.051025, 77.952385, 77.85714, 77.821426, 77.64286, 77.64286, 77.571426, 77.571426, 77.571426, 77.64286, 77.5625, 77.5625, 77.5625, 77.625, 77.625, 77.625, 77.285713, 77.091835, 77.785713, 77.908165, 77.964287, 77.928574, 77.785713, 77.64286, 77.5, 77.428574, 77.428574, 77.5, 77.64286, 77.785713, 77.785713, 77.81633, 77.908165, 77.952385, 77.785713, 77.809525, -10, -10, -10, -10, -10, -10, -10, -10, -10, -10, -10, -10, -10, -10, -10, -10, -10, -10, -10, -10, -10, -10, -10, -10, -10, -10, -10, -10, -10, -10, -10, -10, -10, -10, -10, -10, -10, -10, -10, -10, -10, -10, -10, -10, -10, -10, -10, -10, -10, -10, -10, -10, -10, -10, -10, -10, -10, -10, -10, -10, -10, -10, -10, -10, -10, -10, -10, -10, -10, -10, -10, 78.333328, 78.707146, 78.666672, 78.229164, 78.133926, 78.125, 78.1875, 78.25, 78.4375, 78.375, 78.375, 78.3125, 78.1875, 78.1875, 78.25, 78.375, 78.4375, 78.821426, 78.85714, 79.125, 79, 78.93367, 78.5625, 78.4375, 78.3125, 78.114586, 77.833336, 77.767853, 77.84375, 78.139282, 78.517853, 78.875, 78.875, 79, 78.875, 78.875, 78.75, 78.6875, 78.625, 78.5625, 78.625, 78.5625, 78.625, 78.714287, 78.919647, 78.919647, 78.875, 78.669647, 78.591835, 78.591835, 78.571426, 78.64286, 78.714287, 78.714287, 78.785713, 78.85714, 78.85714, 78.785713, 78.637756, 78.678574, 78.60714, 78.60714, 78.5, 78.663261, 78.765312, 78.928574, 79.035713, 78.979599, 78.651787, 78.89286, 78.89286, 78.964287, 78.75, 78.561226, 78.25, 78.25, 78.25, 78.15625, 78.0625, 77.955353, 78.285713, 78.5, 78.64286, 78.678574, 78.714287, 78.602043, 78.528572, 78.530617, 78.602043, 78.5, 78.5625, 78.625, 78.625, 78.214287, 78.178574, 78.285713, 78.530617, 78.269051, 78.193886, 78.086739, 77.836739, 77.964287, 78.4375, 78.831627, 78.89286, 78.85714, 78.785713, 78.75, 78.535713, 78.5625, 78.625, 78.85714, 78.723213, 78.75, 78.669647, 78.666664, 78.653061, 78.64286, 78.64286, 78.678574, 78.678574, 78.678574, 78.714287, 78.714287, 78.678574, 78.693886, 78.535713, 78.714287, 78.5625, 78.64286, 78.571426, 78.64286, 78.68367, 78.455353, 78.517853, 78.14286, 78.571426, 78.64286, 77.938774, 77.523811, 77.619041, 78.1875, 78.666664, 78.880951, 78.809525, 78.81633, 78.89286, 78.76786, 78.76786, 78.73214, 78.73214, 78.821426, 78.89286, 79.125, 78.928574, 78.85714, 78.714287, 78.4375, 78.4375, 78.571426, 78.653061, 78.678574, 78.678574, 78.803574, 78.85714, 78.75, 78.75, 78.71875, 78.625, 78.75, 78.765312, 78.75, 78.785713, 78.5625, 78.5, 78.571426, 78.35714, 78.416664, 78.333336, 78.25, 78.428574, 78.64286, 78.85714, 78.85714, 78.85714, 78.5, 78.4375, 78.4375, 78.60714, 78.401787, 78.410713, 78.3125, 78.375, 78.3125, 78.3125, 78.375, 78.3125, 78.25, 78.428574, 78.35714, 78.35714, 78.428574, 78.1875, 78.1875, 78.25, 78.3125, 78.4375, 78.64286, 78.571426, 78.5, 78.375, 78.5, 78.5625, 78.6875, 78.6875, 78.928574, 78.964287, 79, 78.900002, 79, 78.830353, 78.6875, 78.785713, 78.653061, 78.60714, 78.68367, 78.976196, 79.061226, 78.875, 78.75, 78.979599, 79.061226, 79.071426, 79.071426, 79.071426, 79, 79, 78.928574, 78.85714, 78.744896, 78.714287, 78.75, 78.821426, 78.821426, 78.821426, 78.785713, 78.85714, 78.8125, 78.8125, 78.875, 78.75, 78.785713, 78.714287, 78.535713, 78.708336, 78.75, 78.875, 79, 78.958336, 78.75, 78.678574, 78.64286, 78.678574, 78.785713, 78.785713, 78.785713, 78.85714, 78.75, 78.836739, 79.061226, 78.976196, 79, 79, 78.821426, 78.89286, 78.85714, 78.85714, 78.583336, 78.89286, 78.85714, 78.714287, 78.64286, 78.64286, 78.64286, 78.714287, 78.916664, 78.916664, 78.821426, 78.943886, 78.75, 78.6875, 78.5625, 78.678574, 78.571426, 78.535713, 78.535713, 78.571426, 78.678574, 78.785713
-10, -10, -10, -10, -10, -10, -10, -10, -10, -10, -10, -10, -10, -10, -10, -10, -10, -10, -10, -10, -10, -10, -10, -10, -10, -10, -10, -10, -10, -10, -10, -10, -10, -10, -10, 78.96666, 79.389999, 79.395836, 79.208328, 79.071426, 79.0625, 79.125, 79.25, 79.4375, 79.178574, 79.214287, 79.10714, 78.89286, 78.955353, 78.875, 79, 79.1875, 79.714287, 79.89286, 79.964287, 79.928574, 79.535713, 79.3125, 79.125, 79.285713, 79.083336, 78.895836, 78.591835, 78.535713, 78.67347, 79.617348, 79.669647, 79.785713, 79.625, 79.4375, 79.4375, 79.4375, 79.4375, 79.3125, 79.375, 79.4375, 79.4375, 79.5625, 79.589287, 79.732147, 79.794647, 80.10714, 80.051025, 79.306114, 79.270401, 79.214287, 79.5, 79.714287, 79.714287, 79.5625, 79.625, 79.625, 79.5, 79.602043, 79.375, 79.25, 79.25, 79.25, 79.375, 79.598213, 79.75, 79.875, 79.669647, 79.589287, 79.625, 79.625, 79.75, 79.5625, 79.366074, 79, 78.928574, 78.928574, 78.821426, 78.714287, 78.770401, 79, 79.25, 79.39286, 79.625, 79.785713, 79.678574, 79.678574, 79.64286, 79.678574, 79.678574, 79.75, 79.714287, 79.714287, 79.958336, 79.958336, 80.083336, 79.795914, 79.414291, 79.489799, 79.346939, 79.75, 79.833336, 79.785713, 79.974487, 79.964287, 80, 79.89286, 79.821426, 79.785713, 79.714287, 79.785713, 79.85714, 79.897957, 79.85714, 79.785713, 79.64286, 79.571426, 79.5, 79.5, 79.60714, 79.678574, 79.75, 79.75, 79.714287, 79.714287, 79.714287, 79.714287, 79.785713, 79.785713, 79.75, 79.714287, 79.714287, 79.755104, 79.698975, 79.734688, 79.916664, 79.64286, 79.714287, 79.839287, 79.555557, 79.569443, 79.5, 79.571426, 79.790817, 79.677086, 79.669647, 79.75, 79.625, 79.85714, 79.928574, 79.928574, 79.928574, 79.806114, 79.85714, 79.714287, 79.64286, 79.392853, 79.458336, 79.244896, 79.25, 79.928574, 79.928574, 79.85714, 79.89286, 79.625, 79.625, 79.5625, 79.5, 79.4375, 79.5, 79.785713, 79.714287, 79.744896, 79.755104, 79.678574, 79.714287, 79.535713, 79.428574, 79.35714, 79.166664, 79.571426, 79.4375, 79.517853, 79.4375, 79.4375, 79.375, 79.571426, 79.64286, 79.64286, 79.64286, 79.571426, 79.535713, 79.535713, 79.535713, 79.535713, 79.5, 79.1875, 79.125, 79.125, 79.125, 78.928574, 79.035713, 79, 79, 79.071426, 79.375, 79.64286, 79.375, 79.3125, 79.25, 79.25, 79.375, 79.375, 79.4375, 79.5, 79.5625, 79.6875, 79.75, 79.75, 79.75, 79.6875, 79.625, 79.5625, 79.785713, 79.785713, 79.928574, 80.14286, 80.214287, 80.214287, 80.071426, 80.051025, 80.025513, 79.8125, 79.8125, 79.8125, 79.75, 79.75, 79.6875, 79.821426, 79.765312, 79.75, 79.76786, 79.59375, 79.59375, 79.59375, 79.5625, 79.821426, 79.928574, 79.928574, 79.8125, 79.6875, 79.5625, 79.714287, 79.571426, 79.60714, 79.64286, 79.75, 79.928574, 79.89286, 79.85714, 79.785713, 79.714287, 79.714287, 79.785713, 79.714287, 79.64286, 79.714287, 79.64286, 79.714287, 79.625, 79.5, 79.760201, 80.059525, 80.061226, 80.14286, 80.071426, 80, 80.166664, 79.928574, 79.85714, 79.785713, 79.5, 79.5, 79.5625, 79.821426, 79.85714, 79.928574, 79.964287, 79.794647, 79.8125, 79.6875, 79.5625, 79.5, 79.64286, 79.64286, 79.64286, 79.64286, 79.714287, 79.785713, 79.785713, 79.714287, 79.571426, 79.4375, 79.395836, -10, -10, -10, -10, -10, -10, -10, -10, -10, -10, -10, -10, -10, -10, -10, -10, -10, -10, -10, -10, -10, -10, -10, -10, -10, -10, -10, -10, -10, -10, -10, -10, -10, -10, -10, -10, -10, -10, -10, -10, -10, -10, -10, -10, -10, -10, -10, -10, -10, -10, -10, -10, -10, -10, -10, -10, -10, -10, -10, -10, -10, -10, -10, -10, -10, -10, -10, -10, -10, -10, -10, -10, -10, -10, 79.861115, 80.333328, 80.214287, 80.25, 80.64286, 80.678574, 80.785713, 80.958336, 81.041664, 80.833336, 80.5, 80.056114, 80.035713, 79.775513, 80, 80.625, 80.75, 80.6875, 80.5625, 80.3125, 80, 79.75, 79.964287, 79.952385, 79.738098, 80.095238, 80.229164, 80.39286, 80.612244, 80.357147, 80.25, 80.366074, 80.040817, 80.071426, 80.035713, 80.142853, 80.0625, 80.0625, 80.125, 80.1875, 80.428574, 80.530617, 80.765312, 80.908165, 81.071426, 81.051025, 81.095238, 81.011902, 80.916664, 80.714287, 80.714287, 80.714287, 80.714287, 80.5625, 80.5, 80.3125, 80.276787, 80.25, 80.223213, 79.964287, 79.964287, 80.375, 80.598213, 80.6875, 80.6875, 80.482147, 80.339287, 80.375, 80.4375, 80.5625, 80.5625, 80.5625, 80.958336, 80.916664, 80.791664, 80.625, 80.416664, 80.511902, 80.708336, 80.875, 81.041664, 80.785713, 80.785713, 80.714287, 80.714287, 80.64286, 80.64286, 80.64286, 80.714287, 80.75, 80.785713, 80.85714, 80.85714, 80.964287, 80.989799, 80.719383, 80.520401, 80.413261, 80.5, 80.678574, 80.89286, 80.790176, 80.75, 80.71875, 80.73214, 80.698975, 80.785713, 80.75, 80.821426, 80.714287, 80.473213, 80.4375, 80.4375, 80.3125, 80.3125, 80.25, 80.28125, 80.46875, 80.53125, 80.821426, 80.785713, 80.714287, 80.714287, 80.714287, 80.714287, 80.785713, 80.785713, 80.785713, 80.785713, 80.5625, 80.598213, 80.795914, 80.867348, 80.928574, 80.928574, 80.954086, 80.659859, 80.343529, 80.391159, 80.714287, 80.64286, 80.549103, 80.40625, 80.375, 80.5625, 80.669647, 80.75, 81.035713, 80.89286, 80.625, 80.517853, 80.625, 80.35714, 80.285713, 80.517853, 80.738098, 80.988098, 81, 80.928574, 80.928574, 80.85714, 80.85714, 80.714287, 80.714287, 80.64286, 80.64286, 80.64286, 80.5, 80.625, 80.625, 80.651787, 80.897957, 80.785713, 80.785713, 80.64286, 80.571426, 80.5, 80.791664, 80.64286, 80.64286, 80.392853, 80.3125, 80.3125, 80.25, 80.464287, 80.535713, 80.535713, 80.60714, 80.64286, 80.64286, 80.64286, 80.571426, 80.5, 80.35714, 80.14286, 79.9375, 80, 80.0625, 80.583336, 80.833336, 80.958336, 80.958336, 80.916664, 80.520401, 80.535713, 80.25, 80.25, 80.25, 80.25, 80.5, 80.25, 80.25, 80.25, 80.3125, 80.4375, 80.714287, 80.714287, 80.714287, 80.714287, 80.714287, 80.714287, 80.785713, 80.785713, 80.89286, 81.071426, 81.14286, 81.178574, 81.071426, 80.794647, 80.803574, 80.8125, 80.75, 80.75, 80.928574, 80.928574, 80.666664, 81, 80.928574, 80.85714, 80.785713, 80.714287, 80.714287, 80.714287, 80.714287, 80.785713, 80.85714, 80.85714, 80.85714, 80.785713, 80.714287, 80.714287, 80.4375, 80.5, 80.5625, 80.625, 80.75, 80.6875, 80.625, 80.5, 80.67347, 80.755104, 80.625, 80.625, 80.285713, 80.39286, 80.321426, 80.428574, 80.464287, 80.285713, 80.571426, 80.988098, 81.061226, 81.14286, 81.071426, 81, 81, 80.928574, 80.928574, 80.928574, 80.928574, 80.928574, 80.928574, 80.89286, 80.6875, 80.928574, 80.928574, 80.89286, 80.85714, 80.75, 80.678574, 80.678574, 80.678574, 80.678574, 80.60714, 80.60714, 80.64286, 80.5
-10, -10, -10, -10, -10, -10, -10, -10, -10, -10, -10, -10, -10, -10, -10, -10, -10, -10, -10, -10, -10, -10, -10, -10, -10, -10, -10, -10, -10, -10, -10, -10, -10, -10, -10, -10, -10, -10, 81.541664, 82, 82.041664, 81.85714, 81.785713, 81.75, 81.64286, 81.60714, 81.464287, 81.285713, 81.234688, 81.408165, 81.976189, 82.083336, 81.928574, 81.821426, 81.375, 81.1875, 81, 80.9375, 80.632652, 80.75, 80.773811, 80.488098, 81.18367, 81.26786, 81.408165, 81.5, 81.357147, 81, 81.303574, 81.678566, 81.666664, 81.583336, 81.017853, 81.214287, 81.0625, 81.125, 81.1875, 81.25, 81.339287, 81.544647, 81.607147, 81.75, 81.669647, 81.724487, 81.653061, 81.5, 81.535713, 81.571426, 81.64286, 81.714287, 81.714287, 81.4375, 81.3125, 81.375, 81.375, 81.57653, 81.791664, 81.708336, 81.571426, 81.719383, 81.785713, 81.5, 81.375, 81.3125, 81.3125, 81.571426, 81.64286, 81.75, 81.785713, 81.821426, 81.785713, 81.714287, 81.60714, 81.428574, 81.581627, 81.714287, 81.821426, 81.964287, 81.821426, 81.785713, 81.714287, 81.714287, 81.4375, 81.375, 81.375, 81.4375, 81.714287, 81.625, 81.6875, 81.6875, 81.75, 81.741074, 81.755104, 81.392853, 81.330353, 81.375, 81.5, 81.625, 81.65625, 81.65625, 81.625, 81.5, 81.486603, 81.785713, 81.625, 81.75, 81.35714, 81.285713, 81.375, 81.25, 81.1875, 81.1875, 81.1875, 81.28125, 81.46875, 81.53125, 81.59375, 81.5625, 81.714287, 81.714287, 81.714287, 81.714287, 81.785713, 81.785713, 81.785713, 81.714287, 81.571426, 81.455353, 81.625, 81.75, 82.071426, 82.035713, 82.025513, 81.541664, 81.446426, 81.446426, 81.5625, 81.4375, 81.392853, 81.10714, 81.035713, 81.4375, 81.836739, 81.85714, 82, 81.85714, 81.5, 81.330353, 81.571426, 81.875, 81.958336, 81.739799, 81.68708, 81.64286, 81.64286, 81.785713, 81.625, 81.625, 81.625, 81.714287, 81.64286, 81.60714, 81.60714, 81.60714, 81.678574, 81.785713, 81.785713, 81.81633, 81.897957, 81.785713, 81.785713, 81.678574, 81.64286, 81.60714, 81.678574, 81.714287, 81.678574, 81.663261, 81.64286, 81.64286, 81.4375, 81.375, 81.375, 81.375, 81.4375, 81.714287, 81.714287, 81.714287, 81.4375, 81.375, 81.25, 80.821426, 80.734695, 81.127548, 81.234688, 81.35714, 81.64286, 81.85714, 81.89286, 81.85714, 81.392853, 81.375, 81.25, 81.5, 81.535713, 81.464287, 81.5, 81.1875, 81.125, 81.125, 81.1875, 81.5, 81.64286, 81.714287, 81.714287, 81.714287, 81.714287, 81.714287, 81.785713, 81.785713, 81.85714, 81.75, 81.8125, 81.875, 81.8125, 81.625, 81.75, 81.85714, 81.897957, 82, 82, 81.928574, 82.166664, 82.035713, 81.964287, 81.89286, 81.625, 81.714287, 81.714287, 81.714287, 81.714287, 81.5625, 81.625, 81.625, 81.625, 81.5, 81.64286, 81.64286, 81.64286, 81.714287, 81.714287, 81.714287, 81.714287, 81.714287, 81.714287, 81.5, 81.526787, 81.82653, 81.85714, 81.785713, 81.916664, 82, 82, 82.083336, 82, 81.875, 81.617348, 81.708336, 81.803574, 81.875, 81.8125, 81.75, 81.75, 81.6875, 81.6875, 81.928574, 82.035713, 82.10714, 82.10714, 82, 81.85714, 81.85714, 81.85714, 81.928574, 82, 82, 81.928574, 81.85714, 81.785713, 81.785713, 81.5625, 81.321426, 81.321426, 81.321426, 81.85714, 81.785713, 82.136902, 82.308334, 82.188896, -10, -10, -10, -10, -10, -10, -10, -10, -10, -10, -10, -10, -10, -10, -10, -10, -10, -10, -10, -10, -10, -10, -10, -10, -10, -10, -10, -10, -10, -10, -10, -10, -10, -10, -10, -10, -10, -10, -10, -10, -10, -10, -10, -10, -10, -10, -10, -10, -10, -10, -10, -10, -10, -10, -10, -10, -10, -10, -10, -10, -10, -10, -10, -10, -10, -10, -10, -10, -10, -10, -10, -10, -10, -10, -10, -10, 82.550003, 82.599998, 82.5, 82.166664, 82.1875, 82.166664, 82.25, 82.25, 82.1875, 82.510201, 82.729599, 83.015312, 83, 82.821426, 82.571426, 82, 81.75, 81.642853, 82.059525, 82.505959, 82.708336, 82.75, 82.625, 82.276787, 82.4375, 82.5, 82.714287, 82.42347, 82.416664, 82.382652, 82.510201, 82.571426, 82.375, 82.190475, 82.291664, 82.64286, 82.5, 82.341835, 82.285713, 82.285713, 82.35714, 82.3125, 82.4375, 82.5, 82.5625, 82.5, 82.14286, 82.375, 82.375, 82.4375, 82.714287, 82.714287, 82.714287, 82.60714, 82.678574, 82.714287, 82.647957, 82.60714, 82.535713, 82.535713, 82.473213, 82.5625, 82.5, 82.678574, 82.60714, 82.60714, 82.678574, 82.4375, 82.785713, 82.85714, 82.6875, 82.6875, 82.625, 82.5, 82.571426, 82.678574, 82.625, 82.723213, 82.642853, 82.517853, 82.375, 82.5, 82.571426, 82.428574, 82.25, 82.3125, 82.4375, 82.625, 82.6875, 82.6875, 82.85714, 82.785713, 82.85714, 82.755104, 82.448975, 82.448975, 82.1875, 82.3125, 82.4375, 82.375, 82.60714, 82.4375, 82.375, 82.517853, 82.6875, 83, 83.071426, 83.083336, 83.041664, 82.64286, 82.071426, 82, 82.428574, 82.321426, 82.39286, 82.5, 82.60714, 82.714287, 82.714287, 82.714287, 82.714287, 82.714287, 82.714287, 82.5625, 82.5625, 82.5625, 82.5, 82.4375, 82.455353, 82.85714, 83, 83.071426, 83.071426, 82.989799, 82.619041, 82.510201, 82.438774, 82.64286, 82.571426, 82.520401, 82.791664, 82.75, 82.60714, 82.801025, 82.785713, 82.6875, 82.625, 82.5, 82.510201, 82.571426, 82.678574, 82.75, 82.836731, 82.538696, 82.5, 82.321426, 82.625, 82.625, 82.625, 82.5625, 82.714287, 82.4375, 82.4375, 82.375, 82.375, 82.64286, 82.714287, 82.75, 82.765312, 82.598213, 82.714287, 82.5625, 82.714287, 82.64286, 82.571426, 82.455353, 82.645836, 82.836739, 82.867348, 82.821426, 82.75, 82.714287, 82.60714, 82.571426, 82.5, 82.571426, 82.64286, 82.64286, 82.714287, 82.64286, 82.5, 82.39286, 82.583336, 82.547615, 82.306114, 82.142853, 82.25, 82.5, 82.625, 82.6875, 82.625, 82.392853, 82.571426, 82.535713, 82.678574, 82.821426, 82.75, 82.5, 82.535713, 82.35714, 82.35714, 82.428574, 82.3125, 82.4375, 82.64286, 82.571426, 82.5, 82.428574, 82.5, 82.4375, 82.5, 82.625, 82.6875, 82.625, 82.5625, 82.5, 82.285713, 82.25, 82.775513, 82.81633, 82.928574, 82.85714, 82.714287, 82.785713, 82.85714, 82.85714, 82.785713, 82.714287, 82.64286, 82.64286, 82.714287, 82.714287, 82.714287, 82.714287, 82.714287, 82.714287, 82.4375, 82.4375, 82.5, 82.75, 82.821426, 82.821426, 82.75, 82.714287, 82.785713, 82.785713, 82.785713, 82.81633, 82.82653, 82.85714, 82.821426, 82.785713, 82.85714, 82.85714, 82.928574, 82.785713, 82.678574, 82.612244, 82.520836, 82.678574, 82.6875, 82.625, 82.5625, 82.714287, 82.714287, 82.85714, 82.75, 83.10714, 83.178574, 83.14286, 83.10714, 83.035713, 82.803574, 82.625, 82.6875, 82.85714, 82.964287, 82.928574, 82.85714, 82.85714, 82.85714, 82.85714, 83.125, 83.041664, 83.041664
