-10, -10, -10, -10, -10, -10, -10, -10, -10, -10, -10, 49.125, 49, 48.645832, 48.645832, 48.770832, 49, 49.125, 49.125, 48.9375, 48.625, 48.375, 48.0625, 48.125, 48.125, 48.0625, 48, 47.75, 47.4375, 47.3125, 47.1875, 47.0625, 47, 46.875, 46.71875, 46.34375, 46.058037, 45.870537, 45.9375, 45.946426, 45.732143, 45.642857, 45.4375, 45.5, 45.375, 45.1875, 44.875, 44.428574, 43.979168, 44.065475, 44.491074, 44.55357, 44.151783, 43.316963, 42.825893, 42.59375, 42.65625, 42.84375, 43.125, 43.21875, 43.25, 43.1875, 43, 42.96875, 42.75, 42.5625, 42.3125, 41.9375, 42, 42, 42.357143, 42.5625, 42.482143, 42.3125, 42.09375, 41.84375, 41.691963, 41.361607, 40.946426, 40.767857, 40.75, 40.75, 40.875, 40.875, 40.875, 40.8125, 40.8125, 40.625, 40.3125, 40.125, 39.9375, 39.848213, 39.642857, 39.446426, 39.3125, 39.375, 39.3125, 39.25, 39.125, 38.9375, 38.8125, 38.6875, 38.5, 38.25, 38.125, 38.0625, 38.1875, 38.25, 38.25, 38.1875, 38.125, 37.875, 37.537498, 37.4375, 37.142857, 37.1875, 36.991074, 36.755955, 36.669643, 36.70536, 36.705357, 36.229168, 36.258926, 35.982143, 36.00893, 35.889881, 35.696426, 35.651787, 35.348213, 34.835716, 34.898811, 34.75, 34.642857, 34.383926, 34.080357, 33.946426, 34, 34.0625, 33.9375, 33.70536, 33.375, 33.1875, 33.0625, 33.0625, 33.0625, 33.0625, 33.0625, 33.0625, 33, 33, 32.75, 32.5, 32.25, 32, 32, 32, 32, 32, 31.875, 31.75, 31.625, 31.366072, 31.049999, 30.851191, 30.321428, 30.160713, 30.125, 29.955357, 30.0625, 30, 30, 30, 29.9375, 29.75, 29.5, 29.25, 29.0625, 29.0625, 29.0625, 28.866072, 28.612499, 28.642857, 28.487499, 28.3125, 28.696428, 28.553572, 28.625, 28.303572, 27.979166, 27.892857, 28.0625, 28.160713, 28.125, 27.8125, 27.375, 27, 26.625, 26.375, 26.1875, 26.0625, 26, 26, 26, 26, 25.848213, 25.580357, 25.446428, 25.375, 25.375, 25.3125, 25.1875, 25.0625, 25, 25, 25, 24.875, 24.6875, 24.4375, 24.125, 23.964287, 23.9375, 23.9375, 23.9375, 23.803572, 23.4375, 23.25, 23.0625, 23, 23, 23, 22.866072, 22.5, 22.375, 22.1875, 22.107143, 22, 22, 21.875, 21.75, 21.5, 21.25, 21, 20.875, 20.8125, 20.75, 20.75, 20.625, 20.5625, 20.4375, 20.125, 19.821428, 19.4375, 19.3125, 19.25, 19.241072, 18.979166, 18.821428, 18.75, 18.8125, 18.875, 18.875, 18.75, 18.625, 18.4375, 18.25, 18.1875, 18.0625, 18, 17.875, 17.875, 17.875, 17.8125, 17.875, 17.8125, 17.5625, 17.3125, 16.955357, 16.75, 16.642857, 16.625, 16.5, 16.3125, 16.125, 16, 16, 16, 16, 15.9375, 15.8125, 15.625, 15.375, 15.1875, 15.0625, 14.9375, 14.8125, 14.8125, 14.6875, 14.5, 14.375, 14.1875, 14.0625, 14.0625, 14, 13.875, 13.625, 13.375, 13.1875, 13, 13, 12.9375, 12.875, 12.8125, 12.5625, 12.375, 12.1875, 12, 12, 12, 11.875, 11.8125, 11.75, 11.5, 11.375, 11.1875, 11, 10.9375, 11.026786, 11.223214, 11.3125, 11.625, 11.75, 11.8125, 11.875, 11.875, 11.875, 11.9375, 12, 12, 12, 12, 12, 12, 12, 12, 12.0625, 12.25, 12.4375, 12.5625, 12.5625, 12.5625, 12.5625, 12.5625, 12.625, 12.6875, 12.666666, -10, -10, -10, -10, -10, -10, -10, -10, -10, -10, -10, -10, -10, -10, -10, -10, -10, -10, -10, -10, -10, -10, -10, -10, -10, -10, -10, -10, -10, -10, -10, -10, 49.375, 49.166668, 48.770832, 48.708332, 48.833332, 49.125, 49.232143, 49.125, 48.928574, 48.464287, 48.3125, 48.0625, 48.1875, 48.1875, 48.1875, 48.0625, 47.8125, 47.5625, 47.4375, 47.375, 47.25, 47.125, 46.9375, 46.71875, 46.34375, 46.120537, 45.96875, 46.0625, 46.133926, 45.919643, 45.892857, 45.625, 45.6875, 45.491074, 45.1875, 44.9375, 44.491074, 44.166668, 44.190475, 44.553574, 44.642857, 44.363094, 43.285713, 42.919643, 42.625, 42.6875, 42.78125, 42.9375, 43.09375, 43.125, 43.125, 43, 42.96875, 42.75, 42.5, 42.1875, 41.8125, 41.8125, 41.9375, 42.294643, 42.5, 42.482143, 42.25, 42.0625, 41.8125, 41.598213, 41.267857, 40.946426, 40.875, 40.875, 40.875, 40.9375, 40.875, 40.875, 40.875, 40.875, 40.75, 40.5625, 40.3125, 40.1875, 40.035713, 39.705357, 39.508926, 39.25, 39.339287, 39.348213, 39.25, 39.25, 38.9375, 38.8125, 38.6875, 38.4375, 38.25, 38.125, 38, 38, 38, 38, 38.0625, 38.035713, 37.839287, 37.6875, 37.3125, 37.089287, 37, 36.8125, 36.839287, 36.982143, 36.991074, 36.627975, 36.157738, 36.071426, 35.919643, 36.00893, 35.889881, 35.696426, 35.651787, 35.410713, 35.005356, 35.023811, 34.9375, 34.830357, 34.61607, 34.330357, 34.133926, 34.0625, 34.0625, 33.875, 33.616074, 33.3125, 33.125, 33, 33.0625, 33.0625, 33.035713, 32.892857, 32.821426, 32.75, 32.75, 32.5625, 32.375, 32.1875, 32, 32, 32, 32, 32, 31.875, 31.75, 31.625, 31.303572, 30.924999, 30.619047, 30.133928, 30.035713, 30.0625, 29.955357, 30.0625, 30, 30, 30, 30, 29.875, 29.625, 29.375, 29.125, 29.0625, 29.0625, 28.928572, 28.674999, 28.625, 28.4, 28.229166, 28.375, 28.303572, 28.375, 28.303572, 27.979166, 27.955357, 28.0625, 28.098213, 28.0625, 27.8125, 27.4375, 27.1875, 26.8125, 26.424999, 26.294643, 26.0625, 26.0625, 26, 26, 25.9375, 25.723213, 25.392857, 25.196428, 25.125, 25.0625, 25.0625, 25, 24.9375, 25.0625, 25.0625, 25.0625, 24.9375, 24.625, 24.375, 24.125, 24, 24.0625, 24.0625, 24, 23.875, 23.5625, 23.3125, 23.125, 23, 23, 23, 22.803572, 22.4375, 22.375, 22.25, 22.232143, 22.125, 22.0625, 21.8125, 21.6875, 21.4375, 21.1875, 21.0625, 21, 21, 21, 21, 20.8125, 20.6875, 20.5, 20.1875, 19.946428, 19.625, 19.5625, 19.4375, 19.303572, 18.872023, 18.633928, 18.5, 18.625, 18.75, 18.8125, 18.75, 18.625, 18.4375, 18.3125, 18.3125, 18.1875, 18.125, 18, 17.875, 17.8125, 17.6875, 17.625, 17.5625, 17.25, 16.9375, 16.580357, 16.5, 16.625, 16.6875, 16.625, 16.375, 16.125, 16, 16, 16, 16, 15.875, 15.6875, 15.5, 15.25, 15.125, 15.0625, 14.9375, 14.8125, 14.75, 14.5625, 14.375, 14.25, 14.125, 14.0625, 14.0625, 14.0625, 14, 13.75, 13.5, 13.25, 13, 13, 13, 13, 12.9375, 12.6875, 12.4375, 12.1875, 12, 12, 12, 11.9375, 11.9375, 11.9375, 11.6875, 11.5, 11.25, 11, 10.9375, 11.089286, 11.348214, 11.5, 11.75, 11.75, 11.6875, 11.625, 11.6875, 11.75, 11.875, 12
-10, -10, -10, -10, -10, -10, -10, -10, -10, -10, -10, 49.625, 49.333336, 48.895832, 48.770832, 48.904758, 49.325001, 49.30357, 49.196426, 48.857143, 48.214287, 48.125, 47.875, 48.125, 48.1875, 48.1875, 48.125, 47.8125, 47.625, 47.5625, 47.4375, 47.375, 47.1875, 46.9375, 46.75, 46.4375, 46.214287, 46.0625, 46.125, 46.223213, 46.13393, 45.916668, 45.571426, 45.5, 45.241074, 45, 44.8125, 44.428574, 44.229168, 44.252975, 44.491074, 44.193878, 43.867348, 43.357143, 43.107143, 42.8125, 42.8125, 42.84375, 42.875, 43.0625, 43.0625, 43.0625, 43, 42.9375, 42.8125, 42.625, 42.375, 42, 41.9375, 42.0625, 42.294643, 42.4375, 42.357143, 42.0625, 41.875, 41.6875, 41.535713, 41.267857, 41.071426, 41, 41, 40.9375, 40.9375, 40.875, 40.875, 40.875, 40.803574, 40.612499, 40.616074, 40.357143, 40.3125, 40.098213, 39.705357, 39.508926, 39.25, 39.339287, 39.348213, 39.25, 39.25, 38.875, 38.6875, 38.5, 38.25, 38.125, 38.0625, 38.0625, 38.0625, 38.0625, 38.0625, 38.125, 38.071426, 37.794643, 37.705357, 37.25, 37.089287, 37, 36.75, 36.839287, 37.0625, 37.128571, 36.636906, 36.166668, 36.008926, 35.982143, 36.07143, 35.952381, 35.758926, 35.589287, 35.357143, 35.017857, 34.916668, 35, 34.9375, 34.80357, 34.580357, 34.321426, 34.1875, 34.125, 33.9375, 33.741074, 33.5, 33.375, 33.1875, 33.1875, 33.0625, 32.910713, 32.705357, 32.571426, 32.5, 32.5, 32.375, 32.25, 32.125, 32, 32, 32, 32, 32, 31.8125, 31.6875, 31.5, 31.125, 30.767857, 30.348213, 30.0625, 29.964287, 30.0625, 29.955357, 30.0625, 30, 30, 30, 30, 29.875, 29.625, 29.375, 29.125, 29.0625, 29.0625, 28.991072, 28.737499, 28.607143, 28.3125, 28.1875, 28.125, 28.125, 28.1875, 28.178572, 27.916666, 27.955357, 28.0625, 28.035713, 27.9375, 27.75, 27.375, 27.1875, 26.758928, 26.326786, 26.232143, 26, 26.125, 26.125, 26.107143, 25.9375, 25.723213, 25.330357, 25.133928, 25, 24.875, 24.875, 24.875, 24.875, 25.125, 25.125, 25.125, 24.9375, 24.625, 24.4375, 24.1875, 24.125, 24.125, 24.0625, 24.0625, 23.9375, 23.625, 23.375, 23.125, 23, 23, 22.9375, 22.678572, 22.375, 22.3125, 22.3125, 22.419643, 22.25, 22.1875, 21.8125, 21.625, 21.4375, 21.25, 21.1875, 21.125, 21, 20.875, 20.8125, 20.6875, 20.6875, 20.5625, 20.375, 20.133928, 19.8125, 19.8125, 19.6875, 19.491072, 18.997023, 18.696428, 18.5, 18.625, 18.75, 18.8125, 18.8125, 18.6875, 18.5, 18.375, 18.375, 18.25, 18.1875, 18, 17.75, 17.625, 17.4375, 17.375, 17.3125, 17.0625, 16.75, 16.392857, 16.3125, 16.375, 16.4375, 16.4375, 16.25, 16.0625, 16, 16, 16, 16, 15.875, 15.616072, 15.25, 15.0625, 14.9375, 14.9375, 14.875, 14.8125, 14.75, 14.5625, 14.375, 14.1875, 14.0625, 14.125, 14.125, 14.125, 14.0625, 13.8125, 13.625, 13.375, 13.125, 13.0625, 13, 13, 12.875, 12.6875, 12.4375, 12.1875, 12.0625, 12, 12, 12, 12, 12, 11.75, 11.5, 11.25, 11, 10.9375, 11.151786, 11.410714, 11.5625, 11.75, 11.6875, 11.625, 11.5, 11.625, 11.6875, 11.8125, 12, 12, 12, 12, 12, 12, 12, 12, 12.1875, 12.375, 12.5625, 12.75, 12.6875, 12.75, 12.8125, 12.75, 12.75, 12.75, 12.555554, -10, -10, -10, -10, -10, -10, -10, -10, -10, -10, -10, -10, -10, -10, -10, -10, -10, -10, -10, -10, -10, -10, -10, -10, -10, -10, -10, -10, -10, -10, -10, -10, 49.875, 49.5, 49.083332, 48.895832, 49.038689, 49.525002, 49.383926, 49.276787, 48.648811, 48.089287, 48, 47.875, 48.0625, 48.0625, 48.0625, 48, 47.6875, 47.5625, 47.5, 47.375, 47.375, 47.25, 47.0625, 46.875, 46.625, 46.339287, 46.1875, 46.25, 46.375, 46.348213, 45.895836, 45.651787, 45.4375, 45.178574, 44.901787, 44.75, 44.491074, 44.354168, 44.208332, 44.25, 43.836735, 43.653065, 43.285713, 43.07143, 42.9375, 42.875, 43, 43.0625, 43.25, 43.3125, 43.25, 43.1875, 43.125, 43, 42.875, 42.6875, 42.3125, 42.25, 42.3125, 42.357143, 42.375, 42.25, 42.0625, 41.8125, 41.625, 41.4375, 41.3125, 41.1875, 41.125, 41.0625, 40.9375, 41, 41, 41, 41, 40.803574, 40.549999, 40.616074, 40.330357, 40.142857, 39.883926, 39.5625, 39.5, 39.375, 39.464287, 39.473213, 39.3125, 39.25, 38.875, 38.625, 38.375, 38.1875, 38.125, 38.125, 38.1875, 38.0625, 38, 38, 38.0625, 38.008926, 37.732143, 37.580357, 37.1875, 37.089287, 37, 36.84375, 36.78125, 36.799107, 36.731251, 36.208336, 36, 35.9375, 36.044643, 36.107143, 35.916668, 35.758926, 35.5, 35.3125, 35.125, 35.0625, 35.035713, 34.964287, 34.910713, 34.705357, 34.571426, 34.375, 34.25, 34, 33.75, 33.625, 33.4375, 33.25, 33.1875, 33.0625, 32.910713, 32.705357, 32.571426, 32.4375, 32.375, 32.25, 32.125, 32.0625, 32, 32, 32, 32, 32, 31.8125, 31.6875, 31.4375, 31.0625, 30.767857, 30.392857, 30.1875, 30.0625, 30.0625, 30.0625, 30.0625, 30.0625, 30, 30, 30, 29.875, 29.625, 29.375, 29.125, 29.0625, 29.0625, 29.0625, 28.875, 28.625, 28.34375, 28.03125, 27.96875, 27.90625, 27.9375, 28, 28, 28.0625, 28.125, 28.0625, 27.910713, 27.642857, 27.321428, 27.125, 26.758928, 26.326786, 26.232143, 26.0625, 26.25, 26.3125, 26.285715, 25.791666, 25.508928, 25.1875, 25.0625, 25, 24.875, 24.875, 24.875, 24.875, 25.125, 25.125, 25.125, 25, 24.75, 24.625, 24.375, 24.25, 24.125, 24, 24.0625, 23.9375, 23.580357, 23.321428, 23.0625, 23, 23, 22.9375, 22.6875, 22.5625, 22.5, 22.5625, 22.607143, 22.375, 22.25, 21.8125, 21.625, 21.5, 21.3125, 21.25, 21.1875, 20.9375, 20.75, 20.625, 20.4375, 20.4375, 20.375, 20.3125, 20.178572, 19.875, 19.8125, 19.6875, 19.491072, 18.997023, 18.758928, 18.5, 18.625, 18.6875, 18.75, 18.8125, 18.75, 18.625, 18.5, 18.4375, 18.25, 18.1875, 18, 17.6875, 17.5, 17.25, 17.125, 17.0625, 16.875, 16.625, 16.375, 16.3125, 16.3125, 16.3125, 16.3125, 16.125, 16, 16, 16, 16, 16, 15.875, 15.616072, 15.25, 15.0625, 14.9375, 14.875, 14.8125, 14.75, 14.6875, 14.625, 14.5, 14.3125, 14.125, 14.0625, 14, 14, 13.9375, 13.8125, 13.625, 13.375, 13.1875, 13.0625, 13, 13, 12.8125, 12.625, 12.375, 12.125, 12.0625, 12, 12, 12, 12, 11.9375, 11.6875, 11.4375, 11.1875, 11, 11, 11.151786, 11.410714, 11.5, 11.5625, 11.5625, 11.4375, 11.3125, 11.5, 11.5625, 11.75, 12
-10, -10, -10, -10, -10, -10, -10, -10, -10, -10, -10, 50, 49.666668, 49.5, 49.3125, 49.392857, 49.733334, 49.363094, 49.14286, 48.461311, 48.026787, 47.9375, 47.875, 48, 48, 48, 47.9375, 47.6875, 47.5625, 47.4375, 47.3125, 47.3125, 47.1875, 47.0625, 46.875, 46.6875, 46.4375, 46.25, 46.25, 46.3125, 46.223213, 45.708336, 45.526787, 45.25, 45.053574, 44.839287, 44.625, 44.5, 44.5625, 44.3125, 44.0625, 43.660713, 43.5, 43.223213, 43.089287, 42.9375, 42.8125, 42.9375, 43.0625, 43.375, 43.5, 43.4375, 43.3125, 43.1875, 43, 42.9375, 42.875, 42.625, 42.5625, 42.5, 42.3125, 42.25, 42.125, 42, 41.75, 41.625, 41.4375, 41.3125, 41.3125, 41.1875, 41.125, 41, 41, 40.9375, 40.875, 40.892857, 40.886906, 40.791069, 40.88393, 40.267857, 40, 39.633926, 39.3125, 39.3125, 39.25, 39.339287, 39.410713, 39.25, 39.1875, 38.8125, 38.625, 38.357143, 38.125, 38.232143, 38.0625, 38.080357, 37.8125, 37.6875, 37.75, 37.875, 37.946426, 37.732143, 37.571426, 37.174999, 37.232143, 37.0625, 36.96875, 36.78125, 36.736607, 36.606251, 36.092262, 36, 35.875, 35.9375, 36, 36, 35.875, 35.625, 35.375, 35.1875, 35.098213, 35, 34.839287, 34.75, 34.75, 34.6875, 34.5625, 34.375, 34, 33.6875, 33.5625, 33.375, 33.25, 33.1875, 33.0625, 32.848213, 32.642857, 32.508926, 32.375, 32.3125, 32.1875, 32.0625, 32, 32, 32, 31.9375, 31.964287, 32, 31.696428, 31.633928, 31.4375, 31.1875, 30.955357, 30.642857, 30.4375, 30.25, 30.125, 30.0625, 30, 30, 30, 30, 29.9375, 29.875, 29.625, 29.375, 29.1875, 29, 29, 29, 28.75, 28.5, 28.21875, 27.90625, 27.90625, 27.90625, 27.9375, 28, 28, 27.9375, 27.875, 27.75, 27.535713, 27.392857, 27.196428, 27.0625, 26.758928, 26.326786, 26.232143, 26.0625, 26.25, 26.25, 26.160715, 25.666666, 25.383928, 25.125, 25.0625, 25, 24.875, 24.875, 24.875, 24.875, 25.125, 25.125, 25.0625, 24.9375, 24.75, 24.6875, 24.5, 24.3125, 24.089287, 23.9375, 23.919643, 23.604166, 23.214285, 23.008928, 22.875, 22.9375, 23, 22.9375, 22.6875, 22.5, 22.339287, 22.375, 22.4375, 22.375, 22.25, 21.8125, 21.5625, 21.4375, 21.25, 21.25, 21.1875, 20.9375, 20.6875, 20.5, 20.3125, 20.25, 20.125, 20, 19.8125, 19.625, 19.625, 19.625, 19.4375, 19.205357, 19, 18.75, 18.8125, 18.75, 18.75, 18.8125, 18.75, 18.6875, 18.5625, 18.4375, 18.25, 18.1875, 18.0625, 17.75, 17.5625, 17.375, 17.1875, 17.125, 17, 16.6875, 16.4375, 16.375, 16.3125, 16.3125, 16.3125, 16.125, 16, 16, 16, 16, 16, 15.9375, 15.678572, 15.3125, 15.125, 14.9375, 14.875, 14.875, 14.8125, 14.75, 14.6875, 14.5, 14.3125, 14.125, 14.0625, 14, 14, 13.9375, 13.875, 13.6875, 13.4375, 13.25, 13.0625, 13, 13, 12.75, 12.5625, 12.3125, 12.0625, 12.0625, 12, 12, 12, 12, 11.875, 11.625, 11.375, 11.125, 11, 11.125, 11.3125, 11.5625, 11.625, 11.5625, 11.5625, 11.375, 11.375, 11.5625, 11.625, 11.8125, 12, 12, 12, 12, 12, 12, 12, 12.0625, 12.3125, 12.5625, 12.8125, 13, 12.9375, 12.9375, 12.9375, 12.9375, 13, -10, -10, -10, -10, -10, -10, -10, -10, -10, -10, -10, -10, -10, -10, -10, -10, -10, -10, -10, -10, -10, -10, -10, -10, -10, -10, -10, -10, -10, -10, -10, -10, -10, -10, 49.75, 49.500004, 49.375, 49.3125, 49.455357, 49.733334, 49.380955, 49.20536, 48.532738, 48.25, 48.0625, 48, 48, 48, 48.0625, 48.0625, 47.8125, 47.580357, 47.4375, 47.1875, 47.1875, 47.125, 46.9375, 46.75, 46.5, 46.25, 46.125, 46.1875, 46.3125, 46.160713, 45.583336, 45.339287, 45, 44.875, 44.839287, 44.6875, 44.5625, 44.5625, 44.375, 44.125, 43.892857, 43.75, 43.410713, 43.214287, 43.0625, 42.875, 43, 43.125, 43.4375, 43.625, 43.625, 43.5, 43.3125, 43, 42.9375, 42.9375, 42.6875, 42.75, 42.5625, 42.3125, 42.25, 42.0625, 42, 41.8125, 41.75, 41.625, 41.5, 41.4375, 41.25, 41.125, 41, 41, 40.875, 40.8125, 40.892857, 40.907738, 40.561905, 40.714287, 39.892857, 39.625, 39.321426, 39.125, 39.1875, 39.25, 39.375, 39.375, 39.25, 39.125, 38.875, 38.75, 38.482143, 38.25, 38.294643, 38, 37.955357, 37.6875, 37.5, 37.625, 37.75, 37.848213, 37.767857, 37.5, 36.966667, 36.92857, 36.8125, 36.84375, 36.71875, 36.611607, 36.481251, 36.196426, 36.133926, 36.125, 36.125, 36.125, 36, 35.75, 35.5625, 35.285713, 35.125, 35.205357, 34.9375, 34.794643, 34.6875, 34.6875, 34.6875, 34.5625, 34.375, 34.0625, 33.75, 33.5625, 33.375, 33.25, 33.1875, 33.0625, 32.8125, 32.625, 32.5625, 32.4375, 32.375, 32.25, 32.125, 32.0625, 32.0625, 32.0625, 31.875, 31.839287, 31.8125, 31.508928, 31.508928, 31.375, 31.1875, 31.017857, 30.8125, 30.625, 30.4375, 30.25, 30.125, 30, 30, 30, 30, 29.875, 29.75, 29.5, 29.25, 29.125, 29.0625, 29.0625, 29.0625, 28.875, 28.625, 28.34375, 28.03125, 27.96875, 27.90625, 27.9375, 28, 28, 27.9375, 27.8125, 27.75, 27.535713, 27.330357, 27.196428, 26.9375, 26.696428, 26.464287, 26.25, 26.1875, 26.25, 26.25, 26.160715, 25.666666, 25.383928, 25.1875, 25.1875, 25.107143, 24.9375, 24.9375, 24.875, 24.9375, 25.0625, 25.0625, 24.9375, 24.75, 24.625, 24.625, 24.5, 24.3125, 23.991074, 23.732143, 23.57143, 23.354166, 23.026785, 22.946428, 22.875, 22.9375, 23, 22.9375, 22.75, 22.625, 22.401787, 22.375, 22.375, 22.25, 22.1875, 21.8125, 21.5, 21.375, 21.25, 21.3125, 21.3125, 21.0625, 20.75, 20.4375, 20.25, 20.1875, 20.0625, 20, 19.75, 19.5, 19.4375, 19.5, 19.4375, 19.4375, 19.3125, 19.0625, 19.0625, 18.875, 18.8125, 18.8125, 18.75, 18.6875, 18.5625, 18.375, 18.1875, 18.125, 18, 17.8125, 17.625, 17.5, 17.3125, 17.1875, 17.125, 16.8125, 16.625, 16.5625, 16.4375, 16.375, 16.375, 16.1875, 16.0625, 16.0625, 16, 16, 16, 16, 15.741072, 15.375, 15.1875, 14.9375, 14.875, 14.875, 14.875, 14.8125, 14.75, 14.5625, 14.375, 14.1875, 14.125, 14.0625, 14, 13.9375, 13.875, 13.6875, 13.4375, 13.25, 13.0625, 13, 12.9375, 12.6875, 12.5625, 12.3125, 12.125, 12.125, 12, 12, 12, 12, 11.875, 11.625, 11.375, 11.125, 11, 11.125, 11.25, 11.5, 11.473214, 11.339286, 11.4375, 11.3125, 11.5, 11.6875, 11.75, 11.875, 12
-10, -10, -10, -10, -10, -10, -10, -10, -10, -10, -10, 49.375, 49.250004, 49.1875, 49.1875, 49.348213, 49.533333, 49.202381, 49.133926, 48.461311, 48.166668, 47.883926, 47.875, 47.875, 47.9375, 48.0625, 48, 47.75, 47.455357, 47.25, 47, 46.9375, 46.955357, 47.020832, 46.833332, 46.416668, 46.133926, 46, 46.0625, 46.1875, 46.053574, 45.604168, 45.392857, 45.125, 45, 44.964287, 44.875, 44.6875, 44.5625, 44.375, 44.125, 43.928574, 43.6875, 43.410713, 43.151787, 43.0625, 42.8125, 42.9375, 43.0625, 43.375, 43.6875, 43.75, 43.625, 43.4375, 43, 42.8125, 42.75, 42.5, 42.625, 42.4375, 42.1875, 42.017857, 41.875, 41.875, 41.8125, 41.875, 41.8125, 41.6875, 41.5625, 41.25, 41.026787, 41, 41, 40.767857, 40.633926, 40.611607, 40.635414, 40.355652, 40.025513, 39.598213, 39.3125, 39.196426, 39.0625, 39.25, 39.3125, 39.3125, 39.3125, 39.125, 39.0625, 38.875, 38.75, 38.482143, 38.178574, 37.961311, 37.642857, 37.580357, 37.482143, 37.3125, 37.4375, 37.5625, 37.6875, 37.8125, 37.607143, 37.091667, 36.92857, 36.642857, 36.71875, 36.59375, 36.46875, 36.28125, 36.196426, 36.3125, 36.375, 36.375, 36.25, 36, 35.625, 35.4375, 35.160713, 35.0625, 35.205357, 34.9375, 34.732143, 34.5625, 34.5625, 34.5625, 34.5, 34.375, 34.0625, 33.6875, 33.526787, 33.410713, 33.25, 33.205357, 33.125, 32.9375, 32.75, 32.75, 32.625, 32.5, 32.375, 32.25, 32.125, 32.0625, 31.955357, 31.75, 31.651787, 31.625, 31.383928, 31.383928, 31.375, 31.3125, 31.25, 31.0625, 30.875, 30.625, 30.4375, 30.3125, 30.125, 30.125, 30.0625, 30, 29.875, 29.6875, 29.4375, 29.1875, 29.0625, 29.125, 29.125, 29.125, 29, 28.75, 28.53125, 28.21875, 28.09375, 27.96875, 27.9375, 28, 28, 27.9375, 27.8125, 27.75, 27.535713, 27.267857, 27.133928, 26.875, 26.75, 26.625, 26.4375, 26.375, 26.3125, 26.1875, 25.991072, 25.541666, 25.321428, 25.1875, 25.25, 25.294643, 25.125, 25.125, 24.9375, 24.9375, 24.9375, 24.9375, 24.8125, 24.625, 24.5, 24.4375, 24.375, 24.1875, 23.928574, 23.732143, 23.50893, 23.291666, 22.964285, 22.883928, 22.8125, 22.875, 22.9375, 22.9375, 22.875, 22.75, 22.526787, 22.375, 22.25, 22.125, 22, 21.6875, 21.4375, 21.25, 21.125, 21.1875, 21.1875, 21.0625, 20.8125, 20.5, 20.25, 20.0625, 19.9375, 19.875, 19.75, 19.5625, 19.5, 19.5625, 19.4375, 19.4375, 19.3125, 19.0625, 19.0625, 18.875, 18.8125, 18.75, 18.6875, 18.6875, 18.625, 18.5, 18.3125, 18.1875, 18.0625, 17.9375, 17.75, 17.625, 17.375, 17.1875, 17.125, 16.875, 16.75, 16.75, 16.625, 16.5, 16.4375, 16.1875, 16.0625, 16.0625, 16, 16, 16, 16, 15.8125, 15.5625, 15.3125, 15.0625, 14.9375, 14.9375, 14.9375, 14.875, 14.75, 14.5625, 14.4375, 14.25, 14.1875, 14.125, 14, 13.9375, 13.8125, 13.5625, 13.3125, 13.1875, 13.0625, 13.0625, 13, 12.6875, 12.5, 12.25, 12.0625, 12.0625, 12, 12, 11.9375, 11.9375, 11.8125, 11.5625, 11.375, 11.125, 11, 11.125, 11.1875, 11.375, 11.410714, 11.339286, 11.4375, 11.375, 11.5625, 11.6875, 11.8125, 11.9375, 12, 12, 12.0625, 12.125, 12.1875, 12.1875, 12.125, 12.125, 12.25, 12.4375, 12.625, 12.8125, 12.875, 12.9375, 13, 13, 13, -10, -10, -10, -10, -10, -10, -10, -10, -10, -10, -10, -10, -10, -10, -10, -10, -10, -10, -10, -10, -10, -10, -10, -10, -10, -10, -10, -10, -10, -10, -10, -10, -10, -10, 49.1875, 49.208336, 49.15625, 49.3125, 49.464287, 49.520832, 49.309525, 49.241074, 48.848213, 48.333336, 48.017857, 47.875, 47.875, 47.9375, 48.0625, 47.9375, 47.6875, 47.392857, 47.1875, 47, 46.9375, 46.955357, 47.020832, 46.833332, 46.416668, 46.133926, 45.9375, 45.9375, 46, 45.8125, 45.5625, 45.3125, 45.0625, 45, 45, 44.9375, 44.75, 44.5625, 44.4375, 44.25, 44.116074, 43.875, 43.553574, 43.1875, 43.0625, 42.875, 42.9375, 43, 43.25, 43.4375, 43.625, 43.5625, 43.375, 43, 42.75, 42.6875, 42.5625, 42.6875, 42.5, 42.3125, 42.205357, 42.160713, 42.125, 42.017857, 42, 41.875, 41.71875, 41.53125, 41.21875, 40.995537, 41, 40.9375, 40.642857, 40.446426, 40.299107, 40.322914, 39.80442, 39.668369, 39.375, 39.232143, 39.1875, 39.125, 39.3125, 39.375, 39.375, 39.3125, 39.125, 39.0625, 38.875, 38.875, 38.607143, 38.011906, 37.693455, 37.267857, 37.267857, 37.357143, 37.25, 37.375, 37.4375, 37.5625, 37.75, 37.732143, 37.279167, 36.99107, 36.497025, 36.5, 36.375, 36.375, 36.25, 36.258926, 36.375, 36.4375, 36.4375, 36.1875, 35.875, 35.5, 35.3125, 35.098213, 35.0625, 35.142857, 34.901787, 34.767857, 34.5, 34.5, 34.375, 34.3125, 34.25, 34, 33.6875, 33.589287, 33.535713, 33.4375, 33.392857, 33.25, 32.9375, 32.714287, 32.785713, 32.6875, 32.6875, 32.5, 32.375, 32.1875, 32, 31.892857, 31.625, 31.464287, 31.5, 31.321428, 31.446428, 31.5625, 31.5, 31.375, 31.1875, 31, 30.8125, 30.6875, 30.5, 30.25, 30.1875, 30.0625, 30, 29.875, 29.75, 29.5625, 29.3125, 29.1875, 29.1875, 29.125, 29.125, 29.0625, 28.875, 28.6875, 28.4375, 28.25, 28.125, 28.0625, 28.0625, 28.0625, 27.9375, 27.8125, 27.6875, 27.4375, 27.25, 27.125, 26.875, 26.75, 26.625, 26.4375, 26.3125, 26.125, 25.9375, 25.6875, 25.5, 25.4375, 25.3125, 25.4375, 25.482143, 25.3125, 25.303572, 24.854166, 24.758928, 24.75, 24.8125, 24.6875, 24.5, 24.3125, 24.1875, 24.1875, 24.0625, 23.928574, 23.732143, 23.38393, 23.104166, 22.821428, 22.8125, 22.8125, 22.875, 22.9375, 22.90625, 22.84375, 22.65625, 22.370537, 22.1875, 22.0625, 22, 21.875, 21.625, 21.375, 21.125, 21.0625, 21.125, 21.125, 21.0625, 20.875, 20.5625, 20.3125, 20.125, 19.9375, 19.875, 19.8125, 19.625, 19.5625, 19.625, 19.5, 19.5, 19.375, 19.125, 19.0625, 19, 19, 18.875, 18.776787, 18.75, 18.625, 18.5625, 18.375, 18.125, 17.9375, 17.875, 17.6875, 17.625, 17.4375, 17.1875, 17.125, 17, 16.910713, 16.767857, 16.633928, 16.4375, 16.375, 16.1875, 16.0625, 16.0625, 16.0625, 16.0625, 16.0625, 16, 15.75, 15.5, 15.25, 15.0625, 15, 15, 14.9375, 14.875, 14.6875, 14.4375, 14.375, 14.1875, 14.125, 14.125, 14, 14, 13.875, 13.6875, 13.4375, 13.25, 13.125, 13.0625, 13, 12.6875, 12.5, 12.25, 12.0625, 12.0625, 12, 12, 11.9375, 11.9375, 11.875, 11.625, 11.4375, 11.1875, 11, 11.0625, 11.125, 11.3125, 11.410714, 11.464286, 11.5625, 11.5625, 11.75, 11.8125, 11.9375, 12, 12
-10, -10, -10, -10, -10, -10, -10, -10, -10, -10, -10, 48.9375, 49.041668, 49.09375, 49.3125, 49.464287, 49.625, 49.580357, 49.5625, 49.10714, 48.413692, 48.080357, 47.875, 47.875, 47.9375, 48.0625, 47.9375, 47.6875, 47.392857, 47.25, 47.0625, 47, 47.017857, 46.958332, 46.770832, 46.354168, 46.071426, 45.9375, 45.9375, 46, 45.875, 45.625, 45.4375, 45.1875, 45.0625, 45.0625, 44.9375, 44.6875, 44.5625, 44.5, 44.375, 44.303574, 44, 43.678574, 43.25, 43.1875, 43.0625, 43.035713, 42.964287, 43.125, 43.1875, 43.4375, 43.4375, 43.3125, 43.0625, 42.8125, 42.75, 42.625, 42.75, 42.5625, 42.375, 42.205357, 42.098213, 42.125, 42.11607, 42.125, 42.0625, 41.84375, 41.59375, 41.28125, 40.995537, 41, 40.9375, 40.705357, 40.508926, 40.28125, 39.989582, 39.552082, 39.450893, 39.25, 39.25, 39.25, 39.125, 39.3125, 39.375, 39.375, 39.3125, 39.0625, 38.9375, 38.8125, 38.723213, 38.392857, 37.833336, 37.336311, 37.080357, 37.1875, 37.357143, 37.3125, 37.375, 37.3125, 37.375, 37.5, 37.553574, 37.229168, 36.883926, 36.434525, 36.401787, 36.375, 36.258926, 36.196426, 36.196426, 36.375, 36.4375, 36.4375, 36.125, 35.75, 35.375, 35.1875, 35.035713, 35, 35.107143, 34.9375, 34.830357, 34.5625, 34.4375, 34.25, 34.125, 34.0625, 33.875, 33.625, 33.589287, 33.598213, 33.5, 33.455357, 33.25, 33, 32.776787, 32.848213, 32.75, 32.6875, 32.5, 32.375, 32.1875, 32, 31.830357, 31.5625, 31.3125, 31.3125, 31.3125, 31.4375, 31.625, 31.5, 31.375, 31.1875, 30.9375, 30.75, 30.6875, 30.5, 30.3125, 30.25, 30.0625, 30, 29.9375, 29.8125, 29.616072, 29.25, 29.125, 29.125, 29.125, 29.125, 29.125, 29, 28.8125, 28.5625, 28.3125, 28.125, 28.0625, 28.0625, 28.0625, 28, 27.9375, 27.875, 27.625, 27.375, 27.1875, 26.875, 26.75, 26.625, 26.4375, 26.3125, 26.125, 26, 25.8125, 25.6875, 25.6875, 25.5625, 25.75, 25.794643, 25.625, 25.553572, 24.854166, 24.696428, 24.625, 24.6875, 24.5625, 24.5, 24.25, 24.125, 24.125, 24, 23.901787, 23.669643, 23.339287, 23.1875, 23, 23, 22.9375, 22.9375, 22.9375, 22.90625, 22.90625, 22.78125, 22.53125, 22.3125, 22.125, 22, 21.875, 21.625, 21.375, 21.125, 21.0625, 21.125, 21.0625, 21, 20.875, 20.5625, 20.375, 20.1875, 20, 20, 19.9375, 19.75, 19.5625, 19.5, 19.375, 19.375, 19.3125, 19.125, 19.0625, 19.0625, 19.0625, 18.875, 18.839287, 18.75, 18.625, 18.625, 18.4375, 18.160713, 17.830357, 17.767857, 17.5625, 17.5, 17.375, 17.125, 17.125, 17.1875, 17.160713, 17.017857, 16.821428, 16.5625, 16.5, 16.3125, 16.1875, 16.125, 16.0625, 16.0625, 16.0625, 15.9375, 15.6875, 15.4375, 15.1875, 15.0625, 15, 15, 14.875, 14.75, 14.5625, 14.3125, 14.3125, 14.1875, 14.125, 14.125, 14, 14, 13.8125, 13.625, 13.375, 13.1875, 13.125, 13.0625, 12.9375, 12.625, 12.4375, 12.1875, 12.0625, 12.0625, 12, 12, 11.9375, 11.9375, 11.9375, 11.75, 11.5625, 11.3125, 11.0625, 11.0625, 11.0625, 11.1875, 11.348214, 11.401786, 11.625, 11.75, 11.875, 11.9375, 12.0625, 12.125, 12.125, 12.125, 12.1875, 12.25, 12.3125, 12.4375, 12.3125, 12.25, 12.3125, 12.375, 12.5625, 12.625, 12.75, 12.75, 12.770833, 13, -10, -10, -10, -10, -10, -10, -10, -10, -10, -10, -10, -10, -10, -10, -10, -10, -10, -10, -10, -10, -10, -10, -10, -10, -10, -10, -10, -10, -10, -10, -10, -10, -10, -10, -10, 48.770832, 48.916668, 49.0625, 49.34375, 49.495537, 49.642857, 49.455357, 49.5, 48.98214, 48.351192, 48.017857, 47.8125, 47.875, 47.9375, 47.9375, 47.8125, 47.5625, 47.3125, 47.25, 47.0625, 47, 47.017857, 47.020832, 46.895832, 46.604168, 46.321426, 46.125, 46.0625, 46, 45.9375, 45.6875, 45.5, 45.25, 45.0625, 45.0625, 44.9375, 44.75, 44.625, 44.491074, 44.25, 44.241074, 43.973213, 43.803574, 43.4375, 43.3125, 43.25, 43.285713, 43.172619, 43.104168, 43.0625, 43.1875, 43.25, 43.1875, 43.0625, 42.9375, 42.9375, 42.857143, 42.8125, 42.625, 42.375, 42.205357, 42.098213, 42.125, 42.05357, 42.0625, 42, 41.78125, 41.59375, 41.28125, 40.995537, 41, 40.9375, 40.767857, 40.571426, 40.28125, 39.96875, 39.71875, 39.59375, 39.375, 39.375, 39.3125, 39.1875, 39.4375, 39.4375, 39.4375, 39.375, 39.0625, 38.875, 38.6875, 38.473213, 38.080357, 37.520836, 37.023811, 36.892857, 37.0625, 37.357143, 37.375, 37.375, 37.25, 37.1875, 37.25, 37.375, 37.3125, 37.0625, 36.653275, 36.620537, 36.508926, 36.321426, 36.258926, 36.196426, 36.375, 36.3125, 36.3125, 35.9375, 35.625, 35.3125, 35.0625, 35, 35, 35, 35, 35, 34.785713, 34.517857, 34.258926, 34.0625, 34, 33.8125, 33.5625, 33.526787, 33.535713, 33.4375, 33.392857, 33.1875, 33, 32.901787, 32.973213, 32.9375, 32.8125, 32.5625, 32.375, 32.125, 31.9375, 31.705357, 31.5, 31.25, 31.3125, 31.3125, 31.375, 31.5, 31.3125, 31.25, 31.125, 30.9375, 30.8125, 30.8125, 30.625, 30.4375, 30.3125, 30.0625, 30, 30, 29.9375, 29.741072, 29.375, 29.1875, 29.0625, 29.0625, 29.0625, 29, 28.875, 28.6875, 28.4375, 28.25, 28.125, 28.0625, 28.0625, 28.0625, 28, 28, 27.9375, 27.75, 27.5, 27.25, 27, 26.75, 26.5625, 26.375, 26.1875, 26.0625, 25.9375, 25.75, 25.625, 25.625, 25.5, 25.6875, 25.75, 25.6875, 25.616072, 24.916666, 24.696428, 24.5625, 24.5625, 24.4375, 24.375, 24.1875, 24.0625, 24, 23.9375, 23.875, 23.6875, 23.5625, 23.3125, 23.125, 23.0625, 22.9375, 22.9375, 22.9375, 22.90625, 22.90625, 22.71875, 22.46875, 22.25, 22.0625, 22, 21.875, 21.6875, 21.4375, 21.1875, 21.0625, 21.0625, 20.973213, 20.767857, 20.633928, 20.375, 20.25, 20.125, 20, 20, 20, 19.875, 19.6875, 19.5625, 19.375, 19.25, 19.1875, 19.0625, 19, 19, 19, 18.75, 18.651787, 18.5625, 18.375, 18.4375, 18.25, 18.035713, 17.767857, 17.705357, 17.625, 17.5625, 17.4375, 17.25, 17.25, 17.375, 17.348213, 17.142857, 16.883928, 16.625, 16.5, 16.3125, 16.1875, 16.0625, 16.0625, 16.0625, 16.0625, 15.9375, 15.6875, 15.4375, 15.1875, 15.0625, 15, 15, 14.8125, 14.6875, 14.5, 14.25, 14.25, 14.125, 14.0625, 14.0625, 14, 14, 13.875, 13.6875, 13.4375, 13.25, 13.125, 13.0625, 13, 12.75, 12.5, 12.25, 12.0625, 12, 12, 12, 11.9375, 11.9375, 11.9375, 11.8125, 11.625, 11.375, 11.125, 11.0625, 11.0625, 11.125, 11.3125, 11.5, 11.75, 11.9375, 12, 12, 12.125, 12.25, 12.25
-10, -10, -10, -10, -10, -10, -10, -10, -10, -10, 48, 48.729164, 48.875, 49.125, 49.53125, 49.71875, 49.830357, 49.6875, 49.5625, 49.125, 48.684525, 48.446426, 48.25, 48.1875, 48.125, 47.9375, 47.75, 47.5, 47.1875, 47.1875, 47.0625, 47.125, 47.25, 47.125, 47, 46.8125, 46.5625, 46.3125, 46.1875, 46.0625, 45.9375, 45.6875, 45.5, 45.25, 45.0625, 45.0625, 44.9375, 44.8125, 44.6875, 44.491074, 44.214287, 44.25, 44.160713, 44.053574, 43.75, 43.5625, 43.5625, 43.660713, 43.485119, 43.0625, 42.866074, 42.9375, 43.169643, 43.25, 43.3125, 43.3125, 43.375, 43.357143, 43.1875, 42.9375, 42.6875, 42.5625, 42.410713, 42.375, 42.17857, 42.0625, 42, 41.71875, 41.53125, 41.28125, 41.03125, 41, 40.875, 40.75, 40.5625, 40.3125, 40.0625, 39.875, 39.6875, 39.5, 39.5, 39.375, 39.375, 39.5, 39.4375, 39.4375, 39.25, 38.9375, 38.6875, 38.5, 38.285713, 37.892857, 37.404762, 37.107143, 37, 37.125, 37.3125, 37.3125, 37.3125, 37.1875, 37.0625, 37.0625, 37.125, 37.125, 37, 36.760418, 36.870537, 36.852676, 36.665176, 36.540176, 36.28125, 36.1875, 36.0625, 36.0625, 35.75, 35.5, 35.25, 34.9375, 34.875, 34.875, 34.875, 34.875, 34.9375, 34.723213, 34.392857, 34.196426, 34, 33.9375, 33.8125, 33.5625, 33.4375, 33.3125, 33.25, 33.25, 33.125, 32.9375, 32.901787, 32.910713, 32.8125, 32.75, 32.4375, 32.25, 32, 31.8125, 31.6875, 31.4375, 31.3125, 31.4375, 31.4375, 31.5625, 31.625, 31.375, 31.25, 31.125, 30.9375, 30.875, 30.875, 30.6875, 30.5, 30.3125, 30.0625, 30, 30, 30, 29.866072, 29.5, 29.3125, 29.0625, 29, 29, 28.9375, 28.875, 28.6875, 28.5, 28.375, 28.25, 28.1875, 28.125, 28.0625, 28, 27.9375, 27.875, 27.6875, 27.4375, 27.25, 27.0625, 26.8125, 26.5625, 26.3125, 26.0625, 25.9375, 25.8125, 25.75, 25.6875, 25.6875, 25.625, 25.6875, 25.6875, 25.6875, 25.616072, 25.041666, 24.821428, 24.625, 24.5625, 24.375, 24.3125, 24.125, 24.0625, 24, 23.9375, 23.9375, 23.8125, 23.75, 23.5, 23.205357, 23.125, 23, 23, 23, 22.96875, 22.84375, 22.59375, 22.34375, 22.125, 22, 21.9375, 21.8125, 21.625, 21.375, 21.1875, 21.0625, 21.0625, 20.910713, 20.642857, 20.508928, 20.25, 20.1875, 20.125, 19.9375, 19.9375, 19.875, 19.75, 19.6875, 19.5625, 19.5, 19.375, 19.25, 19.125, 19, 19, 19, 18.8125, 18.714287, 18.5625, 18.3125, 18.25, 18.0625, 17.910713, 17.674107, 17.611607, 17.59375, 17.59375, 17.5625, 17.4375, 17.375, 17.4375, 17.348213, 17.142857, 16.946428, 16.6875, 16.5625, 16.375, 16.1875, 16.0625, 16.0625, 16, 15.9375, 15.75, 15.5, 15.375, 15.1875, 15.125, 15.0625, 15, 14.8125, 14.625, 14.4375, 14.1875, 14.125, 14.125, 14.0625, 14.0625, 14.0625, 14, 13.9375, 13.8125, 13.5625, 13.3125, 13.125, 13, 12.9375, 12.8125, 12.625, 12.375, 12.1875, 12.0625, 12, 12, 12, 12, 12, 11.9375, 11.6875, 11.4375, 11.1875, 11.133928, 11.2625, 11.267857, 11.5, 11.5625, 11.875, 12, 12.0625, 12.0625, 12.1875, 12.285714, 12.214286, 12.25, 12.125, 12.125, 12.125, 12.25, 12.1875, 12.3125, 12.5, 12.625, 12.8125, 12.6875, 12.625, 12.479167, -10, -10, -10, -10, -10, -10, -10, -10, -10, -10, -10, -10, -10, -10, -10, -10, -10, -10, -10, -10, -10, -10, -10, -10, -10, -10, -10, -10, -10, -10, -10, -10, -10, -10, -10, -10, 48, 48.516666, 48.875, 49.316963, 49.75, 49.924107, 49.809525, 49.4375, 49.25, 48.883926, 48.642857, 48.5, 48.3125, 48.1875, 48.125, 47.9375, 47.8125, 47.5625, 47.1875, 47.080357, 46.9375, 47.0625, 47.357143, 47.25, 47.125, 46.901787, 46.6875, 46.5, 46.4375, 46.25, 46.125, 45.875, 45.6875, 45.5, 45.25, 45.1875, 45, 44.875, 44.75, 44.491074, 44.214287, 44.1875, 44.098213, 44.125, 44, 43.8125, 43.8125, 43.848213, 43.672619, 43.1875, 42.991074, 42.9375, 43.169643, 43.3125, 43.4375, 43.5625, 43.625, 43.544643, 43.3125, 43.0625, 42.75, 42.5625, 42.3125, 42.25, 42.098213, 42, 42, 41.6875, 41.5, 41.25, 41, 41, 40.875, 40.75, 40.5625, 40.375, 40.1875, 40.0625, 39.875, 39.6875, 39.6875, 39.5625, 39.5, 39.5, 39.3125, 39.1875, 39.0625, 38.75, 38.5, 38.3125, 37.973213, 37.642857, 37.383926, 37.125, 37.0625, 37.125, 37.3125, 37.3125, 37.3125, 37.1875, 37, 37, 37, 37, 37, 36.96875, 37.120537, 37.09375, 36.664967, 36.331848, 36.075893, 36.053574, 36, 36, 35.8125, 35.625, 35.375, 35.0625, 34.9375, 34.875, 34.84375, 34.78125, 34.78125, 34.566963, 34.205357, 34.071426, 34, 33.973213, 33.84375, 33.59375, 33.34375, 33.15625, 33.125, 33.125, 33, 32.830357, 32.75, 32.625, 32.5625, 32.4375, 32.3125, 32.25, 32.044643, 31.791666, 31.571428, 31.375, 31.375, 31.4375, 31.4375, 31.4375, 31.4375, 31.25, 31.1875, 31.1875, 31, 30.875, 30.839287, 30.6875, 30.5, 30.375, 30.125, 30, 30, 29.9375, 29.803572, 29.5, 29.294643, 28.916666, 28.821428, 28.8125, 28.8125, 28.8125, 28.75, 28.625, 28.5625, 28.375, 28.25, 28.125, 28, 27.9375, 27.8125, 27.6875, 27.5, 27.3125, 27.1875, 27.0625, 26.875, 26.625, 26.375, 26.125, 26.0625, 25.9375, 25.9375, 25.875, 25.75, 25.75, 25.75, 25.75, 25.75, 25.625, 25.25, 25.0625, 24.8125, 24.625, 24.4375, 24.3125, 24.125, 24.0625, 23.9375, 23.875, 23.875, 23.8125, 23.75, 23.5, 23.205357, 23.125, 23, 23, 23, 23, 22.9375, 22.6875, 22.4375, 22.1875, 22, 21.9375, 21.875, 21.75, 21.5, 21.3125, 21.125, 21.0625, 20.910713, 20.705357, 20.571428, 20.3125, 20.25, 20.125, 19.875, 19.8125, 19.6875, 19.5625, 19.633928, 19.6875, 19.625, 19.5, 19.25, 19.125, 19, 18.9375, 18.9375, 18.8125, 18.75, 18.5625, 18.3125, 18.1875, 17.9375, 17.848213, 17.549107, 17.361607, 17.424107, 17.614584, 17.607143, 17.5625, 17.4375, 17.375, 17.3125, 17.25, 17.0625, 16.8125, 16.625, 16.375, 16.25, 16.125, 16.0625, 16, 15.8125, 15.625, 15.5, 15.375, 15.25, 15.1875, 15.0625, 15, 14.875, 14.6875, 14.5, 14.3125, 14.1875, 14.1875, 14.125, 14.0625, 14.0625, 14, 13.9375, 13.8125, 13.5625, 13.3125, 13.125, 13, 12.9375, 12.875, 12.75, 12.5, 12.3125, 12.125, 12, 12.0625, 12.125, 12.125, 12.1875, 12.25, 12.169643, 11.821428, 11.642858, 11.581633, 11.728571, 11.62755, 12, 11.9375, 12.125, 12.25, 12.3125, 12.383928, 12.6875, 12.723214, 12.607143
-10, -10, -10, -10, -10, -10, -10, -10, -10, -10, 48, 48.433334, 49.125, 49.57589, 50.0625, 50.165176, 49.663692, 49.125, 48.9375, 48.75, 48.6875, 48.625, 48.4375, 48.25, 48.125, 47.875, 47.6875, 47.4375, 47, 46.892857, 46.8125, 46.9375, 47.232143, 47.1875, 47.0625, 46.839287, 46.6875, 46.5625, 46.5625, 46.4375, 46.3125, 46.0625, 45.8125, 45.553574, 45.1875, 45.125, 45, 45, 44.8125, 44.553574, 44.151787, 44.0625, 44.035713, 44.0625, 44.0625, 43.9375, 43.9375, 44.0625, 43.958332, 43.4375, 43.303574, 43.1875, 43.419643, 43.5625, 43.6875, 43.75, 43.75, 43.607143, 43.3125, 43.125, 42.8125, 42.6875, 42.5, 42.3125, 42.125, 42, 41.875, 41.625, 41.4375, 41.1875, 41, 41, 40.875, 40.75, 40.5625, 40.375, 40.25, 40.125, 40, 39.875, 39.8125, 39.642857, 39.5625, 39.4375, 39.25, 39.125, 39, 38.875, 38.6875, 38.5, 38.1875, 37.875, 37.625, 37.3125, 37.25, 37.169643, 37.25, 37.428574, 37.357143, 37.3125, 37.0625, 37, 37, 37, 37, 36.96875, 37.03125, 36.84375, 36.250851, 36.296131, 36.075893, 36.116074, 35.9375, 35.875, 35.6875, 35.5625, 35.375, 35.125, 35, 34.875, 34.90625, 34.90625, 34.888393, 34.546131, 34.151787, 34.008926, 34, 33.973213, 33.84375, 33.59375, 33.28125, 33.09375, 33.0625, 33.0625, 33.0625, 32.892857, 32.8125, 32.6875, 32.5625, 32.4375, 32.3125, 32.3125, 32.107143, 31.854166, 31.696428, 31.4375, 31.4375, 31.4375, 31.375, 31.375, 31.4375, 31.285713, 31.151787, 31.1875, 31, 30.9375, 30.901787, 30.8125, 30.5625, 30.4375, 30.1875, 30, 29.9375, 29.8125, 29.6875, 29.5625, 29.357143, 29.041666, 28.883928, 28.8125, 28.8125, 28.8125, 28.8125, 28.75, 28.75, 28.5625, 28.375, 28.1875, 28, 27.9375, 27.75, 27.5625, 27.375, 27.1875, 27.125, 27.0625, 26.875, 26.6875, 26.5, 26.3125, 26.3125, 26.125, 26, 25.767857, 25.5, 25.375, 25.3125, 25.3125, 25.375, 25.375, 25.25, 25.125, 24.9375, 24.6875, 24.5, 24.25, 24.0625, 24, 23.875, 23.875, 23.9375, 23.875, 23.8125, 23.5625, 23.205357, 23.1875, 23.125, 23.125, 23.125, 23.0625, 22.9375, 22.6875, 22.4375, 22.1875, 22, 21.9375, 21.875, 21.8125, 21.625, 21.4375, 21.25, 21.125, 20.973213, 20.767857, 20.633928, 20.4375, 20.375, 20.25, 19.9375, 19.705357, 19.5625, 19.4375, 19.571428, 19.75, 19.75, 19.625, 19.375, 19.1875, 19, 18.9375, 18.9375, 18.875, 18.8125, 18.625, 18.375, 18.1875, 17.875, 17.75, 17.53125, 17.34375, 17.424107, 17.677084, 17.669643, 17.6875, 17.5, 17.3125, 17.25, 17.125, 17, 16.8125, 16.5625, 16.3125, 16.1875, 16.0625, 16, 15.9375, 15.75, 15.625, 15.5625, 15.4375, 15.3125, 15.1875, 15.0625, 15, 14.9375, 14.8125, 14.6875, 14.5625, 14.375, 14.3125, 14.1875, 14.0625, 14.0625, 14, 14.0625, 13.973214, 13.714286, 13.5625, 13.3125, 13.25, 13.25, 13.25, 13.1875, 12.9375, 12.75, 12.5625, 12.4375, 12.5625, 12.625, 12.625, 12.75, 12.9375, 12.982143, 13.273808, 13.178571, 13.047619, 13.05, 12.845238, 12.642858, 12.464286, 12.4375, 12.5625, 12.75, 12.883928, 13.1875, 13.160714, 13.044643, 13.0625, 12.875, 13.008928, 13.694444, 13.821429, 13.875, 13.833333, 13.375, 13.3125, 13.28125, 13.125, 12.866072, 12.583334, -10, -10, -10, -10, -10, -10, -10, -10, -10, -10, -10, -10, -10, -10, -10, -10, -10, -10, -10, -10, -10, -10, -10, -10, -10, -10, -10, -10, -10, -10, -10, -10, -10, -10, -10, -10, -10, 48.600002, 49.166668, 49.48214, 50.045918, 50.008926, 49.520836, 49.1875, 48.875, 48.8125, 48.6875, 48.6875, 48.5625, 48.3125, 48.1875, 47.875, 47.625, 47.3125, 46.8125, 46.642857, 46.625, 46.8125, 47.107143, 47.125, 46.9375, 46.651787, 46.5625, 46.46875, 46.59375, 46.508926, 46.3125, 46.125, 45.794643, 45.407738, 45.080357, 45, 44.9375, 45, 44.8125, 44.625, 44.339287, 44.1875, 44.1875, 44.125, 44.125, 44.0625, 44, 44.0625, 44, 43.645832, 43.553574, 43.5, 43.669643, 43.8125, 43.9375, 43.875, 43.6875, 43.392857, 43.125, 43, 42.785713, 42.517857, 42.321426, 42.125, 42, 41.875, 41.78125, 41.59375, 41.46875, 41.28125, 41.125, 41.125, 40.910713, 40.642857, 40.383926, 40.125, 40.0625, 40, 40, 40, 39.9375, 39.767857, 39.625, 39.3125, 39.0625, 38.875, 38.75, 38.75, 38.625, 38.5, 38.25, 38, 37.75, 37.375, 37.142857, 36.982143, 36.96875, 37.209824, 37.200893, 37.21875, 37.0625, 37.0625, 37.0625, 37.0625, 37.0625, 36.9375, 36.875, 36.647324, 36.203869, 36.108631, 36.013393, 36.053574, 35.9375, 35.8125, 35.625, 35.5625, 35.375, 35.25, 35.125, 34.9375, 34.90625, 34.870537, 34.825893, 34.331844, 34.080357, 34.008926, 34.25, 34.223213, 34.15625, 33.78125, 33.361607, 33.15625, 33.0625, 33.0625, 33.0625, 32.892857, 32.8125, 32.6875, 32.5625, 32.5, 32.375, 32.375, 32.169643, 31.854166, 31.758928, 31.5, 31.5, 31.5, 31.4375, 31.5, 31.625, 31.473213, 31.276787, 31.25, 31, 30.9375, 30.901787, 30.875, 30.625, 30.5, 30.25, 30, 30, 29.848213, 29.642857, 29.508928, 29.294643, 29.041666, 28.946428, 28.848213, 28.767857, 28.830357, 28.875, 28.857143, 28.75, 28.5625, 28.3125, 28.1875, 28, 27.875, 27.625, 27.375, 27.125, 27, 27, 27, 26.9375, 26.8125, 26.625, 26.4375, 26.375, 26.1875, 26.0625, 25.830357, 25.5, 25.205357, 25.0625, 25, 25.125, 25.1875, 25.1875, 25.125, 25, 24.75, 24.5, 24.214287, 24, 23.9375, 23.9375, 23.9375, 24, 23.9375, 23.75, 23.5, 23.142857, 23.1875, 23.25, 23.25, 23.25, 23.125, 22.9375, 22.6875, 22.4375, 22.1875, 22, 21.9375, 21.875, 21.8125, 21.6875, 21.5625, 21.375, 21.1875, 21, 20.875, 20.8125, 20.6875, 20.5625, 20.4375, 20.125, 19.8125, 19.479166, 19.258928, 19.321428, 19.5625, 19.625, 19.5625, 19.375, 19.1875, 19, 19, 19, 19.0625, 19.0625, 18.8125, 18.517857, 18.25, 17.9375, 17.8125, 17.59375, 17.40625, 17.424107, 17.677084, 17.732143, 17.75, 17.53125, 17.28125, 17.15625, 17.03125, 16.9375, 16.8125, 16.625, 16.375, 16.25, 16.125, 16, 15.9375, 15.75, 15.625, 15.5625, 15.4375, 15.3125, 15.1875, 15.0625, 15, 15, 14.9375, 14.875, 14.8125, 14.5625, 14.4375, 14.25, 14.125, 14.1875, 14.1875, 14.3125, 14.254464, 13.995536, 13.928572, 13.883928, 13.928572, 13.714286, 13.9375, 13.875, 13.6875, 13.5, 13.3125, 13.080357, 13.357142, 13.428572, 13.5, 13.714286, 13.928572, 14.015306, 13.979592, 14.015306, 13.897959, 13.7, 13.455357, 13.25, 13.071428, 13.132653, 13.375, 13.714286, 13.795918, 14.035714, 13.87755, 13.785714
-10, -10, -10, -10, -10, -10, -10, -10, -10, -10, -10, 48.641666, 49.125, 49.35714, 49.419643, 49.928574, 49.458336, 49.125, 48.776787, 48.75, 48.625, 48.6875, 48.5, 48.25, 48.125, 47.8125, 47.625, 47.3125, 46.875, 46.705357, 46.75, 46.875, 47.044643, 47, 46.6875, 46.401787, 46.3125, 46.21875, 46.40625, 46.383926, 46.3125, 46.25, 45.919643, 45.488098, 45.142857, 45.0625, 45, 45.0625, 44.875, 44.6875, 44.4375, 44.25, 44.3125, 44.25, 44.25, 44.1875, 44.0625, 44, 43.9375, 43.875, 43.8125, 43.6875, 43.75, 43.8125, 43.875, 43.803574, 43.4375, 43.080357, 42.8125, 42.732143, 42.4375, 42.267857, 42.071426, 41.9375, 41.8125, 41.625, 41.40625, 41.28125, 41.28125, 41.325893, 41.25, 41.3125, 41.160713, 40.875, 40.571426, 40.303574, 39.955357, 39.821426, 39.875, 39.9375, 39.9375, 39.830357, 39.625, 39.3125, 39.125, 39, 39, 39.0625, 38.875, 38.714287, 38.5, 38.25, 38.0625, 37.625, 37.142857, 37.044643, 37.013393, 37.272324, 37.263393, 37.21875, 37.0625, 37.0625, 37.0625, 37.0625, 37.0625, 36.9375, 36.75, 36.428574, 35.922619, 35.827381, 35.857143, 35.991074, 35.9375, 35.75, 35.5625, 35.5, 35.3125, 35.3125, 35.25, 35.0625, 35.03125, 34.933037, 34.825893, 34.331844, 34.142857, 34.071426, 34.3125, 34.285713, 34.15625, 33.84375, 33.486607, 33.28125, 33.25, 33.1875, 33.125, 33.017857, 32.875, 32.8125, 32.75, 32.6875, 32.625, 32.5625, 32.357143, 32.041664, 31.883928, 31.6875, 31.625, 31.5625, 31.5, 31.4375, 31.5, 31.348213, 31.151787, 31.1875, 31, 30.875, 30.776787, 30.6875, 30.4375, 30.4375, 30.25, 30.125, 30.1875, 29.919643, 29.392857, 29.25, 29.044643, 28.916666, 29.008928, 28.883928, 28.660713, 28.723213, 28.75, 28.732143, 28.625, 28.4375, 28.1875, 28.1875, 28.0625, 27.875, 27.580357, 27.3125, 27.0625, 27, 27, 26.9375, 26.875, 26.75, 26.5625, 26.4375, 26.375, 26.25, 26.125, 25.892857, 25.5625, 25.267857, 25.125, 24.928572, 25.125, 25.125, 25.125, 25.0625, 25, 24.8125, 24.625, 24.401787, 24.1875, 24.0625, 24, 23.9375, 23.9375, 23.8125, 23.5625, 23.3125, 23.0625, 23.1875, 23.375, 23.375, 23.375, 23.1875, 23, 22.75, 22.5, 22.25, 22, 22, 22, 22, 21.9375, 21.8125, 21.625, 21.375, 21.1875, 21, 20.875, 20.75, 20.5625, 20.4375, 20.1875, 19.875, 19.541666, 19.321428, 19.321428, 19.535713, 19.455357, 19.383928, 19.25, 19.125, 19, 19, 19, 19, 19, 18.75, 18.455357, 18.25, 17.9375, 17.8125, 17.625, 17.5, 17.517857, 17.770834, 17.794643, 17.8125, 17.59375, 17.34375, 17.21875, 17.03125, 16.9375, 16.8125, 16.6875, 16.4375, 16.3125, 16.1875, 16, 16, 15.875, 15.8125, 15.6875, 15.4375, 15.25, 15.0625, 15, 15, 15, 15, 15.071428, 15.333334, 15.145834, 14.791667, 14.508928, 14.375, 14.5625, 14.723214, 14.875, 14.816964, 14.620536, 14.678572, 14.903061, 15.061225, 15.333333, 15, 14.928572, 14.821428, 14.642858, 14.535714, 14.37755, 14.464286, 14.5, 14.571428, 14.75, 15.010203, 14.736734, 14.866072, 14.928572, 14.75, 14.75, 14.5625, 14.678572, 14.791667, 14.767858, 14.5, 14.642858, 14.571428, 14.75, 14.5625, 14.455357, 14.4375, 14.5, 14.794642, 15.083333, 15.178572, 15.15625, 15.09375, 15, 15.142858, 15.285714, 15.5, 15.045918, 14.116667, -10, -10, -10, -10, -10, -10, -10, -10, -10, -10, -10, -10, -10, -10, -10, -10, -10, -10, -10, -10, -10, -10, -10, -10, -10, -10, -10, -10, -10, -10, -10, -10, -10, -10, -10, -10, -10, 48.791668, 48.916668, 49.008926, 49.267857, 49.535713, 49.416668, 49.25, 48.964287, 48.875, 48.75, 48.8125, 48.625, 48.375, 48.1875, 47.75, 47.5, 47.1875, 46.875, 46.875, 46.9375, 47, 46.9375, 46.875, 46.5625, 46.3125, 46.1875, 46.03125, 46.15625, 46.196426, 46.25, 46.25, 45.982143, 45.488098, 45.017857, 44.830357, 44.8125, 44.9375, 44.8125, 44.6875, 44.4375, 44.3125, 44.4375, 44.4375, 44.5, 44.366074, 44.0625, 44, 43.8125, 43.875, 43.875, 43.8125, 43.9375, 43.9375, 43.866074, 43.470238, 43.080357, 42.767857, 42.625, 42.607143, 42.3125, 42.080357, 41.883926, 41.8125, 41.6875, 41.5, 41.21875, 41.09375, 41.21875, 41.388393, 41.375, 41.4375, 41.348213, 41.125, 40.883926, 40.616074, 40.098213, 39.883926, 39.875, 39.9375, 39.9375, 39.830357, 39.625, 39.375, 39.25, 39.1875, 39.142857, 39.025002, 38.928574, 38.714287, 38.6875, 38.357143, 38.125, 37.75, 37.267857, 37.232143, 37.138393, 37.334824, 37.263393, 37.21875, 37.0625, 37.0625, 37.0625, 37.0625, 37.0625, 37, 36.785713, 36.392857, 36.160713, 36.035713, 35.9375, 36, 35.8125, 35.5625, 35.375, 35.25, 35.125, 35.1875, 35.1875, 35.0625, 35.0625, 35.026787, 34.919643, 34.425594, 34.267857, 34.133926, 34.3125, 34.25, 34.125, 33.875, 33.705357, 33.535713, 33.330357, 33.196426, 33.125, 33.125, 33.0625, 33.0625, 33, 32.9375, 32.8125, 32.625, 32.375, 32.1875, 32.0625, 31.875, 31.75, 31.6875, 31.625, 31.5625, 31.5625, 31.285713, 31.026787, 31, 30.8125, 30.75, 30.625, 30.5, 30.3125, 30.375, 30.25, 30.1875, 30.1875, 29.857143, 29.267857, 29.0625, 28.9375, 29, 29.125, 29.008928, 28.660713, 28.660713, 28.6875, 28.669643, 28.5625, 28.3125, 28.026787, 28.125, 28.098213, 27.9375, 27.598213, 27.3125, 27.125, 27.035713, 26.964287, 26.9375, 26.8125, 26.75, 26.5625, 26.4375, 26.3125, 26.1875, 26.0625, 25.830357, 25.5625, 25.267857, 25.125, 25.0625, 25.0625, 25.0625, 25.0625, 25, 25, 24.8125, 24.5625, 24.339287, 24.125, 24.0625, 24.0625, 24, 23.9375, 23.75, 23.4375, 23.214287, 23.098213, 23.25, 23.5, 23.4375, 23.4375, 23.1875, 23, 22.75, 22.5, 22.25, 22, 22, 22, 22, 22, 21.9375, 21.75, 21.5, 21.25, 21, 20.8125, 20.6875, 20.5, 20.375, 20.25, 20, 19.729166, 19.571428, 19.5, 19.535713, 19.392857, 19.258928, 19.1875, 19.125, 19.035713, 18.964287, 19, 18.9375, 19, 18.8125, 18.517857, 18.3125, 18.0625, 17.9375, 17.875, 17.875, 17.875, 17.9375, 17.9375, 17.9375, 17.71875, 17.46875, 17.28125, 17.03125, 17, 16.9375, 16.9375, 16.75, 16.5625, 16.375, 16.0625, 16, 16.008928, 16.270834, 16.169643, 15.785714, 15.535714, 15.4375, 15.375, 15.3125, 15.25, 15.3125, 15.446428, 15.770834, 15.708334, 15.354167, 15.071428, 14.9375, 15.125, 15.469388, 15.678572, 15.770409, 15.698979, 15.846939, 15.974489, 16.061224, 16.142857, 16, 15.857142, 15.75, 15.607142, 15.535714, 15.484694, 15.5, 15.5, 15.571428, 15.5, 15.821428, 16.192858, 15.866072, 16.163265, 15.928572, 15.892858, 15.785714, 15.821428, 15.724489, 15.543878, 15.571428, 15.4375, 15.7, 15.571428, 15.446428, 15.3125
-10, -10, -10, -10, -10, -10, -10, -10, -10, -10, -10, 48.625, 48.416668, 48.5, 48.736607, 49.138393, 49.40625, 49.46875, 49.20536, 48.9375, 48.8125, 48.8125, 48.6875, 48.4375, 48.25, 47.75, 47.5, 47.1875, 46.9375, 46.9375, 46.9375, 46.9375, 46.78125, 46.6875, 46.375, 46.1875, 46.09375, 45.90625, 46.03125, 46.008926, 46.0625, 46.125, 45.919643, 45.497025, 45.142857, 44.955357, 44.96875, 45.03125, 45.03125, 44.90625, 44.75, 44.678574, 44.625, 44.625, 44.625, 44.553574, 44.1875, 44.125, 43.875, 43.875, 43.875, 43.8125, 43.9375, 43.9375, 43.866074, 43.470238, 43.080357, 42.767857, 42.553574, 42.357143, 42.125, 41.892857, 41.758926, 41.75, 41.5625, 41.3125, 41.15625, 41.004463, 41.049107, 41.305061, 41.375, 41.5, 41.535713, 41.3125, 41.133926, 40.803574, 40.17857, 39.946426, 39.8125, 39.875, 40, 40, 39.8125, 39.589287, 39.5, 39.395832, 39.101189, 38.891071, 38.741074, 38.526787, 38.5625, 38.294643, 38.0625, 37.8125, 37.330357, 37.375, 37.388393, 37.34375, 37.28125, 37.15625, 37, 37.0625, 37.0625, 37.0625, 37.0625, 36.991074, 36.660713, 36.392857, 36.133926, 36, 35.9375, 35.875, 35.75, 35.5, 35.3125, 35.1875, 35.0625, 35.125, 35.125, 35.0625, 35, 34.901787, 34.75, 34.383926, 34.258926, 34.133926, 34.3125, 34.3125, 34.25, 34.125, 34.080357, 33.892857, 33.497025, 33.267857, 33.125, 33.1875, 33.125, 33.125, 33.0625, 32.9375, 32.8125, 32.5625, 32.3125, 32.125, 32, 31.9375, 31.875, 31.875, 31.8125, 31.6875, 31.5625, 31.178572, 30.862499, 30.928572, 30.732143, 30.6875, 30.5625, 30.348213, 30.151787, 30.25, 30.125, 30.1875, 30.1875, 29.857143, 29.267857, 29, 28.875, 28.9375, 29.0625, 29.008928, 28.660713, 28.660713, 28.625, 28.544643, 28.375, 28.125, 27.901787, 28.0625, 28.035713, 27.8125, 27.473213, 27.25, 27.1875, 27.142857, 26.964287, 26.9375, 26.75, 26.6875, 26.4375, 26.3125, 26.125, 26.0625, 26.0625, 25.9375, 25.8125, 25.642857, 25.5, 25.571428, 25.25, 25.125, 25.125, 25.125, 25.107143, 24.791666, 24.508928, 24.276787, 24.125, 24.0625, 24.0625, 24, 23.875, 23.6875, 23.375, 23.151787, 23.098213, 23.1875, 23.375, 23.3125, 23.3125, 23.125, 23, 22.8125, 22.5625, 22.3125, 22.0625, 22, 22, 22, 22, 22, 21.8125, 21.5625, 21.3125, 21, 20.8125, 20.6875, 20.5, 20.4375, 20.375, 20.169643, 19.809523, 19.696428, 19.625, 19.580357, 19.317856, 19.3125, 19.241072, 19.25, 19.160713, 19.026787, 19, 18.9375, 19, 18.875, 18.580357, 18.375, 18.125, 18, 18, 18, 18, 18, 18, 18, 17.78125, 17.59375, 17.40625, 17.21875, 17.25, 17.1875, 17.25, 17.0625, 16.875, 16.6875, 16.375, 16.375, 16.446428, 16.770834, 16.732143, 16.916666, 16.666666, 16.080357, 16.125, 16.0625, 15.714286, 15.9375, 16.008928, 16.333334, 16.630953, 16.404762, 16.260204, 16.107143, 16.0625, 16.223213, 16.375, 16.767857, 16.772959, 16.887754, 16.758928, 16.741072, 16.8125, 16.6875, 16.625, 16.428572, 16.321428, 16.25, 16.724489, 16.642857, 16.571428, 16.607143, 16.4375, 16.867346, 17.049999, 16.989796, 17.102041, 16.928572, 16.964285, 16.928572, 16.964285, 16.758928, 16.569643, 16.785715, 16.785715, 17.049999, 16.903061, 16.867346, 16.416666, 16.416666, 16.821428, 16.969387, 17, 17, 16.928572, 17.017857, 17.107143, 17.214285, 17.125, 17.089287, 17.026192, -10, -10, -10, -10, -10, -10, -10, -10, -10, -10, -10, -10, -10, -10, -10, -10, -10, -10, -10, -10, -10, -10, -10, -10, -10, -10, -10, -10, -10, -10, -10, -10, -10, -10, -10, -10, -10, 48, 48.375, 48.357143, 48.875, 49.135418, 49.388393, 49.65625, 49.59375, 49.51786, 49.1875, 49.0625, 49, 48.75, 48.5, 48.25, 47.741074, 47.375, 47.1875, 47, 47.0625, 47.0625, 47, 46.84375, 46.75, 46.5, 46.3125, 46.15625, 45.875, 45.875, 45.875, 46, 46.125, 46.0625, 45.75893, 45.299999, 45.25893, 45.138393, 45.15625, 45.09375, 44.96875, 44.875, 44.741074, 44.580357, 44.5625, 44.5, 44.491074, 44.1875, 44.125, 43.875, 43.875, 43.875, 43.8125, 43.9375, 43.9375, 43.866074, 43.470238, 43.142857, 42.9375, 42.669643, 42.294643, 42.089287, 42, 42, 41.9375, 41.642857, 41.3125, 41.0625, 40.910713, 40.892857, 41.148811, 41.25, 41.375, 41.5625, 41.482143, 41.375, 41.116074, 40.42857, 40.133926, 40, 40.0625, 40.1875, 40.25, 40.008926, 39.547619, 39.583332, 39.75, 39.538689, 39.328571, 39.053574, 38.776787, 38.75, 38.482143, 38.25, 38.0625, 37.75, 37.8125, 37.857143, 37.75, 37.5625, 37.3125, 37.0625, 37, 37, 37, 37, 36.928574, 36.598213, 36.392857, 36.10714, 35.892857, 35.758926, 35.625, 35.5, 35.3125, 35.1875, 35.0625, 35, 35, 35, 35, 35, 34.875, 34.625, 34.375, 34.1875, 34.0625, 34.0625, 34.0625, 34, 34.0625, 34.25, 34.11607, 33.639881, 33.339287, 33.1875, 33.3125, 33.25, 33.25, 33.125, 32.875, 32.75, 32.5, 32.25, 32.125, 32, 32, 32, 32, 31.9375, 31.6875, 31.4375, 31.053572, 30.737499, 30.866072, 30.669643, 30.5625, 30.375, 30.098213, 29.964287, 30.0625, 29.9375, 30.0625, 30, 29.758928, 29.375, 29.178572, 29.0625, 29.0625, 29.0625, 29.035713, 28.830357, 28.830357, 28.75, 28.5625, 28.4375, 28.125, 27.964287, 28.0625, 27.973213, 27.75, 27.473213, 27.3125, 27.375, 27.32143, 26.964287, 26.9375, 26.625, 26.5625, 26.375, 26.25, 26.125, 26.125, 26.0625, 26, 26, 26, 25.9375, 25.8125, 25.5625, 25.3125, 25.125, 25, 24.919643, 24.604166, 24.446428, 24.3125, 24.1875, 24.125, 24.0625, 24, 23.875, 23.75, 23.5, 23.276787, 23.223213, 23.1875, 23.25, 23.1875, 23.1875, 23.0625, 22.9375, 22.8125, 22.625, 22.375, 22.1875, 22.0625, 22, 22, 22, 21.9375, 21.75, 21.5, 21.3125, 21.0625, 20.8125, 20.651787, 20.5, 20.375, 20.3125, 20.125, 19.892857, 19.875, 19.9375, 19.830357, 19.505356, 19.5, 19.366072, 19.375, 19.285713, 19.089287, 19, 18.875, 18.9375, 18.875, 18.625, 18.4375, 18.25, 18.125, 18.125, 18.214287, 18.357143, 18.357143, 18.4375, 18.285715, 18.132654, 18, 17.821428, 17.830357, 17.875, 17.8125, 17.857143, 17.541666, 17.321428, 17.1875, 17, 17.125, 17.232143, 17.413691, 17.678572, 17.571428, 17.535715, 17.448978, 17.428572, 17.234694, 17.25, 16.928572, 16.830357, 17.333334, 17.395834, 17.482992, 17.397959, 17.25, 17.464285, 17.348213, 17.5, 17.75, 17.785713, 17.875, 17.8125, 17.625, 17.5625, 17.5625, 17.625, 18.125, 18.25, 18.166666, 17.928572, 17.857143, 17.714285, 17.785715, 17.714285, 17.696428, 17.887501, 17.758928, 17.821428, 17.928572, 17.928572, 17.928572, 17.928572, 17.903061, 17.707142, 17.821428, 17.821428, 18.085714, 18.010204, 18.045918, 18.166666
-10, -10, -10, -10, -10, -10, -10, -10, -10, -10, 48, 48.25, 48.380951, 49.25, 49.456844, 49.65625, 49.84375, 49.78125, 49.803574, 49.428574, 49.125, 49, 48.6875, 48.5, 48.25, 47.741074, 47.375, 47.1875, 47, 47.0625, 47, 46.9375, 46.78125, 46.6875, 46.5625, 46.375, 46.21875, 46, 45.9375, 46, 46.0625, 46.125, 46.125, 45.866074, 45.424999, 45.32143, 45.138393, 45.09375, 45.15625, 45.21875, 45.1875, 45.053574, 44.660713, 44.5, 44.375, 44.366074, 44.125, 44.125, 43.9375, 43.9375, 43.875, 43.8125, 43.8125, 43.75, 43.616074, 43.229168, 43.080357, 42.875, 42.669643, 42.25, 42.1875, 42.125, 42.169643, 42, 41.705357, 41.375, 41.25, 41.035713, 40.955357, 41.041668, 41.0625, 41.125, 41.375, 41.410713, 41.4375, 41.25, 40.785713, 40.5625, 40.4375, 40.4375, 40.5, 40.428574, 39.967262, 39.547619, 39.520832, 39.75, 39.507439, 39.203571, 38.95536, 38.75, 38.6875, 38.482143, 38.25, 38.125, 38.0625, 38.0625, 38, 37.875, 37.6875, 37.5, 37.3125, 37.25, 37.1875, 37.125, 37.0625, 36.866074, 36.473213, 36.160713, 35.9375, 35.976189, 35.86607, 35.6875, 35.464287, 35.3125, 35.25, 35.25, 35.1875, 35.125, 35.0625, 35, 35, 34.9375, 34.75, 34.5, 34.25, 34.0625, 34, 34, 34, 34.0625, 34.25, 34.11607, 33.577381, 33.276787, 33.125, 33.25, 33.25, 33.25, 33.125, 32.875, 32.6875, 32.4375, 32.1875, 32.0625, 32, 32, 32, 32, 31.9375, 31.6875, 31.375, 30.883928, 30.549999, 30.616072, 30.419643, 30.375, 30.25, 30.035713, 29.901787, 29.875, 29.75, 29.8125, 29.6875, 29.5625, 29.4375, 29.3125, 29.3125, 29.25, 29.125, 29.0625, 28.9375, 28.9375, 28.875, 28.625, 28.4375, 28.125, 27.964287, 28, 27.848213, 27.6875, 27.517857, 27.4375, 27.625, 27.50893, 27.026787, 26.892857, 26.5625, 26.5, 26.4375, 26.3125, 26.1875, 26.1875, 26.125, 26.0625, 26.0625, 26.0625, 25.9375, 25.75, 25.5, 25.25, 25.0625, 25, 24.919643, 24.541666, 24.383928, 24.25, 24.125, 24.125, 24.0625, 24, 23.8125, 23.6875, 23.5, 23.276787, 23.285713, 23.1875, 23.125, 23.0625, 23.0625, 23, 22.875, 22.8125, 22.6875, 22.4375, 22.3125, 22.125, 22, 22, 22, 21.9375, 21.6875, 21.4375, 21.25, 21.0625, 20.9375, 20.839287, 20.75, 20.5625, 20.5, 20.25, 19.955357, 19.9375, 19.875, 19.732143, 19.487499, 19.553572, 19.491072, 19.5625, 19.535713, 19.339287, 19.25, 19.1875, 19.25, 19.25, 19.0625, 18.875, 18.75, 18.6875, 18.5, 18.901787, 19.107143, 19.107143, 19.21875, 19.791666, 19.934525, 20, 19.916666, 18.898809, 18.916666, 19.214285, 19.086735, 18.541666, 18.258928, 18, 18.071428, 18.25, 18.438776, 18.413691, 18.4375, 18.375, 18.3125, 18.413265, 18.428572, 18.234694, 18.178572, 17.90625, 17.778061, 18.678572, 18.178572, 18.709185, 18.642857, 18.464285, 18.607143, 18.678572, 18.785715, 19, 19.020407, 18.964285, 18.892857, 18.642857, 18.571428, 18.642857, 18.75, 18.928572, 19.071428, 19, 18.964285, 18.892857, 18.75, 18.821428, 18.75, 18.821428, 18.6875, 18.6875, 18.8125, 18.8125, 18.8125, 18.8125, 18.75, 18.758928, 18.942858, 19, 19.071428, 19.012501, 18.946428, 18.964285, 18.957142, 19.071428, 18.846939, 19, 19.071428, 19.107143, 19.035715, 18.928572, 18.6875, 18.5625, 18.5625, 18.526787, 18.633335, -10, -10, -10, -10, -10, -10, -10, -10, -10, -10, -10, -10, -10, -10, -10, -10, -10, -10, -10, -10, -10, -10, -10, -10, -10, -10, -10, -10, -10, -10, -10, -10, -10, -10, -10, -10, -10, 48, 48.3125, 48.589287, 49.53125, 49.831844, 49.96875, 50.03125, 49.90625, 49.928574, 49.544643, 49.125, 49, 48.6875, 48.5625, 48.3125, 47.866074, 47.4375, 47.25, 47, 47, 46.9375, 46.875, 46.78125, 46.6875, 46.625, 46.5, 46.40625, 46.1875, 46.0625, 46.125, 46.0625, 46.1875, 46.1875, 45.928574, 45.612499, 45.553574, 45.325893, 45.28125, 45.40625, 45.5, 45.53125, 45.334824, 44.816963, 44.5625, 44.3125, 44.3125, 44.1875, 44.125, 44.0625, 43.9375, 43.8125, 43.75, 43.6875, 43.607143, 43.4375, 43.3125, 43.125, 42.9375, 42.607143, 42.125, 42.0625, 42.0625, 42.169643, 42, 41.767857, 41.4375, 41.3125, 41.098213, 40.892857, 40.916668, 40.9375, 41, 41.1875, 41.223213, 41.25, 41.125, 40.892857, 40.75, 40.6875, 40.6875, 40.75, 40.616074, 40.154762, 39.672619, 39.583332, 39.875, 39.650295, 39.446426, 39.098213, 38.9375, 38.6875, 38.5, 38.375, 38.3125, 38.410713, 38.375, 38.3125, 38.116074, 37.729168, 37.580357, 37.4375, 37.4375, 37.375, 37.25, 37.125, 36.803574, 36.366074, 35.934525, 35.75893, 35.913689, 35.964283, 35.8125, 35.651787, 35.5, 35.4375, 35.5, 35.375, 35.25, 35.125, 35, 35, 34.9375, 34.75, 34.5, 34.25, 34.0625, 34, 34, 34, 34.0625, 34.125, 33.955357, 33.559525, 33.330357, 33.25, 33.375, 33.3125, 33.25, 33.125, 32.875, 32.625, 32.4375, 32.1875, 32.0625, 32.0625, 32, 31.9375, 31.875, 31.75, 31.5, 31.1875, 30.758928, 30.424999, 30.428572, 30.294643, 30.25, 30.1875, 30.035713, 29.901787, 29.8125, 29.6875, 29.75, 29.625, 29.5625, 29.4375, 29.3125, 29.3125, 29.25, 29.1875, 29.125, 29.0625, 29.0625, 28.9375, 28.625, 28.4375, 28.1875, 28.0625, 28.0625, 27.8125, 27.6875, 27.625, 27.625, 27.8125, 27.660715, 27.1875, 26.892857, 26.5, 26.375, 26.3125, 26.25, 26.1875, 26.1875, 26.1875, 26.125, 26.125, 26.125, 25.875, 25.625, 25.375, 25.125, 25, 25, 24.919643, 24.541666, 24.446428, 24.375, 24.25, 24.25, 24.125, 24, 23.8125, 23.75, 23.625, 23.375, 23.3125, 23.125, 23, 23, 23, 23, 22.875, 22.875, 22.8125, 22.5625, 22.4375, 22.1875, 22, 21.9375, 21.9375, 21.875, 21.625, 21.4375, 21.25, 21.0625, 21, 20.964287, 20.9375, 20.875, 20.8125, 20.625, 20.3125, 20.1875, 20.303572, 20.089287, 19.862499, 19.892857, 19.928572, 20.107143, 20.1875, 20.0625, 19.875, 19.875, 19.9375, 19.734694, 19.607143, 19.428572, 19.651787, 19.969387, 20.25, 20.2449, 20.408163, 20.408163, 20.535715, 20.678572, 20.836735, 20.928572, 20.892857, 20.803572, 20.75, 20.5, 20.336735, 20.011904, 19.345238, 19.125, 19.125, 19.291666, 19.612244, 19.413265, 19.142857, 19.178572, 19.285715, 19.205357, 19.132654, 19.020407, 19.035715, 19.525511, 19.714285, 19.821428, 19.875, 19.780613, 19.642857, 19.464285, 19.607143, 19.678572, 19.821428, 20.071428, 20.142857, 20.071428, 20, 19.75, 19.607143, 19.607143, 19.4375, 19.642857, 19.958334, 19.991072, 19.714285, 19.875, 20, 20, 19.857143, 19.857143, 19.785715, 19.785715, 19.857143, 20, 20.107143, 20.035715, 19.964285, 19.75, 20, 20.071428, 20.142857, 20.142857, 20.142857, 19.955357, 19.775
-10, -10, -10, -10, -10, -10, -10, -10, -10, -10, -10, 48.6875, 49.005955, 49.96875, 50.300594, 50.3125, 50.25, 50, 50, 49.732143, 49.25, 49.125, 48.678574, 48.4375, 48.25, 47.803574, 47.4375, 47.1875, 46.964287, 47.107143, 47.178574, 47.25, 47.1875, 47.125, 47.0625, 46.875, 46.75, 46.4375, 46.1875, 46.25, 46.125, 46.25, 46.25, 45.991074, 45.666069, 45.428574, 45.232143, 45.125, 45.1875, 45.28125, 45.28125, 45.09375, 44.816963, 44.625, 44.4375, 44.3125, 44.133926, 43.791668, 43.8125, 43.794643, 43.75, 43.75, 43.625, 43.482143, 43.25, 43.125, 43, 42.8125, 42.553574, 42.1875, 42.0625, 42.125, 42.232143, 42.035713, 41.723213, 41.383926, 41.1875, 41.0625, 41, 41, 40.9375, 41, 41.035713, 40.92857, 40.883926, 40.875, 40.875, 40.875, 40.9375, 40.9375, 40.9375, 40.741074, 40.342262, 39.833332, 39.583332, 39.916668, 39.941963, 39.589287, 39.294643, 38.991074, 38.5625, 38.4375, 38.3125, 38.375, 38.535713, 38.5625, 38.5625, 38.357143, 37.854168, 37.767857, 37.625, 37.6875, 37.5625, 37.375, 37.1875, 36.875, 36.553574, 36.059525, 35.88393, 35.913689, 35.964283, 35.875, 35.714287, 35.5625, 35.5625, 35.5625, 35.4375, 35.3125, 35.125, 35, 35, 34.9375, 34.75, 34.5, 34.25, 34.0625, 34, 34, 34, 34, 34, 33.848213, 33.642857, 33.508926, 33.4375, 33.5, 33.375, 33.25, 33.125, 32.9375, 32.75, 32.5625, 32.3125, 32.125, 32.0625, 32, 31.9375, 31.8125, 31.6875, 31.4375, 31.0625, 30.705357, 30.4375, 30.3125, 30.25, 30.267857, 30.3125, 30, 29.979166, 29.8125, 29.642857, 29.75, 29.625, 29.616072, 29.291666, 29.205357, 29.1875, 29.1875, 29.1875, 29.125, 29.0625, 29.0625, 29.0625, 28.785713, 28.517857, 28.258928, 28.0625, 28.0625, 27.875, 27.8125, 27.75, 27.6875, 27.75, 27.482143, 26.895834, 26.611607, 26.21875, 26.21875, 26.25, 26.1875, 26.1875, 26.125, 26.1875, 26.25, 26.232143, 26.041666, 25.696428, 25.4375, 25.25, 25.0625, 24.9375, 24.875, 24.8125, 24.625, 24.625, 24.625, 24.5, 24.4375, 24.25, 24.0625, 23.875, 23.875, 23.8125, 23.625, 23.5625, 23.3125, 23.125, 23.0625, 23, 23, 22.875, 22.875, 22.8125, 22.625, 22.5, 22.25, 22.0625, 21.9375, 21.9375, 21.875, 21.6875, 21.5, 21.3125, 21.1875, 21.1875, 21.321428, 21.3125, 21.3125, 21.3125, 21.25, 21.107143, 20.9375, 20.991072, 20.794643, 20.6875, 20.589287, 20.6875, 20.857143, 21.214285, 21.25, 21.142857, 21.142857, 21.214285, 21.464285, 21.375, 21.25, 21.030613, 21.2551, 21.357143, 21.551022, 21.632654, 21.632654, 21.714285, 21.75, 21.638393, 21.736607, 21.8125, 21.867346, 21.857143, 21.714285, 21.561224, 21.309523, 21.214285, 21.041666, 20.833334, 20.75, 20.285713, 20.017857, 19.955357, 19.9375, 20.125, 20.3125, 20.851191, 20.866072, 20.9375, 20.739796, 20.719387, 20.857143, 20.75, 20.765306, 20.678572, 20.375, 20.5, 20.5625, 20.625, 20.883928, 21.075001, 20.883928, 21.010204, 20.75, 20.642857, 20.4375, 20.4375, 20.517857, 20.833334, 21.061224, 21.333334, 21.071428, 20.964285, 20.928572, 20.892857, 20.892857, 20.6875, 21, 21, 21.214285, 21.214285, 21.142857, 21.142857, 21, 21.071428, 21.071428, 21, 20.928572, 20.892857, 20.841837, 20.635714, 20.625, 20.775511, 21.015306, 21.132654, 21.178572, 21.369049, 21.476191, 21.402779, 21.013887, 20.653061, 20.642857, 20.714285, -10, -10, -10, -10, -10, -10, -10, -10, -10, -10, -10, -10, -10, -10, -10, -10, -10, -10, -10, -10, -10, -10, -10, -10, -10, -10, -10, -10, -10, -10, -10, -10, -10, -10, -10, -10, -10, -10, 48.9375, 49.232143, 49.90625, 50.36607, 50.5, 50.5, 50.25, 50.125, 49.794643, 49.25, 49.125, 48.678574, 48.4375, 48.25, 47.8125, 47.5, 47.080357, 46.901787, 47.044643, 47.178574, 47.25, 47.294643, 47.125, 47.125, 46.875, 46.75, 46.5, 46.25, 46.3125, 46.1875, 46.25, 46.25, 46.0625, 45.928574, 45.5625, 45.375, 45.142857, 45.1875, 45.21875, 45.21875, 45.09375, 44.924107, 44.8125, 44.6875, 44.5, 44.321426, 43.898811, 43.776787, 43.794643, 43.625, 43.625, 43.4375, 43.294643, 43.0625, 43, 42.875, 42.625, 42.4375, 42.1875, 42.0625, 42.125, 42.107143, 41.910713, 41.642857, 41.321426, 41.1875, 41.0625, 41, 41, 40.9375, 41.0625, 41.098213, 40.973213, 40.821426, 40.8125, 40.8125, 40.9375, 41, 41, 41, 40.803574, 40.520832, 40.375, 40.125, 40.25, 40.120537, 39.360115, 39.035713, 38.678574, 38.3125, 38.25, 38.1875, 38.375, 38.598213, 38.75, 38.8125, 38.544643, 38.041668, 37.955357, 37.8125, 37.9375, 37.8125, 37.625, 37.375, 37.125, 36.785713, 36.077381, 35.919643, 36.020832, 36.142857, 36.125, 35.901787, 35.6875, 35.6875, 35.625, 35.5, 35.375, 35.125, 35, 35, 34.9375, 34.75, 34.5, 34.3125, 34.125, 34.0625, 34.0625, 34, 34, 33.9375, 33.8125, 33.75, 33.6875, 33.625, 33.5625, 33.375, 33.1875, 33.0625, 32.9375, 32.75, 32.5625, 32.3125, 32.125, 32.0625, 32, 31.9375, 31.75, 31.5625, 31.3125, 30.875, 30.517857, 30.25, 30.125, 30.1875, 30.330357, 30.4375, 30.125, 30.041666, 29.8125, 29.642857, 29.6875, 29.5625, 29.553572, 29.229166, 29.142857, 29.125, 29.125, 29.0625, 28.9375, 28.875, 28.875, 29, 28.910713, 28.642857, 28.383928, 28.125, 28, 27.8125, 27.75, 27.625, 27.5625, 27.625, 27.339285, 26.860121, 26.611607, 26.21875, 26.21875, 26.1875, 26.125, 26.125, 26.0625, 26.1875, 26.3125, 26.267857, 25.934523, 25.589285, 25.375, 25.25, 25.125, 25.0625, 25, 25, 24.875, 24.875, 24.8125, 24.625, 24.5, 24.25, 24.0625, 23.875, 23.875, 23.8125, 23.6875, 23.6875, 23.4375, 23.25, 23.125, 23, 23, 22.9375, 23, 22.9375, 22.8125, 22.75, 22.5625, 22.5, 22.375, 22.3125, 22.25, 22.0625, 21.9375, 21.75, 21.625, 21.6875, 21.857143, 21.875, 22.107143, 22.107143, 22.142857, 22.086735, 21.964285, 22.132654, 22.086735, 22.071428, 21.887756, 21.928572, 22.015306, 22.142857, 22.285715, 22.214285, 22.214285, 22.285715, 22.2551, 22.285715, 22.214285, 22.2449, 22.5051, 22.571428, 22.75, 22.714285, 22.714285, 22.53125, 22.53125, 22.53125, 22.611607, 22.75, 22.6875, 22.65625, 22.46875, 22.571428, 22.367346, 22.020407, 21.795918, 21.5, 21.428572, 21.1875, 20.87755, 21.0625, 20.955357, 21.214285, 21.321428, 21.515306, 21.589285, 21.625, 21.543367, 21.308037, 21.482143, 21.5625, 21.6875, 21.625, 21.785715, 21.642857, 21.535715, 21.375, 21.831633, 22.243879, 22.081633, 22.081633, 21.821428, 21.678572, 21.688776, 21.764286, 21.673468, 21.962585, 21.989796, 22.071428, 22.071428, 22.071428, 22.071428, 22.142857, 22.142857, 22.142857, 22.285715, 22.178572, 22.285715, 22.285715, 22.214285, 22.321428, 22.168367, 22, 21.8125, 21.6875, 21.75, 21.535715, 21.540815, 21.641668
-10, -10, -10, -10, -10, -10, -10, -10, -10, -10, -10, 49.1875, 49.458332, 49.84375, 50.401787, 50.5625, 50.6875, 50.5, 50.3125, 49.928574, 49.392857, 49.1875, 48.741074, 48.4375, 48.25, 47.875, 47.553574, 46.934525, 46.723213, 46.794643, 46.928574, 47.0625, 47.169643, 47.0625, 47.125, 46.9375, 46.8125, 46.5625, 46.3125, 46.25, 46.125, 46.1875, 46.1875, 46.0625, 45.991074, 45.6875, 45.5625, 45.330357, 45.25, 45.15625, 45.09375, 45.03125, 45.03125, 45, 44.875, 44.625, 44.383926, 43.898811, 43.776787, 43.794643, 43.6875, 43.75, 43.5625, 43.419643, 43.1875, 43.0625, 42.9375, 42.75, 42.5, 42.25, 42.0625, 41.9375, 41.875, 41.723213, 41.455357, 41.258926, 41.125, 41.0625, 41, 41, 41, 41.1875, 41.160713, 41, 40.821426, 40.75, 40.8125, 40.9375, 41, 41, 41, 40.875, 40.8125, 40.6875, 40.5, 40.5625, 40.392857, 39.380951, 39, 38.553574, 38.1875, 38.1875, 38.1875, 38.4375, 38.660713, 38.8125, 38.875, 38.607143, 38.041668, 37.830357, 37.6875, 37.8125, 37.8125, 37.75, 37.5625, 37.4375, 37.160713, 36.497025, 36.169643, 36, 36.035713, 36, 35.8125, 35.5625, 35.5, 35.375, 35.3125, 35.25, 35.0625, 35, 34.9375, 34.8125, 34.5625, 34.375, 34.3125, 34.25, 34.25, 34.1875, 34, 33.875, 33.75, 33.6875, 33.75, 33.75, 33.75, 33.625, 33.375, 33.1875, 33.0625, 32.9375, 32.8125, 32.625, 32.375, 32.1875, 32.0625, 32, 31.9375, 31.6875, 31.5, 31.25, 30.8125, 30.517857, 30.25, 30.1875, 30.3125, 30.455357, 30.625, 30.3125, 30.229166, 30, 29.660713, 29.625, 29.5, 29.491072, 29.229166, 29.142857, 29, 29, 28.9375, 28.875, 28.875, 28.8125, 28.875, 28.785713, 28.580357, 28.383928, 28.1875, 28.0625, 27.8125, 27.6875, 27.5, 27.375, 27.375, 27.151785, 26.797621, 26.71875, 26.46875, 26.53125, 26.375, 26.020834, 25.955357, 25.875, 26.0625, 26.3125, 26.241072, 25.836309, 25.651785, 25.4375, 25.375, 25.25, 25.125, 25, 25, 24.9375, 24.9375, 24.8125, 24.625, 24.4375, 24.1875, 24.0625, 23.9375, 23.9375, 23.875, 23.8125, 23.8125, 23.625, 23.5, 23.375, 23.25, 23.3125, 23.3125, 23.375, 23.3125, 23.1875, 23.1875, 23.125, 23.125, 23.25, 23, 22.875, 22.75, 22.625, 22.4375, 22.571428, 22.571428, 22.693878, 22.714285, 22.625, 22.6875, 22.875, 22.919643, 23.142857, 23.116072, 23.346939, 23.321428, 23.12245, 23.071428, 22.794643, 22.875, 23, 23, 23.0625, 23.1875, 22.969387, 23.1875, 23.125, 23.151787, 23.348213, 23.4375, 23.5625, 23.642857, 23.571428, 23.5, 23.428572, 23.428572, 23.448978, 23.571428, 23.5, 23.352678, 23.356251, 23.227678, 23.080357, 22.767857, 22.696428, 22.163265, 22.205357, 22.142857, 22.380951, 22.270407, 22.428572, 22.515306, 22.035715, 22.383928, 22.4375, 22.4375, 22.132654, 21.959185, 22.357143, 22.75, 23, 23.035715, 23.071428, 22.928572, 22.458334, 22.214285, 22.510204, 23.182144, 23.224489, 23.153061, 22.964285, 22.857143, 22.974489, 23.157145, 22.948978, 22.842262, 22.803572, 22.8125, 22.875, 22.9375, 23.214285, 23.392857, 23.392857, 23.357143, 23.392857, 23.178572, 23.142857, 22.9375, 23.071428, 23.214285, 23.168367, 22.8125, 22.875, 22.428572, 22.8125, 23.375, 23.505951, 23.583334, 23.357143, 23.285715, 23.044643, 22.775511, 23.0625, 23.026787, 23.107143, 22.958334, 22.666666, 22.508928, 22.619047, 22.200001, -10, -10, -10, -10, -10, -10, -10, -10, -10, -10, -10, -10, -10, -10, -10, -10, -10, -10, -10, -10, -10, -10, -10, -10, -10, -10, -10, -10, -10, -10, -10, -10, -10, -10, -10, -10, -10, -10, 49.25, 49.583332, 49.982143, 50.526787, 50.75, 50.803574, 50.416668, 50.133926, 49.6875, 49.267857, 49.0625, 48.616074, 48.3125, 48.1875, 47.8125, 47.544643, 46.809525, 46.660713, 46.732143, 46.897324, 47.03125, 47.138393, 47.03125, 47.125, 46.9375, 46.75, 46.5, 46.25, 46.125, 46.0625, 46.0625, 46.0625, 45.9375, 45.866074, 45.705357, 45.791668, 45.549107, 45.40625, 45.15625, 45, 44.9375, 45, 44.9375, 44.875, 44.6875, 44.446426, 44.023811, 43.839287, 43.857143, 43.8125, 43.875, 43.625, 43.4375, 43.25, 43.0625, 42.928574, 42.479168, 42.196426, 42, 41.9375, 41.8125, 41.75, 41.535713, 41.205357, 41.071426, 41, 41, 41, 41, 41, 41.1875, 41.223213, 41.0625, 40.883926, 40.8125, 40.8125, 40.9375, 40.9375, 40.875, 40.8125, 40.75, 40.75, 40.625, 40.392857, 40.3125, 40.107143, 39.238094, 38.866074, 38.428574, 38.0625, 38.125, 38.125, 38.3125, 38.375, 38.375, 38.4375, 38.241074, 37.9375, 37.75, 37.5625, 37.625, 37.625, 37.6875, 37.625, 37.625, 37.419643, 36.892857, 36.419643, 36.125, 36, 35.9375, 35.75, 35.5, 35.4375, 35.25, 35.1875, 35.1875, 35, 35, 34.875, 34.6875, 34.4375, 34.25, 34.3125, 34.375, 34.375, 34.3125, 34, 33.75, 33.625, 33.5625, 33.625, 33.625, 33.625, 33.5, 33.3125, 33.1875, 33.0625, 32.9375, 32.875, 32.625, 32.375, 32.1875, 32, 32, 32, 31.8125, 31.625, 31.375, 30.9375, 30.642857, 30.4375, 30.4375, 30.5625, 30.642857, 30.8125, 30.4375, 30.291666, 30.0625, 29.598213, 29.5, 29.4375, 29.428572, 29.229166, 29.205357, 29, 29, 28.9375, 28.875, 28.875, 28.75, 28.75, 28.660713, 28.392857, 28.258928, 28.125, 27.9375, 27.6875, 27.5, 27.25, 27.125, 27.125, 26.964285, 26.672621, 26.71875, 26.59375, 26.71875, 26.5625, 26.145834, 26.017857, 25.875, 26, 26.25, 26.116072, 25.648809, 25.589285, 25.4375, 25.5, 25.4375, 25.25, 25.0625, 25, 25, 25, 24.8125, 24.6875, 24.5, 24.3125, 24.375, 24.375, 24.375, 24.4375, 24.4375, 24.4375, 24.3125, 24.125, 23.9375, 23.75, 23.8125, 23.875, 23.910713, 23.705357, 23.642857, 23.6875, 23.964285, 24.107143, 24.214285, 24.214285, 24.142857, 24.071428, 23.892857, 23.714285, 23.642857, 23.678572, 23.336735, 23.392857, 23.464285, 23.75, 23.8125, 23.875, 24.214285, 24.392857, 24.535715, 24.428572, 24.285715, 24, 23.875, 23.678572, 23.857143, 23.918367, 24.1875, 24.1875, 24.375, 24.142857, 24.071428, 24.214285, 24.321428, 24.428572, 24.5, 24.1875, 24.1875, 24.1875, 24.1875, 24.5, 24.267857, 24.375, 24.3125, 24.352678, 24.356251, 24.165178, 23.892857, 23.482143, 23.545918, 23.589285, 23.306122, 23.413265, 23.397959, 23.484694, 23.642857, 23.658163, 23.791666, 23.276787, 23.3125, 23.3125, 23.875, 23.892859, 23.729593, 23.892857, 24.035715, 24.071428, 24.107143, 23.964285, 24.041666, 24.083334, 24.172621, 24.236736, 24.112246, 24.040817, 23.928572, 23.857143, 24.010204, 24.300001, 24.153061, 24.188776, 24.107143, 23.5, 24.178572, 24.214285, 24.357143, 24.464285, 24.392857, 24.357143, 24.0625, 23.875, 23.875, 23.875, 23.875, 24, 23.928572, 23.928572, 23.964285, 24.083334, 24, 24.142857, 24.2551, 24.392857
-10, -10, -10, -10, -10, -10, -10, -10, -10, -10, -10, 49.25, 49.583332, 49.919643, 50.464287, 50.75, 50.866074, 50.532738, 50.050594, 49.5, 49.017857, 48.8125, 48.4375, 48.25, 48.0625, 47.75, 47.419643, 46.809525, 46.696426, 46.625, 46.71875, 46.78125, 46.950893, 46.90625, 47.0625, 46.9375, 46.6875, 46.4375, 46.1875, 46, 46, 46, 45.928574, 45.604168, 45.580357, 45.580357, 45.729168, 45.674107, 45.504463, 45.183037, 45.0625, 44.9375, 44.9375, 44.8125, 44.75, 44.625, 44.5, 44.357143, 44.089287, 44, 43.875, 43.875, 43.625, 43.4375, 43.25, 43.0625, 42.928574, 42.541668, 42.321426, 42.116074, 41.9375, 41.875, 41.723213, 41.5625, 41.375, 41.1875, 41.125, 41.0625, 41, 41, 41.0625, 41.1875, 41.25, 41.232143, 41, 40.9375, 40.875, 40.9375, 40.9375, 40.875, 40.8125, 40.8125, 40.75, 40.625, 40.392857, 40.1875, 39.919643, 39.104164, 38.669643, 38.3125, 38, 38, 38, 38, 38.0625, 38.0625, 38.0625, 38, 37.8125, 37.5625, 37.4375, 37.375, 37.4375, 37.625, 37.625, 37.625, 37.375, 36.830357, 36.357143, 36.125, 36, 35.9375, 35.8125, 35.5625, 35.4375, 35.25, 35.0625, 35, 34.8125, 34.8125, 34.6875, 34.5, 34.3125, 34.125, 34.3125, 34.4375, 34.4375, 34.375, 33.9375, 33.625, 33.5, 33.4375, 33.5, 33.4375, 33.267857, 33.125, 33, 33, 33, 32.9375, 32.8125, 32.5625, 32.3125, 32.125, 32, 32, 32, 31.875, 31.6875, 31.4375, 31.0625, 30.767857, 30.625, 30.625, 30.75, 30.6875, 30.75, 30.625, 30.375, 30.1875, 29.705357, 29.4375, 29.4375, 29.375, 29.4375, 29.375, 29.125, 29.0625, 28.9375, 28.875, 28.875, 28.6875, 28.5625, 28.375, 28.1875, 28.125, 28.0625, 27.9375, 27.625, 27.4375, 27.25, 27.125, 27.1875, 27.098213, 26.964287, 27, 26.9375, 26.9375, 26.8125, 26.369049, 26.098213, 25.946428, 25.9375, 26.125, 25.946428, 25.607143, 25.642857, 25.5625, 25.6875, 25.75, 25.625, 25.5, 25.285715, 25.285715, 25.285715, 25.035715, 24.892857, 24.9375, 24.75, 24.9375, 25, 25.0625, 25.1875, 25.1875, 25.125, 25.178572, 24.928572, 24.678572, 24.571428, 24.642857, 24.785715, 24.723213, 24.580357, 24.517857, 24.428572, 24.8125, 24.9375, 25.0625, 25.214285, 25.107143, 25.071428, 25, 24.928572, 24.928572, 24.928572, 25.083334, 25.083334, 25, 24.714285, 24.785715, 24.857143, 25.107143, 25.357143, 25.464285, 25.321428, 25.142857, 25.035715, 24.928572, 25.333334, 25.541666, 25.642859, 25.464285, 25.464285, 25.357143, 25.321428, 24.714285, 25.125, 25.1875, 25.25, 25.3125, 24.928572, 25.1875, 25.1875, 25.25, 25.571428, 25.5, 25.428572, 25.357143, 25.349489, 25.460714, 25.242346, 24.767857, 24.612244, 24.612244, 24.5051, 24.37755, 24.37755, 24.191963, 24.448978, 24.775511, 24.806122, 24.678572, 24.770407, 24.811224, 24.857143, 24.892857, 24.836735, 24.846939, 24.928572, 24.8125, 24.875, 24.875, 25, 24.928572, 24.928572, 25.035715, 24.982143, 24.9375, 24.875, 24.75, 24.928572, 24.883928, 25.200001, 25.326529, 25.326529, 25.214285, 25.25, 25.178572, 25.142857, 25.25, 25.125, 25.0625, 25, 24.875, 24.75, 24.6875, 24.928572, 24.928572, 24.8125, 24.803572, 24.857143, 25, 25.0051, 24.776787, 24.9375, 24.973213, 25.125, 25.125, 25.214285, 25.25, 25.285715, 25.25, 25.178572, 25.107143, 24.892857, 25.041666, 25.041666, 25, -10, -10, -10, -10, -10, -10, -10, -10, -10, -10, -10, -10, -10, -10, -10, -10, -10, -10, -10, -10, -10, -10, -10, -10, -10, -10, -10, -10, -10, -10, -10, -10, -10, -10, -10, -10, -10, -10, -10, 49.375, 49.666668, 49.982143, 50.450893, 50.6875, 50.741074, 50.345238, 49.831844, 49.3125, 48.892857, 48.75, 48.428574, 48.041668, 47.821426, 47.5625, 47.357143, 46.916668, 46.821426, 46.6875, 46.71875, 46.78125, 46.84375, 46.90625, 47, 47, 46.75, 46.5, 46.25, 46, 46, 46, 45.928574, 45.541668, 45.392857, 45.330357, 45.479168, 45.53125, 45.441963, 45.183037, 45.0625, 44.875, 44.8125, 44.625, 44.5625, 44.5, 44.3125, 44.142857, 44, 43.875, 43.9375, 43.9375, 43.6875, 43.4375, 43.1875, 43, 42.928574, 42.604168, 42.330357, 41.907738, 41.6875, 41.5625, 41.598213, 41.5625, 41.5, 41.375, 41.25, 41.125, 41, 41.0625, 41.1875, 41.25, 41.25, 41.1875, 41, 40.875, 40.8125, 40.8125, 40.8125, 40.8125, 40.8125, 40.75, 40.625, 40.4375, 40.142857, 39.875, 39.616074, 39.020832, 38.616074, 38.3125, 38, 37.9375, 37.875, 37.75, 37.75, 37.75, 37.75, 37.8125, 37.625, 37.375, 37.25, 37.125, 37.25, 37.5, 37.5625, 37.5625, 37.330357, 36.875, 36.473213, 36.25, 36.0625, 36, 35.875, 35.625, 35.4375, 35.25, 35.0625, 35.0625, 34.919643, 34.8125, 34.625, 34.4375, 34.3125, 34.125, 34.3125, 34.4375, 34.5, 34.4375, 34.0625, 33.6875, 33.4375, 33.3125, 33.3125, 33.1875, 33.017857, 32.9375, 32.875, 32.9375, 33, 33, 32.875, 32.625, 32.375, 32.125, 32, 32, 32, 31.9375, 31.75, 31.5, 31.1875, 30.892857, 30.8125, 30.8125, 30.9375, 30.785713, 30.705357, 30.571428, 30.3125, 30.25, 29.830357, 29.625, 29.625, 29.4375, 29.4375, 29.375, 29.125, 29.125, 29.0625, 29, 29, 28.8125, 28.625, 28.3125, 28.125, 28.0625, 28, 28, 27.75, 27.625, 27.5, 27.3125, 27.25, 27.125, 27, 27, 27.0625, 27.0625, 27.0625, 26.744049, 26.535713, 26.446428, 26.214285, 26.5, 26.147959, 25.923471, 26.107143, 25.987499, 26.241072, 26.303572, 26.3125, 26.1875, 26.583334, 26.583334, 26.5, 26.416666, 26.375, 26.107143, 26.040815, 26.091837, 26.081633, 26.071428, 26.214285, 26.214285, 26.142857, 26.071428, 25.857143, 25.4375, 25.375, 25.4375, 25.5625, 25.862244, 25.698978, 25.663265, 25.958334, 25.857143, 25.928572, 25.875, 25.875, 25.8125, 25.8125, 25.964285, 25.928572, 25.928572, 25.964285, 26, 26, 26, 25.892857, 25.625, 25.6875, 25.8125, 26.0625, 26.1875, 26.125, 25.785715, 25.714285, 25.916666, 26.428572, 26.571428, 26.586735, 26.5, 26.392857, 26.214285, 26.178572, 26.375, 26.321428, 26.392857, 26.5, 26.428572, 26.541666, 26.357143, 26.321428, 26.392857, 26.428572, 26.285715, 26.214285, 26.25, 26.326529, 26.262501, 26.326529, 25.883928, 25.816328, 25.625, 25.629463, 25.428572, 25.12755, 25.333334, 25.12755, 25.794643, 25.830357, 25.6875, 26.040817, 26.025511, 26.035715, 26.071428, 26.071428, 25.75, 25.8125, 25.875, 25.9375, 25.9375, 25.875, 25.8125, 25.75, 25.8125, 25.875, 25.875, 26, 25.8125, 25.875, 26, 26.1875, 26.321428, 26.285715, 26.25, 26.142857, 26.178572, 25.875, 25.9375, 26, 26, 25.9375, 25.75, 25.6875, 25.826529, 25.816328, 25.857143, 25.785715, 25.696428, 25.825001, 25.821428, 25.857143, 25.714287, 25.75, 25.6875, 25.8125
-10, -10, -10, -10, -10, -10, -10, -10, -10, -10, -10, 49.5, 49.750004, 50.044643, 50.46875, 50.625, 50.616074, 50.157738, 49.581844, 49.0625, 48.714287, 48.625, 48.366074, 48.041668, 47.821426, 47.5, 47.303574, 47.0625, 47, 46.9375, 46.96875, 46.96875, 46.96875, 46.96875, 46.9375, 46.9375, 46.6875, 46.4375, 46.25, 46, 46, 46, 45.928574, 45.479168, 45.267857, 45.142857, 45.166668, 45.28125, 45.191963, 44.995537, 45.0625, 44.875, 44.705357, 44.446426, 44.4375, 44.410713, 44.142857, 43.964287, 43.8125, 43.75, 43.8125, 43.8125, 43.5625, 43.3125, 43.125, 43, 42.866074, 42.479168, 42.205357, 41.782738, 41.625, 41.5625, 41.660713, 41.6875, 41.6875, 41.625, 41.4375, 41.25, 41.125, 41.1875, 41.375, 41.375, 41.3125, 41.1875, 40.9375, 40.875, 40.75, 40.6875, 40.625, 40.5625, 40.5, 40.4375, 40.3125, 40.044643, 39.692856, 39.553574, 39.366074, 39.116074, 38.604168, 38.321426, 38, 37.8125, 37.6875, 37.5625, 37.5625, 37.625, 37.625, 37.6875, 37.5, 37.3125, 37.1875, 37, 37.125, 37.375, 37.419643, 37.229168, 37.035713, 36.6875, 36.517857, 36.375, 36.1875, 36.125, 36, 35.75, 35.5625, 35.3125, 35.125, 35.1875, 35.044643, 34.9375, 34.75, 34.5625, 34.4375, 34.1875, 34.25, 34.25, 34.375, 34.348213, 33.955357, 33.633926, 33.375, 33.25, 33.1875, 33.0625, 32.892857, 32.875, 32.875, 32.9375, 33, 32.9375, 32.75, 32.5, 32.25, 32.0625, 31.9375, 31.9375, 31.875, 31.8125, 31.625, 31.375, 31.1875, 31, 31, 30.9375, 30.9375, 30.723213, 30.580357, 30.508928, 30.3125, 30.3125, 30, 29.8125, 29.8125, 29.625, 29.625, 29.5625, 29.3125, 29.25, 29.125, 29, 29, 28.875, 28.75, 28.4375, 28.25, 28.1875, 28.0625, 28.0625, 27.875, 27.75, 27.6875, 27.5, 27.375, 27.25, 27.125, 27.1875, 27.25, 27.25, 27.375, 27.410713, 27.267857, 27.367346, 27.416666, 27, 27.25, 27.166666, 26.607143, 26.487499, 26.803572, 27.035713, 27.428572, 27.464285, 27.5, 27.428572, 27.285715, 27.25, 27.25, 27.321428, 27.362244, 27.341837, 27.071428, 27, 27.0625, 27, 26.875, 26.8125, 26.625, 26.4375, 26.571428, 26.571428, 26.5, 26.598213, 26.724489, 26.724489, 26.785715, 26.821428, 26.857143, 26.6875, 26.75, 26.8125, 26.8125, 26.8125, 26.75, 26.928572, 26.8125, 26.9375, 26.9375, 26.875, 26.857143, 26.87245, 26.87245, 26.75, 26.875, 26.9375, 27.107143, 27.291666, 27.291666, 27.291666, 27.125, 27.25, 27.232143, 27.1875, 27.125, 27, 26.785715, 27.357143, 27.464285, 27.535715, 27.607143, 27.535715, 27.5, 27.464285, 27.428572, 27.25, 27.25, 26.946428, 26.910715, 26.982143, 27.34375, 27.3125, 27.392857, 27.178572, 26.836735, 26.780613, 26.785715, 26.9375, 27.0625, 27.0625, 27, 26.928572, 26.969387, 26.857143, 27.061224, 27.025511, 26.875, 26.9375, 26.9375, 26.875, 27.107143, 27.071428, 27.142857, 27.071428, 26.928572, 26.857143, 26.785715, 26.857143, 27, 27.071428, 27.071428, 27.071428, 27.071428, 27.142857, 27.178572, 27.142857, 26.9375, 26.9375, 26.875, 26.875, 26.75, 26.75, 26.928572, 26.964285, 26.964285, 26.857143, 26.857143, 26.598213, 26.651787, 26.6875, 26.6875, 27.045918, 27.157145, 27.081633, 27.051022, 26.887756, 26.857143, 26.857143, 26.75, 26.8125, 26.8125, 26.8125, 26.8125, 26.8125, 27.071428, 27.071428, 27, 26.75, 26.625, 26.583332, -10, -10, -10, -10, -10, -10, -10, -10, -10, -10, -10, -10, -10, -10, -10, -10, -10, -10, -10, -10, -10, -10, -10, -10, -10, -10, -10, -10, -10, -10, -10, -10, -10, -10, -10, -10, -10, -10, -10, 49.5, 49.750004, 49.9375, 50.245537, 50.375, 50.375, 50.178574, 49.635418, 49.125, 48.776787, 48.6875, 48.428574, 48.104168, 47.821426, 47.428574, 47.125, 47.0625, 47, 47.0625, 47.0625, 47.0625, 47, 47, 46.9375, 46.9375, 46.6875, 46.4375, 46.25, 46, 46, 46, 45.928574, 45.541668, 45.392857, 45.25, 45.125, 45.1875, 44.973213, 44.803574, 44.875, 44.6875, 44.517857, 44.258926, 44.3125, 44.348213, 44.142857, 43.964287, 43.8125, 43.6875, 43.6875, 43.625, 43.375, 43.1875, 43, 42.875, 42.75, 42.5625, 42.383926, 42.032738, 41.875, 41.794643, 41.702381, 41.791668, 41.9375, 41.875, 41.75, 41.5, 41.375, 41.4375, 41.5625, 41.5, 41.375, 41.1875, 40.9375, 40.875, 40.6875, 40.5625, 40.5, 40.375, 40.3125, 40.25, 40.1875, 40.002975, 39.591667, 39.491074, 39.303574, 39.116074, 38.604168, 38.258926, 37.901787, 37.75, 37.660713, 37.5625, 37.5625, 37.6875, 37.625, 37.75, 37.625, 37.375, 37.375, 37.1875, 37.3125, 37.491074, 37.211311, 36.863098, 36.598213, 36.375, 36.375, 36.375, 36.3125, 36.25, 36.125, 35.875, 35.625, 35.4375, 35.25, 35.25, 35.107143, 34.875, 34.6875, 34.5625, 34.4375, 34.25, 34.25, 34.125, 34.1875, 34.098213, 33.767857, 33.508926, 33.3125, 33.3125, 33.3125, 33.1875, 33.017857, 32.9375, 32.875, 32.9375, 32.928574, 32.6875, 32.4375, 32.1875, 32.0625, 31.9375, 31.9375, 31.9375, 31.875, 31.75, 31.5625, 31.25, 31, 30.8125, 30.8125, 30.75, 30.8125, 30.723213, 30.580357, 30.633928, 30.5, 30.5, 30.25, 30.0625, 30, 29.8125, 29.75, 29.6875, 29.4375, 29.375, 29.3125, 29.125, 29.125, 29, 28.875, 28.625, 28.5, 28.4375, 28.3125, 28.375, 28.25, 28.1875, 28.1875, 28, 27.875, 27.8125, 27.6875, 27.8125, 27.9375, 27.9375, 28.125, 28.223213, 28.142857, 28.397961, 28.357143, 28.214285, 28.107143, 28.071428, 27.908163, 27.525, 27.863096, 28.362244, 28.571428, 28.607143, 28.642857, 28.375, 28.25, 28.25, 28.25, 28.571428, 28.647959, 28.520407, 28.438776, 28.25, 28, 27.875, 27.6875, 27.6875, 27.857143, 27.857143, 27.583334, 27.857143, 27.821428, 27.625, 27.625, 27.625, 27.6875, 27.75, 27.6875, 27.6875, 27.892857, 27.928572, 28, 28.035715, 27.8125, 27.75, 27.75, 28, 27.964285, 27.928572, 27.821428, 27.87245, 27.87245, 27.928572, 28.035715, 27.875, 27.714285, 28, 28, 28, 27.785715, 27.857143, 27.857143, 28.1875, 28.125, 28.125, 28.583334, 28.357143, 28.428572, 28.5, 28.571428, 28.571428, 28.642857, 28.375, 28.3125, 28.3125, 28.25, 28.75, 28.875, 28.916666, 28.678572, 28.448978, 28.285715, 28.107143, 27.857143, 27.651787, 27.71875, 27.729166, 27.895834, 28.073978, 27.666668, 27.738096, 27.764881, 28.061224, 27.991072, 27.866072, 27.8125, 27.928572, 27.964285, 28, 28.071428, 28.071428, 28.035715, 27.9949, 27.6875, 27.517857, 27.785715, 27.75, 27.928572, 28, 28, 28.035715, 28.117346, 28.125, 27.857143, 27.821428, 27.9375, 27.8125, 27.625, 27.5, 27.642857, 27.642857, 27.785715, 27.928572, 27.928572, 27.928572, 28, 27.897959, 27.887756, 27.857143, 27.785715, 28.010204, 28.157145, 28.045918, 28.030611, 27.908163, 27.785715, 27.852041, 27.969387
-10, -10, -10, -10, -10, -10, -10, -10, -10, -10, -10, 49.6875, 49.958336, 50.15625, 50.370537, 50.3125, 50.080357, 49.8125, 49.46875, 49.0625, 48.839287, 48.8125, 48.553574, 48.291668, 48.008926, 47.616074, 47.303574, 47.112499, 47.178574, 47.169643, 47.1875, 47.125, 47, 47, 46.9375, 46.9375, 46.6875, 46.5, 46.375, 46.125, 46.125, 46.0625, 46, 45.8125, 45.625, 45.4375, 45.258926, 45.375, 45.125, 44.982143, 44.875, 44.625, 44.392857, 44.133926, 44.25, 44.285713, 44.080357, 43.901787, 43.75, 43.625, 43.5625, 43.4375, 43.1875, 43.0625, 42.9375, 42.875, 42.6875, 42.375, 42.098213, 41.854168, 41.910713, 41.732143, 41.559525, 41.604168, 41.75, 41.875, 41.875, 41.6875, 41.625, 41.6875, 41.75, 41.625, 41.4375, 41.1875, 41, 40.9375, 40.6875, 40.589287, 40.535713, 40.375, 40.375, 40.1875, 40.125, 39.940475, 39.529167, 39.491074, 39.303574, 39.178574, 38.729168, 38.446426, 38.151787, 38, 37.910713, 37.8125, 37.75, 37.8125, 37.75, 37.8125, 37.75, 37.625, 37.5625, 37.229168, 37.3125, 37.303574, 37.023811, 36.675598, 36.455357, 36.3125, 36.375, 36.375, 36.375, 36.3125, 36.1875, 36, 35.75, 35.625, 35.5625, 35.5625, 35.419643, 35.125, 34.875, 34.75, 34.5625, 34.375, 34.25, 34.125, 34.160713, 33.92857, 33.651787, 33.383926, 33.1875, 33.1875, 33.1875, 33.1875, 33.160713, 32.955357, 32.892857, 32.875, 32.866074, 32.625, 32.3125, 32.026787, 31.9375, 31.875, 31.9375, 31.9375, 31.875, 31.75, 31.5625, 31.25, 31, 30.8125, 30.8125, 30.75, 30.8125, 30.785713, 30.642857, 30.633928, 30.5625, 30.5625, 30.4375, 30.375, 30.3125, 30.1875, 30.0625, 30, 29.75, 29.6875, 29.6875, 29.5, 29.5625, 29.5, 29.4375, 29.142857, 29.071428, 29.1875, 29.0625, 29.0625, 29, 28.714285, 28.714285, 28.8125, 28.625, 28.75, 28.714285, 28.928572, 29.142857, 29.214285, 29.321428, 29.428572, 29.464285, 29.3125, 29.5, 29.392857, 29.125, 29.125, 29.204082, 29.408333, 29.619049, 29.510204, 29.642857, 29.678572, 29.678572, 29.607143, 29.5, 29.535715, 29.535715, 29.642857, 29.473213, 29.510204, 29.397959, 29.142857, 29.071428, 29, 28.928572, 29.071428, 29.142857, 29.214285, 29.416666, 29.071428, 28.928572, 28.785715, 28.714285, 28.7449, 28.908163, 28.979593, 28.928572, 28.857143, 28.857143, 28.928572, 29, 29, 28.928572, 28.785715, 28.785715, 28.6875, 28.6875, 28.6875, 28.625, 28.669643, 28.669643, 28.928572, 28.964285, 29, 29.291666, 29.333334, 29.333334, 29.333334, 29.333334, 29.333334, 29.375, 29.214285, 29.178572, 29.214285, 29.214285, 29.178572, 29.214285, 29.0625, 29.1875, 29.464285, 29.607143, 29.607143, 29.5, 29.5, 29.464285, 29.607143, 29.892857, 29.928572, 29.892857, 29.392857, 29.116072, 28.862499, 28.803572, 28.75893, 28.875, 29.25, 29.333334, 28.955357, 28.380953, 28.416668, 28.979166, 29.275511, 29.285715, 29.107143, 29, 28.857143, 28.651787, 28.857143, 28.991072, 28.785715, 28.678572, 28.901787, 28.8125, 28.341837, 28.75, 28.428572, 28.833334, 28.875, 28.875, 28.9375, 29.008928, 29.392857, 29.458334, 29.5, 29.035715, 29.035715, 28.75, 28.321428, 28.321428, 28.285715, 28.6875, 28.8125, 28.8125, 28.8125, 29, 28.87755, 28.979593, 29, 29.035715, 28.724489, 29.106251, 28.915178, 28.852678, 28.964285, 28.5625, 28.714287, 29.040815, 29.071428, 29.214285, 29.071428, 29.071428, 28.964285, 28.928572, 29, 29, 29.035715, 29.208334, 29.111109, -10, -10, -10, -10, -10, -10, -10, -10, -10, -10, -10, -10, -10, -10, -10, -10, -10, -10, -10, -10, -10, -10, -10, -10, -10, -10, -10, -10, -10, -10, -10, -10, -10, -10, -10, -10, -10, -10, -10, 49.9375, 50.125, 50.21875, 50.339287, 50.125, 49.830357, 49.5625, 49.25, 48.9375, 48.776787, 48.8125, 48.5625, 48.5, 48.25, 47.866074, 47.482147, 47.112499, 47.178574, 47.107143, 47.1875, 47.125, 47, 47, 46.9375, 46.9375, 46.6875, 46.5, 46.375, 46.125, 46.125, 46.0625, 46, 45.8125, 45.625, 45.4375, 45.196426, 45.25, 44.9375, 44.732143, 44.625, 44.4375, 44.267857, 44.071426, 44.1875, 44.223213, 44.080357, 44.008926, 43.875, 43.6875, 43.5, 43.375, 43.125, 43.0625, 42.9375, 42.8125, 42.5625, 42.25, 42.026787, 42.026787, 42.196426, 42.044643, 41.809525, 41.729168, 41.8125, 41.9375, 42, 41.875, 41.8125, 41.75, 41.6875, 41.5, 41.3125, 41.125, 41, 41, 40.75, 40.651787, 40.598213, 40.294643, 40.041668, 39.821426, 39.8125, 39.690475, 39.341667, 39.366074, 39.178574, 39.178574, 38.854168, 38.633926, 38.339287, 38.1875, 38.098213, 38, 37.875, 37.875, 37.6875, 37.625, 37.6875, 37.6875, 37.75, 37.372025, 37.321426, 37.116074, 36.773811, 36.363098, 36.080357, 36.089287, 36.223213, 36.25, 36.375, 36.1875, 36.125, 35.9375, 35.6875, 35.6875, 35.5625, 35.5, 35.375, 35.1875, 35, 34.9375, 34.6875, 34.4375, 34.25, 34.0625, 33.973213, 33.67857, 33.339287, 33.133926, 33.035713, 33.026787, 33.125, 33.125, 33.160713, 32.892857, 32.767857, 32.75, 32.741074, 32.5, 32.25, 31.964287, 31.875, 31.875, 31.9375, 31.9375, 31.875, 31.75, 31.625, 31.3125, 31.0625, 30.875, 30.8125, 30.75, 30.8125, 30.875, 30.875, 30.9375, 30.875, 30.8125, 30.75, 30.6875, 30.6875, 30.625, 30.5, 30.5, 30.3125, 30.25, 30.25, 30.0625, 30.125, 30.125, 30.0625, 30.458334, 30.375, 30.107143, 30.142857, 30.142857, 30.107143, 30.25, 30.25, 29.964285, 29.928572, 30, 30, 30.178572, 30.321428, 30.357143, 30.392857, 30.428572, 30.392857, 30.357143, 30.392857, 30.392857, 30.392857, 30.392857, 30.285715, 30.25, 30.285715, 30.346939, 30.464285, 30.571428, 30.642857, 30.678572, 30.642857, 30.642857, 30.642857, 30.607143, 30.3125, 30.1875, 30.125, 30, 30, 30.25, 30.214285, 30.357143, 30.357143, 30.357143, 30.321428, 30.178572, 30.035715, 29.892857, 29.5625, 29.589287, 30.051022, 30.193878, 30.214285, 30.142857, 29.571428, 29.875, 29.875, 29.8125, 29.6875, 29.785715, 29.625, 29.75, 29.8125, 29.5, 29.928572, 29.732143, 29.732143, 29.6875, 29.395834, 29.59524, 29.809525, 29.918367, 30.071428, 30.214285, 30.071428, 30.071428, 30.261904, 30.270407, 29.9375, 30, 30.0625, 30, 30.0625, 29.857143, 30.1875, 30.25, 30.34375, 30.535715, 30.464285, 30.535715, 30.571428, 30.53125, 30.78125, 30.78125, 30.71875, 30.663265, 30.178572, 29.924999, 30.132654, 30.030613, 30.035715, 29.964285, 30, 29.948978, 29.888891, 29.972223, 30.047619, 30.204082, 30.214285, 30.142857, 30.107143, 29.8125, 29.530613, 30.044643, 30.116072, 30.583334, 30.375, 30.137756, 30.071428, 30.095238, 30.291666, 30.166666, 30.25, 30, 30.071428, 30.142857, 30.188776, 30.392857, 30.214285, 30.214285, 29.928572, 29.928572, 29.857143, 30, 30.166666, 30.166666, 30.071428, 30.142857, 30.071428, 30.173471, 30.2551, 29.833334, 30, 30.178572, 30.214285, 30.541666, 30.285715, 30.09375, 30.03125, 29.90625, 29.6875, 29.776787, 29.785713
