103.025, 102.71429, 102.07143, 101.04166, 100.60715, 99.875, 99.511909, 98.580353, 98.255104, 97.75, 96.229172, 95.491074, 94.754456, 94.15625, 93.486603, 92.991074, 92.202377, 91.464294, 90.964287, 90.40625, 89.861603, 89.133926, 88.193451, 87.535713, 87.089287, 86.6875, 86.125, 85.41964, 84.785713, 84.1875, 83.45536, 82.476189, 81.776787, 81.071426, 80.321426, 79.60714, 78.955353, 78.267853, 77.535713, 76.529762, 75.892853, 75.217262, 74.238098, 73.476189, 72.866074, 72.330353, 71.723213, 71.125, 70.267853, 69.357147, 68.678574, 68.125, 67.375, 66.440475, 65.821426, 65.125, 64.264877, 63.776787, 63.032738, 62.291668, 61.589287, 60.654758, 59.946426, 59.142857, 58.535713, 58, 57.229168, 56.642853, 55.592262, 55.160713, 54.6875, 53.979168, 53.205357, 52.339287, 51.607143, 50.809525, 50.21875, 49.71875, 48.947918, 48.352676, 47.571426, 46.547623, 45.892857, 45.25, 44.660713, 43.916668, 43.104168, 42.517857, 41.747025, 41.125, 40.410713, 39.785713, 38.979168, 38.166668, 37.005951, 36.029762, 35.401787, 34.729168, 34.1875, 33.446426, 32.75, 31.958334, 31.446428, 30.9375, 30.452379, 29.34127, 27.976191, 27.476191, 26.9375, 26.574406, 25.898809, 24.875, 24.125, 23.473213, 22.857143, 22, 21.357143, 20.34226, 19.767857, 19.3125, 18.75, 18.1875, 17.75, 16.434525, 15.255953, 14.428572, 13.738095, 13.104167, 12.625, 12.09375, 11.59375, 11.21875, 10.90625, 10.818453, 11.066667, -10, -10, 14.406667, 17.5, 17.428572, 17.916666, 17.75, 17.9375, 17.895834, 17.875, 17.8125, 17.6875, 17.625, 17.625, 17.75, 17.8125, 17.875, 17.9375, 17.9375, 18, 17.9375, 17.9375, 17.9375, 18.125, 18.3125, 18.3125, 18.3125, 18.1875, 18.1875, 18.4375, 18.6875, 18.875, 18.9375, 18.875, 18.875, 18.9375, 19.125, 19.25, 19.25, 19.3125, 19.3125, 19.375, 19.625, 19.6875, 19.75, 19.75, 19.625, 19.5625, 19.5625, 19.625, 19.625, 19.9375, 20.185715, 19.964287, 20.071428, 19.883928, 20.125, 20.3125, 20.410713, 20.133928, 19.835714, 19.928572, 19.991072, 20.0625, 20.125, 20.0625, 20, 20.0625, 20, 20, 20, 20, 20.125, 20.25, 20.1875, 20.1875, 20.366072, 20.375, 20.4375, 20.589287, 20.428572, 20.080357, 20.0625, 19.8125, 19.848213, 19.651787, 19.5, 19.25, 19.125, 19, 18.96875, 18.90625, 18.866072, 18.892857, 19, 19.107143, 19, 18.9375, 18.75, 18.5625, 18.375, 18.1875, 18.0625, 18, 17.9375, 17.75, 17.625, 17.5, 17.375, 17.4375, 17.375, 17.392857, 17.607143, 17.866072, 18.169643, 18.1875, 18.25, 18.125, 17.857143, 17.12245, 14.442178, 12.976191, 12.276786, 12.239583, 12.370536, 12.34375, 12.21875, 12.0625, 12.0625, 12.0625, 12.1875, 12.375, 12.5625, 12.625, 12.5625, 12.5625, 12.3125, 12.3125, 12.4375, 12.5, 12.75, 12.9375, 13, 13, 12.866072, 12.625, 12.625, 12.669643, 12.875, 13, 13.083333, -10, -10, -10, -10, -10, -10, -10, -10, -10, -10, -10, -10, -10, -10, -10, -10, -10, -10, -10, -10, -10, -10, -10, -10, -10, -10, -10, -10, -10, -10, -10, -10, -10, -10, -10, -10, -10, -10, -10, -10, -10, -10, -10, -10, -10, -10, -10, -10, -10, -10, -10, -10, -10, -10, -10, -10, -10, -10, -10, -10, -10, -10, -10, -10, -10, -10, -10, -10, -10, -10, -10, -10, -10, -10, -10, -10, -10, -10, -10, -10, -10, -10, -10, -10, -10, -10, -10, -10, -10, 103.75, 102.87917, 102.75893, 102.17857, 101.05952, 100.60715, 99.9375, 99.416672, 98.395836, 97.596939, 97.112244, 96.208336, 95.5625, 94.778275, 94.09375, 93.361603, 92.821426, 92.193451, 91.571426, 91.04464, 90.21875, 89.65625, 89, 88.175591, 87.598213, 87.151787, 86.75, 86.133926, 85.348213, 84.678574, 84.1875, 83.491074, 82.309525, 81.571426, 80.892853, 80.25, 79.660713, 79.0625, 78.330353, 77.60714, 76.738091, 75.872025, 75.288689, 74.282745, 73.547623, 72.761909, 72.258926, 71.660713, 71.125, 70.339287, 69.535706, 68.848213, 68.133926, 67.267853, 66.5, 65.892853, 65.1875, 64.491074, 63.955357, 63.157738, 62.372025, 61.767857, 60.75, 60.053574, 59.205357, 58.553574, 58, 57.166668, 56.535713, 55.675598, 55.077381, 54.633926, 53.916668, 53.205357, 52.339287, 51.535713, 50.702381, 50.09375, 49.53125, 48.924107, 48.28125, 47.517853, 46.630951, 45.809525, 45.1875, 44.580357, 43.809525, 42.979168, 42.184525, 41.651787, 41.0625, 40.410713, 39.785713, 38.979168, 38.166668, 37.005951, 36.029762, 35.401787, 34.729168, 34.1875, 33.446426, 32.75, 31.958334, 31.446428, 30.9375, 30.494047, 3, 3, 3, 26.833334, 26.574406, 25.988094, 24.791666, 24.026787, 23.361607, 22.763393, 21.96875, 21.441965, 20.552082, 19.96875, 19.321428, 18.714285, 18.1875, 17.446428, 16.357143, 15.516369, 14.790178, 14.050595, 13.238095, 12.642857, 12.125, 11.625, 11.25, 10.947917, 10.84127, -10, -10, -10, 16.194445, 17.333334, 17.321428, 17.6875, 17.5, 17.4375, 17.4375, 17.4375, 17.5, 17.5, 17.4375, 17.4375, 17.5625, 17.5625, 17.625, 17.6875, 17.75, 17.875, 17.875, 17.9375, 17.9375, 18.0625, 18.1875, 18.1875, 18.1875, 18.1875, 18.25, 18.5, 18.75, 18.875, 18.9375, 18.875, 18.875, 18.875, 19, 19.0625, 19.0625, 19.125, 19.125, 19.25, 19.5, 19.625, 19.75, 19.6875, 19.5, 19.375, 19.3125, 19.3125, 19.25, 19.4375, 19.65, 19.571428, 19.904762, 19.875, 20.0625, 20.1875, 20.285713, 20.071428, 19.942858, 20.053572, 20.178572, 20.1875, 20.1875, 20.0625, 19.9375, 19.9375, 19.8125, 19.875, 19.875, 19.9375, 20.0625, 20.1875, 20.125, 20.044643, 20.053572, 20.142857, 20.142857, 20.151787, 19.991072, 19.705357, 19.6875, 19.5625, 19.785713, 19.651787, 19.5625, 19.3125, 19.1875, 19, 18.677084, 18.65625, 18.928572, 18.970238, 18.892857, 18.9375, 18.6875, 18.6875, 18.5, 18.3125, 18.1875, 18.0625, 17.9375, 17.9375, 17.794643, 17.526787, 17.4375, 17.25, 17.1875, 17.1875, 17.125, 17.205357, 17.419643, 17.616072, 17.642857, 17.8125, 17.875, 17.633928, 17.265306, 15.166667, 13.636906, 12.705358, 12.205357, 12.409226, 12.513393, 12.504464, 12.236607, 12.071428, 12.125, 12.1875, 12.3125, 12.5, 12.625, 12.6875, 12.6875, 12.75, 12.5625, 12.5, 12.5625, 12.5625, 12.75, 12.9375, 13, 13, 12.928572, 12.75, 12.8125, 12.857143, 12.9375, 13, 13, -10, -10, -10, -10, -10, -10, -10, -10, -10, -10, -10, -10, -10, -10, -10, -10, -10, -10, -10, -10, -10, -10, -10, -10, -10, -10, -10, -10, -10, -10
102.94167, 102.92857, 102.35714, 101.22619, 100.71429, 100, 99.354172, 98.288689, 97.616074, 97.071426, 96.267853, 95.633926, 94.694931, 94.03125, 93.34375, 92.821426, 92.401794, 91.75, 90.940475, 90.022324, 89.46875, 88.875, 88.166664, 87.66964, 87.276787, 86.919647, 86.321426, 85.598213, 84.636902, 84.160713, 83.482147, 82.380951, 81.741074, 81.035713, 80.125, 79.517853, 78.9375, 78.25, 77.5, 76.821426, 75.997025, 75.467262, 74.491074, 73.726189, 72.886909, 72.339287, 71.767853, 71.1875, 70.41964, 69.714279, 69.017853, 68.205353, 67.276787, 66.5, 65.821426, 65.080353, 64.491074, 64, 63.282738, 62.559525, 61.946426, 60.708332, 60.0625, 59.3125, 58.577381, 58.071426, 57.220242, 56.369049, 55.6875, 55.005955, 54.571426, 53.854168, 53.196426, 52.339287, 51.464287, 50.595242, 50, 49.375, 48.714287, 48.017857, 47.330353, 46.64286, 45.726192, 45.0625, 44.392857, 43.785713, 42.979168, 42.122025, 41.473213, 40.892857, 40.267857, 39.660713, 38.916668, 38.1875, 37.285713, 36.244049, 35.57143, 34.822918, 34.223213, 33.321426, 32.678574, 31.958334, 31.5, 30.854166, 30.469046, 3, 3, 3, 3, 26.520834, 26.040178, 24.738094, 23.979912, 23.265625, 22.778273, 22.291666, 21.779762, 20.819443, 19.78125, 19.133928, 18.629463, 18.15625, 17.392857, 16.535715, 15.575893, 14.96875, 14.220239, 13.309524, 12.660714, 12.125, 11.625, 11.25, 10.947917, -10, -10, -10, -10, 16.952381, 17.25, 17.258928, 17.3125, 17.125, 17.0625, 17.125, 17.1875, 17.25, 17.25, 17.1875, 17.1875, 17.3125, 17.3125, 17.375, 17.4375, 17.5625, 17.75, 17.8125, 17.9375, 17.9375, 18, 18.0625, 18.0625, 18.0625, 18.125, 18.25, 18.5, 18.75, 18.875, 18.9375, 18.875, 18.8125, 18.8125, 18.875, 18.9375, 19, 19, 19, 19.0625, 19.25, 19.375, 19.5625, 19.5, 19.3125, 19.25, 19.125, 19.1875, 19.125, 19.035715, 19.171429, 19.081633, 19.654762, 19.75, 20, 20.0625, 20.098213, 19.830357, 19.830357, 19.8125, 19.875, 19.9375, 19.9375, 19.8125, 19.75, 19.6875, 19.5625, 19.5625, 19.589287, 19.794643, 19.919643, 20, 19.9375, 19.794643, 19.866072, 19.785715, 19.714285, 19.964287, 19.767857, 19.491072, 19.4375, 19.3125, 19.5625, 19.5, 19.4375, 19.3125, 19.1875, 19.035713, 18.569941, 18.415178, 18.714285, 19.027382, 18.892857, 19.0625, 18.625, 18.5625, 18.25, 18, 17.875, 17.75, 17.6875, 17.625, 17.419643, 17.151787, 17.125, 17, 16.892857, 16.892857, 16.875, 17, 17.0625, 17.1875, 17.3125, 17.375, 17.321428, 16.891157, 14.809525, 13.979591, 13.085034, 12.696429, 12.375, 12.388393, 12.46875, 12.441964, 12.236607, 12.196428, 12.25, 12.3125, 12.4375, 12.5, 12.5, 12.5625, 12.5625, 12.6875, 12.5625, 12.5625, 12.625, 12.625, 12.8125, 12.9375, 13, 13, 13, 13, 13, 13, 12.9375, 12.9375, 12.916667, -10, -10, -10, -10, -10, -10, -10, -10, -10, -10, -10, -10, -10, -10, -10, -10, -10, -10, -10, -10, -10, -10, -10, -10, -10, -10, -10, -10, -10, -10, -10, -10, -10, -10, -10, -10, -10, -10, -10, -10, -10, -10, -10, -10, -10, -10, -10, -10, -10, -10, -10, -10, -10, -10, -10, -10, -10, -10, -10, -10, -10, -10, -10, -10, -10, -10, -10, -10, -10, -10, -10, -10, -10, -10, -10, -10, -10, -10, -10, -10, -10, -10, -10, -10, -10, -10, -10, -10, 104, 103.58333, 103.06667, 102.99107, 102.46429, 101.35119, 100.78572, 100.0625, 99.354172, 98.226189, 97.553574, 97, 96.309525, 95.8125, 94.904755, 94.083336, 93.357147, 92.75, 92.357147, 91.857147, 91.047615, 89.793159, 89.147324, 88.5, 88.0625, 87.598213, 87.401787, 87.08036, 86.392853, 85.642853, 84.565475, 84.053574, 83.419647, 82.372025, 81.741074, 81.098213, 80.241074, 79.458328, 78.794647, 78.080353, 77.35714, 76.696426, 75.934525, 75.508926, 74.782738, 74.029762, 73.199409, 72.598213, 71.75, 71.116074, 70.35714, 69.767853, 69.125, 68.267853, 67.285713, 66.428574, 65.642853, 64.910713, 64.410713, 63.9375, 63.491074, 62.809525, 61.904762, 60.636906, 60, 59.303574, 58.577381, 58.133926, 57.336311, 56.380951, 55.794643, 55.041668, 54.571426, 53.916668, 53.303574, 52.351189, 51.535713, 50.671131, 50.03125, 49.34375, 48.535713, 47.848213, 47.321426, 46.6875, 45.788692, 45.071426, 44.392857, 43.785713, 43.125, 42.193451, 41.535713, 40.747025, 40.125, 39.535713, 39, 38.25, 37.285713, 36.357143, 35.642857, 34.885418, 34.285713, 33.5, 32.702385, 31.958334, 31.291666, 30.675594, 30.433332, 3, 3, 3, 26.833334, 26.483334, 25.802084, 24.708332, 23.979912, 23.203125, 22.728271, -10, -10, -10, 19.708334, 18.758928, 18.379463, 17.96875, 17.205357, 16.285715, 15.438988, 14.861607, 14.366072, 13.488095, 12.702381, 12.125, 11.625, 11.270833, 11.013889, -10, -10, -10, 17, 17.25, 17.1875, 17.0625, 16.875, 16.75, 16.75, 16.875, 17.0625, 17.125, 17.1875, 17.125, 17.0625, 17.125, 17.0625, 17.125, 17.1875, 17.3125, 17.5625, 17.625, 17.8125, 17.875, 17.875, 18, 18, 18, 18.125, 18.25, 18.5, 18.75, 18.875, 19, 18.9375, 18.875, 18.875, 18.875, 18.9375, 19, 19, 19, 19.0625, 19.1875, 19.25, 19.4375, 19.375, 19.25, 19.3125, 19.1875, 19.25, 19.1875, 19.0625, 19.0875, 19.008928, 19.404762, 19.625, 20, 20.0625, 20.125, 20, 19.9375, 19.875, 19.8125, 19.8125, 19.8125, 19.625, 19.5625, 19.4375, 19.375, 19.348213, 19.303572, 19.607143, 19.714287, 19.75, 19.6875, 19.482143, 19.553572, 19.75, 19.660713, 19.616072, 19.544643, 19.38393, 19.3125, 19.3125, 19.4375, 19.3125, 19.3125, 19.1875, 19.0625, 18.910713, 18.382441, 18.227678, 18.5, 18.804167, 18.767857, 18.9375, 18.5625, 18.375, 17.955357, 17.6875, 17.5625, 17.5, 17.375, 17.25, 16.982143, 16.714287, 16.75, 16.6875, 16.674107, 16.736607, 16.78125, 16.90625, 16.9375, 16.9375, 16.9375, 16.857143, 16.510204, 14.561508, 13.62245, 12.795918, 12.616072, 12.339286, 12.25, 12.325893, 12.53125, 12.504464, 12.299107, 12.321428, 12.375, 12.4375, 12.5625, 12.5, 12.375, 12.4375, 12.4375, 12.5625, 12.5, 12.5, 12.5, 12.5625, 12.75, 12.875, 13, 13, 12.9375, 12.875, 12.8125, 12.8125, 12.75, 12.8125, 12.833334, -10, -10, -10, -10, -10, -10, -10, -10, -10, -10, -10, -10, -10, -10, -10, -10, -10, -10, -10, -10, -10, -10, -10, -10, -10, -10, -10, -10, -10, -10
103.31667, 103.0625, 102.64286, 101.39286, 100.69048, 100, 99.270836, 98.565475, 98.0625, 97.508926, 96.622025, 96.107147, 95.199402, 94.404762, 93.502983, 92.785713, 92.3125, 91.833336, 90.874992, 89.690483, 88.991074, 88.583336, 88.071426, 87.848213, 87.616074, 87.122025, 86.464279, 85.758926, 84.744041, 83.949402, 83.241074, 82.413689, 81.84375, 81.254463, 80.464287, 79.586311, 78.9375, 77.976189, 77.321426, 76.75, 76.041664, 75.571426, 74.854164, 74.321426, 73.520836, 72.702377, 71.8125, 71.116074, 70.35714, 69.767853, 69.1875, 68.383926, 67.297623, 66.464287, 65.642853, 64.910713, 64.410713, 63.875, 63.375, 62.785713, 61.904762, 60.720242, 60.071426, 59.428574, 58.702381, 58.205353, 57.377975, 56.380951, 55.785713, 54.833336, 54.392853, 53.928574, 53.220242, 52.226189, 51.410713, 50.816963, 50.209824, 49.302082, 48.392857, 47.67857, 47.25, 46.678574, 45.717262, 44.964283, 44.267857, 43.660713, 43.0625, 42.184525, 41.535713, 40.747025, 39.979168, 39.392857, 38.875, 38.1875, 37.339287, 36.535713, 35.666668, 34.956848, 34.339287, 33.416668, 32.702385, 32.142857, 31.220238, 30.595238, 30.266666, 3, 3, 3, 27, 26.525, 25.802084, 24.833332, 23.854912, 23.069197, 22.668749, -10, -10, -10, -10, 18.446428, 18.236607, 17.84375, 17.125, 16.357143, 15.403274, 14.754463, 14.25, 13.5, 12.535714, 11.959822, 11.489583, 11.319444, -10, -10, -10, -10, 16.916666, 17, 16.9375, 16.75, 16.5625, 16.4375, 16.375, 16.5625, 16.75, 16.8125, 16.9375, 16.875, 16.8125, 16.875, 16.875, 16.9375, 17, 17.125, 17.3125, 17.4375, 17.625, 17.75, 17.8125, 17.9375, 18, 18, 18.0625, 18.1875, 18.4375, 18.6875, 18.875, 19, 18.9375, 18.875, 18.875, 18.875, 18.9375, 19, 19, 19, 19.0625, 19.1875, 19.25, 19.4375, 19.375, 19.25, 19.375, 19.223213, 19.25, 19.428572, 19.241072, 19.125, 19.133928, 19.395834, 19.616072, 19.875, 20, 20.0625, 20, 19.9375, 19.875, 19.8125, 19.8125, 19.75, 19.5, 19.375, 19.125, 19.089287, 19.205357, 19.232143, 19.544643, 19.589287, 19.625, 19.5625, 19.357143, 19.1875, 19.1875, 19.035713, 18.964287, 19.008928, 19.252977, 19.232143, 19.3125, 19.375, 19.3125, 19.294643, 19.041666, 18.883928, 18.723213, 18.226191, 18.133928, 18.383928, 18.554167, 18.517857, 18.625, 18.34375, 18.15625, 17.736607, 17.46875, 17.3125, 17.25, 17.125, 16.928572, 16.461309, 16.232143, 16.3125, 16.375, 16.424107, 16.549107, 16.65625, 16.84375, 17, 17, 16.821428, 16.408163, 14.547619, 13.445579, 12.803572, 12.321428, 12.1875, 12.125, 12.0625, 12.169643, 12.375, 12.410714, 12.267857, 12.321428, 12.3125, 12.375, 12.5625, 12.5, 12.375, 12.375, 12.25, 12.3125, 12.3125, 12.375, 12.4375, 12.5, 12.6875, 12.8125, 12.9375, 13, 12.9375, 12.875, 12.8125, 12.8125, 12.8125, 12.875, 12.916667, -10, -10, -10, -10, -10, -10, -10, -10, -10, -10, -10, -10, -10, -10, -10, -10, -10, -10, -10, -10, -10, -10, -10, -10, -10, -10, -10, -10, -10, -10, -10, -10, -10, -10, -10, -10, -10, -10, -10, -10, -10, -10, -10, -10, -10, -10, -10, -10, -10, -10, -10, -10, -10, -10, -10, -10, -10, -10, -10, -10, -10, -10, -10, -10, -10, -10, -10, -10, -10, -10, -10, -10, -10, -10, -10, -10, -10, -10, -10, -10, -10, -10, -10, -10, -10, -10, -10, -10, -10, 103.83333, 103.55, 103.04166, 102.53572, 101.31251, 100.58334, 99.9375, 99.25, 98.821426, 98.5, 97.991074, 96.892853, 96.357147, 95.532738, 94.726189, 93.648811, 92.892853, 92.166664, 91.583336, 90.60714, 89.690483, 89.008926, 88.645836, 88.071426, 87.785713, 87.491074, 86.952377, 86.455353, 85.875, 84.976189, 84.101189, 83.0625, 82.4375, 81.924103, 81.424103, 80.535713, 79.544647, 78.645836, 77.806549, 77.178574, 76.458336, 75.982147, 75.4375, 74.791664, 74.3125, 73.741074, 72.714279, 71.803574, 71.053574, 70.276787, 69.589279, 69.089287, 68.4375, 67.476189, 66.529762, 65.642853, 64.910713, 64.339279, 63.767857, 63.3125, 62.767857, 61.904762, 60.86607, 60.142857, 59.50893, 58.809525, 58.267853, 57.386906, 56.309525, 55.607147, 54.809525, 54.321426, 53.866074, 53.157742, 52.071426, 51.410713, 50.861607, 50.272324, 49.382439, 48.5, 47.595238, 47.125, 46.553574, 45.800598, 45.026783, 44.276787, 43.660713, 43.0625, 42.330357, 41.607143, 40.809525, 39.979168, 39.321426, 38.767857, 38.125, 37.392857, 36.642857, 35.583336, 35.040176, 34.401787, 33.568455, 32.997025, 32.559525, 31.126984, 30.545238, 30.1, 30, 3, 3, 3, 26.525, 25.802084, 24.958332, 23.682291, 22.89509, 22.512499, -10, -10, -10, -10, 18.125, 18.09375, 17.78125, 17.3125, 16.464285, 15.380952, 14.678572, 14.25, 13.607143, 12.559524, 12.028572, 11.444444, -10, -10, -10, 16.416668, 16.583332, 16.8125, 16.9375, 16.875, 16.6875, 16.5, 16.375, 16.3125, 16.4375, 16.625, 16.625, 16.625, 16.5625, 16.5, 16.625, 16.75, 16.875, 17, 17.0625, 17.1875, 17.25, 17.375, 17.5, 17.625, 17.8125, 17.9375, 18, 18, 18.125, 18.375, 18.625, 18.875, 19, 18.9375, 18.875, 18.875, 18.875, 18.9375, 19, 19, 19, 19, 19.0625, 19.0625, 19.1875, 19.25, 19.160713, 19.205357, 19.044643, 19.0625, 19.303572, 19.25, 19.458334, 19.491072, 19.5625, 19.6875, 19.875, 20, 20, 19.9375, 19.875, 19.8125, 19.75, 19.75, 19.6875, 19.5, 19.4375, 19.25, 19.276787, 19.330357, 19.294643, 19.482143, 19.526787, 19.5625, 19.5, 19.375, 19.25, 19.1875, 19.098213, 18.964287, 19.008928, 19.315477, 19.357143, 19.419643, 19.3125, 19.1875, 19.044643, 18.791666, 18.633928, 18.598213, 18.455357, 18.321428, 18.258928, 18.325001, 18.267857, 18.4375, 18.21875, 17.96875, 17.486607, 17.09375, 16.9375, 16.8125, 16.75, 16.553572, 16.041666, 15.955357, 16, 16.125, 16.174107, 16.299107, 16.40625, 16.59375, 16.8125, 16.714287, 16.343536, 14.571429, 13.540816, 12.729167, 12.303572, 12, 12.0625, 12.0625, 12.0625, 12.0625, 12.125, 12.1875, 12.1875, 12.3125, 12.3125, 12.25, 12.4375, 12.375, 12.25, 12.25, 12.0625, 12.0625, 12.0625, 12.125, 12.1875, 12.25, 12.5, 12.6875, 12.875, 13, 12.9375, 12.9375, 12.875, 12.875, 12.9375, 12.875, 12.9375, 12.833334, -10, -10, -10, -10, -10, -10, -10, -10, -10, -10, -10, -10, -10, -10, -10, -10, -10, -10, -10, -10, -10, -10, -10, -10, -10, -10, -10, -10, -10
103.425, 102.87202, 102.35715, 101.29167, 100.54762, 100, 99.366074, 98.845238, 98.5, 98.053574, 97.125, 96.642853, 95.949409, 94.892853, 93.702385, 92.892853, 91.958328, 91.333336, 90.648811, 89.761909, 89.071426, 88.708336, 88.133926, 87.821426, 87.366074, 86.738091, 86.267853, 85.732147, 85.196426, 84.23214, 83.25, 82.377975, 81.71875, 81.174103, 80.535713, 79.500008, 78.529762, 77.708328, 77.14286, 76.279762, 75.785713, 75.1875, 74.75, 74.3125, 73.741074, 72.642853, 71.696426, 70.991074, 70.258926, 69.589279, 69.089287, 68.508926, 67.654762, 66.779762, 65.779762, 65.089279, 64.464279, 63.892857, 63.258926, 62.660713, 61.833332, 60.970242, 60.214287, 59.580357, 58.726189, 58.125, 57.208332, 56.288689, 55.571434, 54.809525, 54.258926, 53.758926, 53.095242, 51.916668, 51.410713, 50.90625, 50.334824, 49.462795, 48.67857, 47.764881, 47.133926, 46.517857, 45.883926, 45.089283, 44.285713, 43.589287, 42.955357, 42.267857, 41.598213, 40.809525, 39.979168, 39.258926, 38.660713, 38.0625, 37.383926, 36.714287, 35.726192, 34.988098, 34.366074, 33.693455, 33.068451, 32.642857, 2.5, 30.504763, 30, 30, 2.875, 2.9375, 3, 26.533333, 25.708334, 24.986904, 23.541666, 22.776785, 22.366667, -10, -10, -10, -10, 18, 17.916666, 17.6875, 17.1875, 16.276785, 15.285714, 14.571428, 14.25, 13.785715, 12.845238, 12.278572, -10, -10, -10, 16, 16.277779, 16.388887, 16.5, 16.625, 16.625, 16.535713, 16.4375, 16.3125, 16.1875, 16.25, 16.375, 16.375, 16.375, 16.3125, 16.25, 16.4375, 16.625, 16.8125, 17, 17, 17.0625, 17.0625, 17.125, 17.3125, 17.5, 17.75, 17.9375, 18, 18, 18.1875, 18.4375, 18.6875, 18.9375, 19, 18.875, 18.8125, 18.75, 18.75, 18.875, 18.9375, 19, 19, 19, 19.0625, 19.125, 19.25, 19.294643, 19.098213, 19.142857, 19.017857, 19, 19.132654, 19.1875, 19.395834, 19.491072, 19.5, 19.625, 19.8125, 19.9375, 20, 20, 19.9375, 19.8125, 19.75, 19.625, 19.5, 19.4375, 19.375, 19.3125, 19.464287, 19.580357, 19.517857, 19.5, 19.482143, 19.4375, 19.375, 19.3125, 19.0625, 18.9375, 18.910713, 18.776787, 18.946428, 19.315477, 19.419643, 19.544643, 19.375, 19.25, 19.044643, 18.666666, 18.508928, 18.5, 18.5, 18.4375, 18.375, 18.3125, 18.25, 18.3125, 18.125, 17.75, 17.267857, 16.875, 16.6875, 16.5625, 16.5, 16.366072, 15.854167, 15.705357, 15.625, 15.696428, 16.03125, 16.15625, 16.34375, 16.40625, 16.419643, 16.197279, 14.539681, 13.632653, 12.9375, 12.375, 12.125, 12, 12, 12, 12.0625, 12.0625, 12.125, 12.1875, 12.125, 12.1875, 12.1875, 12.125, 12.25, 12.25, 12.1875, 12.1875, 12.0625, 12, 12, 12, 12, 12.0625, 12.3125, 12.5625, 12.75, 12.9375, 12.875, 12.875, 12.875, 12.875, 12.9375, 12.875, 13, 13, -10, -10, -10, -10, -10, -10, -10, -10, -10, -10, -10, -10, -10, -10, -10, -10, -10, -10, -10, -10, -10, -10, -10, -10, -10, -10, -10, -10, -10, -10, -10, -10, -10, -10, -10, -10, -10, -10, -10, -10, -10, -10, -10, -10, -10, -10, -10, -10, -10, -10, -10, -10, -10, -10, -10, -10, -10, -10, -10, -10, -10, -10, -10, -10, -10, -10, -10, -10, -10, -10, -10, -10, -10, -10, -10, -10, -10, -10, -10, -10, -10, -10, -10, -10, -10, -10, -10, -10, 103.95834, 103.4, 102.80952, 102.24107, 101.27976, 100.51191, 100.0625, 99.419647, 98.761902, 98.375, 97.866074, 97.101196, 96.571426, 95.833336, 94.952377, 93.845238, 92.916664, 91.895828, 91.208336, 90.541664, 89.991074, 89.392853, 89.145836, 88.571426, 88.214279, 87.303574, 86.630951, 86.258926, 85.9375, 85.625, 84.439285, 83.25, 82.315475, 81.638397, 81.004463, 80.35714, 79.333336, 78.494049, 77.815475, 77.321426, 76.321426, 75.785713, 75.125, 74.642853, 74.1875, 73.553574, 72.464287, 71.821426, 70.979164, 70.258926, 69.589279, 69.089287, 68.508926, 67.654762, 66.851189, 65.958336, 65.258926, 64.473206, 63.848213, 63.133926, 62.473213, 61.892857, 61.041668, 60.339287, 59.767857, 58.75, 58.133926, 57.208332, 56.288689, 55.571434, 54.809525, 54.196426, 53.589287, 52.916668, 51.895836, 51.410713, 50.9375, 50.366074, 49.511906, 48.857143, 47.934525, 47.142857, 46.473213, 45.821426, 45.089283, 44.101189, 43.339287, 42.767857, 42.125, 41.473213, 40.892857, 39.895836, 39.133926, 38.535713, 38, 37.4375, 36.892857, 35.895836, 35.059525, 34.3125, 33.514881, 33.04464, 32.642857, 2.5, 2, 2, 2.25, 2.8333333, 2.9375, 3, 3, 25.75, 25.058332, 23.5, 22.714285, 22.291668, -10, -10, -10, -10, 18.0625, 17.958332, 17.71875, 17.25, 16.455357, 15.535714, 14.636904, 14.1875, 13.732143, 12.959821, 12.486905, -10, -10, -10, 16, 16.208334, 16.291666, 16.25, 16.375, 16.4375, 16.410713, 16.375, 16.25, 16.0625, 16.0625, 16.125, 16.125, 16.125, 16.0625, 16, 16.25, 16.5, 16.75, 17, 17, 17, 17, 17.0625, 17.25, 17.4375, 17.625, 17.8125, 17.875, 17.9375, 18.25, 18.4375, 18.625, 18.875, 18.875, 18.8125, 18.75, 18.625, 18.5625, 18.625, 18.625, 18.714287, 18.857143, 18.928572, 19.0625, 19.1875, 19.25, 19.294643, 19.098213, 19.080357, 18.955357, 18.875, 19.053572, 19, 19.270834, 19.366072, 19.375, 19.4375, 19.625, 19.75, 19.8125, 19.8125, 19.75, 19.625, 19.625, 19.5625, 19.4375, 19.4375, 19.375, 19.3125, 19.401787, 19.544643, 19.616072, 19.5, 19.4375, 19.375, 19.25, 19.25, 19, 18.75, 18.75, 18.6875, 18.821428, 19.208334, 19.294643, 19.357143, 19.25, 19.1875, 18.982143, 18.604166, 18.508928, 18.5625, 18.625, 18.6875, 18.625, 18.5, 18.3125, 18.1875, 17.830357, 17.4375, 17, 16.625, 16.4375, 16.3125, 16.25, 16.116072, 15.604167, 15.455357, 15.4375, 15.571428, 15.9375, 16.0625, 16.1875, 16.044643, 15.812925, 14.222221, 13.534013, 13, 12.625, 12.3125, 12.1875, 12.0625, 12, 12, 12.125, 12.125, 12.125, 12.1875, 12.0625, 12.0625, 12.125, 12.0625, 12.1875, 12.25, 12.25, 12.25, 12.125, 12.0625, 12, 12, 12, 12.0625, 12.3125, 12.5625, 12.75, 12.9375, 12.9375, 13, 13.0625, 13.0625, 13.0625, 12.9375, 13, 13, -10, -10, -10, -10, -10, -10, -10, -10, -10, -10, -10, -10, -10, -10, -10, -10, -10, -10, -10, -10, -10, -10, -10, -10, -10, -10, -10, -10, -10
103.25, 102.7381, 102.0625, 101.25893, 100.57143, 100.125, 99.482147, 98.690475, 98.25, 97.651794, 96.684532, 96.178574, 95.458336, 94.693451, 93.886902, 92.833328, 91.833328, 91.25, 90.75, 90.1875, 89.642853, 89.1875, 88.8125, 88.321426, 87.208336, 86.64286, 86.1875, 85.875, 85.616074, 84.62381, 83.166664, 82.083328, 81.25, 80.660713, 79.964279, 78.8125, 77.958328, 77.60714, 77.223213, 76.321426, 75.785713, 75.0625, 74.464287, 73.955353, 73.366074, 72.485123, 71.883926, 70.988091, 70.258926, 69.589279, 69.026787, 68.392853, 67.642853, 66.815475, 65.958336, 65.258926, 64.401779, 63.74107, 63.071426, 62.392857, 61.785713, 61.125, 60.464287, 59.892857, 58.666668, 58.0625, 57.3125, 56.288689, 55.535717, 54.955357, 54.267857, 53.410713, 52.785713, 51.770836, 51.348213, 50.803574, 50.104168, 49.5, 48.9375, 48.104168, 47.214287, 46.48214, 45.892857, 45.258926, 44.279762, 43.380955, 42.767857, 42.125, 41.473213, 40.892857, 39.895836, 39.205357, 38.589287, 37.916668, 37.3125, 36.767857, 35.979168, 35.050598, 34.205357, 33.491074, 32.973213, 32.5625, 31.535713, 30.933334, 30.305555, 29.785713, 29.333334, 2.9375, 3, 3, 25.666666, 24.891666, 23.625, 22.92857, 22.458334, 22.5, -10, -10, -10, 18.125, 17.999998, 17.75, 17.25, 16.526785, 15.714286, 14.806547, 14.196428, 13.696428, 13.188988, 12.808333, -10, -10, 15.785714, 16, 16.020834, 16.0625, 16, 16.0625, 16.1875, 16.223213, 16.25, 16.1875, 16.0625, 16, 16, 16, 16, 16.0625, 16.125, 16.375, 16.5625, 16.6875, 16.8125, 16.8125, 16.875, 16.9375, 17.125, 17.3125, 17.4375, 17.625, 17.75, 17.8125, 17.9375, 18.1875, 18.3125, 18.4375, 18.625, 18.625, 18.5625, 18.5, 18.375, 18.3125, 18.375, 18.375, 18.526787, 18.732143, 18.866072, 19, 19.125, 19.1875, 19.232143, 19.098213, 19.017857, 18.919643, 18.875, 18.875, 18.821428, 19.145834, 19.303572, 19.375, 19.4375, 19.5, 19.5625, 19.5625, 19.5, 19.4375, 19.3125, 19.3125, 19.3125, 19.25, 19.3125, 19.3125, 19.4375, 19.5625, 19.5625, 19.625, 19.5, 19.375, 19.25, 19.017857, 18.9375, 18.6875, 18.625, 18.75, 18.75, 18.9375, 19.0625, 19.125, 19.232143, 19.125, 19.0625, 18.875, 18.6875, 18.6875, 18.75, 18.8125, 18.875, 18.8125, 18.6875, 18.4375, 18.1875, 17.736607, 17.28125, 16.78125, 16.40625, 16.125, 15.9375, 15.875, 15.75, 15.5, 15.4375, 15.4375, 15.571428, 15.9375, 16, 16.0625, 15.714287, 14.168651, 13.35374, 12.806547, 12.5, 12.4375, 12.3125, 12.1875, 12.125, 12, 12, 12.1875, 12.1875, 12.1875, 12.25, 12.0625, 12.0625, 12.125, 12.0625, 12.125, 12.25, 12.3125, 12.3125, 12.25, 12.125, 12, 12.0625, 12.0625, 12.1875, 12.4375, 12.625, 12.8125, 12.875, 12.875, 12.9375, 13, 13.0625, 13.0625, 12.9375, 13, 13, -10, -10, -10, -10, -10, -10, -10, -10, -10, -10, -10, -10, -10, -10, -10, -10, -10, -10, -10, -10, -10, -10, -10, -10, -10, -10, -10, -10, -10, -10, -10, -10, -10, -10, -10, -10, -10, -10, -10, -10, -10, -10, -10, -10, -10, -10, -10, -10, -10, -10, -10, -10, -10, -10, -10, -10, -10, -10, -10, -10, -10, -10, -10, -10, -10, -10, -10, -10, -10, -10, -10, -10, -10, -10, -10, -10, -10, -10, -10, -10, -10, -10, -10, -10, -10, -10, -10, -10, 103.95834, 102.9, 102.60715, 101.9375, 101.25893, 100.5, 100.01785, 99.419647, 98.601181, 98.0625, 97.357147, 96.350342, 95.836731, 95.190483, 94.586304, 93.761902, 92.761902, 91.916664, 91.392853, 90.9375, 90.375, 89.839279, 89.145836, 88.6875, 88.071426, 87.083336, 86.5625, 86.125, 85.8125, 85.553574, 84.588089, 83.25, 82.083328, 81.205353, 80.598213, 80.017853, 78.907738, 77.833328, 77.35714, 76.973213, 76.363091, 75.866074, 75.196426, 74.297623, 73.714279, 73.125, 72.526779, 71.955353, 71.050591, 70.267853, 69.660713, 69.0625, 68.330353, 67.464279, 66.678574, 65.851189, 65.258926, 64.508926, 63.764881, 63.071426, 62.330357, 61.67857, 61.0625, 60.455357, 59.892857, 58.666668, 58.0625, 57.383926, 56.467262, 55.776783, 55.133926, 54.351189, 53.244049, 52.535713, 51.729168, 51.339287, 50.794647, 50.041668, 49.535713, 48.830357, 48.1875, 47.276787, 46.428574, 45.785713, 45.196426, 44.270836, 43.309525, 42.660713, 42.0625, 41.455357, 40.892857, 39.927086, 39.352676, 38.727676, 38.010418, 37.258926, 36.660713, 36.0625, 35.113098, 34.214287, 33.419643, 32.785713, 32.270832, 31.690475, 31.166666, 30.75, 2.75, 2.8333333, 2.9375, 3, 3, 3, 24.85, 23.983334, 23.238094, 22.708334, 22.416666, -10, -10, -10, 18.375, 18.124998, 17.8125, 17.104166, 16.526785, 15.830357, 14.976191, 14.241072, 13.736607, 13.366072, 12.989583, 13.428572, 15, 15.619046, 15.875, 15.75, 15.6875, 15.625, 15.625, 15.75, 15.785714, 15.8125, 15.875, 15.875, 15.9375, 15.9375, 15.9375, 15.9375, 16.0625, 16.25, 16.5, 16.616072, 16.5, 16.625, 16.669643, 16.8125, 16.9375, 17.125, 17.3125, 17.446428, 17.833334, 17.919643, 17.9375, 17.9375, 18, 18, 18.0625, 18.25, 18.3125, 18.3125, 18.1875, 18, 17.9375, 18.0625, 18.232143, 18.464287, 18.732143, 18.866072, 19, 19.125, 19.1875, 19.169643, 19.0625, 19.125, 19.098213, 19.125, 19.125, 19, 19.125, 19.1875, 19.1875, 19.25, 19.25, 19.3125, 19.3125, 19.25, 19.1875, 19.0625, 19.0625, 19.0625, 19, 19.0625, 19.0625, 19.25, 19.348213, 19.205357, 19.354166, 19.375, 19.25, 19.125, 18.767857, 18.625, 18.375, 18.4375, 18.5, 18.5, 18.6875, 18.75, 18.875, 19.0625, 19.0625, 19, 18.9375, 18.75, 18.8125, 18.875, 18.875, 18.9375, 18.9375, 18.8125, 18.5, 18.080357, 17.611607, 17.09375, 16.65625, 16.34375, 16, 15.875, 15.8125, 15.625, 15.4375, 15.3125, 15.3125, 15.508928, 15.8125, 15.821428, 15.714286, 15.204082, 13.2517, 12.639881, 12.285714, 12.1875, 12.4375, 12.4375, 12.3125, 12.3125, 12.125, 12.0625, 12.3125, 12.25, 12.25, 12.25, 12, 12, 12.0625, 12.0625, 12.125, 12.25, 12.375, 12.375, 12.3125, 12.1875, 12, 12.0625, 12.0625, 12.1875, 12.4375, 12.625, 12.75, 12.75, 12.75, 12.75, 12.875, 13, 13, 13, 13.0625, 13.083333, -10, -10, -10, -10, -10, -10, -10, -10, -10, -10, -10, -10, -10, -10, -10, -10, -10, -10, -10, -10, -10, -10, -10, -10, -10, -10, -10, -10, -10
102.9, 102.46429, 101.75893, 101.13393, 100.48213, 99.955353, 99.303574, 98.577377, 98.0625, 97.294647, 96.190483, 95.60714, 95.0625, 94.598213, 93.75, 92.833328, 92.178574, 91.559525, 91.133926, 90.5625, 90.035713, 89.104172, 88.5625, 87.946426, 87.020836, 86.544647, 86.1875, 85.848213, 85.517853, 84.671432, 83.25, 82.392853, 81.306549, 80.741074, 80.080353, 78.916664, 77.833328, 77.214287, 76.758926, 76.291664, 75.75, 75.089287, 74.172623, 73.589279, 73.0625, 72.517853, 71.883926, 70.943451, 70.142853, 69.535713, 69, 68.3125, 67.464279, 66.66964, 65.964287, 65.258926, 64.392853, 63.595238, 63, 62.25, 61.57143, 61, 60.375, 59.785713, 58.833336, 58.196426, 57.45536, 56.547615, 55.88393, 55.196426, 54.372021, 53.059525, 52.35714, 51.75, 51.392857, 50.919647, 50.157742, 49.559525, 48.830357, 48.041668, 47.205353, 46.410713, 45.785713, 45.196426, 44.270836, 43.380955, 42.767857, 42.125, 41.464287, 40.892857, 39.989586, 39.46875, 38.751488, 38.081844, 37.375, 36.684525, 36.0625, 35.258926, 34.285713, 33.5, 32.892857, 32.25, 31.660713, 31.1875, 30.75, 3, 3, 3, 3, 3, 3, 24.833334, 24.144445, 23.309523, 22.791666, 22.375, 21.285715, 20.285715, 19.535713, 18.625, 18.333332, 17.9375, 17.03125, 16.535715, 15.946428, 15.145833, 14.25, 13.629463, 13.3125, 13.114583, 13.619048, 14.833333, 15.339285, 15.5, 15.375, 15.3125, 15.375, 15.4375, 15.5, 15.5, 15.5, 15.625, 15.6875, 15.75, 15.75, 15.75, 15.8125, 16.0625, 16.375, 16.59375, 16.647322, 16.40625, 16.40625, 16.482143, 16.6875, 16.875, 17.125, 17.3125, 17.508928, 18.002975, 18.044643, 18, 17.830357, 17.75, 17.625, 17.6875, 17.875, 18, 18.125, 18.0625, 17.9375, 17.9375, 18.0625, 18.169643, 18.339287, 18.544643, 18.678572, 18.875, 18.9375, 18.9375, 18.9375, 18.9375, 19, 19.0625, 19.0625, 19, 18.875, 19, 19, 19.0625, 19.125, 19.0625, 19.125, 19.0625, 19, 18.9375, 18.8125, 18.8125, 18.875, 18.875, 18.9375, 19, 19.0625, 19.035713, 18.830357, 18.979166, 19.1875, 19.1875, 19.017857, 18.589285, 18.375, 18.1875, 18.3125, 18.375, 18.375, 18.5, 18.5, 18.5625, 18.6875, 18.6875, 18.625, 18.6875, 18.6875, 18.8125, 18.875, 18.8125, 18.875, 18.8125, 18.625, 18.267857, 17.767857, 17.392857, 16.973213, 16.517857, 16.258928, 15.9375, 15.875, 15.8125, 15.5625, 15.375, 15.25, 15.25, 15.4375, 15.5, 15.383928, 14.357142, 13.714287, 12.791666, 12.285713, 12, 12.0625, 12.3125, 12.375, 12.3125, 12.3125, 12.125, 12.0625, 12.25, 12.1875, 12.1875, 12.1875, 12, 12, 12, 12, 12.0625, 12.1875, 12.375, 12.375, 12.3125, 12.1875, 12, 12.0625, 12.0625, 12.1875, 12.4375, 12.625, 12.8125, 12.75, 12.6875, 12.6875, 12.75, 12.9375, 13, 13, 13, 13, -10, -10, -10, -10, -10, -10, -10, -10, -10, -10, -10, -10, -10, -10, -10, -10, -10, -10, -10, -10, -10, -10, -10, -10, -10, -10, -10, -10, -10, -10, -10, -10, -10, -10, -10, -10, -10, -10, -10, -10, -10, -10, -10, -10, -10, -10, -10, -10, -10, -10, -10, -10, -10, -10, -10, -10, -10, -10, -10, -10, -10, -10, -10, -10, -10, -10, -10, -10, -10, -10, -10, -10, -10, -10, -10, -10, -10, -10, -10, -10, -10, -10, -10, -10, -10, -10, -10, -10, 103.95834, 102.8, 102.42857, 101.80357, 101.13393, 100.51785, 99.892853, 99.1875, 98.553574, 98.0625, 97.294647, 96.119049, 95.5, 95, 94.580353, 93.714287, 92.666664, 92.035721, 91.372025, 91.008926, 90.5625, 90.080353, 89.104172, 88.383926, 87.696426, 87.083336, 86.553574, 86.196426, 85.494049, 85.160713, 84.607147, 83.39286, 82.795914, 81.327377, 80.776787, 80.080353, 79.0625, 77.833328, 77.107147, 76.642853, 76.3125, 75.8125, 75.098213, 74.172623, 73.589279, 73.0625, 72.446426, 71.705353, 70.91964, 70.142853, 69.535713, 69, 68.3125, 67.535713, 66.776779, 66.089287, 65.446426, 64.404762, 63.630955, 63, 62.3125, 61.67857, 61.0625, 60.321426, 59.678574, 58.916668, 58.1875, 57.348213, 56.535713, 55.848213, 55.196426, 54.434521, 53.166664, 52.273808, 51.6875, 51.3125, 50.8125, 50.095242, 49.541664, 48.830357, 48.041668, 47.205353, 46.339287, 45.67857, 45.125, 44.4375, 43.630955, 42.955357, 42.196426, 41.410713, 40.785713, 40.072918, 39.59375, 38.876488, 37.998512, 37.25, 36.497025, 35.892857, 35.1875, 34.276787, 33.57143, 33, 32.3125, 31.67857, 31.25, 30.890625, 30.17857, 28.104166, 27.375, 26.8125, 3, 3, 3, 3, 23.653273, 22.988094, 22.363094, 21.285715, 20.285715, 19.5, 18.8125, 18.416666, 17.96875, 17, 16.428572, 15.875, 15.258928, 14.208333, 13.575893, 13.34375, 13.34375, 13.821428, 14.8125, 15.089285, 15.25, 15.125, 15.0625, 15.125, 15.1875, 15.1875, 15.1875, 15.1875, 15.3125, 15.4375, 15.5, 15.5, 15.5, 15.5625, 15.875, 16.3125, 16.566963, 16.584822, 16.28125, 16.15625, 16.294643, 16.5625, 16.8125, 17.0625, 17.1875, 17.321428, 17.877975, 18.019644, 17.803572, 17.642857, 17.375, 17.3125, 17.4375, 17.5625, 17.75, 18, 17.973213, 17.9375, 18, 18.0625, 18.232143, 18.4375, 18.5, 18.625, 18.8125, 18.75, 18.75, 18.75, 18.75, 18.875, 19, 19, 18.9375, 18.8125, 18.875, 18.8125, 18.8125, 18.9375, 18.875, 18.9375, 18.9375, 18.875, 18.8125, 18.6875, 18.625, 18.625, 18.625, 18.75, 18.875, 19, 18.973213, 18.705357, 18.791666, 19, 19.0625, 18.955357, 18.526785, 18.25, 18.0625, 18.1875, 18.25, 18.25, 18.3125, 18.25, 18.3125, 18.4375, 18.4375, 18.375, 18.4375, 18.5625, 18.6875, 18.75, 18.6875, 18.625, 18.5, 18.25, 17.892857, 17.455357, 17.25, 16.910713, 16.517857, 16.258928, 15.875, 15.75, 15.6875, 15.4375, 15.3125, 15.25, 15.1875, 15.205357, 14.895833, 14.633928, 13.591836, 13.12245, 12.520833, 12.142857, 11.9375, 11.9375, 12.125, 12.1875, 12.1875, 12.25, 12.1875, 12.125, 12.25, 12.1875, 12.125, 12.125, 12.0625, 12.125, 12.125, 12.1875, 12.1875, 12.25, 12.4375, 12.4375, 12.375, 12.25, 12.0625, 12.0625, 12.125, 12.1875, 12.4375, 12.625, 12.75, 12.6875, 12.5625, 12.5625, 12.625, 12.875, 13, 13, 13, 13, -10, -10, -10, -10, -10, -10, -10, -10, -10, -10, -10, -10, -10, -10, -10, -10, -10, -10, -10, -10, -10, -10, -10, -10, -10, -10, -10, -10, -10
102.88334, 102.5, 101.72024, 101.07143, 100.5, 99.892853, 99.1875, 98.553574, 98, 97.25, 96.35714, 95.678574, 95.1875, 94.580353, 93.607147, 92.75, 92.223221, 91.532738, 90.800591, 90.330353, 89.830353, 88.979172, 88.25, 87.434517, 87, 86.5, 86.196426, 85.494049, 85.160713, 84.64286, 83.559525, 82.857147, 81.577377, 80.964287, 80.104164, 79.3125, 78.038689, 77.25, 76.767853, 76.375, 75.875, 75.178574, 74.351196, 73.758926, 73.071426, 72.401779, 71.642853, 70.764877, 70.071426, 69.455353, 68.892853, 68.28125, 67.620529, 66.915176, 66.183037, 65.455353, 64.404762, 63.630955, 63, 62.375, 61.785713, 61.125, 60.267853, 59.57143, 59, 58.25, 57.42857, 56.714287, 55.872025, 55.133926, 54.416664, 53.416664, 52.404762, 51.8125, 51.3125, 50.776787, 50.178574, 49.532738, 48.785713, 47.979168, 46.967258, 46.196426, 45.598213, 45, 44.321426, 43.607143, 42.955357, 42.196426, 41.410713, 40.785713, 40.072918, 39.59375, 38.876488, 37.998512, 37.321426, 36.550598, 35.809525, 35.125, 34.267857, 33.57143, 33, 32.3125, 31.67857, 31.3125, 30.927084, 30.190475, 28.083334, 27.261904, 26.666666, 26.15625, 25.875, 25.291666, 24.824999, 23.807291, 23.081844, 22.339285, 21.464287, 20.297621, 19.517857, 19, 18.5, 18, 17.03125, 16.392859, 15.84375, 15.232142, 14.074405, 13.504464, 13.34375, 13.53125, 14.071428, 14.75, 14.883928, 14.875, 14.8125, 14.75, 14.875, 14.9375, 14.8125, 14.75, 14.75, 14.9375, 15.125, 15.25, 15.25, 15.3125, 15.375, 15.6875, 16.125, 16.316963, 16.397322, 16.15625, 16.09375, 16.294643, 16.5625, 16.8125, 17, 17.0625, 17.133928, 17.565475, 17.644644, 17.366072, 17.142857, 16.875, 16.875, 17.0625, 17.169643, 17.299999, 17.678572, 17.580357, 17.651787, 17.857143, 17.991072, 18.232143, 18.4375, 18.4375, 18.5, 18.625, 18.5, 18.5, 18.5, 18.5, 18.625, 18.75, 18.75, 18.6875, 18.5625, 18.5625, 18.5, 18.5, 18.625, 18.625, 18.6875, 18.6875, 18.6875, 18.625, 18.5, 18.4375, 18.375, 18.375, 18.5, 18.6875, 18.8125, 18.785713, 18.580357, 18.604166, 18.8125, 18.9375, 18.892857, 18.633928, 18.375, 18.1875, 18.1875, 18.125, 18.125, 18.125, 18.0625, 18.125, 18.1875, 18.1875, 18.125, 18.125, 18.1875, 18.3125, 18.375, 18.375, 18.3125, 18.125, 17.875, 17.517857, 17.205357, 17.125, 16.910713, 16.705357, 16.446428, 15.895833, 15.732143, 15.5625, 15.375, 15.25, 15.125, 14.991072, 14.684524, 13.95238, 13.540816, 12.955357, 12.553572, 12.1875, 12, 11.9375, 11.9375, 12.0625, 12.125, 12.125, 12.1875, 12.1875, 12.125, 12.25, 12.1875, 12.125, 12.125, 12.125, 12.1875, 12.25, 12.3125, 12.25, 12.25, 12.3125, 12.3125, 12.25, 12.1875, 12.0625, 12.0625, 12.1875, 12.1875, 12.375, 12.5, 12.5, 12.5, 12.375, 12.4375, 12.5625, 12.8125, 13, 13, 13, 13, -10, -10, -10, -10, -10, -10, -10, -10, -10, -10, -10, -10, -10, -10, -10, -10, -10, -10, -10, -10, -10, -10, -10, -10, -10, -10, -10, -10, -10, -10, -10, -10, -10, -10, -10, -10, -10, -10, -10, -10, -10, -10, -10, -10, -10, -10, -10, -10, -10, -10, -10, -10, -10, -10, -10, -10, -10, -10, -10, -10, -10, -10, -10, -10, -10, -10, -10, -10, -10, -10, -10, -10, -10, -10, -10, -10, -10, -10, -10, -10, -10, -10, -10, -10, -10, -10, -10, -10, 103.70834, 103.16667, 102.71429, 101.90774, 101.15179, 100.67857, 100.07143, 99.145836, 98.5, 97.9375, 97.25, 96.285713, 95.571426, 95.0625, 94.428574, 93.666672, 92.883926, 92.330353, 91.223213, 90.380951, 89.892853, 89.508926, 89.020836, 88.4375, 87.747017, 87.205353, 86.6875, 86.321426, 85.619049, 85.223213, 84.714287, 83.559525, 82.857147, 81.577377, 80.964287, 79.8125, 79.0625, 78.205353, 77.48214, 77.080353, 76.5625, 76.008926, 75.065475, 74.392853, 73.75, 73.026787, 72.276779, 71.455353, 70.523811, 69.892853, 69.3125, 68.767853, 68.21875, 67.611603, 66.986603, 66.290176, 65.455353, 64.297615, 63.607143, 63, 62.375, 61.785713, 61.125, 60.122025, 59.5, 58.9375, 58.25, 57.357143, 56.607143, 55.809525, 55.125, 54.476189, 53.708332, 52.717262, 52.008926, 51.321426, 50.74107, 50.178574, 49.416668, 48.785713, 47.979168, 46.738094, 46.053574, 45.517857, 44.9375, 44.383926, 43.785713, 43.125, 42.267857, 41.428574, 40.785713, 40.041668, 39.446426, 38.738098, 37.904762, 37.375, 36.657738, 35.726192, 35.0625, 34.321426, 33.67857, 33.0625, 32.258926, 31.571428, 31.25, 30.8125, 30.299107, 28.526785, 27.300594, 26.642857, 26.104166, 25.833334, 25.375, 24.815475, 23.890625, 23.144344, 22.419641, 21.642857, 20.642859, 19.5, 19, 18.5, 17.75, 16.764584, 16.178572, 15.65625, 15.169642, 14.145833, 13.535714, 13.5, 13.75, 14.339287, 14.6875, 14.75, 14.625, 14.625, 14.5625, 14.75, 14.8125, 14.625, 14.5, 14.4375, 14.5625, 14.6875, 14.8125, 14.875, 14.9375, 15.0625, 15.375, 15.75, 16.004463, 16.15625, 16.15625, 16.09375, 16.3125, 16.5625, 16.8125, 17, 17.0625, 17, 17.107143, 16.9, 16.525511, 16.642857, 16.5, 16.5625, 16.75, 16.794643, 16.862499, 17.241072, 17.267857, 17.464287, 17.794643, 17.928572, 18.0625, 18.3125, 18.25, 18.3125, 18.4375, 18.25, 18.25, 18.25, 18.25, 18.375, 18.5, 18.5, 18.4375, 18.3125, 18.25, 18.1875, 18.1875, 18.3125, 18.375, 18.4375, 18.5, 18.5, 18.4375, 18.3125, 18.1875, 18.125, 18.125, 18.25, 18.4375, 18.5, 18.5625, 18.5625, 18.5625, 18.6875, 18.75, 18.642857, 18.508928, 18.3125, 18.125, 18.0625, 18, 17.9375, 17.9375, 17.875, 17.875, 17.9375, 18, 17.9375, 17.875, 17.9375, 18, 18, 18, 17.875, 17.625, 17.4375, 17.205357, 17.0625, 16.955357, 16.683674, 16.479593, 16.188776, 15.458333, 15.357143, 15.1875, 15.125, 15.017857, 14.785714, 14.591837, 13.934524, 13.395833, 13.0625, 12.642857, 12.375, 12.1875, 12.0625, 12, 12, 12, 12, 12, 12, 12.0625, 12.0625, 12.1875, 12.1875, 12.125, 12.125, 12.125, 12.1875, 12.25, 12.3125, 12.1875, 12.125, 12.125, 12.125, 12.125, 12.125, 12.0625, 12.125, 12.3125, 12.3125, 12.4375, 12.4375, 12.375, 12.375, 12.25, 12.3125, 12.375, 12.5625, 12.75, 12.8125, 12.875, 12.916667, -10, -10, -10, -10, -10, -10, -10, -10, -10, -10, -10, -10, -10, -10, -10, -10, -10, -10, -10, -10, -10, -10, -10, -10, -10, -10, -10, -10, -10
103.22917, 102.90179, 102.14881, 101.28571, 100.69643, 100.19643, 99.369049, 98.678574, 98.044647, 97.258926, 96.285713, 95.5, 94.892853, 94.25, 93.625, 92.875, 92.258926, 90.889885, 90.023804, 89.517853, 89.25, 89.0625, 88.5, 87.693443, 87.16964, 86.6875, 86.196426, 85.404762, 84.973213, 84.464287, 83.380951, 82.422623, 81.440475, 80.866074, 79.8125, 79.0625, 78.205353, 77.553574, 77.1875, 76.6875, 76.196426, 75.089279, 74.464279, 73.8125, 73.098213, 72.172623, 71.455353, 70.559525, 69.809525, 69.1875, 68.642853, 68.09375, 67.424103, 66.745537, 66.111603, 65.383926, 64.351189, 63.714283, 63.0625, 62.383926, 61.785713, 61.125, 59.976189, 59.42857, 58.875, 58.25, 57.42857, 56.714287, 55.872025, 55.205357, 54.642857, 54.0625, 52.967262, 52.142857, 51.267857, 50.57143, 50, 49.3125, 48.67857, 48.0625, 46.800594, 46.071434, 45.517857, 44.9375, 44.419643, 43.861607, 43.15625, 42.299107, 41.5, 40.892857, 40.041668, 39.339287, 38.714287, 37.895836, 37.375, 36.574402, 35.726192, 35.107143, 34.321426, 33.714287, 33.0625, 32.321426, 31.67857, 31.104166, 30.625, 30.138393, 28.663689, 27.026785, 26.285713, 25.828125, 25.625, 25.21875, 24.736607, 24.140625, 23.290178, 22.5, 21.821428, 20.988096, -10, -10, -10, 17.625, 16.8375, 16.178572, 15.611607, 15.138392, 14.261905, 13.767857, 13.6875, 13.90625, 14.339287, 14.5625, 14.625, 14.5, 14.5, 14.4375, 14.5625, 14.5625, 14.375, 14.1875, 14, 14, 14.232143, 14.464286, 14.65625, 14.78125, 14.90625, 15.125, 15.375, 15.660714, 15.875, 16.0625, 16.1875, 16.4375, 16.625, 16.75, 16.8125, 16.8125, 16.6875, 16.625, 16.6625, 16.366072, 16.4375, 16.366072, 16.3125, 16.4375, 16.357143, 16.424999, 16.803572, 16.892857, 17.151787, 17.544643, 17.678572, 17.875, 18.1875, 18.1875, 18.25, 18.3125, 18.0625, 18.0625, 18.0625, 18.0625, 18.1875, 18.25, 18.25, 18.25, 18.1875, 18.125, 18.0625, 18, 18.0625, 18.125, 18.1875, 18.25, 18.25, 18.125, 18, 17.875, 17.75, 17.8125, 17.9375, 18.125, 18.3125, 18.5, 18.625, 18.625, 18.625, 18.5625, 18.5, 18.375, 18.25, 18, 17.8125, 17.8125, 17.6875, 17.6875, 17.75, 17.75, 17.8125, 17.9375, 17.8125, 17.625, 17.625, 17.5625, 17.5625, 17.625, 17.5, 17.3125, 17.1875, 17.0625, 16.9375, 16.705357, 15.867347, 15.545918, 15.041667, 14.958333, 14.857143, 14.6875, 14.616072, 14.309524, 13.428571, 13.190476, 13.057823, 12.770833, 12.5625, 12.3125, 12.125, 12.0625, 12, 12, 12, 12, 12, 12, 12, 12.0625, 12.0625, 12.1875, 12.1875, 12.1875, 12.25, 12.25, 12.3125, 12.4375, 12.5, 12.375, 12.3125, 12.25, 12.1875, 12.1875, 12.1875, 12.0625, 12.125, 12.3125, 12.3125, 12.375, 12.3125, 12.1875, 12.1875, 12.125, 12.1875, 12.25, 12.375, 12.5625, 12.6875, 12.8125, 12.916667, -10, -10, -10, -10, -10, -10, -10, -10, -10, -10, -10, -10, -10, -10, -10, -10, -10, -10, -10, -10, -10, -10, -10, -10, -10, -10, -10, -10, -10, -10, -10, -10, -10, -10, -10, -10, -10, -10, -10, -10, -10, -10, -10, -10, -10, -10, -10, -10, -10, -10, -10, -10, -10, -10, -10, -10, -10, -10, -10, -10, -10, -10, -10, -10, -10, -10, -10, -10, -10, -10, -10, -10, -10, -10, -10, -10, -10, -10, -10, -10, -10, -10, -10, -10, -10, -10, -10, 103.5, 103.45834, 103.31251, 102.9375, 102.16666, 101.42857, 100.60119, 100.125, 99.270836, 98.493202, 97.82653, 96.883926, 96.089279, 95.357147, 94.767853, 94.125, 93.535706, 93.125, 92.464287, 91.095238, 90.148804, 89.517853, 89.205353, 89.125, 88.678574, 87.675591, 87.071426, 86.5625, 86.0625, 85.508926, 84.973213, 84.428574, 83.309525, 82.130951, 81.428574, 80.875, 79.875, 79.083336, 78.092262, 77.482147, 77.0625, 76.5625, 75.955353, 74.910713, 74.383926, 73.741074, 72.952377, 72.101196, 71.508926, 70.729164, 69.988098, 69.145836, 68.571426, 68.03125, 67.34375, 66.566963, 65.879463, 65.133926, 64.392853, 63.785713, 63.125, 62.330357, 61.678574, 61.0625, 59.967262, 59.42857, 58.875, 58.25, 57.42857, 56.785713, 55.979168, 55.122025, 54.589287, 54, 53.113094, 52.285713, 51.455357, 50.595238, 50, 49.25, 48.57143, 48, 46.791664, 46.14286, 45.625, 45, 44.366074, 43.754463, 43.09375, 42.290176, 41.57143, 41, 40.104168, 39.285713, 38.607147, 37.979168, 37.446426, 36.470238, 35.726192, 35.142857, 34.330357, 33.75, 33.0625, 32.383926, 31.785713, 31.166666, 30.671875, 29.918156, 28.831844, 27.196428, 26.450893, 25.723959, 25.446428, 25.03125, 24.549107, 23.939732, 23.28125, 22.61607, 22.125, 21.5, -10, -10, -10, 17.625, 16.893749, 16.119049, 15.540178, 15.098214, 14.459822, 14.040178, 13.90625, 13.96875, 14.232143, 14.375, 14.375, 14.25, 14.25, 14.1875, 14.3125, 14.3125, 14.1875, 14, 13.8125, 13.8125, 13.982143, 14.276786, 14.53125, 14.71875, 14.96875, 15.125, 15.25, 15.5, 15.6875, 16, 16.3125, 16.5625, 16.75, 16.75, 16.6875, 16.6875, 16.625, 16.5625, 16.5, 16.375, 16.375, 16.285715, 16.0625, 16.125, 15.982143, 16.049999, 16.303572, 16.419643, 16.714287, 17.169643, 17.428572, 17.625, 17.875, 17.875, 17.9375, 18, 17.8125, 17.8125, 17.75, 17.6875, 17.75, 17.75, 17.75, 17.75, 17.75, 17.75, 17.75, 17.75, 17.8125, 17.8125, 17.8125, 17.8125, 17.8125, 17.75, 17.6875, 17.625, 17.5, 17.625, 17.75, 17.9375, 18.1875, 18.4375, 18.6875, 18.75, 18.75, 18.5625, 18.3125, 18.151787, 18, 17.75, 17.625, 17.625, 17.5625, 17.625, 17.6875, 17.625, 17.5625, 17.625, 17.5, 17.3125, 17.25, 17.125, 17.125, 17.125, 17.125, 17.0625, 17, 16.9375, 16.758928, 16.163689, 15.392857, 14.831633, 14.571428, 14.520833, 14.410715, 14.041667, 13.9375, 13.353742, 12.795918, 12.591837, 12.604167, 12.4375, 12.3125, 12.1875, 12, 12, 12, 12, 12, 12, 12, 12, 12, 12, 12.0625, 12.25, 12.25, 12.3125, 12.3125, 12.1875, 12.1875, 12.25, 12.25, 12.1875, 12.1875, 12.1875, 12.1875, 12.1875, 12.1875, 12.0625, 12.125, 12.25, 12.3125, 12.3125, 12.1875, 12.0625, 12, 12, 12.0625, 12.125, 12.1875, 12.375, 12.5625, 12.75, 12.916667, -10, -10, -10, -10, -10, -10, -10, -10, -10, -10, -10, -10, -10, -10, -10, -10, -10, -10, -10, -10, -10, -10, -10, -10, -10, -10, -10, -10, -10
103.39584, 103, 102.39285, 101.64286, 100.47619, 99.982147, 99.208336, 98.312927, 97.559532, 96.738091, 95.98214, 95.214287, 94.642853, 94.0625, 93.517853, 93.125, 92.339287, 90.952377, 90.41964, 89.803574, 89.372017, 89.196426, 88.678574, 87.592262, 87, 86.4375, 85.9375, 85.446426, 84.910713, 84.428574, 83.309525, 82.148811, 81.244049, 80.696426, 79.958336, 79.226196, 77.946426, 77.375, 76.875, 76.4375, 75.85714, 74.517853, 73.955353, 73.334824, 72.724701, 71.927086, 71.383926, 70.8125, 70.050598, 69.154762, 68.5, 67.821426, 67.151787, 66.392853, 65.678574, 65.0625, 64.446426, 63.892857, 63.1875, 62.348213, 61.678574, 61.0625, 59.967262, 59.42857, 58.875, 58.25, 57.35714, 56.60714, 55.883926, 55.014881, 54.526787, 53.9375, 53.258926, 52.42857, 51.642857, 50.619049, 50, 49.104168, 48.5, 47.9375, 47.020832, 46.357143, 45.8125, 45.125, 44.375, 43.754463, 43.09375, 42.290176, 41.57143, 41.0625, 40.366074, 39.297619, 38.607147, 38.0625, 37.5, 36.541664, 35.726192, 35.142857, 34.330357, 33.75, 33.0625, 32.383926, 31.785713, 31.104166, 30.53125, 29.757441, 29.035713, 27.270834, 26.535715, 25.708334, 25.330357, 24.830357, 24.330357, 23.767857, 23.25, 22.660713, 22.1875, 21.866665, -10, -10, -10, 17.5, 16.960001, 16.261906, 15.428571, 15.083333, 14.696429, 14.291667, 14.09375, 14.03125, 14.125, 14.125, 14.125, 14.0625, 14.0625, 14, 14.0625, 14.0625, 14, 13.9375, 13.75, 13.6875, 13.794643, 14.089286, 14.40625, 14.59375, 14.90625, 15, 15.0625, 15.3125, 15.5, 15.875, 16.25, 16.5, 16.6875, 16.6875, 16.625, 16.625, 16.5625, 16.5, 16.4375, 16.375, 16.375, 16.214287, 15.666667, 15.666667, 15.708333, 15.928572, 16.125, 16.375, 16.625, 17, 17.3125, 17.5, 17.75, 17.8125, 17.875, 17.9375, 17.741072, 17.5625, 17.5, 17.375, 17.5, 17.5, 17.5, 17.5, 17.5, 17.5, 17.5, 17.5, 17.5625, 17.5625, 17.5625, 17.5625, 17.5625, 17.5, 17.4375, 17.375, 17.1875, 17.3125, 17.4375, 17.625, 17.9375, 18.25, 18.5, 18.5625, 18.625, 18.3125, 17.770834, 17.4375, 17.276785, 17.232143, 17.241072, 17.3125, 17.1875, 17.25, 17.223213, 17.089285, 17.0625, 17.0625, 17.0625, 16.96875, 16.96875, 16.84375, 16.78125, 16.75, 16.8125, 16.875, 16.9375, 16.830357, 16.258928, 15.520832, 14.642857, 14.321428, 14.053572, 13.729167, 13.625, 13.291667, 12.964286, 12.557823, 12.321428, 12.178572, 12.1875, 12.25, 12.25, 12.1875, 12.0625, 12, 12, 12, 12, 12, 12, 12, 12, 12, 12.0625, 12.1875, 12.1875, 12.25, 12.25, 12.125, 12.125, 12.125, 12.1875, 12.25, 12.25, 12.3125, 12.25, 12.1875, 12.1875, 12.0625, 12.0625, 12.125, 12.1875, 12.1875, 12.125, 12.0625, 12.0625, 12.0625, 12.0625, 12.0625, 12.0625, 12.25, 12.5, 12.75, 12.916667, -10, -10, -10, -10, -10, -10, -10, -10, -10, -10, -10, -10, -10, -10, -10, -10, -10, -10, -10, -10, -10, -10, -10, -10, -10, -10, -10, -10, -10, -10, -10, -10, -10, -10, -10, -10, -10, -10, -10, -10, -10, -10, -10, -10, -10, -10, -10, -10, -10, -10, -10, -10, -10, -10, -10, -10, -10, -10, -10, -10, -10, -10, -10, -10, -10, -10, -10, -10, -10, -10, -10, -10, -10, -10, -10, -10, -10, -10, -10, -10, -10, -10, -10, -10, -10, -10, -10, -10, 103.70834, 103.47916, 103.0625, 102.4137, 101.45834, 100.29762, 99.848221, 99.375, 98.613091, 98.132652, 96.747017, 95.98214, 95.214287, 94.642853, 94.125, 93.625, 92.979164, 92.303574, 91.306549, 90.901787, 90.303574, 89.538689, 89.267853, 88.678574, 87.601189, 86.815475, 86.1875, 85.6875, 85.196426, 84.598213, 84.071426, 83.226189, 82.104172, 81.244049, 80.696426, 80.25, 79.547623, 78.321426, 77.75, 76.912498, 76.25, 75.535713, 74.309525, 73.892853, 73.272324, 72.653275, 71.819939, 71.321426, 70.866074, 70.220238, 69.342262, 68.75, 68.071426, 67.172623, 66.357147, 65.571426, 65.0625, 64.5625, 64.0625, 63.258926, 62.357143, 61.678574, 61.0625, 60.144348, 59.575893, 58.96875, 58.28125, 57.35714, 56.60714, 55.883926, 54.869049, 54.383926, 53.75, 53.089287, 52.357143, 51.696426, 50.726192, 50.071426, 49, 48.428574, 47.875, 47.25, 46.5, 45.892857, 45.25, 44.428566, 43.587795, 42.959824, 42.21875, 41.55357, 41.0625, 40.366074, 39.297619, 38.607147, 38.0625, 37.4375, 36.363094, 35.702381, 35.142857, 34.267857, 33.64286, 33, 32.4375, 31.892857, 31.104166, 30.383928, 29.494047, 28.88393, 27.59524, 26.726191, 25.815477, 25.214285, 24.660713, 24.1875, 23.642857, 23.21875, 22.674107, 22.21875, 21.908333, -10, -10, -10, -10, -10, 16.539682, -10, -10, -10, -10, 13.90625, 13.822917, 13.78125, 13.6875, 13.65625, 13.59375, 13.53125, 13.53125, 13.5625, 13.6875, 13.75, 13.8125, 13.75, 13.6875, 13.857143, 14.089286, 14.40625, 14.59375, 14.924107, 15.098214, 15.0625, 15.25, 15.375, 15.75, 16.125, 16.375, 16.5, 16.4375, 16.4375, 16.4375, 16.4375, 16.4375, 16.375, 16.375, 16.375, 16.214287, 15.666667, 15.666667, 15.645833, 15.866072, 16, 16.1875, 16.5, 16.8125, 17.125, 17.375, 17.5625, 17.6875, 17.741072, 17.625, 17.491072, 17.25, 17.1875, 17.0625, 17.1875, 17.1875, 17.25, 17.25, 17.25, 17.25, 17.25, 17.25, 17.3125, 17.3125, 17.3125, 17.3125, 17.3125, 17.25, 17.1875, 17.125, 16.9375, 17.0625, 17.1875, 17.375, 17.75, 18, 18.25, 18.3125, 18.25, 17.892857, 17.333334, 16.875, 16.651785, 16.6875, 16.886906, 16.982143, 16.9375, 16.9375, 16.848213, 16.651785, 16.53125, 16.285715, 16.53125, 16.5625, 16.59375, 16.46875, 16.40625, 16.375, 16.5, 16.625, 16.616072, 16.247025, 15.580357, 14.877975, 14.392857, 14.071428, 13.657739, 13.238095, 13, 12.476191, 12.5, 12.166667, 12.071428, 11.9375, 12, 12.125, 12.160714, 12.1875, 12.125, 12, 12, 12, 12, 12, 12, 12, 12, 12, 12.0625, 12.125, 12.125, 12.1875, 12.1875, 12.125, 12.125, 12.0625, 12.0625, 12.125, 12.125, 12.25, 12.25, 12.1875, 12.1875, 12.0625, 12, 12, 12.0625, 12.0625, 12.0625, 12.125, 12.1875, 12.1875, 12.1875, 12.1875, 12.1875, 12.4375, 12.6875, 12.875, 13, -10, -10, -10, -10, -10, -10, -10, -10, -10, -10, -10, -10, -10, -10, -10, -10, -10, -10, -10, -10, -10, -10, -10, -10, -10, -10, -10, -10, -10
103.66666, 103.30357, 102.45119, 101.38691, 100.22619, 99.660721, 99.151787, 98.434525, 97.8125, 96.800591, 96.160713, 95.309525, 94.75, 94.25, 93.75, 93.041664, 92.446426, 91.848206, 91.4375, 90.574409, 89.654762, 89.267853, 88.678574, 87.613098, 86.64286, 86, 85.5, 85.125, 84.372025, 83.89286, 83.092262, 82.239586, 81.391373, 80.790176, 80.28125, 79.619049, 78.5625, 78.035713, 76.995834, 76.232147, 75.428574, 74.392853, 73.883926, 73.15625, 72.403275, 71.754463, 71.3125, 70.875, 70.428574, 69.592262, 68.946426, 68.029762, 67.110123, 66.348221, 65.571426, 65.0625, 64.5625, 64.0625, 63.258926, 62.357143, 61.678574, 61.0625, 60.290176, 59.64732, 59.03125, 58.28125, 57.285713, 56.5, 55.821426, 54.642857, 54.205357, 53.625, 53.080357, 52.357143, 51.696426, 50.726192, 50.071426, 49, 48.35714, 47.696426, 47.080357, 46.357143, 45.767857, 45.25, 44.5, 43.452381, 42.857143, 42.125, 41.535713, 41.0625, 40.366074, 39.369049, 38.714287, 37.916668, 37.258926, 36.342262, 35.523811, 34.92857, 34.227676, 33.620537, 33.03125, 32.4375, 31.861607, 31.21875, 30.477678, 29.511904, 29.017857, 28.154762, 27.083334, 26.172619, 25.401785, 24.785713, 24.133928, 23.5, 23.15625, 22.65625, 22.21875, 21.950001, -10, -10, -10, -10, -10, -10, -10, -10, -10, -10, 13.65625, 13.583334, 13.5625, 13.4375, 13.40625, 13.40625, 13.40625, 13.388393, 13.229167, 13.330357, 13.375, 13.625, 13.8125, 13.875, 14, 14.125, 14.3125, 14.4375, 14.776786, 15.181547, 15.241072, 15.4375, 15.5, 15.75, 16, 16.25, 16.375, 16.375, 16.4375, 16.375, 16.3125, 16.3125, 16.1875, 16.1875, 16.1875, 15.964287, 15.375, 15.385417, 15.364583, 15.647322, 15.8125, 16, 16.3125, 16.5, 16.75, 17, 17.125, 17.25, 17.303572, 17.125, 17.053572, 16.8125, 16.75, 16.625, 16.6875, 16.6875, 16.8125, 16.875, 16.9375, 17, 17, 17, 17, 16.9375, 16.875, 16.875, 16.9375, 17, 17.0625, 17, 16.8125, 16.875, 16.9375, 17.125, 17.5, 17.6875, 17.875, 17.9375, 17.714285, 17.341837, 16.773809, 16.306124, 16.030613, 16.3125, 16.636906, 16.669643, 16.6875, 16.6875, 16.473213, 16.276785, 16.09375, 15.90625, 15.96875, 16, 16.03125, 15.96875, 15.96875, 16, 16.1875, 16.303572, 16.032738, 15.39966, 14.622449, 14.127975, 13.714286, 13.491072, 13.095239, 12.738095, 12.5, 12.166667, 12.071428, 12, 12, 11.9375, 11.9375, 12.0625, 12.098214, 12.125, 12.125, 11.9375, 11.90625, 11.90625, 11.90625, 11.96875, 12, 12, 12, 12.0625, 12.125, 12.1875, 12.1875, 12.125, 12.0625, 12.0625, 12.0625, 12.0625, 12.125, 12.1875, 12.25, 12.375, 12.375, 12.25, 12.1875, 12.0625, 12, 12.0625, 12.1875, 12.1875, 12.25, 12.3125, 12.3125, 12.3125, 12.3125, 12.3125, 12.375, 12.625, 12.8125, 12.9375, 13, -10, -10, -10, -10, -10, -10, -10, -10, -10, -10, -10, -10, -10, -10, -10, -10, -10, -10, -10, -10, -10, -10, -10, -10, -10, -10, -10, -10, -10, -10, -10, -10, -10, -10, -10, -10, -10, -10, -10, -10, -10, -10, -10, -10, -10, -10, -10, -10, -10, -10, -10, -10, -10, -10, -10, -10, -10, -10, -10, -10, -10, -10, -10, -10, -10, -10, -10, -10, -10, -10, -10, -10, -10, -10, -10, -10, -10, -10, -10, -10, -10, -10, -10, -10, -10, -10, -10, 104, 104, 103.83333, 103.48215, 102.42619, 101.17262, 100.21429, 99.669647, 99.25, 98.785713, 98.205353, 97.175591, 96.35714, 95.452377, 94.9375, 94.428574, 93.791664, 93.113091, 92.571426, 92.080353, 91.6875, 90.678574, 89.761902, 89.059517, 88.5, 87.666672, 86.595238, 86.008926, 85.491074, 84.895836, 84.157738, 83.70536, 82.958336, 82.34375, 81.462799, 80.852676, 80.28125, 79.607147, 78.818451, 78.321434, 77.129761, 76.276787, 75.428574, 74.321426, 73.714287, 73.040176, 72.415176, 71.671127, 71.258926, 70.75, 70.375, 69.758926, 69.089279, 67.988098, 67.047623, 66.339287, 65.571426, 65.0625, 64.5, 63.883926, 63.089287, 62.285713, 61.660713, 61.0625, 60.290176, 59.64732, 59.03125, 58.28125, 57.285713, 56.428574, 55.642853, 54.619049, 54.133926, 53.5625, 53.017857, 52.276783, 51.589287, 50.809525, 50.133926, 49.080357, 48.464287, 47.758926, 47.089287, 46.285713, 45.660713, 45.1875, 44.491074, 43.452381, 42.857143, 42.125, 41.535713, 41.0625, 40.366074, 39.440475, 38.821426, 37.833336, 37.1875, 36.446426, 35.452381, 34.785713, 34.15625, 33.566963, 33.03125, 32.375, 31.683035, 30.986607, 30.227678, 29.55357, 29.089287, 28.217262, 27.083334, 26.357143, 25.580357, 24.919641, 24.029762, 23.357143, 22.96875, 22.5, 22, 21.741669, -10, -10, -10, -10, -10, -10, -10, -10, -10, -10, 13.375, 13.333334, 13.3125, 13.1875, 13.15625, 13.15625, 13.15625, 13.138393, 12.916667, 13.017857, 13.0625, 13.3125, 13.625, 13.75, 13.9375, 14.0625, 14.1875, 14.25, 14.526786, 14.994047, 15.178572, 15.4375, 15.5625, 15.75, 15.875, 16, 16, 16, 16.0625, 16.0625, 16, 15.90625, 15.71875, 15.59375, 15.53125, 15.357143, 14.875, 14.947917, 15.052083, 15.397322, 15.6875, 15.875, 16.1875, 16.3125, 16.5625, 16.8125, 16.9375, 17.0625, 16.991072, 16.571428, 16.678572, 16.4375, 16.4375, 16.375, 16.4375, 16.4375, 16.625, 16.75, 16.875, 17, 16.9375, 16.875, 16.8125, 16.6875, 16.625, 16.6875, 16.75, 16.875, 16.9375, 16.8125, 16.625, 16.625, 16.6875, 16.875, 17.1875, 17.3125, 17.4375, 17.4375, 17.375, 17.017857, 16.520834, 16.098213, 15.839286, 16, 16.386906, 16.419643, 16.375, 16.3125, 16.035713, 15.901786, 15.90625, 15.754464, 15.674107, 15.633928, 15.53125, 15.558036, 15.772322, 15.854167, 15.770833, 15.651786, 14.965986, 14.353742, 13.883928, 13.482143, 13.142857, 12.991072, 12.595239, 12.238095, 12.071428, 12, 12, 12, 12, 11.9375, 11.9375, 12.0625, 12.098214, 12.125, 12.125, 11.9375, 11.90625, 11.90625, 11.90625, 11.96875, 12, 12, 11.9375, 12.026786, 12.098214, 12.0625, 12.125, 12, 12, 12.0625, 12.0625, 12.0625, 12.1875, 12.223214, 12.214286, 12.3125, 12.25, 12.1875, 12.125, 12.125, 12.0625, 12.1875, 12.28125, 12.21875, 12.28125, 12.34375, 12.4375, 12.5, 12.5625, 12.5625, 12.625, 12.8125, 12.9375, 13, 13, -10, -10, -10, -10, -10, -10, -10, -10, -10, -10, -10, -10, -10, -10, -10, -10, -10, -10, -10, -10, -10, -10, -10, -10, -10, -10, -10, -10, -10
103.91666, 103.59822, 102.45, 101.20834, 100.38095, 99.8125, 99.3125, 98.678574, 98.0625, 97.383926, 96.642853, 95.764877, 95.145836, 94.386909, 93.738091, 93.113091, 92.696426, 92.3125, 91.875, 90.666664, 89.916664, 89.166664, 88.488091, 87.833336, 86.729164, 86.092262, 85.324409, 84.654762, 83.845238, 83.401787, 82.875, 82.28125, 81.647324, 81.03125, 80.34375, 79.535713, 79.116074, 78.64286, 77.326187, 76.321426, 75.297623, 74.279762, 73.714287, 73.133926, 72.5, 71.619041, 71.205353, 70.678574, 70.229164, 69.6875, 69.142853, 68.166672, 67.145836, 66.303574, 65.571426, 65.0625, 64.4375, 63.776783, 63.026787, 62.205357, 61.55357, 61, 60.28125, 59.64732, 59.03125, 58.28125, 57.285713, 56.5, 55.821426, 54.559525, 54, 53.4375, 52.892857, 52.196426, 51.482143, 50.892857, 50.196426, 49.306545, 48.642857, 47.883926, 47.098213, 46.285713, 45.660713, 45.1875, 44.5625, 43.559525, 42.919643, 42.133926, 41.535713, 41, 40.25, 39.5, 38.892857, 37.895836, 37.205357, 36.446426, 35.452381, 34.785713, 34.15625, 33.566963, 33.03125, 32.375, 31.683035, 30.986607, 30.290178, 29.660713, 29.041666, 28.383928, 27.217262, 26.428572, 25.651785, 25.026785, 24.092262, 23.303572, 22.799107, 22.34375, 21.84375, 21.666668, -10, -10, -10, -10, -10, -10, -10, -10, -10, -10, 13.125, 13.083334, 13.0625, 13, 12.96875, 12.96875, 12.96875, 12.950893, 12.729167, 12.830357, 12.9375, 13.1875, 13.5625, 13.75, 13.9375, 13.9375, 13.9375, 13.9375, 14.214286, 14.851191, 15.178572, 15.5625, 15.6875, 15.875, 15.9375, 15.9375, 15.8125, 15.6875, 15.625, 15.625, 15.625, 15.53125, 15.34375, 15.15625, 15.03125, 14.775511, 14.523809, 14.84375, 14.84375, 15.15625, 15.4375, 15.5625, 15.875, 16, 16.25, 16.5, 16.5625, 16.625, 16.491072, 16.25, 16.25, 16.1875, 16.1875, 16.1875, 16.1875, 16.1875, 16.4375, 16.625, 16.8125, 16.9375, 16.8125, 16.75, 16.598213, 16.330357, 16.196428, 16.25, 16.375, 16.5625, 16.6875, 16.5625, 16.5, 16.5625, 16.625, 16.8125, 17, 17, 17.125, 17.0625, 16.875, 16.642857, 16.375, 16.125, 15.9375, 15.892857, 16.208334, 16.169643, 16.125, 16, 15.75, 15.75, 15.78125, 15.691964, 15.486607, 15.352678, 15.125, 15.058036, 15.209822, 15.386905, 14.927083, 14.714286, 14.006804, 13.675595, 13.258928, 12.9375, 12.448979, 12.491072, 12.166667, 12.071428, 12, 12, 12, 12, 12, 11.9375, 11.9375, 12, 12.035714, 12.0625, 12.0625, 11.9375, 11.90625, 11.90625, 11.90625, 11.96875, 12, 12, 11.875, 11.964286, 12.035714, 12, 12.125, 12, 12.0625, 12.1875, 12.1875, 12.1875, 12.25, 12.160714, 12.151786, 12.25, 12.1875, 12.1875, 12.125, 12.125, 12.125, 12.3125, 12.40625, 12.34375, 12.34375, 12.34375, 12.375, 12.5, 12.625, 12.6875, 12.8125, 12.9375, 13, 13, 13, 13, -10, -10, -10, -10, -10, -10, -10, -10, -10, -10, -10, -10, -10, -10, -10, -10, -10, -10, -10, -10, -10, -10, -10, -10, -10, -10, -10, -10, -10, -10, -10, -10, -10, -10, -10, -10, -10, -10, -10, -10, -10, -10, -10, -10, -10, -10, -10, -10, -10, -10, -10, -10, -10, -10, -10, -10, -10, -10, -10, -10, -10, -10, -10, -10, -10, -10, -10, -10, -10, -10, -10, -10, -10, -10, -10, -10, -10, -10, -10, -10, -10, -10, -10, -10, -10, -10, 104, 104, 103.9375, 103.59822, 102.50952, 101.46429, 100.39285, 99.803574, 99.25, 98.678574, 98.0625, 97.455353, 96.821426, 95.997025, 95.458336, 94.654762, 93.654755, 93.160713, 92.6875, 92.375, 92, 90.809517, 90, 89.130951, 88.425591, 87.761909, 86.833328, 86.163689, 85.342262, 84.654762, 83.845238, 83.401787, 82.875, 82.28125, 81.647324, 81.03125, 80.28125, 79.428566, 78.991074, 78.45536, 77.369041, 76.571426, 75.380951, 74.458336, 73.776787, 73.258926, 72.678574, 71.642853, 71.276779, 70.803574, 70.309525, 69.5, 68.803574, 67.791672, 67.0625, 66.321426, 65.678574, 65.0625, 64.392853, 63.714283, 63.017857, 62.205357, 61.55357, 61, 60.25, 59.57143, 59, 58.25, 57.285713, 56.5, 55.821426, 54.705357, 54.071426, 53.446426, 52.892857, 52.196426, 51.482143, 50.892857, 50.1875, 49.49107, 48.821426, 48.008926, 47.10714, 46.357143, 45.767857, 45.1875, 44.526787, 43.726189, 43.0625, 42.092262, 41.410713, 40.875, 40.1875, 39.49107, 38.892857, 37.895836, 37.205357, 36.446426, 35.452381, 34.785713, 34.21875, 33.674107, 33.09375, 32.321426, 31.504463, 30.816963, 30.28125, 29.696428, 28.895832, 28.205357, 27.258928, 26.571428, 25.747023, 25.092262, 23.842262, 23.035715, 22.517857, 22.125, 21.6875, 21.458334, -10, -10, -10, -10, -10, -10, -10, -10, 13, 13, 13.0625, 13.041667, 13.03125, 13, 13, 13, 13.0625, 13.044643, 12.791667, 12.830357, 12.875, 13.0625, 13.4375, 13.6875, 13.875, 13.9375, 13.9375, 14.0625, 14.357143, 14.940475, 15.366072, 15.6875, 15.8125, 15.875, 15.875, 15.75, 15.625, 15.5, 15.3125, 15.3125, 15.3125, 15.15625, 15.03125, 14.78125, 14.392858, 14.491072, 14.208333, 14.40625, 14.53125, 14.90625, 15.25, 15.375, 15.625, 15.6875, 15.9375, 16.1875, 16.294643, 16.4375, 16.375, 16.3125, 16.25, 16.125, 16.0625, 16, 16, 16, 16.1875, 16.4375, 16.6875, 16.8125, 16.6875, 16.625, 16.473213, 16.1875, 15.946428, 16, 16.0625, 16.3125, 16.4375, 16.375, 16.375, 16.5, 16.5625, 16.6875, 16.8125, 16.8125, 16.875, 16.8125, 16.6875, 16.5, 16.3125, 16.1875, 16.0625, 16, 16.0625, 15.9375, 15.8125, 15.6875, 15.5, 15.625, 15.75, 15.723214, 15.517857, 15.196428, 14.767857, 14.620536, 14.638393, 13.875, 13.829932, 13.5, 13.354167, 13.071428, 12.6875, 12.4375, 12.142857, 12.0625, 12, 12, 12, 12, 12, 12, 12, 12, 12, 12, 12.0625, 12.125, 12.125, 12.0625, 11.96875, 11.90625, 11.90625, 11.96875, 12, 12, 11.8125, 11.928572, 12.142858, 12.178572, 12.375, 12.25, 12.3125, 12.4375, 12.375, 12.375, 12.5, 12.348214, 12.339286, 12.375, 12.25, 12.3125, 12.25, 12.25, 12.1875, 12.3125, 12.40625, 12.40625, 12.46875, 12.46875, 12.4375, 12.5, 12.625, 12.6875, 12.875, 13, 13, 12.9375, 12.916667, 13, -10, -10, -10, -10, -10, -10, -10, -10, -10, -10, -10, -10, -10, -10, -10, -10, -10, -10, -10, -10, -10, -10, -10, -10, -10, -10, -10, -10
103.86607, 103.33631, 102.48095, 101.64285, 100.48809, 99.866074, 99.3125, 98.785706, 98.125, 97.401787, 96.714287, 96.080353, 95.645836, 94.851196, 93.613091, 93.071426, 92.5, 92.142853, 91.75, 90.913689, 90.178574, 89.273811, 88.684517, 88.116074, 87.354164, 86.547623, 85.601196, 84.726189, 84, 83.401787, 82.830353, 82.1875, 81.553574, 81.0625, 80.375, 79.60714, 78.886909, 78.276787, 77.410713, 76.714287, 75.321434, 74.458336, 73.821426, 73.330353, 72.815483, 71.583328, 71.142853, 70.616074, 70.005951, 69.142853, 68.48214, 67.708336, 67.0625, 66.383926, 65.785713, 65.1875, 64.517853, 63.630955, 62.955357, 62.196426, 61.55357, 61, 60.3125, 59.67857, 58.916668, 58.1875, 57.276787, 56.5, 55.821426, 54.851189, 54.14286, 53.508926, 52.892857, 52.196426, 51.482143, 50.892857, 50.1875, 49.55357, 49, 48.25, 47.285713, 46.5, 45.892857, 45.25, 44.598213, 43.809525, 43.133926, 42.154762, 41.357143, 40.767857, 40.125, 39.410713, 38.785713, 37.979168, 37.267857, 36.455357, 35.452381, 34.785713, 34.1875, 33.642857, 33.0625, 32.258926, 31.357143, 30.678572, 30.1875, 29.616072, 28.726191, 28.0625, 27.383928, 26.714285, 25.726189, 25.101191, 23.949406, 23.011904, 22.446428, 22, 21.5625, 21.25, 20.25, 19.285715, 18.685715, -10, -10, -10, -10, -10, -10, 13, 13, 12.9375, 12.875, 12.8125, 12.75, 12.6875, 12.6875, 12.75, 12.75, 12.8125, 12.964286, 13.169643, 13.419643, 13.6875, 13.8125, 13.875, 14, 14.125, 14.348214, 14.669643, 14.9375, 15.25, 15.4375, 15.5625, 15.6875, 15.5, 15.375, 15.25, 15, 15.0625, 15.0625, 14.84375, 14.65625, 14.40625, 14.129464, 14.026786, 13.9375, 14.0625, 14.3125, 14.5625, 14.875, 15, 15.25, 15.4375, 15.8125, 15.982143, 16.032143, 16.375, 16.229168, 16.238096, 16.071428, 15.982143, 16, 15.9375, 15.9375, 15.9375, 16.0625, 16.3125, 16.5, 16.5625, 16.4375, 16.375, 16.285713, 16.0625, 15.883928, 15.9375, 15.9375, 16.0625, 16.125, 16.1875, 16.357143, 16.5625, 16.625, 16.625, 16.625, 16.5625, 16.625, 16.5625, 16.4375, 16.25, 16.0625, 15.9375, 15.875, 15.875, 15.875, 15.75, 15.5625, 15.375, 15.3125, 15.5, 15.75, 15.848214, 15.633928, 15.113095, 14.589286, 14.370536, 14.045918, 13.29762, 13.052721, 12.973214, 12.875, 12.6875, 12.375, 12.1875, 12, 12, 12, 12, 12, 12, 12, 12, 12, 12, 12, 12, 12.125, 12.25, 12.3125, 12.3125, 12.1875, 12.0625, 12.0625, 12.125, 12.15625, 12.15625, 11.90625, 11.897322, 12.080358, 12.178572, 12.4375, 12.375, 12.4375, 12.4375, 12.3125, 12.25, 12.375, 12.285714, 12.214286, 12.3125, 12.1875, 12.25, 12.25, 12.25, 12.1875, 12.3125, 12.34375, 12.34375, 12.34375, 12.34375, 12.4375, 12.5625, 12.75, 12.8125, 12.9375, 12.9375, 12.9375, 12.875, 12.833334, -10, -10, -10, -10, -10, -10, -10, -10, -10, -10, -10, -10, -10, -10, -10, -10, -10, -10, -10, -10, -10, -10, -10, -10, -10, -10, -10, -10, -10, -10, -10, -10, -10, -10, -10, -10, -10, -10, -10, -10, -10, -10, -10, -10, -10, -10, -10, -10, -10, -10, -10, -10, -10, -10, -10, -10, -10, -10, -10, -10, -10, -10, -10, -10, -10, -10, -10, -10, -10, -10, -10, -10, -10, -10, -10, -10, -10, -10, -10, -10, -10, -10, -10, -10, -10, -10, -10, 104, 104, 103.71607, 102.99107, 102.30952, 101.70535, 100.66666, 99.991074, 99.392853, 99.017853, 98.375, 97.464287, 96.85714, 96.1875, 95.654762, 94.630959, 93.517853, 93, 92.491074, 91.934525, 91.5, 90.934517, 90.285713, 89.5, 88.863091, 88.25, 87.580353, 86.726189, 85.735123, 84.964279, 84.214279, 83.589287, 82.809525, 82.196426, 81.598213, 81.125, 80.455353, 79.785713, 78.839287, 78.169647, 77.464287, 76.857147, 75.333336, 74.565483, 73.928574, 73.330353, 72.708336, 71.488091, 70.964287, 70.491074, 69.818451, 68.955353, 68.23214, 67.642853, 67.0625, 66.383926, 65.785713, 65.25, 64.633926, 63.726192, 63.0625, 62.321426, 61.67857, 60.916668, 60.25, 59.598213, 58.809525, 58.125, 57.267853, 56.57143, 56, 55.020832, 54.285713, 53.633926, 52.955357, 52.205357, 51.482143, 50.892857, 50.1875, 49.482143, 48.892857, 48.1875, 47.276787, 46.57143, 46, 45.3125, 44.607143, 43.809525, 43.133926, 42.154762, 41.285713, 40.660713, 40.0625, 39.330357, 38.678574, 38.0625, 37.330357, 36.464287, 35.523811, 34.955357, 34.330357, 33.517857, 32.919643, 32.196426, 31.464285, 30.702381, 30.1875, 29.553572, 28.619047, 28, 27.375, 26.642857, 25.619047, 25.092262, 24.169643, 23.095238, 22.5, 21.96875, 21.5, 21.09375, 20.208334, 19.398809, 18.790476, 18.5, -10, -10, -10, -10, -10, 12.9375, 12.875, 12.78125, 12.65625, 12.5625, 12.5, 12.4375, 12.4375, 12.5, 12.5625, 12.625, 12.839286, 13.107143, 13.294643, 13.5625, 13.6875, 13.75, 13.9375, 14.125, 14.285714, 14.607143, 14.75, 15, 15.1875, 15.3125, 15.5625, 15.4375, 15.375, 15.25, 15, 15, 15, 14.75, 14.5625, 14.3125, 13.973214, 13.901786, 13.75, 13.875, 14.125, 14.3125, 14.5625, 14.6875, 14.9375, 15.125, 15.5625, 15.732143, 15.844643, 16.25, 16.104168, 15.79762, 15.883928, 15.794643, 15.875, 15.875, 15.9375, 15.9375, 16, 16.25, 16.375, 16.375, 16.3125, 16.25, 16.098213, 15.875, 15.696428, 15.6875, 15.6875, 15.75, 15.8125, 15.9375, 16.294643, 16.625, 16.625, 16.5, 16.267857, 16.1875, 16.25, 16.25, 16.125, 15.9375, 15.75, 15.625, 15.625, 15.625, 15.5, 15.3125, 15.0625, 14.8125, 14.84375, 15.09375, 15.34375, 15.53125, 15.491072, 15.041667, 14.589286, 14.28125, 13.825893, 12.84375, 12.638392, 12.4375, 12.5, 12.4375, 12.25, 12.125, 12, 12, 12, 12, 12, 12, 12, 12, 12, 12, 12, 12, 12.125, 12.25, 12.3125, 12.3125, 12.1875, 12.0625, 12.125, 12.25, 12.28125, 12.28125, 11.96875, 11.870536, 11.982143, 12.116072, 12.4375, 12.4375, 12.5, 12.5, 12.3125, 12.25, 12.3125, 12.25, 12.25, 12.375, 12.25, 12.3125, 12.375, 12.3125, 12.3125, 12.375, 12.375, 12.375, 12.4375, 12.4375, 12.5, 12.5625, 12.6875, 12.75, 12.8125, 12.875, 12.875, 12.8125, 12.833334, -10, -10, -10, -10, -10, -10, -10, -10, -10, -10, -10, -10, -10, -10, -10, -10, -10, -10, -10, -10, -10, -10, -10, -10, -10, -10, -10, -10, -10
103.21607, 102.5, 102.01786, 101.51785, 100.75, 100.16965, 99.413689, 99.125, 98.482147, 97.410713, 96.785713, 96.1875, 95.714279, 94.672623, 93.553574, 93, 92.482147, 91.64286, 91.178574, 90.830353, 90.214287, 89.508926, 89.008926, 88.392853, 87.767853, 86.809517, 86.026787, 85.205353, 84.41964, 83.714287, 82.872025, 82.276779, 81.705353, 81.1875, 80.464287, 79.857147, 78.875, 78.125, 77.535713, 77, 75.333336, 74.785721, 74.107147, 73.455353, 72.779762, 71.633926, 71.035713, 70.5625, 69.964287, 69.098213, 68.35714, 67.559525, 67, 66.375, 65.785713, 65.25, 64.696426, 63.833336, 63.125, 62.401783, 61.785713, 60.833336, 60.1875, 59.372025, 58.630951, 58, 57.258926, 56.5, 55.892857, 55.1875, 54.482143, 53.821426, 53.080357, 52.214287, 51.410713, 50.785713, 50.125, 49.401787, 48.785713, 48.125, 47.330357, 46.678574, 46.0625, 45.321426, 44.535713, 43.702381, 43.071426, 42.208332, 41.392857, 40.577381, 40, 39.25, 38.57143, 38, 37.25, 36.285713, 35.5, 34.986607, 34.424107, 33.65625, 33.013393, 32.205357, 31.464285, 30.702381, 30.125, 29.446428, 28.702381, 28.0625, 27.383928, 26.642857, 25.619047, 25.154762, 24.25, 23.023809, 22.392857, 21.8125, 21.40625, 20.90625, 20.21875, 19.441965, 18.874107, 18.541666, -10, -10, -10, -10, -10, 12.916667, 12.833333, 12.53125, 12.40625, 12.3125, 12.1875, 12.0625, 12.0625, 12.125, 12.25, 12.375, 12.526786, 12.794643, 12.982143, 13.25, 13.4375, 13.5625, 13.875, 14.1875, 14.455357, 14.6875, 14.6875, 14.75, 14.875, 15, 15.3125, 15.142857, 15.071428, 14.9375, 14.8125, 14.875, 14.9375, 14.75, 14.5625, 14.3125, 13.973214, 13.901786, 13.75, 13.8125, 14, 14.0625, 14.25, 14.375, 14.625, 14.875, 15.3125, 15.544643, 15.657143, 16.0625, 15.979167, 15.791667, 15.696428, 15.669643, 15.75, 15.8125, 15.9375, 15.9375, 15.9375, 16.1875, 16.1875, 15.979167, 15.9375, 15.8125, 15.8125, 15.732143, 15.5625, 15.589286, 15.598214, 15.5625, 15.6875, 15.78125, 16.107143, 16.375, 16.3125, 16.09375, 15.830357, 15.75, 15.75, 15.8125, 15.8125, 15.598214, 15.330357, 15.133928, 15.0625, 15.125, 15, 14.875, 14.6875, 14.4375, 14.46875, 14.674107, 15.052083, 15.334822, 15.366072, 14.979167, 14.544643, 13.9375, 13.464287, 12.5, 12.357142, 12.1875, 12.25, 12.25, 12.125, 12.0625, 12, 12, 12, 12, 12, 12, 12, 12, 12, 12, 12, 12, 12.125, 12.25, 12.3125, 12.3125, 12.1875, 12.125, 12.25, 12.375, 12.40625, 12.34375, 12.03125, 11.933036, 12.044643, 12.178572, 12.4375, 12.4375, 12.4375, 12.375, 12.1875, 12.125, 12.25, 12.25, 12.25, 12.375, 12.25, 12.3125, 12.375, 12.3125, 12.25, 12.3125, 12.375, 12.4375, 12.625, 12.6875, 12.75, 12.6875, 12.75, 12.75, 12.75, 12.875, 12.875, 12.8125, 12.833334, -10, -10, -10, -10, -10, -10, -10, -10, -10, -10, -10, -10, -10, -10, -10, -10, -10, -10, -10, -10, -10, -10, -10, -10, -10, -10, -10, -10, -10, -10, -10, -10, -10, -10, -10, -10, -10, -10, -10, -10, -10, -10, -10, -10, -10, -10, -10, -10, -10, -10, -10, -10, -10, -10, -10, -10, -10, -10, -10, -10, -10, -10, -10, -10, -10, -10, -10, -10, -10, -10, -10, -10, -10, -10, -10, -10, -10, -10, -10, -10, -10, -10, -10, -10, -10, -10, -10, -10, 103.2, 102.92857, 102.29465, 101.8125, 101.42857, 100.97916, 100.41965, 99.434532, 99.125, 98.607147, 97.589279, 96.785713, 96.098213, 95.473206, 94.238098, 93.458328, 92.973213, 92.482147, 91.464287, 90.821426, 90.5, 90.214287, 89.660713, 89.196426, 88.535706, 87.955353, 86.904762, 86.133926, 85.122025, 84.428574, 83.758926, 82.934525, 82.357147, 81.8125, 81.25, 80.473213, 79.857147, 78.875, 78.1875, 77.642853, 77.0625, 75.64286, 75.107147, 74.190475, 73.508926, 72.842262, 71.895836, 71.047623, 70.419647, 69.785713, 69.205353, 68.392853, 67.613098, 67, 66.3125, 65.60714, 65.080353, 64.553574, 63.645836, 62.955357, 62.392857, 61.82143, 60.750004, 60.125, 59.354168, 58.630951, 58, 57.258926, 56.428574, 55.785713, 55.125, 54.535713, 54, 53.25, 52.285713, 51.428574, 50.785713, 50.1875, 49.508926, 48.702381, 48.0625, 47.321426, 46.678574, 46.0625, 45.321426, 44.464287, 43.595238, 43, 42.375, 41.642857, 40.764881, 40.071426, 39.258926, 38.5, 37.892857, 37.1875, 36.339287, 35.607143, 35.111607, 34.549107, 33.71875, 33.02232, 32.205357, 31.535713, 30.809523, 30.125, 29.339285, 28.678572, 28.0625, 27.321428, 26.476191, 25.410713, 24.946428, 24.375, 23.166668, 22.455357, 21.767857, 21.28125, 20.78125, 20.15625, 19.464285, 18.892857, 18.5, 18.333332, -10, -10, -10, -10, -10, -10, 12.375, 12.15625, 12.0625, 11.875, 11.75, 11.75, 11.75, 11.875, 11.9375, 12.089286, 12.482143, 12.776786, 13.0625, 13.25, 13.375, 13.625, 13.8125, 14.0625, 14.395833, 14.357143, 14.4375, 14.53125, 14.71875, 15.09375, 15.049107, 15.008928, 14.875, 14.8125, 14.875, 14.9375, 14.741072, 14.375, 14.1875, 13.785714, 13.714286, 13.625, 13.6875, 13.946428, 13.96875, 14.09375, 14.15625, 14.375, 14.625, 15.0625, 15.294643, 15.335714, 15.625, 15.479167, 15.229167, 15.133928, 15.258928, 15.473214, 15.5625, 15.75, 15.6875, 15.6875, 15.875, 15.8125, 15.604167, 15.5625, 15.4375, 15.375, 15.25, 15.125, 15.196429, 15.460714, 15.241072, 15.508928, 15.575893, 15.919643, 16.1875, 16.125, 15.9375, 15.611607, 15.46875, 15.40625, 15.5, 15.625, 15.455358, 14.997025, 14.705357, 14.5625, 14.625, 14.5625, 14.5, 14.4375, 14.223214, 14.111607, 14.254463, 14.552083, 14.834822, 14.928572, 14.729167, 14.401785, 13.583333, 13.142857, 12.333334, 12.214286, 12.125, 12.1875, 12.1875, 12.125, 12.0625, 12, 12, 12, 12, 12, 12, 12, 12, 12.0625, 12.0625, 12.0625, 12.0625, 12.125, 12.1875, 12.25, 12.25, 12.125, 12.1875, 12.3125, 12.4375, 12.46875, 12.40625, 12.15625, 12.03125, 12, 12, 12.1875, 12.1875, 12.1875, 12.125, 12, 12.0625, 12.25, 12.3125, 12.375, 12.4375, 12.25, 12.25, 12.25, 12.1875, 12.1875, 12.375, 12.5, 12.5625, 12.6875, 12.6875, 12.6875, 12.6875, 12.8125, 12.8125, 12.8125, 12.875, 12.875, 12.875, 12.916667, 13, -10, -10, -10, -10, -10, -10, -10, -10, -10, -10, -10, -10, -10, -10, -10, -10, -10, -10, -10, -10, -10, -10, -10, -10, -10, -10, -10, -10
102.75, 102.27084, 101.74107, 101.16666, 100.8125, 100.29465, 99.372032, 99.125, 98.6875, 97.517853, 96.821434, 96.133926, 95.428574, 94.238098, 93.678574, 93.020836, 92.526787, 91.464287, 90.821426, 90.375, 90, 89.580353, 89.053574, 88.264877, 87.642853, 86.645828, 85.955353, 85.050591, 84.41964, 83.830353, 83.041664, 82.482147, 81.9375, 81.25, 80.428574, 79.785713, 78.833328, 78.258926, 77.696426, 76.895836, 75.738098, 75.107147, 74.145836, 73.508926, 72.946426, 72.241074, 71.202377, 70.526787, 69.85714, 69.3125, 68.455353, 67.630951, 67, 66.258926, 65.398804, 64.883926, 64.196426, 63.479168, 62.830357, 62.392857, 61.866074, 60.812504, 60.071426, 59.247025, 58.714287, 58.0625, 57.267857, 56.35714, 55.67857, 55.0625, 54.455357, 53.892857, 53.1875, 52.339287, 51.60714, 50.955357, 50.330357, 49.633926, 48.619049, 48, 47.3125, 46.678574, 46.0625, 45.258926, 44.285713, 43.5, 42.892857, 42.3125, 41.696426, 40.934525, 40.25, 39.363094, 38.607143, 37.809525, 37.125, 36.330357, 35.67857, 35.28125, 34.72768, 33.760418, 33.02232, 32.205357, 31.535713, 30.809523, 30.125, 29.401785, 28.785713, 27.979166, 27.267857, 26.404762, 25.410713, 24.875, 24.321428, 23.333334, 22.360119, 21.660713, 21.125, 20.625, 20.0625, 19.455357, 18.892857, 18.479166, 18.222221, -10, -10, -10, -10, -10, -10, -10, 12.041667, 12, 11.791667, 11.625, 11.5625, 11.4375, 11.5, 11.5625, 11.625, 11.9375, 12.357143, 12.732143, 13.0625, 13.3125, 13.5, 13.6875, 13.875, 14.208333, 14.232143, 14.3125, 14.40625, 14.53125, 14.78125, 14.736607, 14.633928, 14.4375, 14.375, 14.446428, 14.770833, 14.660714, 14.3125, 13.955357, 13.5625, 13.5, 13.5, 13.75, 14.116072, 14.15625, 14.21875, 14.15625, 14.25, 14.3125, 14.5625, 14.830357, 15.119047, 15.303572, 15.3125, 15.1875, 15, 15.089286, 15.223214, 15.3125, 15.5625, 15.5, 15.5, 15.625, 15.5625, 15.354167, 15.3125, 15.1875, 15.125, 15, 14.803572, 14.696429, 14.991964, 14.834822, 15.227678, 15.357143, 15.598214, 15.714286, 15.6875, 15.5, 15.299107, 15.21875, 15.09375, 15.125, 15.1875, 15.017858, 14.622025, 14.392857, 14.25, 14.25, 14.1875, 14.1875, 14.1875, 14.035714, 13.799107, 13.816963, 14.052083, 14.272322, 14.4375, 14.375, 13.973213, 13.145833, 12.651787, 12.041667, 11.946428, 11.875, 11.9375, 12, 12, 12, 12, 12, 12, 12, 12, 12, 12, 12, 12.0625, 12.0625, 12.0625, 12.0625, 12.125, 12.125, 12.125, 12.125, 12, 12.125, 12.25, 12.3125, 12.3125, 12.25, 12.0625, 12, 12, 11.9375, 12.0625, 12.0625, 12.0625, 12.0625, 12, 12.0625, 12.1875, 12.1875, 12.3125, 12.3125, 12.1875, 12.3125, 12.3125, 12.375, 12.375, 12.4375, 12.5, 12.5, 12.6875, 12.75, 12.6875, 12.6875, 12.75, 12.75, 12.8125, 12.9375, 12.9375, 12.9375, 13, 13, -10, -10, -10, -10, -10, -10, -10, -10, -10, -10, -10, -10, -10, -10, -10, -10, -10, -10, -10, -10, -10, -10, -10, -10, -10, -10, -10, -10, -10, -10, -10, -10, -10, -10, -10, -10, -10, -10, -10, -10, -10, -10, -10, -10, -10, -10, -10, -10, -10, -10, -10, -10, -10, -10, -10, -10, -10, -10, -10, -10, -10, -10, -10, -10, -10, -10, -10, -10, -10, -10, -10, -10, -10, -10, -10, -10, -10, -10, -10, -10, -10, -10, -10, -10, -10, -10, -10, 103.29166, 102.775, 102.40179, 101.5625, 100.88988, 100.4375, 100.04465, 99.229172, 98.9375, 98.5, 97.535706, 96.919647, 96.3125, 95.523804, 94.601189, 94.035721, 93.1875, 92.598221, 91.464287, 90.821426, 90.3125, 89.892853, 89.4375, 88.982147, 88.023804, 87.428574, 86.395828, 85.767853, 85.041664, 84.455353, 83.680359, 82.958336, 82.348213, 81.8125, 81.1875, 80.410713, 79.785713, 78.833328, 78.258926, 77.633926, 76.717262, 75.797615, 75.178574, 74.270836, 73.696426, 73.041664, 72.419647, 71.434525, 70.776787, 70.098213, 69.333328, 68.491074, 67.630951, 67, 66.321426, 65.505951, 64.883926, 64.160713, 63.625, 63.008926, 62.351189, 61.866074, 61.002979, 60.142857, 59.363094, 58.821426, 58.125, 57.276787, 56.35714, 55.67857, 55.0625, 54.455357, 53.892857, 53.1875, 52.339287, 51.60714, 50.955357, 50.392857, 49.8125, 48.559525, 47.928574, 47.25, 46.660713, 46.0625, 45.258926, 44.35714, 43.607143, 42.809525, 42.25, 41.75, 41.041668, 40.3125, 39.372025, 38.607143, 37.809525, 37.125, 36.401787, 35.785713, 35.290176, 34.543156, 33.831848, 33.102676, 32.267857, 31.428572, 30.785713, 30.125, 29.401785, 28.714285, 27.872023, 27.267857, 26.511904, 25.434523, 24.8125, 24.267857, 23.5, 22.264881, 21.660713, 21.138393, 20.549107, 20.03125, 19.424107, 18.892857, 18.4375, 18.25, -10, -10, -10, -10, -10, -10, -10, -10, 11.8125, 11.583334, 11.40625, 11.3125, 11.1875, 11.25, 11.3125, 11.3125, 11.5625, 11.919643, 12.232143, 12.607143, 13.1875, 13.455357, 13.625, 13.75, 14.020833, 14.044643, 14.125, 14.21875, 14.28125, 14.40625, 14.290178, 14.008928, 13.875, 13.8125, 13.946428, 14.270833, 14.223214, 13.9375, 13.705357, 13.4375, 13.4375, 13.5625, 13.8125, 14.178572, 14.15625, 14.15625, 14.03125, 14.0625, 14.125, 14.3125, 14.580357, 14.869047, 15.053572, 15.125, 15.0625, 14.9375, 15.026786, 15.098214, 15.125, 15.3125, 15.3125, 15.285714, 15.276786, 15.25, 14.979167, 15, 14.9375, 14.9375, 14.875, 14.741072, 14.696429, 14.991964, 14.834822, 15.227678, 15.294643, 15.410714, 15.401786, 15.25, 15.125, 15.03125, 14.90625, 14.78125, 14.6875, 14.75, 14.571428, 13.976191, 13.75, 13.59375, 13.65625, 13.71875, 13.875, 14, 13.973214, 13.767857, 13.651785, 13.5625, 13.625, 13.6875, 13.625, 13.10204, 12.520833, 12.089287, 11.8125, 11.8125, 11.8125, 11.9375, 12, 12, 12, 12, 12, 12, 12, 12, 11.9375, 11.9375, 11.9375, 12, 12.0625, 12.0625, 12.0625, 12.125, 12.125, 12.125, 12.125, 12, 12.125, 12.1875, 12.1875, 12.1875, 12.125, 12.0625, 12.0625, 12.0625, 12, 12, 12, 12, 12, 12, 12.0625, 12.1875, 12.1875, 12.3125, 12.3125, 12.25, 12.375, 12.375, 12.375, 12.375, 12.4375, 12.5, 12.5625, 12.625, 12.6875, 12.625, 12.6875, 12.8125, 12.8125, 12.9375, 13, 13, 13, 13, 13, -10, -10, -10, -10, -10, -10, -10, -10, -10, -10, -10, -10, -10, -10, -10, -10, -10, -10, -10, -10, -10, -10, -10, -10, -10, -10, -10, -10
103.10834, 102.71429, 101.75, 100.8988, 100.33035, 99.866074, 99.208336, 98.830353, 98.392853, 97.464279, 96.991074, 96.321426, 95.380951, 94.636902, 94.053574, 93.151787, 92.336739, 91.238098, 90.642853, 90.25, 89.821426, 89.25, 88.8125, 87.589287, 87.035721, 86.166664, 85.589279, 84.770828, 84.3125, 83.617859, 83.038696, 82.205353, 81.598213, 80.9375, 80.232147, 79.642853, 78.708328, 78.196426, 77.616074, 76.717262, 76.026779, 75.321426, 74.342262, 73.642853, 72.934525, 72.357147, 71.416672, 70.839287, 70.214287, 69.273811, 68.41964, 67.714279, 67.0625, 66.401779, 65.613098, 64.946426, 64.178574, 63.625, 63.008926, 62.279762, 61.75893, 61.086311, 60.205357, 59.589283, 59, 58.25, 57.285713, 56.42857, 55.848213, 55.241074, 54.413689, 53.821426, 53.125, 52.330357, 51.67857, 51.0625, 50.517857, 50, 48.583336, 47.928574, 47.041668, 46.48214, 45.9375, 45.25, 44.35714, 43.607143, 42.809525, 42.25, 41.75, 41.1875, 40.383926, 39.380951, 38.607143, 37.872025, 37.241074, 36.413689, 35.821426, 35.258926, 34.449406, 33.693455, 33.008926, 32.258926, 31.357143, 30.67857, 30.0625, 29.321428, 28.607141, 27.809523, 27.258928, 26.583332, 25.541666, 24.8125, 24.267857, 23.75, 22.550596, 21.827379, 21.254465, 20.504463, 19.96875, 19.34375, 18.754463, 18.28125, 18.041666, -10, -10, -10, -10, -10, -10, -10, -10, 11.625, 11.437501, 11.3125, 11.1875, 11.0625, 11.0625, 11.0625, 11.0625, 11.25, 11.607143, 11.919643, 12.294643, 12.9375, 13.142857, 13.25, 13.267857, 13.583333, 13.732143, 13.9375, 14.09375, 14.09375, 14.084822, 13.813989, 13.37755, 13.285714, 13.214286, 13.367347, 13.738095, 13.910714, 13.669643, 13.392857, 13.1875, 13.125, 13.375, 13.6875, 14.116072, 14.21875, 14.21875, 14.09375, 14.0625, 14, 14.125, 14.267857, 14.556547, 14.741072, 14.8125, 14.875, 14.8125, 14.839286, 14.848214, 14.8125, 14.9375, 15, 15.035714, 14.964286, 15, 14.9375, 15, 15, 14.875, 14.8125, 14.803572, 14.732143, 14.920536, 14.897322, 15.209822, 15.325893, 15.410714, 15.339286, 15.125, 14.96875, 14.90625, 14.71875, 14.53125, 14.330357, 14.1875, 13.910714, 13.25, 13.241072, 13.21875, 13.34375, 13.4375, 13.6875, 13.8125, 13.910714, 13.75, 13.401785, 13.050595, 12.883928, 12.714286, 12.607142, 12.37755, 12.270833, 11.982143, 11.8125, 11.8125, 11.8125, 11.9375, 12, 12, 12.0625, 12.0625, 12.0625, 12.0625, 12, 11.9375, 11.875, 11.875, 11.875, 11.9375, 12, 12, 12, 12.125, 12.125, 12.125, 12.1875, 12.0625, 12.125, 12.125, 12.0625, 12.0625, 12.0625, 12.0625, 12.0625, 12.0625, 12, 12, 12, 12, 12, 12, 12.125, 12.1875, 12.1875, 12.3125, 12.25, 12.3125, 12.5, 12.5, 12.5, 12.5, 12.5, 12.5625, 12.5625, 12.5, 12.5625, 12.5, 12.6875, 12.875, 12.875, 13, 13, 13, 13, 13, 13, -10, -10, -10, -10, -10, -10, -10, -10, -10, -10, -10, -10, -10, -10, -10, -10, -10, -10, -10, -10, -10, -10, -10, -10, -10, -10, -10, -10, -10, -10, -10, -10, -10, -10, -10, -10, -10, -10, -10, -10, -10, -10, -10, -10, -10, -10, -10, -10, -10, -10, -10, -10, -10, -10, -10, -10, -10, -10, -10, -10, -10, -10, -10, -10, -10, -10, -10, -10, -10, -10, -10, -10, -10, -10, -10, -10, -10, -10, -10, -10, -10, -10, -10, -10, -10, -10, -10, 103.79166, 103.45834, 102.92857, 101.89584, 100.73214, 100.01785, 99.5, 99.017853, 98.580353, 98.017853, 97.035713, 96.866074, 96.321426, 95.380951, 94.803566, 94.082146, 93.321426, 92.193886, 91.488098, 90.821426, 90.330353, 89.821426, 89.1875, 88.75, 87.279762, 86.714294, 86, 85.401779, 84.747025, 84.241074, 83.492859, 82.869049, 82.0625, 81.410713, 80.767853, 80.223213, 79.6875, 78.770828, 78.142853, 77.508926, 76.654762, 75.946426, 75.142853, 74.330353, 73.535713, 72.764877, 72.178574, 71.395836, 70.875, 70.3125, 69.345245, 68.514877, 67.785713, 67.125, 66.482147, 65.791664, 65.178574, 64.428574, 63.729168, 63.116074, 62.279762, 61.651783, 61.0625, 60.205357, 59.589283, 59, 58.25, 57.35714, 56.607143, 56.026787, 55.199402, 54.360119, 53.75, 52.979168, 52.330357, 51.714287, 50.979168, 50.392857, 49.875, 48.729168, 48.107143, 47.0625, 46.51786, 45.9375, 45.25, 44.35714, 43.607143, 42.809525, 42.25, 41.75, 41.1875, 40.383926, 39.380951, 38.67857, 38.041668, 37.383926, 36.288689, 35.678574, 35.071426, 34.261906, 33.523811, 32.9375, 32.25, 31.285715, 30.571428, 30.0625, 29.428572, 28.630951, 27.809523, 27.258928, 26.642857, 25.833332, 25.1875, 24.642857, 23.916666, 22.738096, 21.934523, 21.441965, 20.629463, 20.040178, 19.321428, 18.678572, 18.1875, 17.916666, -10, -10, -10, -10, -10, -10, -10, -10, 11.5, 11.312501, 11.1875, 11.0625, 11, 11, 11, 11, 11.0625, 11.25, 11.513393, 11.857143, 12.5, 12.767857, 12.90625, 12.875, 13, 13.196428, 13.645833, 13.857143, 13.875, 13.678572, 13.282739, 13.017857, 12.9375, 12.9375, 13.133928, 13.520833, 13.669643, 13.598215, 13.142857, 13.0625, 12.9375, 13.1875, 13.464286, 13.830358, 13.875, 13.9375, 13.8125, 13.75, 13.75, 13.875, 13.955357, 14.270833, 14.428572, 14.5625, 14.75, 14.8125, 14.875, 14.8125, 14.8125, 14.875, 15, 15.035714, 14.964286, 15, 14.9375, 15, 14.9375, 14.8125, 14.75, 14.8125, 14.875, 14.870536, 15.09375, 15.200893, 15.28125, 15.285714, 15.026786, 14.75, 14.5625, 14.392857, 13.958333, 13.821428, 13.553572, 13.375, 13.178572, 12.885417, 12.857143, 12.96875, 13.09375, 13.1875, 13.4375, 13.5, 13.6875, 13.642857, 13.151785, 12.747024, 12.260203, 12.178572, 12.25, 12.080357, 12.0625, 11.875, 11.8125, 11.8125, 11.8125, 11.9375, 12, 12, 12.0625, 12.0625, 12.0625, 12.0625, 12, 11.9375, 11.875, 11.875, 11.875, 11.875, 11.9375, 11.9375, 11.9375, 12.0625, 12.0625, 12.125, 12.1875, 12.125, 12.125, 12.0625, 12, 12, 12, 12, 12, 12, 12, 12, 12, 12, 12, 12, 12.125, 12.125, 12.125, 12.1875, 12.125, 12.25, 12.5, 12.5625, 12.5625, 12.625, 12.5625, 12.625, 12.5625, 12.4375, 12.5, 12.5, 12.75, 12.9375, 12.875, 12.9375, 12.9375, 12.9375, 13, 13, 13, -10, -10, -10, -10, -10, -10, -10, -10, -10, -10, -10, -10, -10, -10, -10, -10, -10, -10, -10, -10, -10, -10, -10, -10, -10, -10, -10, -10
103.70834, 103.10714, 101.97917, 100.77381, 100.16071, 99.660713, 99.038689, 98.330353, 97.696426, 96.973213, 96.8125, 96.285713, 95.309525, 94.35714, 93.582146, 93.050598, 92.125, 91.47023, 90.821426, 90.392853, 89.991074, 89.303574, 88.65477, 87.291672, 86.714294, 85.854164, 85.258926, 84.622025, 84.178574, 83.474998, 82.931549, 82.125, 81.48214, 80.663689, 80.151779, 79.75, 79.104164, 78.279762, 77.622025, 76.738091, 76.017853, 75.205353, 74.339287, 73.464287, 72.59523, 72.0625, 71.491074, 70.934525, 70.419647, 69.407745, 68.523811, 67.714279, 67.017853, 66.473213, 66, 65.428574, 64.619049, 63.907738, 63.241074, 62.279762, 61.607143, 61, 60.196426, 59.517857, 58.892857, 58.1875, 57.410713, 56.785713, 56.258926, 55.449402, 54.464283, 53.857147, 53.041668, 52.348213, 51.714287, 50.979168, 50.321426, 49.767857, 48.8125, 48.023811, 47, 46.5, 45.9375, 45.25, 44.35714, 43.67857, 42.916668, 42.3125, 41.767857, 41.125, 40.267857, 39.285713, 38.57143, 38.125, 37.446426, 36.297619, 35.678574, 35.071426, 34.270832, 33.669643, 33.020832, 32.229168, 31.392857, 30.571428, 30.0625, 29.366072, 28.452381, 27.785713, 27.1875, 26.589285, 25.916666, 25.25, 24.589285, 23.738094, 22.726191, 21.934523, 21.473215, 20.660713, 20.071428, 19.321428, 18.678572, 18.125, 17.791666, -10, -10, -10, -10, -10, 12.625, 12.416666, 12.125, 11.4375, 11.177084, 11.03125, 10.9375, 10.9375, 11, 11, 11, 11, 11.0625, 11.203125, 11.450893, 12.03125, 12.299107, 12.453125, 12.5, 12.625, 12.821428, 13.208333, 13.357143, 13.4375, 13.241072, 12.907739, 12.767857, 12.75, 12.875, 13, 13.0625, 13.0625, 13.112246, 12.642857, 12.833333, 12.866072, 13.125, 13.276786, 13.473214, 13.5, 13.5625, 13.5, 13.5625, 13.6875, 13.9375, 14.0625, 14.1875, 14.3125, 14.375, 14.625, 14.8125, 14.875, 14.875, 14.875, 14.875, 15, 15.035714, 14.964286, 14.9375, 14.875, 14.875, 14.75, 14.625, 14.5, 14.696428, 15.0625, 15.125, 15.375, 15.294643, 15.125, 15, 14.6875, 14.375, 14.1875, 13.955357, 13.520833, 13.446428, 13.214285, 12.955357, 12.75, 12.447917, 12.482143, 12.65625, 12.84375, 12.9375, 13.053572, 12.854167, 13.017857, 13.017857, 12.651785, 12.309524, 12.008928, 11.875, 11.8125, 11.8125, 11.875, 11.875, 11.9375, 11.9375, 11.9375, 12, 12, 12, 12.0625, 12.0625, 12.0625, 12.0625, 12, 11.9375, 11.875, 11.875, 11.875, 11.875, 11.9375, 11.9375, 11.9375, 12, 12, 12.125, 12.1875, 12.1875, 12.1875, 12.0625, 12, 12, 12, 12, 12, 12, 12, 12, 12, 12, 12, 12, 12.1875, 12.25, 12.3125, 12.375, 12.25, 12.3125, 12.4375, 12.4375, 12.375, 12.4375, 12.4375, 12.5625, 12.5625, 12.375, 12.4375, 12.5, 12.75, 13, 12.875, 12.875, 12.875, 12.875, 13, 13, 13, -10, -10, -10, -10, -10, -10, -10, -10, -10, -10, -10, -10, -10, -10, -10, -10, -10, -10, -10, -10, -10, -10, -10, -10, -10, -10, -10, -10, -10, -10, -10, -10, -10, -10, -10, -10, -10, -10, -10, -10, -10, -10, -10, -10, -10, -10, -10, -10, -10, -10, -10, -10, -10, -10, -10, -10, -10, -10, -10, -10, -10, -10, -10, -10, -10, -10, -10, -10, -10, -10, -10, -10, -10, -10, -10, -10, -10, -10, -10, -10, -10, -10, -10, -10, -10, -10, -10, 104.125, 103.83334, 103.32143, 102.39584, 101.2381, 100.66071, 100.09821, 99.205353, 98.392853, 97.550591, 96.830353, 96.625, 96.10714, 95.214287, 93.994049, 93.224998, 92.821434, 91.9375, 91.446426, 90.821426, 90.330353, 89.883926, 89.303574, 88.601196, 87.434525, 86.619049, 85.782738, 85.133926, 84.452377, 84, 83.5, 83.098213, 82.3125, 81.66964, 80.726189, 80.110123, 79.458336, 79.008926, 78.217262, 77.622025, 76.738091, 76.017853, 75.205353, 74.285713, 73.172615, 72.5, 72.0625, 71.544647, 70.788689, 70.241074, 69.386909, 68.488098, 67.714279, 67.017853, 66.410713, 65.892853, 65.366074, 64.538696, 63.738094, 63.125, 62.375, 61.440475, 60.821426, 60.125, 59.401783, 58.785713, 58.125, 57.464287, 56.892857, 56.321426, 55.529762, 54.571426, 53.773811, 52.979168, 52.339287, 51.714287, 50.979168, 50.113094, 49.589287, 48.907742, 48.011906, 47, 46.5, 45.9375, 45.25, 44.285713, 43.57143, 43, 42.4375, 41.892857, 41.1875, 40.276787, 39.35714, 38.678574, 38.1875, 37.455357, 36.226189, 35.64286, 35.107143, 34.455357, 33.848213, 33, 32.238098, 31.5, 30.595238, 30.0625, 29.366072, 28.452381, 27.785713, 27.125, 26.473213, 25.892857, 25.25, 24.526785, 23.630953, 22.892857, 22.005951, 21.241072, 20.446428, 19.883928, 19.133928, 18.553572, 18, 17.520832, 17.066666, -10, -10, -10, -10, 12.75, 12.5, 12.25, 11.625, 11.260417, 11.0625, 10.9375, 10.9375, 11, 10.9375, 10.875, 10.875, 10.9375, 11.203125, 11.46875, 11.71875, 11.90625, 12.015625, 12.125, 12.25, 12.446428, 12.770833, 12.765306, 13.0625, 12.866072, 12.666667, 12.705357, 12.625, 12.8125, 12.8125, 12.8125, 12.8125, 12.510203, 12.392857, 12.645833, 12.678572, 12.9375, 13.089286, 13.285714, 13.375, 13.5, 13.5, 13.5625, 13.6875, 13.875, 14, 14.0625, 14.125, 14.1875, 14.375, 14.625, 14.6875, 14.6875, 14.75, 14.75, 14.875, 15, 15, 14.875, 14.8125, 14.6875, 14.5, 14.375, 14.25, 14.383928, 14.6875, 14.75, 15, 14.919643, 14.75, 14.625, 14.25, 14, 13.8125, 13.580357, 13.208333, 13.071428, 12.901785, 12.642857, 12.508928, 12.46875, 12.5, 12.625, 12.6875, 12.71875, 12.678572, 12.416667, 12.517857, 12.455357, 12.223213, 12.142857, 11.875, 11.75, 11.625, 11.625, 11.75, 11.875, 12, 12.0625, 12.0625, 12.0625, 12.0625, 12, 12, 12.026786, 12.098214, 12.03125, 11.96875, 11.84375, 11.84375, 11.9375, 12, 12, 12, 11.9375, 11.9375, 12, 12, 12.125, 12.1875, 12.1875, 12.1875, 12.125, 12.125, 12.125, 12.125, 12.0625, 12, 12, 12, 12, 12, 12, 12.0625, 12.125, 12.3125, 12.375, 12.375, 12.4375, 12.25, 12.3125, 12.375, 12.25, 12.3125, 12.375, 12.375, 12.5, 12.4375, 12.25, 12.375, 12.4375, 12.705357, 13.107143, 13.053572, 13.0625, 13, 12.9375, 13, 13, 13, -10, -10, -10, -10, -10, -10, -10, -10, -10, -10, -10, -10, -10, -10, -10, -10, -10, -10, -10, -10, -10, -10, -10, -10, -10, -10, -10, -10
