20, 19.9375, 19.875, 19.875, 19.875, 19.9375, 20, 20.0625, 20.125, 20.1875, 20.1875, 20.25, 20.3125, 20.375, 20.375, 20.3125, 20.375, 20.3125, 20.375, 20.4375, 20.3125, 20.4375, 20.625, 20.625, 20.625, 20.6875, 20.625, 20.5, 20.625, 20.4375, 20.5, 20.6875, 20.6875, 20.875, 20.875, 20.9375, 21, 21, 21.0625, 20.9375, 20.9375, 20.9375, 20.8125, 20.9375, 20.9375, 20.9375, 21, 21.0625, 21.0625, 21.0625, 21.0625, 21, 21, 21, 21, 20.9375, 20.9375, 20.9375, 21.0625, 21.1875, 21.169643, 21.0625, 21, 20.9375, 21.0625, 21.1875, 21.4375, 21.6875, 21.6875, 21.625, 21.625, 21.625, 21.8125, 21.9375, 22.026787, 22.098213, 22.125, 22.1875, 22.0625, 22.0625, 22, 22, 22, 22, 22, 22, 22, 22.0625, 22.125, 22.25, 22.3125, 22.3125, 22.1875, 22, 22.0625, 22.125, 22.25, 22.4375, 22.357143, 22.125, 22.125, 22, 22, 22.0625, 22.0625, 22.1875, 22.375, 22.4375, 22.5625, 22.625, 22.625, 22.5625, 22.4375, 22.25, 22.1875, 22.3125, 22.5, 22.6875, 22.8125, 22.875, 22.9375, 22.9375, 22.875, 22.8125, 22.8125, 22.875, 22.9375, 23, 23, 23, 23.0625, 23.25, 23.375, 23.4375, 23.5, 23.4375, 23.375, 23.3125, 23.1875, 23.0625, 23, 23.0625, 23.125, 23.1875, 23.1875, 23.25, 23.375, 23.5, 23.6875, 23.8125, 23.875, 23.9375, 24, 24, 24, 24, 24, 24, 24, 24.0625, 24.035713, 23.892857, 23.830357, 23.75, 23.8125, 23.8125, 23.875, 23.875, 23.875, 23.9375, 23.9375, 24, 24, 24.0625, 24.1875, 24.25, 24.017857, 23.946428, 23.875, 23.9375, 24.0625, 24.0625, 24.0625, 24, 24, 24, 24, 24.1875, 24.375, 24.5, 24.5, 24.3125, 24.1875, 24.125, 24.3125, 24.5, 24.625, 24.6875, 24.625, 24.5625, 24.625, 24.6875, 24.75, 24.741072, 24.612499, 24.803572, 24.834822, 24.90625, 24.90625, 24.96875, 25, 25.0625, 25.0625, 25, 25, 25, 24.848213, 24.776787, 24.8125, 24.8125, 24.9375, 24.9375, 24.9375, 24.9375, 25, 25, 25, 25.0625, 25.125, 25.25, 25.375, 25.3125, 25.25, 25.1875, 25.1875, 25.3125, 25.4375, 25.5, 25.4375, 25.375, 25.375, 25.3125, 25.375, 25.46875, 25.53125, 25.763393, 25.90625, 25.919643, 25.697916, 25.611607, 25.53125, 25.700893, 25.8125, 26, 26.0625, 26.0625, 26.0625, 26, 26.0625, 26.035713, 25.964287, 26, 25.9375, 26, 26, 26.0625, 26.125, 26.1875, 26.4375, 26.5625, 26.625, 26.5625, 26.4375, 26.375, 26.25, 26.3125, 26.25, 26.125, 26.1875, 26.25, 26.4375, 26.6875, 26.875, 27, 27, 27, 26.9375, 26.75, 26.625, 26.625, 26.6875, 26.875, 27, 27, 27, 27, 26.9375, 26.9375, 27, 26.910713, 26.901787, 26.875, 26.8125, 26.9375, 27, 27.125, 27.125, 27.125, 27.0625, 27, 27, 27.0625, 27.0625, 27.0625, 27.1875, 27.1875, 27.25, 27.3125, 27.1875, 27.1875, 27.25, 27.1875, 27.25, 27.241072, 27.125, 27.1875, 27.125, 27.151787, 27.125, 27.25, 27.3125, 27.375, 27.3125, 27.1875, 27.125, 27, 27, 27.1875, 27.375, 27.625, 27.875, 27.8125, 27.8125, 27.8125, 27.8125, 27.9375, 27.9375, 27.9375, 28, 28.0625, 28.026787, 28.0625, 28, 28, 28, 28, 28, -10, -10, -10, -10, -10, -10, -10, -10, -10, -10, -10, -10, -10, -10, -10, -10, -10, 20, 19.916666, 19.875, 19.75, 19.625, 19.625, 19.6875, 19.8125, 19.9375, 20.0625, 20.125, 20.1875, 20.1875, 20.1875, 20.1875, 20.25, 20.3125, 20.3125, 20.4375, 20.375, 20.3125, 20.3125, 20.25, 20.4375, 20.6875, 20.75, 20.625, 20.625, 20.59375, 20.46875, 20.59375, 20.40625, 20.4375, 20.6875, 20.8125, 21, 21, 21, 21, 20.9375, 20.9375, 20.875, 20.875, 20.9375, 20.9375, 21, 20.9375, 20.9375, 20.9375, 21, 21.0625, 21.0625, 21.0625, 21, 21, 21, 21, 21, 21, 21, 21.125, 21.1875, 21.169643, 21.0625, 21, 20.9375, 21.0625, 21.1875, 21.4375, 21.6875, 21.6875, 21.625, 21.625, 21.625, 21.8125, 21.9375, 21.964287, 22.098213, 22.098213, 22.089287, 22.0625, 22, 22, 22, 22, 22, 22, 22, 22, 22, 22, 22.0625, 22.0625, 22.0625, 22, 21.875, 22, 22.125, 22.3125, 22.5625, 22.482143, 22.25, 22.1875, 22, 22, 22.0625, 22.0625, 22.25, 22.5, 22.625, 22.8125, 22.8125, 22.8125, 22.75, 22.625, 22.5625, 22.5625, 22.669643, 22.75, 23, 23.107143, 23.107143, 22.916666, 22.830357, 22.6875, 22.6875, 22.75, 22.75, 22.875, 22.9375, 22.9375, 23, 23.0625, 23.1875, 23.25, 23.25, 23.3125, 23.3125, 23.25, 23.25, 23.1875, 23.098213, 23.0625, 23.125, 23.1875, 23.25, 23.3125, 23.4375, 23.5, 23.6875, 23.875, 23.9375, 24, 24, 24, 24, 24, 24, 24, 24, 24, 24.125, 24.160713, 24.017857, 24.017857, 24, 24, 24.0625, 24.0625, 23.9375, 23.9375, 24, 24, 24.0625, 24.0625, 24.0625, 24.1875, 24.25, 24.080357, 24.008928, 24, 24.0625, 24.125, 24.125, 24.0625, 24.0625, 24.035713, 23.964287, 24, 24.1875, 24.4375, 24.5, 24.5, 24.25, 24.1875, 24.1875, 24.3125, 24.5, 24.5625, 24.5625, 24.5, 24.375, 24.4375, 24.625, 24.8125, 24.928572, 24.737499, 24.866072, 24.866072, 24.875, 24.9375, 25, 25, 25.0625, 25.0625, 25, 25, 25, 24.848213, 24.776787, 24.8125, 24.875, 25.0625, 25.0625, 25.0625, 25, 25, 25.0625, 25.125, 25.125, 25.1875, 25.1875, 25.3125, 25.285713, 25.151787, 25.125, 25, 25.125, 25.1875, 25.25, 25.1875, 25.125, 25.125, 25.1875, 25.375, 25.5625, 25.6875, 25.857143, 25.9375, 25.919643, 25.697916, 25.611607, 25.59375, 25.700893, 25.75, 25.8125, 25.75, 25.8125, 25.875, 25.9375, 26, 26, 26, 26, 26, 26, 26, 26.0625, 26.125, 26.1875, 26.375, 26.5, 26.5, 26.4375, 26.4375, 26.3125, 26.25, 26.25, 26.0625, 26, 26.125, 26.1875, 26.4375, 26.625, 26.75, 26.9375, 26.9375, 26.9375, 26.875, 26.75, 26.625, 26.6875, 26.75, 26.875, 27, 27, 27, 27, 26.9375, 26.9375, 26.9375, 26.875, 26.9375, 26.9375, 26.9375, 27, 27, 27, 27, 27, 27, 27, 27, 27.0625, 27.0625, 27.0625, 27.125, 27.1875, 27.1875, 27.25, 27.25, 27.25, 27.4375, 27.375, 27.4375, 27.366072, 27.1875
19.6875, 19.5, 19.375, 19.375, 19.4375, 19.625, 19.8125, 20, 20.125, 20.1875, 20.25, 20.1875, 20.1875, 20.25, 20.3125, 20.4375, 20.5625, 20.5, 20.375, 20.25, 20.1875, 20.375, 20.625, 20.8125, 20.6875, 20.6875, 20.65625, 20.53125, 20.59375, 20.40625, 20.4375, 20.625, 20.8125, 21, 21, 21, 21, 20.9375, 20.9375, 20.9375, 20.9375, 21, 21, 21, 20.875, 20.8125, 20.8125, 20.8125, 20.9375, 21, 21, 21, 21, 21, 21, 21, 21, 21, 21.0625, 21.125, 21.1875, 21.1875, 21.1875, 21.125, 21.125, 21.25, 21.4375, 21.6875, 21.75, 21.6875, 21.625, 21.625, 21.75, 21.9375, 22, 22.0625, 22.035713, 21.964287, 22, 21.9375, 22, 22, 22, 22, 22, 22, 22, 22, 22, 22, 22, 22, 21.9375, 21.875, 21.9375, 22, 22.1875, 22.4375, 22.419643, 22.25, 22.1875, 22, 22, 22, 22, 22.1875, 22.4375, 22.6875, 22.9375, 22.875, 22.875, 22.8125, 22.6875, 22.6875, 22.625, 22.669643, 22.6875, 22.9375, 23.107143, 23.044643, 22.791666, 22.767857, 22.6875, 22.8125, 22.9375, 22.875, 22.9375, 22.9375, 22.875, 22.875, 22.9375, 23.0625, 23.1875, 23.1875, 23.1875, 23.09375, 22.96875, 23.03125, 23.03125, 23.035713, 23.0625, 23.125, 23.1875, 23.1875, 23.25, 23.375, 23.375, 23.5625, 23.75, 23.8125, 23.9375, 24, 24, 24, 24, 24, 24, 24, 24, 24.125, 24.160713, 24.080357, 24.080357, 24.0625, 24.0625, 24.0625, 24.0625, 23.9375, 23.9375, 23.9375, 23.9375, 24, 24, 24, 24, 24, 23.9375, 23.9375, 24.0625, 24.125, 24.1875, 24.1875, 24.125, 24.1875, 24.142857, 23.964287, 24, 24.0625, 24.3125, 24.3125, 24.3125, 24.1875, 24.25, 24.3125, 24.375, 24.375, 24.375, 24.375, 24.3125, 24.25, 24.3125, 24.5, 24.75, 25, 24.875, 24.875, 24.875, 24.8125, 24.9375, 25, 25, 25.0625, 25.0625, 25, 25, 24.9375, 24.875, 24.9375, 25, 25.1875, 25.303572, 25.125, 25.125, 25, 25, 25.0625, 25.1875, 25.1875, 25.25, 25.1875, 25.25, 25.223213, 25.151787, 25.25, 25.125, 25.25, 25.1875, 25.125, 25.0625, 25, 25, 25.1875, 25.4375, 25.625, 25.6875, 25.714287, 25.785713, 25.732143, 25.604166, 25.517857, 25.5, 25.544643, 25.5625, 25.5625, 25.5, 25.5625, 25.625, 25.75, 25.875, 25.9375, 25.9375, 25.875, 25.8125, 25.8125, 25.875, 26, 26.125, 26.25, 26.4375, 26.5, 26.5, 26.375, 26.375, 26.3125, 26.25, 26.25, 26.0625, 26, 26.125, 26.1875, 26.4375, 26.5625, 26.6875, 26.875, 26.875, 26.9375, 26.875, 26.6875, 26.5, 26.5625, 26.625, 26.8125, 27, 27, 27, 27, 26.9375, 26.9375, 26.9375, 26.9375, 27, 27, 27, 27, 27, 27, 27, 27, 27, 27, 27, 27.0625, 27.0625, 27.0625, 27.125, 27.1875, 27.1875, 27.321428, 27.450001, 27.258928, 27.383928, 27.25, 27.3125, 27.241072, 27.0625, 27.125, 27, 27.089287, 27.25, 27.375, 27.5, 27.5, 27.375, 27.25, 27.125, 27.0625, 26.9375, 27, 27.0625, 27.276787, 27.714287, 27.732143, 27.8125, 27.75, 27.75, 27.875, 27.875, 27.9375, 27.875, 27.875, 27.839287, 27.875, 27.9375, 28, 28, 28, 28, -10, -10, -10, -10, -10, -10, -10, -10, -10, -10, -10, -10, -10, -10, -10, -10, -10, 19.625, 19.607143, 19.5625, 19.4375, 19.375, 19.410713, 19.4375, 19.589287, 19.75, 19.9375, 20.125, 20.1875, 20.25, 20.25, 20.3125, 20.375, 20.4375, 20.4375, 20.4375, 20.3125, 20.1875, 20.125, 20.125, 20.375, 20.625, 20.875, 20.8125, 20.75, 20.65625, 20.46875, 20.40625, 20.21875, 20.3125, 20.5, 20.75, 21, 21, 21, 21, 20.9375, 20.9375, 20.9375, 20.9375, 21, 21, 21, 20.875, 20.8125, 20.8125, 20.8125, 20.9375, 21, 21, 21, 21, 21, 21, 21, 21, 21, 21, 21.0625, 21.1875, 21.1875, 21.3125, 21.3125, 21.25, 21.4375, 21.5625, 21.75, 21.8125, 21.6875, 21.625, 21.625, 21.75, 21.9375, 22, 22.0625, 22.035713, 21.964287, 22, 21.9375, 22, 22, 22, 22, 22, 22, 22, 22, 22, 22, 22, 22, 21.9375, 21.875, 21.875, 21.875, 22.0625, 22.25, 22.294643, 22.1875, 22.125, 22, 22.0625, 22.125, 22.125, 22.25, 22.4375, 22.5625, 22.75, 22.75, 22.75, 22.8125, 22.8125, 22.875, 22.8125, 22.794643, 22.75, 22.9375, 23.107143, 23.044643, 22.791666, 22.767857, 22.6875, 22.8125, 22.9375, 22.875, 22.9375, 22.9375, 22.8125, 22.8125, 22.8125, 22.875, 23, 23, 23, 22.90625, 22.78125, 22.84375, 22.90625, 22.973213, 23.0625, 23.1875, 23.3125, 23.3125, 23.375, 23.375, 23.25, 23.375, 23.5625, 23.6875, 23.875, 23.9375, 23.9375, 23.9375, 23.9375, 24, 24, 24, 24, 24.125, 24.160713, 24.080357, 24.080357, 24.0625, 24.0625, 24.0625, 24.0625, 23.9375, 23.9375, 24, 23.973213, 23.964287, 24, 23.9375, 24, 24, 23.9375, 23.9375, 24.0625, 24.125, 24.1875, 24.1875, 24.1875, 24.3125, 24.25, 23.964287, 24, 23.9375, 24.1875, 24.1875, 24.25, 24.25, 24.375, 24.375, 24.3125, 24.1875, 24.125, 24.1875, 24.25, 24.25, 24.375, 24.5625, 24.75, 25, 24.875, 24.875, 24.875, 24.875, 25, 25, 25, 25, 25, 24.9375, 24.9375, 24.9375, 25, 25.1875, 25.3125, 25.4375, 25.428572, 25.214287, 25.25, 25.232143, 25.1875, 25.1875, 25.25, 25.125, 25.125, 25.0625, 25.125, 25.223213, 25.276787, 25.4375, 25.375, 25.5, 25.4375, 25.3125, 25.1875, 25.0625, 25, 25.25, 25.5, 25.75, 25.8125, 25.803574, 26.017857, 25.958334, 25.854166, 25.767857, 25.625, 25.5, 25.4375, 25.3125, 25.25, 25.3125, 25.375, 25.5, 25.6875, 25.8125, 25.875, 25.8125, 25.6875, 25.6875, 25.75, 25.875, 26, 26.0625, 26.1875, 26.25, 26.25, 26.1875, 26.1875, 26.1875, 26.1875, 26.1875, 26.125, 26.125, 26.25, 26.3125, 26.5, 26.5, 26.625, 26.8125, 26.8125, 26.9375, 26.9375, 26.8125, 26.6875, 26.75, 26.75, 26.875, 27, 26.9375, 26.9375, 26.9375, 26.9375, 27, 27, 27, 27, 27, 27, 27, 27, 27, 27, 27, 27, 27, 27, 27.0625, 27.0625, 27.0625, 27.125, 27.1875, 27.1875, 27.321428, 27.450001, 27.258928, 27.383928, 27.3125, 27.375, 27.303572, 27.0625
19.3125, 19.3125, 19.375, 19.410713, 19.4375, 19.526787, 19.625, 19.8125, 20, 20, 20.0625, 20.125, 20.25, 20.3125, 20.375, 20.375, 20.3125, 20.25, 20.125, 20.0625, 20.125, 20.375, 20.625, 20.8125, 20.8125, 20.75, 20.59375, 20.46875, 20.34375, 20.21875, 20.375, 20.5625, 20.8125, 21, 21, 21, 21, 20.9375, 20.875, 20.875, 20.9375, 21.0625, 21.125, 21.125, 20.9375, 20.8125, 20.8125, 20.8125, 20.9375, 21, 21, 21, 21, 21, 21, 21, 20.9375, 20.964287, 21.035713, 21.125, 21.3125, 21.25, 21.375, 21.375, 21.3125, 21.5625, 21.6875, 21.8125, 21.875, 21.6875, 21.625, 21.625, 21.75, 21.9375, 22, 22.0625, 22.035713, 21.964287, 22, 21.9375, 22, 22, 22, 22, 22, 22, 22, 22, 22, 22, 22, 22, 22, 22, 22, 22, 22.0625, 22.125, 22.1875, 22.1875, 22.1875, 22.125, 22.1875, 22.25, 22.1875, 22.3125, 22.4375, 22.5, 22.625, 22.5625, 22.5, 22.625, 22.75, 22.9375, 23, 22.982143, 22.875, 23, 23.107143, 23.044643, 22.791666, 22.767857, 22.6875, 22.8125, 22.9375, 22.875, 22.9375, 23, 22.9375, 22.9375, 22.9375, 22.875, 22.9375, 22.9375, 22.9375, 22.90625, 22.78125, 22.84375, 22.84375, 22.910713, 23.0625, 23.223213, 23.375, 23.375, 23.3125, 23.1875, 23, 23.0625, 23.3125, 23.5625, 23.75, 23.875, 23.9375, 23.973213, 24, 24, 23.875, 23.8125, 23.8125, 23.9375, 24.0625, 24.1875, 24.1875, 24.1875, 24.125, 24.0625, 24.0625, 24, 24, 24.0625, 24.098213, 24.089287, 24.1875, 24.1875, 24.25, 24.178572, 24, 24, 24.0625, 24.1875, 24.1875, 24.1875, 24.1875, 24.375, 24.375, 24.151787, 24.1875, 24, 24.1875, 24.125, 24.1875, 24.25, 24.3125, 24.3125, 24.25, 24.125, 24.0625, 24.0625, 24.125, 24.196428, 24.583334, 24.794643, 24.9375, 25.0625, 24.875, 24.875, 24.875, 24.9375, 25.0625, 25.0625, 25.0625, 25, 25, 24.9375, 24.9375, 24.9375, 25.0625, 25.25, 25.375, 25.5, 25.366072, 25.089287, 25.1875, 25.232143, 25.25, 25.3125, 25.3125, 25.125, 25.125, 25.0625, 25.0625, 25.160713, 25.276787, 25.5, 25.5, 25.6875, 25.625, 25.4375, 25.3125, 25.125, 25, 25.1875, 25.375, 25.625, 25.6875, 25.803574, 26.142857, 26.119047, 25.916666, 25.660713, 25.4375, 25.25, 25.1875, 25.0625, 25, 25.0625, 25.125, 25.25, 25.5, 25.6875, 25.8125, 25.75, 25.5625, 25.5, 25.5625, 25.75, 25.9375, 26.0625, 26.125, 26.125, 26.125, 26.0625, 26.0625, 26.0625, 26.125, 26.1875, 26.25, 26.375, 26.366072, 26.299999, 26.553572, 26.491072, 26.625, 26.6875, 26.6875, 26.8125, 26.875, 26.875, 26.8125, 26.875, 26.875, 26.9375, 27, 26.9375, 26.9375, 26.9375, 26.9375, 26.9375, 26.9375, 26.9375, 26.9375, 27, 27, 27, 27, 27.0625, 27.125, 27.125, 27.125, 27.125, 27.0625, 27.0625, 27, 26.875, 26.875, 26.9375, 27, 27.133928, 27.325001, 27.196428, 27.258928, 27.1875, 27.1875, 27.125, 27.0625, 27.125, 27.125, 27.3125, 27.5625, 27.625, 27.75, 27.6875, 27.5, 27.4375, 27.3125, 27.25, 27.1875, 27.125, 27.125, 27.276787, 27.651787, 27.794643, 27.875, 27.8125, 27.6875, 27.75, 27.8125, 27.875, 27.875, 27.9375, 28, 28.0625, 28.1875, 28.0625, 28, 27.9375, 27.916666, -10, -10, -10, -10, -10, -10, -10, -10, -10, -10, -10, -10, -10, -10, -10, -10, -10, 19.125, 19.190477, 19.1875, 19.3125, 19.5625, 19.767857, 19.732143, 19.701786, 19.794643, 19.8125, 20.0625, 20, 20.0625, 20.125, 20.25, 20.25, 20.25, 20.25, 20.125, 20.0625, 20, 19.9375, 20, 20.3125, 20.5625, 20.75, 20.875, 20.8125, 20.625, 20.5, 20.375, 20.3125, 20.5, 20.6875, 20.875, 21, 21, 21, 21, 21, 21, 21, 21.0625, 21.125, 21.125, 21.125, 21, 20.875, 20.875, 20.875, 20.9375, 21, 21, 21, 21, 21, 21, 21, 20.9375, 20.964287, 21.035713, 21.125, 21.3125, 21.25, 21.375, 21.375, 21.3125, 21.5, 21.625, 21.75, 21.75, 21.5625, 21.4375, 21.375, 21.5625, 21.8125, 21.9375, 22, 22, 22, 22, 22, 22, 22, 22, 22, 22, 22, 22, 22, 22, 22, 22, 22, 22, 22, 22, 22, 22, 22, 22.0625, 22.125, 22.25, 22.25, 22.3125, 22.3125, 22.1875, 22.25, 22.3125, 22.3125, 22.375, 22.4375, 22.4375, 22.625, 22.8125, 22.875, 22.875, 22.875, 22.875, 22.9375, 23, 22.9375, 22.875, 22.875, 22.875, 22.9375, 23, 23, 23, 23.0625, 23, 22.9375, 22.875, 22.8125, 22.875, 22.875, 22.9375, 22.90625, 22.84375, 22.90625, 22.84375, 22.875, 23, 23.160713, 23.3125, 23.3125, 23.1875, 23, 22.9375, 22.9375, 23.25, 23.5625, 23.6875, 23.875, 24, 24.098213, 24.125, 24.125, 23.9375, 23.75, 23.6875, 23.75, 23.8125, 23.9375, 24, 24, 23.9375, 23.9375, 23.9375, 23.9375, 24, 24.125, 24.160713, 24.151787, 24.25, 24.1875, 24.25, 24.178572, 24, 24.0625, 24.0625, 24.1875, 24.1875, 24.125, 24.25, 24.375, 24.401787, 24.25, 24.1875, 24, 24.0625, 24, 24.0625, 24.1875, 24.25, 24.25, 24.1875, 24, 23.9375, 23.9375, 24, 24.196428, 24.708334, 24.955357, 25.0625, 25.125, 24.9375, 24.9375, 24.9375, 25.0625, 25.125, 25.125, 25.125, 25, 25, 24.9375, 24.9375, 24.9375, 25.0625, 25.25, 25.375, 25.4375, 25.241072, 24.964287, 25.125, 25.294643, 25.375, 25.375, 25.25, 25, 25, 25, 25, 25.125, 25.375, 25.5625, 25.625, 25.75, 25.625, 25.4375, 25.3125, 25.1875, 25.0625, 25.1875, 25.375, 25.5625, 25.625, 25.803574, 26.142857, 26.119047, 25.916666, 25.598213, 25.3125, 25.1875, 25.1875, 25.107143, 25, 25, 24.9375, 25.0625, 25.25, 25.4375, 25.625, 25.5625, 25.375, 25.3125, 25.375, 25.625, 25.875, 26.0625, 26.1875, 26.25, 26.3125, 26.25, 26.125, 26.0625, 26.0625, 26.125, 26.25, 26.4375, 26.428572, 26.424999, 26.678572, 26.616072, 26.75, 26.75, 26.75, 26.875, 26.875, 26.875, 26.8125, 26.8125, 26.875, 26.9375, 27, 26.9375, 26.9375, 26.9375, 26.9375, 26.875, 26.8125, 26.8125, 26.8125, 27, 27.125, 27.125, 27.125, 27.125, 27.125, 27.0625, 27.0625, 27.0625, 27, 27.0625, 27, 26.875, 26.875, 26.875, 26.9375, 27.008928, 27.137501, 27.071428, 27.071428, 27.0625, 27.0625, 27, 27
19.125, 19.375, 19.6875, 19.955357, 20.044643, 19.951786, 20.044643, 20, 20.125, 20.0625, 20, 20.0625, 20.125, 20.125, 20.125, 20.0625, 20, 19.9375, 19.9375, 19.9375, 19.9375, 20.25, 20.5, 20.625, 20.875, 20.8125, 20.5625, 20.5, 20.4375, 20.544643, 20.75, 20.9375, 21, 21, 21, 21, 21, 21, 21, 21, 21.0625, 21.125, 21.125, 21.125, 21.0625, 21, 21, 21, 21, 21, 21, 21, 21, 21, 21.0625, 21.0625, 21, 20.964287, 20.973213, 21, 21.125, 21.125, 21.1875, 21.25, 21.25, 21.4375, 21.5625, 21.6875, 21.6875, 21.5625, 21.5625, 21.5, 21.6875, 21.875, 21.9375, 22, 22, 22, 22, 22, 22, 22, 22, 22, 22, 22.0625, 22.0625, 22.0625, 22.0625, 22, 22, 22, 22, 22, 22, 22, 22, 22, 22.125, 22.160713, 22.214287, 22.25, 22.25, 22.3125, 22.1875, 22.1875, 22.1875, 22.1875, 22.25, 22.375, 22.4375, 22.625, 22.8125, 22.9375, 23, 23, 23, 23, 23, 23, 23, 23, 23, 23, 23, 23, 23, 23.0625, 23.0625, 23.0625, 22.9375, 22.875, 22.875, 22.875, 23, 23, 23, 23, 22.875, 22.875, 22.9375, 22.973213, 23.125, 23.125, 23, 22.9375, 23, 23, 23.3125, 23.625, 23.6875, 23.875, 24, 24.098213, 24.125, 24.125, 23.875, 23.625, 23.5, 23.5625, 23.6875, 23.75, 23.875, 23.9375, 23.875, 23.901787, 23.9375, 23.875, 24, 24.1875, 24.223213, 24.214287, 24.3125, 24.1875, 24.25, 24.178572, 24, 24.0625, 24, 24.0625, 24.0625, 24, 24.125, 24.1875, 24.232143, 24.1875, 24.125, 24.0625, 24.0625, 24, 24.125, 24.25, 24.3125, 24.3125, 24.1875, 24.0625, 24, 24, 24.0625, 24.258928, 24.770834, 25.017857, 25.0625, 25.0625, 24.9375, 24.9375, 24.9375, 25.0625, 25.0625, 25.0625, 25.125, 25, 25, 24.9375, 24.9375, 24.9375, 25, 25.125, 25.1875, 25.1875, 25.125, 25.089287, 25.3125, 25.544643, 25.5, 25.4375, 25.1875, 24.9375, 24.9375, 24.9375, 25, 25.125, 25.375, 25.5625, 25.5625, 25.6875, 25.5625, 25.375, 25.3125, 25.25, 25.1875, 25.25, 25.4375, 25.5625, 25.625, 25.839287, 26.107143, 26.119047, 25.854166, 25.598213, 25.3125, 25.25, 25.25, 25.169643, 25.0625, 25, 24.9375, 25.0625, 25.1875, 25.3125, 25.5, 25.5, 25.4375, 25.375, 25.4375, 25.625, 25.8125, 26, 26.0625, 26.125, 26.258928, 26.3375, 26.125, 26.0625, 26, 26.125, 26.25, 26.4375, 26.428572, 26.487499, 26.741072, 26.741072, 26.875, 26.8125, 26.8125, 26.875, 26.875, 26.9375, 26.9375, 26.9375, 26.9375, 26.875, 26.875, 26.8125, 26.875, 26.9375, 26.9375, 26.875, 26.75, 26.75, 26.75, 27, 27.25, 27.25, 27.25, 27.1875, 27.125, 27.0625, 27.125, 27.125, 27.0625, 27.125, 27.0625, 26.9375, 26.9375, 26.9375, 26.9375, 26.9375, 26.9375, 27.0625, 27.0625, 27.125, 27.125, 27, 27, 27.1875, 27.25, 27.375, 27.5, 27.375, 27.5, 27.5625, 27.5625, 27.6875, 27.6875, 27.6875, 27.75, 27.75, 27.8125, 27.875, 27.9375, 28, 28.0625, 28.0625, 27.9375, 28.0625, 28, 28, 28.125, 28.0625, 28.1875, 28.25, 28.3125, 28.3125, 28.3125, 28.375, 28.416666, -10, -10, -10, -10, -10, -10, -10, -10, -10, -10, -10, -10, -10, -10, -10, -10, -10, 19, 19, 19.071428, 19.4375, 19.6875, 19.982143, 20.044643, 19.987499, 20.107143, 20.0625, 20.125, 20.0625, 19.9375, 19.875, 19.875, 19.875, 20, 20.125, 20.1875, 20.1875, 20.125, 20.0625, 20.0625, 20.3125, 20.5625, 20.6875, 20.875, 20.875, 20.625, 20.5625, 20.5, 20.607143, 20.8125, 21, 21.0625, 21, 21, 21, 21, 21, 21, 21, 21.0625, 21.125, 21.125, 21.125, 21.0625, 21, 21, 21.0625, 21.0625, 21.0625, 21.0625, 21, 21, 21.0625, 21.125, 21.125, 21.0625, 20.964287, 20.973213, 20.9375, 21, 21, 21, 21.0625, 21.1875, 21.375, 21.5625, 21.75, 21.8125, 21.8125, 21.875, 21.8125, 21.875, 21.9375, 21.9375, 22, 22, 22, 22, 22, 22, 22, 22, 22, 22, 22.125, 22.125, 22.125, 22.125, 22, 22, 22, 22, 22, 22, 22, 22, 22, 22.0625, 22.098213, 22.151787, 22.1875, 22.1875, 22.1875, 22.0625, 22.0625, 22.125, 22.25, 22.375, 22.5, 22.5625, 22.6875, 22.8125, 22.9375, 23, 23.0625, 23.0625, 23.0625, 23, 22.875, 22.8125, 22.8125, 22.875, 22.9375, 23, 23, 23, 23.0625, 23.125, 23.125, 23, 22.9375, 22.875, 22.875, 23, 23, 23, 23, 22.875, 22.875, 22.9375, 22.910713, 23, 23, 22.875, 22.875, 23.0625, 23.0625, 23.375, 23.625, 23.5625, 23.75, 23.875, 24.035713, 24.125, 24.125, 23.875, 23.5625, 23.375, 23.4375, 23.5625, 23.6875, 23.875, 23.9375, 23.875, 23.901787, 23.9375, 23.875, 24, 24.1875, 24.3125, 24.375, 24.4375, 24.3125, 24.25, 24.178572, 24, 24.0625, 24, 24.0625, 24.0625, 24, 24.0625, 24, 24, 24.0625, 24, 24.0625, 24.125, 24.0625, 24.125, 24.25, 24.25, 24.3125, 24.3125, 24.169643, 24, 24, 24, 24.321428, 24.833334, 25.080357, 25.125, 25.0625, 24.9375, 24.9375, 24.9375, 25, 25, 25, 25.0625, 25, 25, 25, 25, 25, 25, 25, 24.9375, 24.9375, 25, 25.0625, 25.375, 25.5, 25.4375, 25.375, 25.0625, 24.9375, 24.9375, 24.9375, 25, 25, 25.1875, 25.375, 25.375, 25.5, 25.375, 25.1875, 25.1875, 25.25, 25.3125, 25.375, 25.5625, 25.625, 25.625, 25.8125, 25.9375, 25.973213, 25.875, 25.580357, 25.3125, 25.1875, 25.1875, 25.169643, 25.03125, 24.90625, 24.866072, 25.0625, 25.125, 25.25, 25.375, 25.4375, 25.4375, 25.375, 25.455357, 25.770834, 25.919643, 26.125, 26.125, 26.125, 26.321428, 26.4, 26.1875, 26.125, 26, 26.125, 26.1875, 26.375, 26.428572, 26.487499, 26.732143, 26.616072, 26.75, 26.732143, 26.8125, 26.875, 26.875, 26.9375, 26.9375, 26.9375, 26.875, 26.8125, 26.8125, 26.8125, 26.9375, 26.9375, 26.875, 26.6875, 26.5625, 26.625, 26.6875, 27.0625, 27.3125, 27.3125, 27.3125, 27.125, 27, 26.955357, 27.125, 27.125, 27.125, 27.125, 27.0625, 26.9375, 26.9375, 26.9375, 26.9375, 26.9375, 26.9375, 27.0625, 27.0625, 27.125, 27.125, 27, 27.0625
19.258928, 19.732143, 19.9375, 20.169643, 20.133928, 20.049999, 20.169643, 20.125, 20.125, 20.0625, 19.9375, 19.875, 19.9375, 19.9375, 20.125, 20.3125, 20.3125, 20.3125, 20.1875, 20.0625, 20.0625, 20.25, 20.4375, 20.5625, 20.6875, 20.75, 20.625, 20.625, 20.6875, 20.794643, 20.9375, 21.0625, 21.0625, 21, 21, 21, 21, 21, 21, 21, 21, 21, 21, 21, 21, 21, 21, 21.0625, 21.0625, 21.0625, 21.0625, 21, 21, 21.0625, 21.125, 21.125, 21.125, 21, 20.9375, 20.9375, 20.9375, 21, 21, 21, 21.1875, 21.375, 21.5625, 21.75, 21.8125, 21.9375, 22.107143, 22.0625, 22.0625, 22, 21.9375, 22, 22, 22, 22, 22, 22, 22.0625, 22.0625, 22.0625, 22.0625, 22.125, 22.125, 22.125, 22.125, 22, 22, 22, 22, 22, 22, 22, 22, 22, 22.0625, 22.098213, 22.089287, 22.125, 22.0625, 22.0625, 22, 22, 22.125, 22.3125, 22.5, 22.6875, 22.75, 22.75, 22.8125, 22.8125, 22.875, 23, 23, 23.0625, 22.9375, 22.75, 22.625, 22.625, 22.75, 22.875, 23, 23, 23, 23, 23, 23, 22.875, 22.875, 22.9375, 22.910713, 22.964287, 23, 22.9375, 23, 22.9375, 22.9375, 22.9375, 22.875, 22.9375, 22.9375, 22.9375, 23, 23.25, 23.3125, 23.5625, 23.6875, 23.5625, 23.6875, 23.75, 23.9375, 24.0625, 24.125, 24, 23.75, 23.5625, 23.5625, 23.625, 23.6875, 23.875, 23.9375, 23.875, 23.901787, 23.9375, 23.875, 24, 24.25, 24.375, 24.375, 24.4375, 24.1875, 24.0625, 24.0625, 24, 24.0625, 24.0625, 24.0625, 24.0625, 24, 24, 23.8125, 23.767857, 23.958334, 23.991072, 24.1875, 24.3125, 24.25, 24.25, 24.3125, 24.25, 24.3125, 24.375, 24.205357, 23.892857, 23.892857, 23.9375, 24.357143, 24.6875, 24.973213, 25, 25, 25, 24.973213, 24.901787, 24.9375, 24.875, 24.9375, 25, 25, 25, 25, 25, 25.0625, 25.0625, 25.0625, 25, 24.9375, 25, 25.0625, 25.3125, 25.375, 25.3125, 25.25, 25, 24.9375, 24.9375, 24.9375, 25, 25, 25.125, 25.3125, 25.375, 25.5, 25.4375, 25.25, 25.1875, 25.25, 25.3125, 25.4375, 25.6875, 25.6875, 25.6875, 25.8125, 25.8125, 25.875, 25.8125, 25.5625, 25.3125, 25.1875, 25.1875, 25.169643, 25.03125, 24.90625, 24.866072, 25.0625, 25.0625, 25.1875, 25.3125, 25.4375, 25.5, 25.526787, 25.678572, 25.895834, 26.044643, 26.125, 26.125, 26.125, 26.383928, 26.4625, 26.25, 26.25, 26.0625, 26.1875, 26.1875, 26.3125, 26.4375, 26.625, 26.741072, 26.5625, 26.625, 26.669643, 26.8125, 26.9375, 26.9375, 26.9375, 26.9375, 26.875, 26.75, 26.6875, 26.6875, 26.75, 26.9375, 26.9375, 26.875, 26.8125, 26.6875, 26.8125, 26.875, 27.1875, 27.5, 27.5, 27.5625, 27.241072, 26.875, 26.830357, 26.9375, 27, 27.0625, 27.0625, 27.0625, 27.0625, 27.0625, 27.0625, 27, 27, 27, 27.125, 27.125, 27.125, 27.125, 27.0625, 27.125, 27.3125, 27.375, 27.375, 27.3125, 27.1875, 27.3125, 27.375, 27.580357, 27.848213, 27.875, 27.875, 27.75, 27.75, 27.75, 27.875, 28, 28, 28.125, 28.1875, 28.25, 28.5, 28.5, 28.5625, 28.625, 28.366072, 28.125, 28.026787, 28, 28.1875, 28.375, 28.5625, 28.666666, -10, -10, -10, -10, -10, -10, -10, -10, -10, -10, -10, -10, -10, -10, -10, -10, -10, 19.25, 19.333334, 19.508928, 19.982143, 20.125, 20.25, 20.214287, 20.125, 20.125, 20.125, 20.125, 20.1875, 20.0625, 20, 20.0625, 20.0625, 20.3125, 20.5625, 20.5, 20.4375, 20.25, 20.0625, 20.0625, 20.1875, 20.3125, 20.375, 20.4375, 20.5, 20.5, 20.625, 20.75, 20.919643, 21, 21.0625, 21.0625, 21, 21, 21, 21, 21, 21, 21, 21, 21, 21, 21, 21, 21, 21, 21.0625, 21.0625, 21.0625, 21.0625, 21, 21, 21.0625, 21.125, 21.125, 21.125, 21, 20.9375, 20.9375, 20.9375, 21, 21, 21.0625, 21.3125, 21.5625, 21.6875, 21.75, 21.8125, 21.9375, 22.232143, 22.3125, 22.25, 22.125, 22, 22, 22, 22, 22, 22, 22, 22.0625, 22.0625, 22.0625, 22.0625, 22.125, 22.125, 22.125, 22.125, 22, 22.0625, 22.0625, 22.0625, 22.0625, 22, 22, 22, 22, 22.0625, 22.035713, 21.964287, 22, 21.9375, 22, 22, 22, 22.125, 22.3125, 22.5625, 22.75, 22.75, 22.6875, 22.6875, 22.6875, 22.75, 22.875, 22.875, 22.9375, 22.875, 22.6875, 22.4375, 22.339287, 22.5, 22.732143, 22.9375, 23, 23, 23, 23, 23, 22.9375, 23, 23.125, 23.080357, 22.880953, 22.892857, 22.8125, 22.9375, 22.9375, 22.9375, 23, 23, 23.0625, 23.0625, 23, 23, 23.1875, 23.25, 23.4375, 23.5625, 23.5, 23.625, 23.6875, 23.8125, 23.9375, 24, 23.9375, 23.8125, 23.6875, 23.6875, 23.75, 23.8125, 23.9375, 24, 24, 23.964287, 24, 23.9375, 24, 24.25, 24.375, 24.375, 24.4375, 24.1875, 24.0625, 24.0625, 24, 24, 23.9375, 23.9375, 23.9375, 23.9375, 23.9375, 23.8125, 23.767857, 23.958334, 24.053572, 24.25, 24.4375, 24.375, 24.375, 24.375, 24.25, 24.3125, 24.4375, 24.267857, 23.892857, 23.857143, 23.9375, 24.401787, 24.6875, 24.9375, 24.9375, 24.9375, 24.9375, 24.848213, 24.776787, 24.8125, 24.8125, 24.9375, 25, 25, 25, 25, 25, 25.125, 25.125, 25.125, 25.0625, 24.9375, 25.0625, 25.125, 25.3125, 25.3125, 25.1875, 25.125, 24.9375, 24.9375, 24.9375, 25, 25.125, 25.125, 25.1875, 25.375, 25.375, 25.5, 25.5625, 25.375, 25.375, 25.4375, 25.5, 25.625, 25.8125, 25.75, 25.625, 25.6875, 25.625, 25.6875, 25.625, 25.375, 25.1875, 25.0625, 25.0625, 25.0625, 25.03125, 24.90625, 24.991072, 25.125, 25.125, 25.3125, 25.3125, 25.4375, 25.5, 25.526787, 25.741072, 25.958334, 26.169643, 26.1875, 26.125, 26.0625, 26.196428, 26.275, 26.125, 26.125, 26.026787, 26.294643, 26.366072, 26.5, 26.5625, 26.6875, 26.741072, 26.5625, 26.5625, 26.544643, 26.6875, 26.8125, 26.9375, 27, 27, 27, 26.785713, 26.651787, 26.6875, 26.6875, 26.9375, 26.9375, 26.9375, 27, 26.9375, 27.0625, 27.0625, 27.1875, 27.375, 27.375, 27.4375, 27.178572, 26.875, 26.892857, 27.0625, 27.125, 27.1875, 27.125, 27.0625, 27.0625, 27.0625, 27.0625, 27, 27, 27, 27.0625, 27.0625, 27.0625, 27.125, 27.1875, 27.3125
19.758928, 20.169643, 20.25, 20.375, 20.214287, 20.125, 20.0625, 20, 20.125, 20.25, 20.1875, 20.0625, 20.026787, 20.0625, 20.419643, 20.75, 20.6875, 20.5625, 20.3125, 20.0625, 20.125, 20.3125, 20.4375, 20.392857, 20.321428, 20.375, 20.5, 20.5625, 20.625, 20.625, 20.6875, 20.75, 20.875, 20.875, 20.875, 20.9375, 21, 21.0625, 21.0625, 21.0625, 21, 21, 21, 21, 21, 21, 21, 21.0625, 21.0625, 21.0625, 21.0625, 21, 21, 21.0625, 21.0625, 21.125, 21.125, 21.0625, 21.0625, 21, 21.0625, 21.0625, 21.125, 21.25, 21.4375, 21.6875, 21.8125, 21.8125, 21.875, 22, 22.232143, 22.25, 22.125, 22, 21.875, 21.9375, 22, 22, 22, 22, 22, 22.0625, 22.0625, 22.0625, 22.0625, 22.0625, 22.0625, 22.0625, 22.0625, 22, 22.0625, 22.0625, 22.0625, 22.0625, 22, 22, 22, 22, 22, 22, 22.0625, 22.0625, 22, 21.964287, 21.9375, 21.9375, 22.125, 22.3125, 22.5625, 22.8125, 22.8125, 22.75, 22.75, 22.6875, 22.6875, 22.75, 22.6875, 22.6875, 22.625, 22.4375, 22.1875, 22.026787, 22.214287, 22.589287, 22.794643, 22.9375, 22.9375, 22.9375, 23, 23, 22.9375, 23, 23.1875, 23.142857, 22.845238, 22.892857, 22.75, 22.9375, 23, 23.0625, 23.1875, 23.25, 23.25, 23.1875, 23.0625, 23, 23.125, 23.1875, 23.3125, 23.4375, 23.4375, 23.5625, 23.6875, 23.8125, 23.9375, 24, 24, 23.875, 23.8125, 23.875, 23.910713, 23.9375, 24, 24.035713, 24, 24.0625, 24, 24, 24, 24.1875, 24.3125, 24.3125, 24.375, 24.1875, 24.0625, 24.0625, 24, 24.0625, 24, 24, 24, 23.9375, 23.9375, 23.875, 23.830357, 24.083334, 24.241072, 24.4375, 24.625, 24.5, 24.375, 24.25, 24.0625, 24.125, 24.375, 24.267857, 23.892857, 23.857143, 23.973213, 24.339287, 24.6875, 24.875, 24.9375, 25, 24.9375, 24.785713, 24.714287, 24.75, 24.8125, 25, 25, 25, 25, 25, 25, 25.125, 25.1875, 25.25, 25.1875, 25.0625, 25.0625, 25, 25.125, 25.125, 25.0625, 25.0625, 24.9375, 24.9375, 24.9375, 25.0625, 25.25, 25.3125, 25.3125, 25.4375, 25.375, 25.4375, 25.625, 25.5, 25.5625, 25.625, 25.625, 25.6875, 25.75, 25.625, 25.4375, 25.4375, 25.4375, 25.5625, 25.625, 25.4375, 25.25, 25.125, 25.125, 25.125, 25.09375, 24.96875, 25.053572, 25.125, 25.125, 25.375, 25.375, 25.5625, 25.625, 25.651787, 25.803572, 26.083334, 26.294643, 26.25, 26.1875, 26.125, 26.25, 26.25, 26.25, 26.1875, 26.151787, 26.419643, 26.553572, 26.75, 26.8125, 26.875, 26.866072, 26.625, 26.5625, 26.482143, 26.625, 26.75, 26.875, 27, 27, 27, 26.848213, 26.776787, 26.8125, 26.8125, 27, 26.9375, 26.9375, 27, 27, 27.125, 27.125, 27.1875, 27.25, 27.25, 27.3125, 27.116072, 26.9375, 27.017857, 27.1875, 27.25, 27.25, 27.125, 27, 27, 27, 27, 27, 27, 27, 27, 27, 27.0625, 27.1875, 27.375, 27.5625, 27.625, 27.5, 27.375, 27.3125, 27.3125, 27.375, 27.3125, 27.267857, 27.473213, 27.625, 27.75, 27.75, 27.75, 27.75, 27.875, 27.9375, 27.875, 27.955357, 28.208334, 28.366072, 28.5625, 28.625, 28.625, 28.625, 28.428572, 28.0625, 27.901787, 27.8125, 27.875, 28, 28.125, 28.166666, -10, -10, -10, -10, -10, -10, -10, -10, -10, -10, -10, -10, -10, -10, -10, -10, -10, 19.75, 19.833334, 19.9375, 20.169643, 20.25, 20.3125, 20.214287, 20.125, 20.0625, 20, 20.125, 20.25, 20.25, 20.1875, 20.151787, 20.1875, 20.482143, 20.75, 20.625, 20.5, 20.25, 20.0625, 20.125, 20.3125, 20.4375, 20.267857, 20.196428, 20.1875, 20.3125, 20.4375, 20.5625, 20.625, 20.6875, 20.75, 20.875, 20.875, 20.875, 20.9375, 21.0625, 21.125, 21.125, 21.125, 21, 21, 21, 20.9375, 20.9375, 20.9375, 20.9375, 21, 21, 21, 21, 21, 21, 21, 21, 21.0625, 21.125, 21.125, 21.125, 21.125, 21.125, 21.125, 21.25, 21.375, 21.5625, 21.8125, 21.875, 21.8125, 21.8125, 21.875, 22.044643, 22.0625, 22, 21.9375, 21.875, 21.9375, 22, 22, 22, 22, 22, 22.0625, 22.0625, 22.0625, 22.0625, 22, 22, 22, 22, 22, 22.0625, 22.0625, 22.0625, 22.0625, 22, 22, 22.0625, 22.125, 22.1875, 22.25, 22.25, 22.25, 22.1875, 22.089287, 22.0625, 22, 22.0625, 22.25, 22.5, 22.75, 22.75, 22.625, 22.625, 22.5625, 22.625, 22.625, 22.5625, 22.5, 22.4375, 22.375, 22.125, 22.026787, 22.125, 22.366072, 22.544643, 22.6875, 22.8125, 22.875, 23, 23, 22.875, 22.875, 23, 22.892857, 22.595238, 22.705357, 22.625, 22.875, 23.0625, 23.1875, 23.3125, 23.375, 23.3125, 23.1875, 23.0625, 23, 23.125, 23.125, 22.979166, 23.145834, 23.416666, 23.678572, 23.875, 23.9375, 24, 24, 24, 23.9375, 23.9375, 24, 24.035713, 24, 24, 24.035713, 24, 24.0625, 24, 24, 24, 24.125, 24.1875, 24.1875, 24.25, 24.125, 24.0625, 24.0625, 24, 24.125, 24.125, 24.1875, 24.25, 24.1875, 24.1875, 24.125, 24.080357, 24.333334, 24.491072, 24.625, 24.75, 24.5625, 24.375, 24.1875, 24, 24, 24.1875, 24.160713, 23.955357, 23.982143, 24.160713, 24.401787, 24.625, 24.75, 24.8125, 24.9375, 24.875, 24.660713, 24.589287, 24.625, 24.75, 25, 25, 25, 25, 25, 25, 25.1875, 25.3125, 25.4375, 25.4375, 25.25, 25.1875, 25.0625, 25.0625, 25.0625, 25, 25, 25, 25, 25, 25.1875, 25.375, 25.5, 25.5625, 25.5625, 25.4375, 25.5, 25.625, 25.625, 25.75, 25.75, 25.75, 25.75, 25.75, 25.625, 25.4375, 25.375, 25.375, 25.5, 25.625, 25.5, 25.375, 25.3125, 25.3125, 25.3125, 25.3125, 25.25, 25.3125, 25.375, 25.375, 25.5625, 25.5625, 25.6875, 25.75, 25.776787, 25.848213, 25.9375, 26.125, 26.0625, 26.125, 26.1875, 26.3125, 26.3125, 26.3125, 26.1875, 26.214287, 26.544643, 26.741072, 26.9375, 26.9375, 26.875, 26.875, 26.8125, 26.6875, 26.625, 26.6875, 26.75, 26.875, 27, 26.9375, 26.964287, 26.910713, 26.732143, 26.875, 26.8125, 27, 27, 27.0625, 27.25, 27.223213, 27.214287, 27.1875, 27.0625, 27.1875, 27.1875, 27.25, 27.178572, 27.0625, 27.125, 27.1875, 27.25, 27.1875, 27.0625, 26.9375, 26.9375, 26.9375, 27, 27, 27.0625, 27.035713, 26.964287, 27.0625, 27.169643, 27.3125, 27.5625, 27.6875
20, 20.0625, 20.1875, 20.3125, 20.3125, 20.3125, 20.25, 20.1875, 20.375, 20.4375, 20.375, 20.25, 20.089287, 20.1875, 20.419643, 20.6875, 20.625, 20.5, 20.375, 20.25, 20.3125, 20.4375, 20.5, 20.267857, 20.196428, 20.125, 20.1875, 20.25, 20.3125, 20.446428, 20.6875, 20.75, 20.9375, 20.875, 20.875, 21, 21.1875, 21.25, 21.25, 21.1875, 21, 21, 21, 20.875, 20.8125, 20.8125, 20.8125, 20.9375, 20.9375, 20.9375, 21, 21.035713, 21.0625, 21.125, 21.0625, 21.125, 21.1875, 21.125, 21.125, 21.125, 21.125, 21.1875, 21.375, 21.5625, 21.6875, 21.75, 21.729166, 21.833334, 21.875, 21.9375, 21.9375, 21.9375, 21.875, 21.875, 21.875, 21.9375, 22, 22, 22, 22, 22, 22, 22, 22, 22, 22, 22, 22, 22, 22, 22.0625, 22.0625, 22.0625, 22.0625, 22, 22, 22.125, 22.25, 22.375, 22.5, 22.4375, 22.4375, 22.375, 22.214287, 22.1875, 22.0625, 22, 22.1875, 22.375, 22.625, 22.75, 22.625, 22.625, 22.5625, 22.5625, 22.5, 22.4375, 22.3125, 22.25, 22.25, 22.0625, 22.026787, 22.125, 22.303572, 22.419643, 22.5625, 22.6875, 22.8125, 23, 23, 22.875, 22.9375, 23.0625, 22.982143, 22.818451, 22.830357, 22.75, 22.9375, 23.0625, 23.1875, 23.3125, 23.375, 23.3125, 23.1875, 23.0625, 23, 23.125, 23.125, 22.898809, 23.008333, 23.470238, 23.732143, 24, 24, 24, 24, 24, 23.9375, 23.9375, 24, 24.035713, 24, 24, 24.035713, 24, 24, 23.9375, 23.9375, 23.9375, 24.0625, 24.0625, 24.0625, 24.0625, 24, 24, 24.0625, 24.0625, 24.1875, 24.1875, 24.25, 24.375, 24.375, 24.4375, 24.375, 24.25, 24.25, 24.3125, 24.3125, 24.375, 24.25, 24.125, 24.0625, 24, 24, 24.125, 24.125, 24.0625, 24.089287, 24.285713, 24.357143, 24.5625, 24.6875, 24.75, 24.9375, 24.8125, 24.625, 24.625, 24.625, 24.8125, 25, 25, 25, 24.9375, 24.875, 24.875, 25, 25.25, 25.5, 25.5, 25.3125, 25.151787, 25, 25, 25.0625, 25, 25, 25, 25, 25, 25.1875, 25.4375, 25.625, 25.669643, 25.5, 25.3125, 25.25, 25.4375, 25.5625, 25.8125, 25.9375, 26, 25.9375, 25.875, 25.75, 25.5, 25.375, 25.3125, 25.3125, 25.4375, 25.375, 25.3125, 25.375, 25.4375, 25.5, 25.5625, 25.5, 25.625, 25.75, 25.75, 25.875, 25.75, 25.75, 25.8125, 25.8125, 25.8125, 25.9375, 26.0625, 26.0625, 26.125, 26.25, 26.375, 26.4375, 26.5, 26.3125, 26.276787, 26.482143, 26.616072, 26.8125, 26.875, 26.875, 26.875, 26.875, 26.8125, 26.75, 26.8125, 26.8125, 26.8125, 26.875, 26.8125, 26.901787, 26.973213, 26.857143, 27.0625, 26.9375, 27, 26.892857, 26.9375, 27.0625, 27.098213, 27.089287, 27.0625, 26.9375, 27, 27.0625, 27.125, 27.125, 27.1875, 27.1875, 27.25, 27.25, 27.1875, 27.0625, 26.9375, 27, 27, 27.0625, 27.0625, 27.125, 27.160713, 27.089287, 27.1875, 27.232143, 27.3125, 27.5, 27.625, 27.5625, 27.4375, 27.3125, 27.375, 27.535713, 27.5, 27.392857, 27.205357, 27.160713, 27.276787, 27.5625, 27.794643, 27.9375, 28, 28, 28, 27.9375, 27.955357, 28.145834, 28.178572, 28.3125, 28.3125, 28.125, 27.955357, 27.8125, 27.75, 27.875, 28, 28.0625, 28.0625, 28.0625, 28, -10, -10, -10, -10, -10, -10, -10, -10, -10, -10, -10, -10, -10, -10, -10, -10, -10, 20, 19.916666, 19.9375, 19.9375, 20, 20.125, 20.1875, 20.223213, 20.1875, 20.366072, 20.419643, 20.4375, 20.3125, 20.125, 20.026787, 20.1875, 20.357143, 20.5625, 20.5, 20.375, 20.375, 20.375, 20.419643, 20.4375, 20.5, 20.205357, 20.258928, 20.1875, 20.1875, 20.1875, 20.125, 20.196428, 20.5, 20.625, 20.875, 20.875, 20.8125, 20.9375, 21.125, 21.1875, 21.3125, 21.3125, 21.125, 21.1875, 21.1875, 21, 20.875, 20.776787, 20.75, 20.875, 20.875, 20.875, 20.9375, 20.973213, 21.125, 21.25, 21.1875, 21.25, 21.3125, 21.1875, 21.1875, 21.1875, 21.125, 21.1875, 21.375, 21.5, 21.625, 21.6875, 21.666666, 21.833334, 21.8125, 21.8125, 21.8125, 21.8125, 21.8125, 21.875, 21.875, 21.9375, 22, 22, 22, 22, 22, 22, 22, 21.9375, 21.875, 21.875, 21.875, 21.9375, 22, 22, 22, 22, 22, 22, 22.0625, 22.0625, 22.1875, 22.3125, 22.4375, 22.5625, 22.5, 22.5625, 22.5, 22.339287, 22.3125, 22.125, 22, 22.1875, 22.25, 22.464287, 22.732143, 22.678572, 22.6875, 22.625, 22.625, 22.5, 22.4375, 22.25, 22.125, 22.1875, 22.125, 22.25, 22.3125, 22.32143, 22.357143, 22.455357, 22.6875, 22.875, 23.1875, 23.125, 23, 22.9375, 22.9375, 22.875, 22.964287, 23.0625, 23, 23.125, 23.125, 23.1875, 23.25, 23.25, 23.25, 23.1875, 23.1875, 23.3125, 23.4375, 23.375, 22.940475, 22.945833, 23.282738, 23.544643, 23.8125, 23.8125, 23.875, 23.9375, 23.9375, 23.9375, 24, 24.035713, 23.92857, 23.892857, 23.875, 23.973213, 24.0625, 24.0625, 24, 24, 23.875, 23.9375, 23.9375, 23.9375, 24.0625, 24.125, 24.125, 24.1875, 24.125, 24.1875, 24.25, 24.375, 24.5625, 24.5625, 24.5625, 24.375, 24.1875, 24.1875, 24.25, 24.25, 24.25, 24.125, 24, 24, 24, 24, 24.0625, 24.125, 24.125, 24.1875, 24.410713, 24.375, 24.5625, 24.6875, 24.75, 24.9375, 24.875, 24.75, 24.75, 24.75, 24.875, 25, 25, 25, 24.9375, 24.875, 24.875, 24.9375, 25.1875, 25.4375, 25.4375, 25.3125, 25.089287, 24.9375, 24.9375, 25, 25.0625, 25.125, 25.125, 25.125, 25.0625, 25.125, 25.375, 25.625, 25.732143, 25.5625, 25.375, 25.25, 25.375, 25.5625, 25.8125, 25.9375, 26, 26, 25.9375, 25.875, 25.6875, 25.5, 25.5, 25.4375, 25.5, 25.4375, 25.3125, 25.4375, 25.5625, 25.6875, 25.8125, 25.6875, 25.6875, 25.8125, 25.8125, 25.9375, 25.9375, 25.9375, 26, 26, 25.9375, 26, 26, 26, 26.0625, 26.1875, 26.375, 26.5, 26.625, 26.5625, 26.5625, 26.5625, 26.5625, 26.6875, 26.75, 26.8125, 26.8125, 26.75, 26.75, 26.75, 26.875, 26.9375, 26.8125, 26.8125, 26.75, 26.776787, 27, 26.955357, 27.1875, 27.125, 27, 26.785713, 26.75, 26.8125, 26.910713, 26.964287, 27, 26.9375, 27, 27.0625, 27.125, 27.125, 27.25, 27.3125, 27.294643, 27.1875, 27.0625, 26.8125, 26.8125, 26.875, 26.9375, 27.0625, 27.0625, 27.125, 27.223213, 27.151787, 27.25, 27.294643, 27.25, 27.375, 27.4375
19.9375, 19.9375, 20, 20.0625, 20.125, 20.098213, 20.0625, 20.303572, 20.294643, 20.3125, 20.1875, 20.125, 20.1875, 20.3125, 20.375, 20.4375, 20.375, 20.375, 20.5, 20.625, 20.535715, 20.166666, 20.071428, 19.8125, 20, 20, 20, 20.0625, 20, 20.133928, 20.5, 20.6875, 20.9375, 21, 20.9375, 21, 21.125, 21.125, 21.25, 21.25, 21.125, 21.1875, 21.1875, 21, 20.875, 20.839287, 20.875, 21.0625, 21.053572, 20.875, 20.9375, 20.910713, 21.125, 21.25, 21.1875, 21.1875, 21.25, 21.125, 21.125, 21.1875, 21.0625, 21.125, 21.25, 21.3125, 21.4375, 21.4375, 21.416666, 21.645834, 21.6875, 21.75, 21.8125, 21.875, 21.9375, 22, 22, 22, 22, 22, 22, 22, 22, 22, 22, 21.9375, 21.8125, 21.8125, 21.875, 21.973213, 22.0625, 22.0625, 22, 22, 22, 22, 22.0625, 22.0625, 22.1875, 22.3125, 22.4375, 22.5625, 22.4375, 22.5625, 22.625, 22.5, 22.5, 22.3125, 22.0625, 22.1875, 22.125, 22.151787, 22.375, 22.511906, 22.616072, 22.5625, 22.625, 22.5625, 22.5625, 22.5, 22.375, 22.4375, 22.3125, 22.5, 22.535713, 22.401787, 22.4375, 22.455357, 22.6875, 22.875, 23.1875, 23.125, 23.0625, 23, 22.9375, 22.875, 23.0625, 23.1875, 23.169643, 23.125, 23.125, 23.0625, 23.125, 23.1875, 23.25, 23.3125, 23.4375, 23.5, 23.5625, 23.4375, 23.002975, 23.008333, 23.345238, 23.544643, 23.6875, 23.625, 23.6875, 23.8125, 23.875, 24.0625, 24.125, 24.098213, 23.955357, 23.892857, 23.875, 24, 24.1875, 24.125, 24.125, 24.0625, 23.875, 23.9375, 23.9375, 24, 24.125, 24.1875, 24.25, 24.3125, 24.25, 24.25, 24.25, 24.3125, 24.5, 24.5625, 24.5625, 24.375, 24.1875, 24.125, 24.125, 24.0625, 24.0625, 24.0625, 24.0625, 24.1875, 24.25, 24.25, 24.1875, 24.25, 24.3125, 24.375, 24.625, 24.625, 24.6875, 24.8125, 24.8125, 24.9375, 24.9375, 24.875, 24.875, 24.875, 24.9375, 25, 24.9375, 24.9375, 24.875, 24.8125, 24.875, 24.9375, 25.125, 25.3125, 25.3125, 25.1875, 25.089287, 25, 25, 25.0625, 25.0625, 25.125, 25.125, 25.125, 25.0625, 25.0625, 25.3125, 25.5625, 25.732143, 25.625, 25.4375, 25.1875, 25.151787, 25.375, 25.770834, 25.9375, 26.0625, 26.0625, 26.0625, 26.0625, 25.9375, 25.75, 25.6875, 25.5, 25.4375, 25.3125, 25.1875, 25.3125, 25.4375, 25.5625, 25.75, 25.6875, 25.6875, 25.875, 25.875, 25.9375, 26, 25.9375, 25.9375, 26, 25.9375, 25.9375, 25.9375, 25.9375, 26, 26.125, 26.25, 26.375, 26.5625, 26.5625, 26.625, 26.625, 26.5625, 26.6875, 26.75, 26.8125, 26.75, 26.625, 26.625, 26.6875, 26.875, 27, 26.875, 26.8125, 26.75, 26.714287, 26.9375, 26.892857, 27.125, 27.125, 27, 26.723213, 26.714287, 26.848213, 26.910713, 27.026787, 27, 27, 27.125, 27.169643, 27.125, 27.125, 27.1875, 27.25, 27.107143, 26.892857, 26.830357, 26.75, 26.8125, 26.9375, 26.9375, 27.0625, 27.0625, 27.125, 27.223213, 27.151787, 27.25, 27.232143, 27.125, 27.1875, 27.1875, 27.125, 27.125, 27.125, 27.1875, 27.285713, 27.25, 27.142857, 27.142857, 27.160713, 27.276787, 27.5625, 27.669643, 27.875, 27.9375, 27.9375, 28.0625, 28.0625, 28.0625, 28.125, 28.098213, 28.008928, 27.919643, 27.604166, 27.580357, 27.607143, 27.625, 27.75, 27.848213, 28.0625, 28.0625, 28.125, 28, -10, -10, -10, -10, -10, -10, -10, -10, -10, -10, -10, -10, -10, -10, -10, -10, -10, 20, 19.916666, 19.9375, 19.9375, 20, 20.0625, 20.125, 20.098213, 20.0625, 20.241072, 20.169643, 20.1875, 20.0625, 20.125, 20.25, 20.375, 20.4375, 20.4375, 20.4375, 20.5, 20.6875, 20.8125, 20.723215, 20.229166, 20.008928, 19.6875, 19.8125, 19.875, 20, 20.1875, 20.125, 20.196428, 20.4375, 20.5, 20.6875, 20.8125, 20.8125, 20.9375, 21.0625, 21, 21.125, 21.125, 21.0625, 21.1875, 21.1875, 21, 20.875, 20.839287, 20.875, 21.0625, 21.053572, 20.875, 20.9375, 20.910713, 21.125, 21.25, 21.1875, 21.1875, 21.1875, 21.0625, 21.0625, 21.0625, 21, 21.0625, 21.125, 21.1875, 21.25, 21.1875, 21.166666, 21.458334, 21.5625, 21.6875, 21.8125, 21.875, 21.9375, 21.9375, 21.9375, 21.9375, 21.9375, 22, 22, 22, 22, 22, 22, 21.9375, 21.8125, 21.8125, 21.875, 22.035713, 22.125, 22.125, 22.0625, 22, 22, 22, 22.0625, 22.0625, 22.125, 22.1875, 22.25, 22.3125, 22.25, 22.375, 22.4375, 22.3125, 22.3125, 22.25, 22.098213, 22.25, 22.1875, 22.089287, 22.401785, 22.672619, 22.678572, 22.580357, 22.5, 22.4375, 22.5, 22.5625, 22.5, 22.5625, 22.5, 22.625, 22.75, 22.6875, 22.625, 22.642857, 22.6875, 22.8125, 23.125, 23.0625, 23.125, 23.125, 23.125, 23.125, 23.375, 23.410713, 23.25893, 23.1875, 23, 22.9375, 23, 23.125, 23.3125, 23.4375, 23.5625, 23.5625, 23.5, 23.4375, 23.273809, 23.299999, 23.491072, 23.616072, 23.6875, 23.625, 23.6875, 23.8125, 23.875, 24.0625, 24.125, 24.098213, 23.955357, 23.892857, 23.875, 24, 24.1875, 24.125, 24.125, 24.0625, 23.875, 23.9375, 23.9375, 24, 24.125, 24.1875, 24.25, 24.3125, 24.25, 24.1875, 24.125, 24.125, 24.25, 24.3125, 24.375, 24.25, 24.125, 24.0625, 24, 23.9375, 23.875, 23.9375, 24, 24.1875, 24.375, 24.4375, 24.375, 24.375, 24.3125, 24.3125, 24.5625, 24.625, 24.8125, 24.9375, 24.9375, 25, 25, 25, 25, 25, 24.9375, 24.875, 24.75, 24.75, 24.75, 24.75, 24.875, 24.875, 25, 25.125, 25.1875, 25.125, 25.151787, 25.1875, 25.125, 25.1875, 25.125, 25.125, 25.125, 25.125, 25.0625, 25, 25.1875, 25.375, 25.544643, 25.5, 25.4375, 25.25, 25.214287, 25.4375, 25.770834, 25.9375, 26.0625, 26.0625, 26.0625, 26.0625, 26, 25.875, 25.8125, 25.625, 25.5, 25.375, 25.1875, 25.25, 25.3125, 25.4375, 25.6875, 25.625, 25.625, 25.75, 25.75, 25.875, 26, 25.9375, 25.875, 25.9375, 25.9375, 25.9375, 26, 26, 26, 26.0625, 26.125, 26.25, 26.5, 26.625, 26.75, 26.75, 26.625, 26.6875, 26.75, 26.875, 26.8125, 26.6875, 26.6875, 26.6875, 26.875, 26.9375, 26.8125, 26.75, 26.75, 26.75, 26.9375, 27, 27.125, 27.1875, 27, 26.785713, 26.776787, 26.910713, 27, 27.125, 27.0625, 27, 27.089287, 27.276787, 27.232143, 27.25, 27.25, 27.25, 27.107143, 26.892857, 26.830357, 26.8125, 26.875, 27, 27, 27.0625, 27.0625, 27.0625, 27.1875, 27.1875, 27.1875, 27.125, 27, 27, 27
19.875, 19.9375, 20.044643, 20.1875, 20.25, 20.098213, 20, 19.991072, 19.794643, 19.892857, 20.020834, 20.169643, 20.375, 20.375, 20.375, 20.3125, 20.375, 20.5, 20.6875, 20.875, 20.714287, 20.020832, 19.839285, 19.5, 19.625, 19.75, 19.9375, 20.294643, 20.3125, 20.3125, 20.3125, 20.3125, 20.375, 20.5625, 20.625, 20.75, 20.875, 20.875, 21, 21.0625, 21.0625, 21.1875, 21.1875, 21.0625, 21, 20.964287, 21, 21.125, 21.116072, 20.9375, 20.9375, 20.875, 21.0625, 21.125, 21.125, 21.125, 21.125, 21.0625, 21.0625, 21, 20.875, 20.875, 20.875, 20.9375, 21.0625, 21.125, 21.125, 21.25, 21.375, 21.5, 21.75, 21.875, 21.9375, 21.9375, 21.9375, 21.9375, 21.9375, 22, 22, 22, 22, 22, 22, 21.9375, 21.8125, 21.8125, 21.875, 22.035713, 22.125, 22.125, 22.0625, 22, 22, 22, 22.0625, 22.0625, 22.0625, 22.0625, 22.0625, 22.0625, 22.0625, 22.1875, 22.25, 22.1875, 22.1875, 22.1875, 22.160713, 22.3125, 22.3125, 22.214287, 22.464285, 22.797619, 22.803572, 22.767857, 22.6875, 22.625, 22.625, 22.6875, 22.625, 22.625, 22.5625, 22.5625, 22.6875, 22.6875, 22.6875, 22.705357, 22.6875, 22.75, 23, 23, 23.125, 23.0625, 23, 23, 23.1875, 23.348213, 23.25893, 23.1875, 23.0625, 22.9375, 23, 23.125, 23.3125, 23.375, 23.5, 23.5, 23.375, 23.3125, 23.229166, 23.375, 23.5, 23.6875, 23.6875, 23.625, 23.6875, 23.8125, 23.875, 24.0625, 24.125, 24.098213, 23.955357, 23.892857, 23.875, 24, 24.1875, 24.1875, 24.1875, 24.125, 23.9375, 23.9375, 23.9375, 24.0625, 24.1875, 24.25, 24.3125, 24.1875, 24.125, 24.0625, 24, 24.0625, 24.125, 24.125, 24.25, 24.25, 24.25, 24.3125, 24.1875, 24.125, 24.0625, 24.0625, 24.125, 24.25, 24.375, 24.4375, 24.375, 24.4375, 24.375, 24.4375, 24.6875, 24.75, 24.9375, 25, 25, 25, 25, 25, 25, 25, 24.9375, 24.875, 24.75, 24.75, 24.8125, 24.875, 25, 25, 25, 25.0625, 25.1875, 25.169643, 25.1875, 25.25, 25.125, 25.1875, 25.125, 25.125, 25.125, 25.125, 25.0625, 24.9375, 25.0625, 25.1875, 25.375, 25.5625, 25.5, 25.4375, 25.339287, 25.5, 25.770834, 25.875, 26, 26, 26.0625, 26.0625, 26.0625, 26, 25.9375, 25.8125, 25.6875, 25.5625, 25.375, 25.375, 25.375, 25.4375, 25.6875, 25.5625, 25.5, 25.5625, 25.5625, 25.75, 25.9375, 25.9375, 25.875, 25.9375, 25.9375, 25.9375, 26, 26, 25.9375, 25.875, 25.875, 25.9375, 26.1875, 26.375, 26.625, 26.75, 26.75, 26.875, 26.875, 26.9375, 26.875, 26.75, 26.75, 26.75, 26.875, 26.875, 26.75, 26.6875, 26.625, 26.6875, 26.875, 26.9375, 27.0625, 27.125, 27, 26.892857, 26.901787, 27.098213, 27.125, 27.1875, 27.125, 27, 27.151787, 27.339287, 27.232143, 27.25, 27.1875, 27.1875, 27.107143, 26.892857, 26.830357, 26.8125, 26.875, 26.9375, 26.9375, 27.0625, 27.125, 27.1875, 27.25, 27.1875, 27.125, 27.0625, 27, 27, 27, 27, 27, 27.0625, 27.125, 27.125, 27.125, 27.0625, 27.0625, 27.214287, 27.544643, 27.669643, 27.625, 27.6875, 27.6875, 27.8125, 28, 28, 28, 28.0625, 28.098213, 27.883928, 27.794643, 27.666666, 27.857143, 27.982143, 28, 27.875, 27.785713, 27.9375, 27.9375, 28.0625, 28, -10, -10, -10, -10, -10, -10, -10, -10, -10, -10, -10, -10, -10, -10, -10, -10, -10, 20, 19.916666, 19.875, 19.9375, 20.044643, 20.125, 20.1875, 20.0625, 20, 19.8125, 19.75, 19.892857, 20.065477, 20.169643, 20.3125, 20.1875, 20.25, 20.1875, 20.3125, 20.5625, 20.75, 20.9375, 20.794643, 20.145832, 19.901785, 19.5625, 19.5625, 19.75, 20, 20.357143, 20.4375, 20.375, 20.25, 20.1875, 20.1875, 20.3125, 20.5, 20.6875, 20.875, 20.9375, 20.9375, 20.9375, 21, 21.0625, 21.0625, 21, 20.9375, 21, 21.0625, 21.1875, 21.116072, 20.9375, 20.9375, 20.875, 21.0625, 21.0625, 21.125, 21.1875, 21.1875, 21.1875, 21.0625, 20.901787, 20.875, 20.910713, 20.9375, 21, 21.0625, 21.0625, 21.0625, 21.1875, 21.3125, 21.5, 21.75, 21.875, 21.9375, 21.9375, 21.9375, 21.9375, 21.9375, 22, 22, 22, 22, 22, 22, 22, 21.9375, 21.9375, 22, 22.098213, 22.125, 22.125, 22.0625, 22, 22, 22, 22, 22, 22, 22, 22, 22, 22, 22.0625, 22.125, 22.0625, 22.0625, 22.125, 22.223213, 22.4375, 22.5625, 22.5, 22.607143, 22.806547, 22.741072, 22.705357, 22.625, 22.6875, 22.6875, 22.75, 22.625, 22.5, 22.4375, 22.4375, 22.625, 22.75, 22.8125, 22.75, 22.625, 22.625, 22.75, 22.875, 23, 23, 23, 23, 23.125, 23.223213, 23.19643, 23.125, 23.0625, 23, 23, 23.1875, 23.3125, 23.3125, 23.375, 23.125, 23, 23.0625, 23.294643, 23.5625, 23.8125, 23.9375, 23.875, 23.8125, 23.8125, 23.875, 23.875, 23.9375, 23.9375, 23.9375, 24, 24, 24.0625, 24.098213, 24.089287, 24.125, 24.0625, 24.0625, 24, 24, 24.0625, 24.3125, 24.375, 24.267857, 24.258928, 24.0625, 24.0625, 24.0625, 24, 24, 24, 24, 24.125, 24.1875, 24.25, 24.3125, 24.1875, 24.125, 24.0625, 24.0625, 24.1875, 24.3125, 24.4375, 24.5, 24.375, 24.4375, 24.4375, 24.5625, 24.8125, 24.875, 25, 25, 25, 25, 25, 25, 25, 25, 24.9375, 24.875, 24.75, 24.75, 24.75, 24.8125, 24.9375, 24.9375, 25, 25.0625, 25.1875, 25.169643, 25.1875, 25.25, 25.125, 25.1875, 25.0625, 25, 25, 25, 25, 24.9375, 25, 25.0625, 25.1875, 25.375, 25.375, 25.375, 25.339287, 25.5, 25.708334, 25.8125, 25.9375, 25.875, 25.9375, 25.875, 25.875, 25.875, 25.794643, 25.541666, 25.455357, 25.375, 25.3125, 25.25, 25.125, 25.142857, 25.520834, 25.482143, 25.5, 25.5625, 25.5625, 25.75, 25.9375, 25.9375, 25.875, 25.9375, 25.9375, 25.9375, 26.0625, 26.125, 26.1875, 26.160713, 26.017857, 25.946428, 26.0625, 26.1875, 26.375, 26.625, 26.75, 26.9375, 26.9375, 26.9375, 26.875, 26.8125, 26.875, 26.875, 26.9375, 26.8125, 26.6875, 26.5625, 26.5, 26.625, 26.75, 26.875, 26.9375, 27, 27, 27, 27.026787, 27.223213, 27.1875, 27.1875, 27.125, 27, 27.151787, 27.401787, 27.357143, 27.4375, 27.3125, 27.1875, 27.0625, 26.892857, 26.892857, 26.9375, 26.9375, 27, 27, 27.1875, 27.3125, 27.4375, 27.4375, 27.3125, 27.1875, 27.0625, 27, 26.9375, 26.9375
19.8125, 19.875, 20.044643, 20.125, 20.1875, 20.125, 20.0625, 19.875, 19.8125, 19.892857, 20.065477, 20.107143, 20.1875, 20.0625, 20.125, 20.125, 20.1875, 20.401787, 20.598213, 20.6875, 20.678572, 20.291666, 20.142857, 19.875, 19.8125, 19.875, 20.0625, 20.357143, 20.4375, 20.375, 20.1875, 20.0625, 20, 20.125, 20.375, 20.625, 20.8125, 20.875, 20.875, 20.875, 21.0625, 21.125, 21.125, 21.0625, 20.9375, 20.9375, 20.9375, 21, 20.9375, 20.9375, 20.9375, 20.9375, 21.0625, 21.0625, 21.1875, 21.3125, 21.3125, 21.3125, 21.0625, 20.839287, 20.8125, 20.848213, 21, 21.125, 21.25, 21.25, 21.25, 21.3125, 21.375, 21.5, 21.6875, 21.8125, 21.875, 21.9375, 21.875, 21.875, 21.875, 21.9375, 22, 22, 22, 22, 22, 22, 22, 22, 22, 22.0625, 22.0625, 22.0625, 22.0625, 22, 22, 21.9375, 21.9375, 21.9375, 21.9375, 22, 22, 22, 22, 22, 22, 21.9375, 21.9375, 22, 22.160713, 22.4375, 22.6875, 22.75, 22.901787, 22.910713, 22.75, 22.705357, 22.5625, 22.5625, 22.571428, 22.700001, 22.446428, 22.392857, 22.375, 22.375, 22.5625, 22.625, 22.625, 22.5625, 22.4375, 22.5, 22.625, 22.8125, 23, 23, 23, 23, 23.0625, 23.098213, 23.151787, 23.1875, 23.125, 23.125, 23, 23.125, 23.25, 23.1875, 23.125, 22.9375, 22.982143, 23.178572, 23.419643, 23.625, 23.8125, 23.9375, 23.9375, 23.9375, 23.9375, 23.9375, 23.875, 23.75, 23.75, 23.75, 23.8125, 23.964287, 24.169643, 24.214285, 24.151787, 24.125, 24, 24, 24, 24, 24.0625, 24.25, 24.3125, 24.205357, 24.133928, 23.9375, 23.9375, 23.9375, 23.9375, 24, 24, 24, 24.125, 24.1875, 24.25, 24.3125, 24.1875, 24.125, 24.125, 24.125, 24.25, 24.375, 24.4375, 24.5, 24.375, 24.375, 24.375, 24.4375, 24.625, 24.75, 24.875, 24.9375, 25, 25, 25, 25, 25, 25, 24.9375, 24.875, 24.8125, 24.8125, 24.8125, 24.875, 24.9375, 24.9375, 25, 25.0625, 25.1875, 25.169643, 25.125, 25.1875, 25.0625, 25.125, 25.0625, 25, 24.9375, 24.875, 24.8125, 24.75, 24.8125, 24.9375, 25.125, 25.25, 25.3125, 25.375, 25.375, 25.571428, 25.75, 25.8125, 25.9375, 25.875, 25.9375, 25.803572, 25.674999, 25.803572, 25.723215, 25.541666, 25.455357, 25.375, 25.3125, 25.25, 25.125, 25.142857, 25.458334, 25.482143, 25.5625, 25.625, 25.6875, 25.875, 26, 26, 25.9375, 25.9375, 25.9375, 25.9375, 26.0625, 26.125, 26.25, 26.223213, 26.080357, 26.008928, 26, 26.125, 26.25, 26.5, 26.6875, 26.875, 26.9375, 26.875, 26.875, 26.875, 26.9375, 27, 27, 26.8125, 26.6875, 26.5625, 26.5, 26.6875, 26.75, 26.875, 26.9375, 26.9375, 27, 27.125, 27.125, 27.25, 27.25, 27.125, 27.125, 26.9375, 27.026787, 27.294643, 27.419643, 27.5625, 27.4375, 27.25, 27.125, 27, 27, 26.9375, 26.9375, 26.9375, 27, 27.1875, 27.375, 27.5, 27.5625, 27.4375, 27.25, 27.125, 27, 26.875, 26.875, 26.875, 26.9375, 27.15, 26.928572, 26.895834, 26.9375, 26.9375, 26.875, 26.839287, 27.098215, 27.419643, 27.479166, 27.416666, 27.321428, 27.4375, 27.6875, 27.8125, 27.875, 27.8125, 27.8125, 27.75, 27.8125, 28, 28.107143, 28.053572, 27.8125, 27.8125, 27.794643, 27.9375, 28.0625, 28.0625, 28.083334, -10, -10, -10, -10, -10, -10, -10, -10, -10, -10, -10, -10, -10, -10, -10, -10, -10, 19.625, 19.583332, 19.625, 19.75, 19.982143, 20.1875, 20.25, 20.1875, 20.125, 19.9375, 19.9375, 20.017857, 20.190477, 20.107143, 20.125, 20, 20, 20, 20, 20.151787, 20.348213, 20.4375, 20.428572, 20.166666, 20.142857, 20.0625, 20.125, 20.1875, 20.3125, 20.419643, 20.4375, 20.375, 20.160713, 20.026787, 20.0625, 20.169643, 20.4375, 20.616072, 20.479166, 20.580357, 20.625, 20.794643, 21.0625, 21.125, 21.125, 21.125, 21, 21, 21, 21, 20.9375, 20.9375, 20.9375, 20.9375, 21.0625, 21.0625, 21.1875, 21.375, 21.4375, 21.4375, 21.1875, 20.901787, 20.875, 20.973213, 21.1875, 21.375, 21.5, 21.4375, 21.464287, 21.5, 21.321428, 21.383928, 21.4375, 21.625, 21.75, 21.9375, 21.9375, 21.9375, 21.9375, 21.9375, 22, 22, 22, 22, 22, 22, 22, 22, 22, 22, 22, 22, 22, 22, 22, 21.9375, 21.9375, 21.9375, 21.9375, 22, 22, 22, 22, 22, 22, 22, 22, 22, 22.125, 22.3125, 22.5625, 22.75, 22.875, 22.875, 22.8125, 22.8125, 22.75, 22.75, 22.696428, 22.762501, 22.446428, 22.330357, 22.25, 22.1875, 22.3125, 22.375, 22.4375, 22.375, 22.3125, 22.4375, 22.5, 22.6875, 22.875, 22.875, 22.9375, 22.9375, 22.9375, 23, 23.125, 23.1875, 23.1875, 23.125, 23, 23.0625, 23.125, 23.0625, 23, 22.9375, 23.107143, 23.366072, 23.669643, 23.785713, 23.767857, 23.830357, 23.8125, 23.8125, 23.8125, 23.8125, 23.75, 23.6875, 23.75, 23.75, 23.8125, 23.964287, 24.169643, 24.276785, 24.214287, 24.1875, 24.0625, 24, 24.0625, 24.125, 24.1875, 24.375, 24.375, 24.205357, 24.133928, 23.9375, 23.9375, 23.9375, 23.9375, 24, 24, 24, 24.0625, 24.125, 24.1875, 24.25, 24.25, 24.1875, 24.1875, 24.1875, 24.25, 24.3125, 24.375, 24.4375, 24.3125, 24.375, 24.375, 24.4375, 24.625, 24.75, 24.875, 24.9375, 25, 25, 25, 25, 25, 25, 25, 25, 25, 25, 24.9375, 24.9375, 24.9375, 24.9375, 25, 25.125, 25.1875, 25.169643, 25.0625, 25, 24.875, 24.875, 24.8125, 24.821428, 24.9375, 24.8125, 24.776787, 24.6875, 24.75, 24.9375, 25.125, 25.25, 25.25, 25.25, 25.25, 25.321428, 25.526787, 25.732143, 25.866072, 25.875, 25.9375, 25.803572, 25.674999, 25.803572, 25.723215, 25.541666, 25.455357, 25.375, 25.375, 25.3125, 25.1875, 25.205357, 25.458334, 25.544643, 25.6875, 25.75, 25.8125, 25.9375, 26, 26, 26, 26, 26, 26, 26.0625, 26.125, 26.1875, 26.160713, 26.017857, 25.946428, 25.9375, 26.0625, 26.1875, 26.4375, 26.6875, 26.875, 26.875, 26.75, 26.75, 26.6875, 26.8125, 26.9375, 26.9375, 26.875, 26.75, 26.625, 26.5625, 26.6875, 26.75, 26.9375, 27.0625, 27.0625, 27.125, 27.0625, 26.9375, 27, 27, 27, 27.0625, 26.9375, 26.9375, 27, 27.125, 27.3125, 27.3125, 27.25, 27.125, 27, 27, 26.9375, 27, 27.0625, 27.125, 27.3125, 27.4375, 27.4375, 27.5, 27.375, 27.1875, 27.125, 27.0625, 27, 27
19.5, 19.625, 19.8125, 20, 20.0625, 20.0625, 20.0625, 20, 20.0625, 20.125, 20.107143, 20, 20, 19.9375, 20, 20, 19.9375, 20.026787, 20.160713, 20.25, 20.3125, 20.3125, 20.375, 20.375, 20.5, 20.5625, 20.625, 20.5625, 20.5, 20.4375, 20.285713, 20.214287, 20.3125, 20.419643, 20.553572, 20.407738, 20.184525, 20.205357, 20.3125, 20.607143, 20.9375, 21.0625, 21.125, 21.125, 21.0625, 21.125, 21.125, 21.125, 20.9375, 20.875, 20.875, 20.875, 21.0625, 21.0625, 21.1875, 21.375, 21.5, 21.5, 21.25, 21.026787, 21, 21.160713, 21.4375, 21.625, 21.75, 21.6875, 21.651787, 21.625, 21.321428, 21.258928, 21.25, 21.4375, 21.625, 21.875, 21.9375, 21.9375, 21.9375, 21.9375, 22, 22, 22, 22, 22, 22, 22, 22.0625, 22.0625, 22.0625, 22.0625, 22, 22, 22, 22, 21.9375, 21.9375, 21.9375, 21.9375, 22, 22, 22, 22, 22.0625, 22.0625, 22.0625, 22.0625, 22, 22.0625, 22.1875, 22.375, 22.5625, 22.75, 22.8125, 22.8125, 22.8125, 22.75, 22.75, 22.758928, 22.762501, 22.446428, 22.330357, 22.1875, 22.25, 22.3125, 22.3125, 22.3125, 22.1875, 22.1875, 22.3125, 22.375, 22.5, 22.6875, 22.75, 22.875, 22.875, 22.875, 22.875, 23, 23.125, 23.125, 23.125, 23, 23.0625, 23.125, 23.125, 23.0625, 23.0625, 23.294643, 23.553572, 23.857143, 23.910713, 23.767857, 23.705357, 23.625, 23.633928, 23.8125, 23.8125, 23.8125, 23.6875, 23.75, 23.75, 23.8125, 23.964287, 24.169643, 24.276785, 24.214287, 24.1875, 24.0625, 24, 24.125, 24.25, 24.3125, 24.4375, 24.375, 24.142857, 24.071428, 24, 24, 24, 24, 24, 24, 24, 24, 24, 24, 24, 24.0625, 24.0625, 24.125, 24.25, 24.375, 24.4375, 24.5625, 24.625, 24.4375, 24.4375, 24.375, 24.375, 24.5625, 24.75, 24.875, 24.9375, 25, 25, 25, 25, 25, 25, 25, 25, 25, 25, 24.9375, 24.9375, 24.9375, 24.9375, 25, 25.0625, 25.0625, 25.0625, 25.0625, 24.9375, 24.8125, 24.75, 24.75, 24.928572, 25.0625, 24.9375, 24.839287, 24.75, 24.8125, 25.0625, 25.25, 25.25, 25.25, 25.125, 25.0625, 25.071428, 25.276787, 25.544643, 25.785713, 25.875, 25.9375, 25.803572, 25.674999, 25.803572, 25.785715, 25.541666, 25.330357, 25.080357, 25.080357, 25.208334, 25.178572, 25.267857, 25.458334, 25.607143, 25.75, 25.8125, 25.875, 25.9375, 26, 26, 26, 26, 26, 25.9375, 26.026787, 26.232143, 26.333334, 26.119049, 25.934523, 25.928572, 25.928572, 26.0625, 26.1875, 26.4375, 26.6875, 26.8125, 26.75, 26.625, 26.625, 26.5625, 26.6875, 26.75, 26.75, 26.8125, 26.8125, 26.8125, 26.8125, 26.9375, 27, 27.125, 27.1875, 27.0625, 27, 26.875, 26.6875, 26.6875, 26.75, 26.8125, 26.9375, 26.875, 26.75, 26.75, 26.875, 27.125, 27.25, 27.25, 27.125, 27, 27, 26.9375, 27.0625, 27.1875, 27.25, 27.375, 27.375, 27.25, 27.375, 27.3125, 27.1875, 27.1875, 27.0625, 27.0625, 27.0625, 27.0625, 27.125, 27.123213, 26.767859, 26.833334, 26.9375, 27.125, 27.1875, 27.125, 27.178572, 27.5, 27.666666, 27.541666, 27.446428, 27.5, 27.625, 27.8125, 27.84375, 27.78125, 27.78125, 27.78125, 27.875, 28, 28.0625, 27.991072, 27.75, 27.8125, 27.794643, 27.9375, 28.0625, 28, 28, -10, -10, -10, -10, -10, -10, -10, -10, -10, -10, -10, -10, -10, -10, -10, -10, -10, 19.25, 19.25, 19.4375, 19.625, 19.910713, 20.125, 20.125, 20.0625, 20.0625, 20.0625, 20.0625, 20.0625, 20.0625, 20, 20.0625, 20.125, 20.125, 20.125, 20, 19.964287, 20.098213, 20.1875, 20.3125, 20.375, 20.4375, 20.5, 20.5625, 20.625, 20.6875, 20.625, 20.625, 20.625, 20.535713, 20.464287, 20.5625, 20.732143, 20.776787, 20.497025, 20.247025, 20.080357, 20.1875, 20.419643, 20.6875, 20.8125, 20.9375, 21, 21, 21.125, 21.125, 21.125, 21, 20.9375, 20.9375, 20.9375, 21, 21, 21.125, 21.3125, 21.5, 21.5, 21.3125, 21.125, 21, 21.125, 21.375, 21.5625, 21.6875, 21.625, 21.589287, 21.5625, 21.383928, 21.383928, 21.375, 21.5, 21.5625, 21.75, 21.8125, 21.875, 22, 22.0625, 22.107143, 22, 22, 21.9375, 22.0625, 22.125, 22.125, 22.1875, 22.125, 22.0625, 22.0625, 22, 22, 22, 22, 21.9375, 21.9375, 21.875, 21.875, 21.9375, 21.9375, 22, 22, 22.0625, 22.0625, 22.0625, 22.0625, 22, 22, 22.0625, 22.25, 22.4375, 22.6875, 22.875, 22.9375, 22.9375, 22.9375, 22.875, 22.883928, 22.950001, 22.571428, 22.455357, 22.3125, 22.3125, 22.3125, 22.25, 22.125, 22, 22, 22.125, 22.25, 22.375, 22.625, 22.75, 22.875, 22.9375, 23, 23, 23.0625, 23.125, 23.0625, 23.0625, 23, 23, 23.0625, 23.0625, 23, 23.1875, 23.482143, 23.741072, 23.9375, 23.848213, 23.580357, 23.455357, 23.375, 23.383928, 23.625, 23.6875, 23.8125, 23.8125, 23.875, 23.875, 23.875, 23.964287, 24.107143, 24.241072, 24.25, 24.1875, 24.125, 24, 24.0625, 24.1875, 24.1875, 24.1875, 24.125, 24, 24, 24, 24, 24, 24, 24, 24, 24, 24, 24, 24, 24, 24.0625, 24.0625, 24.1875, 24.375, 24.5, 24.625, 24.75, 24.75, 24.5625, 24.4375, 24.3125, 24.3125, 24.5, 24.75, 24.875, 24.9375, 25, 25, 25, 25, 25, 25, 25, 25, 25, 25, 25, 25, 25, 25, 25, 25.0625, 25.0625, 25.0625, 25.0625, 24.9375, 24.8125, 24.75, 24.8125, 24.991072, 25.125, 25, 24.839287, 24.8125, 24.9375, 25.25, 25.5, 25.5, 25.4375, 25.25, 25.0625, 24.946428, 25.151787, 25.357143, 25.660713, 25.8125, 25.9375, 25.928572, 25.799999, 25.928572, 25.928572, 25.875, 25.625, 25.392857, 25.330357, 25.458334, 25.553572, 25.625, 25.625, 25.75, 25.875, 25.9375, 26, 26, 26, 26, 26, 26, 26, 25.875, 25.901787, 26.044643, 26.083334, 25.833334, 25.641666, 25.857143, 25.857143, 26.0625, 26.1875, 26.4375, 26.6875, 26.75, 26.6875, 26.5625, 26.5625, 26.5625, 26.6875, 26.75, 26.75, 26.875, 26.9375, 27, 27, 27.0625, 27.0625, 27.0625, 27.0625, 26.9375, 26.875, 26.8125, 26.6875, 26.75, 26.875, 26.9375, 27.0625, 26.9375, 26.75, 26.6875, 26.75, 26.9375, 27.0625, 27.125, 27.0625, 27, 27, 27, 27.125, 27.25, 27.25, 27.3125, 27.25, 27.0625, 27.1875, 27.125, 27.125, 27.1875, 27.125, 27.1875, 27.125
19.5, 19.75, 20.098213, 20.375, 20.267857, 20.133928, 20.0625, 20.0625, 20.0625, 20.0625, 20.125, 20.125, 20.25, 20.3125, 20.25, 20.1875, 20.125, 20.125, 20.25, 20.4375, 20.5, 20.5, 20.5, 20.5625, 20.5625, 20.75, 20.875, 20.8125, 20.875, 20.875, 20.785713, 20.714287, 20.8125, 20.919643, 20.839287, 20.497025, 20.247025, 20.080357, 20.25, 20.482143, 20.625, 20.75, 20.875, 20.9375, 21, 21.125, 21.125, 21.125, 21.0625, 21, 21, 21, 21, 21, 21.125, 21.3125, 21.5625, 21.5625, 21.4375, 21.25, 21.0625, 21.1875, 21.3125, 21.5, 21.5625, 21.5625, 21.589287, 21.5625, 21.446428, 21.446428, 21.4375, 21.491072, 21.291666, 21.392857, 21.5625, 21.794643, 22, 22.125, 22.107143, 22, 22, 21.9375, 22.0625, 22.125, 22.125, 22.1875, 22.125, 22.0625, 22.0625, 22, 22, 22, 22, 22, 22, 21.9375, 21.9375, 21.9375, 21.9375, 22, 22, 22.125, 22.1875, 22.1875, 22.1875, 22.0625, 22, 22.0625, 22.25, 22.5, 22.75, 22.9375, 22.9375, 22.875, 22.9375, 22.9375, 23, 23, 22.6875, 22.4375, 22.25, 22.1875, 22.1875, 22.1875, 22.125, 22, 22, 22.0625, 22.1875, 22.3125, 22.5625, 22.75, 22.875, 23, 23.125, 23.125, 23.125, 23.125, 23, 23, 23.0625, 23.0625, 23.0625, 23.0625, 23, 23.25, 23.5, 23.6875, 23.875, 23.723213, 23.392857, 23.267857, 23.1875, 23.196428, 23.4375, 23.5, 23.6875, 23.8125, 23.9375, 24, 24, 24, 24, 24.0625, 24.0625, 24.0625, 24.0625, 24, 24.0625, 24.125, 24, 23.9375, 23.982143, 23.928572, 24, 24, 24, 24, 24, 24, 24, 24, 24, 24, 24, 24, 24.0625, 24.0625, 24.1875, 24.3125, 24.4375, 24.5625, 24.6875, 24.75, 24.625, 24.5, 24.3125, 24.375, 24.5625, 24.8125, 25, 25, 25, 25, 25, 25, 25, 25, 25, 24.9375, 24.9375, 24.9375, 25, 25.125, 25.125, 25.125, 25.0625, 25.0625, 25.0625, 25.0625, 25.0625, 24.9375, 24.8125, 24.75, 24.8125, 24.928572, 25.151787, 25.125, 24.919643, 25, 25, 25.25, 25.375, 25.4375, 25.375, 25.25, 25.125, 24.875, 24.901787, 25.107143, 25.348213, 25.625, 25.8125, 25.9375, 26, 26, 26, 25.9375, 25.6875, 25.517857, 25.517857, 25.645834, 25.741072, 25.8125, 25.8125, 25.875, 26, 26, 26.0625, 26.0625, 26.0625, 26.0625, 26, 26, 26, 25.875, 25.839287, 25.982143, 26.020834, 25.877977, 25.704166, 25.919643, 25.919643, 26.0625, 26.1875, 26.4375, 26.6875, 26.8125, 26.75, 26.6875, 26.6875, 26.625, 26.75, 26.75, 26.75, 26.875, 26.9375, 27, 27, 27.0625, 27.125, 27.125, 27.0625, 26.9375, 26.8125, 26.75, 26.75, 26.8125, 26.9375, 27, 27.0625, 26.9375, 26.75, 26.6875, 26.6875, 26.8125, 26.9375, 27, 27, 27, 27, 27, 27.125, 27.25, 27.3125, 27.375, 27.25, 27.0625, 27.0625, 27, 27.0625, 27.1875, 27.25, 27.4375, 27.4375, 27.4375, 27.375, 27.223213, 27.151787, 27.3125, 27.5, 27.6875, 27.8125, 27.875, 27.875, 27.8125, 27.875, 27.8125, 27.8125, 27.9375, 27.9375, 28, 27.96875, 27.96875, 27.96875, 27.96875, 27.9375, 27.964287, 28.232143, 28.232143, 28.25, 28.1875, 28, 28, 28, 27.9375, 27.916666, -10, -10, -10, -10, -10, -10, -10, -10, -10, -10, -10, -10, -10, -10, -10, -10, -10, 19.625, 19.583334, 19.6875, 19.875, 20.223213, 20.375, 20.267857, 20.133928, 20, 20.0625, 20.0625, 20.125, 20.25, 20.25, 20.375, 20.4375, 20.3125, 20.25, 20.25, 20.25, 20.375, 20.625, 20.625, 20.5, 20.5, 20.5, 20.5, 20.75, 20.875, 20.875, 21, 21, 21, 21, 21, 21.0625, 20.839287, 20.505951, 20.517857, 20.375, 20.5625, 20.625, 20.625, 20.6875, 20.8125, 20.875, 21, 21.125, 21.125, 21.125, 21.125, 21.0625, 21.0625, 21.0625, 21, 20.9375, 21.0625, 21.25, 21.473213, 21.5, 21.375, 21.1875, 21, 21.0625, 21.125, 21.3125, 21.375, 21.4375, 21.4375, 21.25, 21.339287, 21.482143, 21.616072, 21.678572, 21.354166, 21.392857, 21.5, 21.732143, 22, 22.125, 22.107143, 21.9375, 21.9375, 21.875, 22, 22.125, 22.125, 22.1875, 22.125, 22.0625, 22.0625, 22, 22, 22, 22, 22, 22, 21.9375, 21.9375, 21.9375, 21.9375, 22, 22, 22.125, 22.1875, 22.1875, 22.1875, 22.0625, 22, 22.125, 22.3125, 22.5625, 22.8125, 22.9375, 22.875, 22.75, 22.8125, 22.8125, 22.9375, 23.0625, 22.785713, 22.455357, 22.258928, 22.1875, 22.1875, 22.1875, 22.125, 22.0625, 22.125, 22.1875, 22.3125, 22.375, 22.5, 22.6875, 22.875, 23.169643, 23.375, 23.375, 23.3125, 23.1875, 23, 23, 23.0625, 23.0625, 23.0625, 23.0625, 23, 23.1875, 23.375, 23.5, 23.5625, 23.4375, 23.3125, 23.25, 23.25, 23.321428, 23.5625, 23.625, 23.8125, 23.875, 23.9375, 24.0625, 24.0625, 24.0625, 24.0625, 24, 24, 24, 24, 24, 24, 24, 23.875, 23.8125, 23.919643, 23.928572, 24, 24, 24, 24.0625, 24.125, 24.125, 24.125, 24.0625, 24, 24, 24, 24, 24, 24, 24.125, 24.3125, 24.5625, 24.6875, 24.8125, 24.75, 24.625, 24.5625, 24.4375, 24.5625, 24.6875, 24.875, 25, 25, 25, 25, 25, 25, 25, 25, 25, 24.9375, 24.9375, 24.9375, 25, 25.125, 25.0625, 25, 24.875, 24.75, 24.8125, 24.875, 24.9375, 24.9375, 24.875, 24.875, 25, 25.107143, 25.151787, 25.116072, 24.755356, 24.991072, 25.0625, 25.3125, 25.375, 25.4375, 25.3125, 25.1875, 25.125, 24.9375, 24.9375, 25, 25.169643, 25.375, 25.625, 25.75, 25.875, 25.9375, 25.9375, 25.9375, 25.625, 25.455357, 25.455357, 25.583334, 25.741072, 25.8125, 25.8125, 25.875, 26, 26, 26.0625, 26.0625, 26.0625, 26.0625, 26, 26, 26, 25.875, 25.839287, 25.982143, 26.083334, 25.940477, 25.766666, 25.982143, 25.919643, 26, 26.0625, 26.25, 26.4375, 26.625, 26.6875, 26.75, 26.8125, 26.875, 26.9375, 26.875, 26.875, 26.875, 26.9375, 27, 27, 27.0625, 27.125, 27.0625, 26.9375, 26.8125, 26.6875, 26.75, 26.8125, 26.8125, 26.875, 26.875, 26.9375, 26.9375, 26.875, 26.875, 26.9375, 27, 27, 26.964287, 26.9375, 26.9375, 27.0625, 27.035713, 27.026787, 27.125, 27.1875, 27.375, 27.3125, 27.25, 27.1875, 27.0625, 27.125, 27.25, 27.3125, 27.4375, 27.5
19.875, 20, 20.285713, 20.375, 20.267857, 20.071428, 19.9375, 20, 20, 20.125, 20.25, 20.25, 20.375, 20.4375, 20.3125, 20.3125, 20.375, 20.375, 20.5, 20.6875, 20.6875, 20.625, 20.625, 20.625, 20.5625, 20.75, 20.875, 20.875, 21, 21, 21, 21, 21, 21.0625, 20.910713, 20.839287, 20.875, 20.75, 20.875, 20.8125, 20.6875, 20.6875, 20.75, 20.875, 21, 21.0625, 21.0625, 21, 21.1875, 21.1875, 21.1875, 21.1875, 21, 20.9375, 21.0625, 21.25, 21.410713, 21.5, 21.375, 21.25, 21.1875, 21.125, 21.125, 21.1875, 21.125, 21.1875, 21.25, 21.125, 21.339287, 21.607143, 21.803572, 21.866072, 21.479166, 21.455357, 21.5, 21.732143, 21.9375, 22.0625, 22.044643, 21.875, 21.9375, 21.875, 22, 22.125, 22.125, 22.125, 22.0625, 22, 22, 22, 22, 22, 22, 22.0625, 22.0625, 22, 22, 21.9375, 21.9375, 22, 22, 22.0625, 22.125, 22.1875, 22.1875, 22.125, 22.0625, 22.1875, 22.4375, 22.6875, 22.9375, 23, 22.875, 22.75, 22.8125, 22.75, 22.901787, 23.232143, 23.017857, 22.767857, 22.571428, 22.3125, 22.25, 22.1875, 22.0625, 22.125, 22.25, 22.375, 22.5625, 22.625, 22.6875, 22.8125, 22.9375, 23.232143, 23.4375, 23.4375, 23.375, 23.1875, 23.0625, 23.0625, 23.125, 23.125, 23.0625, 23.0625, 23, 23.125, 23.25, 23.3125, 23.375, 23.25, 23.25, 23.3125, 23.375, 23.5, 23.5625, 23.625, 23.75, 23.875, 23.9375, 24.0625, 24.0625, 24.0625, 24.0625, 24, 24, 24, 24, 24, 23.9375, 23.875, 23.75, 23.6875, 23.857143, 23.928572, 24, 24, 24, 24.0625, 24.1875, 24.1875, 24.1875, 24.125, 24, 24, 24, 24, 24, 24, 24.125, 24.3125, 24.5625, 24.6875, 24.75, 24.625, 24.5625, 24.5625, 24.5625, 24.75, 24.8125, 24.9375, 25, 25, 25, 25, 25, 25, 25, 25, 25, 24.9375, 24.9375, 24.9375, 25, 25.125, 25.0625, 24.9375, 24.8125, 24.625, 24.6875, 24.875, 24.973213, 25.0625, 25.0625, 25, 25.0625, 25, 25.026787, 24.991072, 24.692856, 24.991072, 25.0625, 25.25, 25.3125, 25.375, 25.25, 25.1875, 25.125, 25.0625, 25.125, 25.125, 25.1875, 25.3125, 25.5, 25.625, 25.75, 25.8125, 25.8125, 25.9375, 25.875, 25.9375, 25.9375, 25.8125, 25.776787, 25.75, 25.75, 25.8125, 25.9375, 25.9375, 26, 26.0625, 26.0625, 26.0625, 26, 26, 26, 25.9375, 25.875, 25.875, 26, 26.107143, 25.975, 26.125, 26.053572, 26.0625, 26.0625, 26.1875, 26.25, 26.4375, 26.5625, 26.625, 26.75, 26.875, 27, 27.0625, 27.0625, 27, 27, 27, 27, 27, 27, 26.9375, 26.8125, 26.8125, 26.8125, 26.9375, 27.0625, 27.0625, 27.0625, 27, 27, 27, 27, 27, 27.125, 27.1875, 27.125, 27.089287, 27, 27, 27.1875, 27.142857, 26.880953, 26.892857, 26.9375, 27.1875, 27.3125, 27.3125, 27.1875, 27.125, 27.1875, 27.294643, 27.362499, 27.553572, 27.616072, 27.6875, 27.625, 27.6875, 27.6875, 27.75, 27.875, 28, 28.125, 28.125, 28, 27.839287, 27.75, 27.6875, 27.75, 27.75, 27.8125, 27.875, 27.9375, 28.125, 28.1875, 28.1875, 28.0625, 27.964287, 28.276787, 28.276787, 28.3125, 28.1875, 28, 28, 28, 27.9375, 27.916666, -10, -10, -10, -10, -10, -10, -10, -10, -10, -10, -10, -10, -10, -10, -10, -10, -10, -10, 20, 20, 20.083334, 20.333334, 20.3125, 20.205357, 20.133928, 20, 20, 20, 20.0625, 20.1875, 20.25, 20.3125, 20.3125, 20.1875, 20.1875, 20.3125, 20.375, 20.4375, 20.625, 20.625, 20.625, 20.75, 20.75, 20.75, 20.875, 20.9375, 20.9375, 21, 21, 21, 20.9375, 20.9375, 20.875, 20.75, 20.8125, 20.75, 20.8125, 20.9375, 20.9375, 20.8125, 20.8125, 20.875, 20.973213, 21.125, 21.125, 21.0625, 21, 21.1875, 21.1875, 21.1875, 21.1875, 21, 20.9375, 21, 21.125, 21.223213, 21.375, 21.3125, 21.25, 21.3125, 21.1875, 21.1875, 21.25, 21.125, 21.25, 21.3125, 21.1875, 21.401787, 21.607143, 21.803572, 21.928572, 21.604166, 21.580357, 21.625, 21.732143, 21.8125, 21.875, 21.875, 21.875, 21.9375, 21.9375, 21.9375, 22, 22, 22, 22, 22, 22, 22, 22.0625, 22.125, 22.1875, 22.3125, 22.25, 22.1875, 22.125, 22, 22.0625, 22.035713, 21.964287, 22.0625, 22.125, 22.3125, 22.3125, 22.25, 22.125, 22.25, 22.5, 22.75, 23.0625, 23.0625, 22.9375, 22.8125, 22.75, 22.6875, 22.776787, 23.107143, 23.017857, 22.830357, 22.696428, 22.4375, 22.375, 22.3125, 22.25, 22.375, 22.5, 22.625, 22.75, 22.75, 22.75, 22.8125, 22.9375, 23.169643, 23.3125, 23.3125, 23.25, 23.125, 23.0625, 23.125, 23.1875, 23.1875, 23.125, 23.0625, 23, 23.0625, 23.125, 23.1875, 23.3125, 23.25, 23.375, 23.5, 23.5625, 23.75, 23.75, 23.75, 23.8125, 23.875, 24, 24.125, 24.125, 24.125, 24.0625, 24, 24.0625, 24.0625, 24.0625, 24.0625, 23.9375, 23.875, 23.75, 23.6875, 23.857143, 23.928572, 24, 24, 24, 24.0625, 24.1875, 24.25, 24.25, 24.1875, 24.125, 24.125, 24.125, 24.125, 24.125, 24.0625, 24.125, 24.25, 24.4375, 24.5, 24.625, 24.625, 24.625, 24.75, 24.75, 24.875, 24.875, 24.9375, 25, 25, 25, 25, 25, 25, 25, 25, 25, 24.9375, 24.9375, 24.9375, 25, 25.125, 25.0625, 24.9375, 24.8125, 24.625, 24.6875, 24.9375, 25.008928, 25.026787, 25.0625, 24.9375, 25, 24.9375, 24.964287, 24.928572, 24.692856, 24.928572, 24.9375, 25.0625, 25.0625, 25.125, 25.0625, 25.0625, 25.125, 25.1875, 25.3125, 25.3125, 25.25, 25.3125, 25.4375, 25.5625, 25.8125, 25.875, 25.875, 26, 25.9375, 26, 26, 25.875, 25.776787, 25.75, 25.75, 25.8125, 25.9375, 25.9375, 26.0625, 26.125, 26.125, 26.125, 26, 25.9375, 25.875, 25.875, 25.8125, 25.875, 26, 26.107143, 26.1875, 26.1875, 26.25, 26.25, 26.1875, 26.25, 26.1875, 26.3125, 26.5, 26.625, 26.8125, 26.9375, 26.9375, 27, 27, 26.9375, 27, 27, 27, 27, 27, 27, 26.875, 26.901787, 26.9375, 26.892857, 27.0625, 26.9375, 26.9375, 26.9375, 26.9375, 27, 27.0625, 27, 27.125, 27.1875, 27.125, 27.089287, 27, 27, 27.125, 27.049107, 26.787203, 26.799107, 26.90625, 27.1875, 27.375, 27.4375, 27.375, 27.375, 27.3125, 27.357143, 27.299999, 27.366072, 27.508928
-10, -10, -10, 20.083334, 20.0625, 20.145834, 20.0625, 20.0625, 20.0625, 20.0625, 20.125, 20.125, 20.125, 20.125, 20.0625, 20.1875, 20.375, 20.4375, 20.5, 20.625, 20.625, 20.6875, 20.875, 20.875, 20.9375, 21, 21, 21, 21, 21, 21, 20.9375, 20.875, 20.8125, 20.75, 20.75, 20.6875, 20.75, 20.75, 20.75, 20.625, 20.625, 20.6875, 20.848213, 21.0625, 21.0625, 21.0625, 21, 21.125, 21.125, 21.125, 21.125, 21, 20.9375, 21, 21.125, 21.160713, 21.3125, 21.25, 21.1875, 21.3125, 21.1875, 21.1875, 21.1875, 21.125, 21.1875, 21.1875, 21.0625, 21.214287, 21.482143, 21.741072, 22, 21.9375, 21.9375, 21.875, 21.75, 21.75, 21.6875, 21.75, 21.8125, 21.875, 21.9375, 21.9375, 22, 22, 22, 22, 22, 22.0625, 22.0625, 22.1875, 22.3125, 22.3125, 22.4375, 22.375, 22.25, 22.1875, 22.0625, 22.125, 22.071426, 21.928574, 22, 21.9375, 22.1875, 22.1875, 22.1875, 22.0625, 22.151787, 22.553572, 22.8125, 23.0625, 23.026787, 22.9375, 22.875, 22.875, 22.8125, 22.839287, 23.107143, 23.080357, 22.955357, 22.883928, 22.6875, 22.625, 22.5625, 22.5, 22.625, 22.75, 22.875, 23, 22.9375, 22.875, 22.875, 22.9375, 23.107143, 23.1875, 23.125, 23.0625, 23, 23, 23.125, 23.125, 23.125, 23.125, 23.0625, 23.0625, 23.0625, 23, 23.133928, 23.4375, 23.4375, 23.6875, 23.75, 23.8125, 23.9375, 23.9375, 23.9375, 23.9375, 24, 24.0625, 24.125, 24.125, 24.125, 24.0625, 24, 24.0625, 24.0625, 24.0625, 24.0625, 23.9375, 23.9375, 23.9375, 23.9375, 24, 24, 24, 24, 24, 24.0625, 24.1875, 24.3125, 24.375, 24.3125, 24.25, 24.25, 24.25, 24.3125, 24.375, 24.3125, 24.25, 24.375, 24.4375, 24.4375, 24.625, 24.5625, 24.625, 24.8125, 24.875, 24.9375, 24.9375, 24.9375, 24.9375, 25, 25, 24.9375, 24.9375, 24.9375, 24.9375, 25, 25, 25, 25, 25.0625, 25.125, 25.125, 25.0625, 24.875, 24.75, 24.625, 24.6875, 25, 25.071428, 25.089287, 25.125, 24.9375, 25, 25, 25, 24.928572, 24.799999, 24.928572, 25.0625, 25.1875, 25.25, 25.25, 25.125, 25.0625, 25.0625, 25.25, 25.4375, 25.4375, 25.375, 25.3125, 25.3125, 25.4375, 25.6875, 25.875, 26, 26.125, 26.1875, 26.1875, 26.125, 26, 25.839287, 25.8125, 25.8125, 25.875, 25.9375, 25.9375, 26.0625, 26.125, 26.125, 26.1875, 26.0625, 26, 25.875, 25.75, 25.75, 25.8125, 25.9375, 26, 26.0625, 26.0625, 26.1875, 26.25, 26.1875, 26.1875, 26.0625, 26.125, 26.3125, 26.5, 26.75, 26.9375, 26.875, 26.9375, 26.9375, 26.875, 27, 27, 27, 27, 27, 27, 26.9375, 27.026787, 27.125, 27.017857, 27.0625, 26.875, 26.8125, 26.875, 26.9375, 27, 27.0625, 27, 27.125, 27.1875, 27.125, 27.089287, 27, 27, 27.125, 27.049107, 26.787203, 26.799107, 26.90625, 27.25, 27.4375, 27.5625, 27.5, 27.4375, 27.375, 27.294643, 27.174999, 27.178572, 27.321428, 27.645834, 27.803572, 28, 28, 28, 28, 28.0625, 28.125, 28.125, 28, 27.901787, 27.8125, 27.75, 27.8125, 27.6875, 27.6875, 27.625, 27.6875, 27.875, 27.9375, 28.0625, 28, 27.9375, 28.107143, 28.107143, 28.125, 28.0625, 28, 28, 28.0625, 28, 28, -10, -10, -10, -10, -10, -10, -10, -10, -10, -10, -10, -10, -10, -10, -10, -10, -10, -10, -10, -10, -10, -10, -10, 20, 20.111113, 20.083334, 20.3125, 20.3125, 20.3125, 20.375, 20.357143, 20.166666, 20.142857, 20.125, 20.3125, 20.4375, 20.5, 20.5625, 20.625, 20.75, 20.875, 21, 21, 21, 21, 21, 21, 21, 21, 21, 20.9375, 20.875, 20.8125, 20.8125, 20.8125, 20.6875, 20.75, 20.6875, 20.625, 20.5625, 20.5625, 20.5625, 20.723213, 20.875, 20.8125, 20.8125, 20.8125, 20.9375, 21, 21.0625, 21.0625, 21, 21, 21.0625, 21.125, 21.125, 21.1875, 21.125, 21.125, 21.25, 21.1875, 21.1875, 21.125, 21.0625, 21.125, 21.125, 21.125, 21.25, 21.4375, 21.6875, 21.9375, 21.9375, 21.9375, 21.8125, 21.6875, 21.6875, 21.625, 21.6875, 21.839287, 22.044643, 22.107143, 22.125, 22.0625, 22, 22, 22, 21.9375, 21.9375, 21.875, 22.008928, 22.3125, 22.3125, 22.5, 22.375, 22.25, 22.1875, 22.0625, 22.0625, 21.946426, 21.741074, 21.8125, 21.8125, 22.125, 22.1875, 22.25, 22.125, 22.214287, 22.616072, 22.8125, 23.0625, 23.026787, 23, 23, 23, 22.9375, 22.901787, 23.044643, 23.107143, 23.125, 23.0625, 22.830357, 22.75, 22.6875, 22.6875, 22.8125, 22.875, 22.9375, 23.125, 23.098213, 23.026787, 23.0625, 22.9375, 23, 23, 22.9375, 22.9375, 22.9375, 23, 23.125, 23.1875, 23.25, 23.25, 23.1875, 23.125, 23.0625, 23, 23.133928, 23.5, 23.473213, 23.625, 23.803572, 23.803572, 23.9375, 23.9375, 23.9375, 23.9375, 24, 24.0625, 24.0625, 24.0625, 24.0625, 24, 24, 24.0625, 24.0625, 24.0625, 24.0625, 23.9375, 23.9375, 23.9375, 23.9375, 24, 24, 24.0625, 24.0625, 24.0625, 24.0625, 24.0625, 24.1875, 24.25, 24.25, 24.25, 24.3125, 24.3125, 24.4375, 24.5, 24.4375, 24.375, 24.375, 24.375, 24.3125, 24.5, 24.5625, 24.6875, 24.875, 24.9375, 24.9375, 24.9375, 24.9375, 24.9375, 25, 25.0625, 24.973213, 24.830357, 24.830357, 24.8125, 25, 25.0625, 25.0625, 25.0625, 25.0625, 25.125, 25.125, 25.125, 25, 24.9375, 24.875, 24.875, 25.1875, 25.196428, 25.151787, 25.1875, 25, 25.0625, 25.0625, 25, 24.9375, 24.9375, 24.9375, 25.0625, 25.1875, 25.3125, 25.3125, 25.25, 25.125, 25.0625, 25.25, 25.4375, 25.4375, 25.375, 25.3125, 25.25, 25.375, 25.625, 25.8125, 26, 26.125, 26.3125, 26.375, 26.3125, 26.25, 26.026787, 25.9375, 25.9375, 25.9375, 25.9375, 25.9375, 26.0625, 26.125, 26.1875, 26.25, 26.125, 26.0625, 25.9375, 25.785713, 25.714287, 25.8125, 25.875, 26, 26.0625, 26.0625, 26.1875, 26.25, 26.1875, 26.1875, 26.125, 26.1875, 26.375, 26.5625, 26.75, 26.875, 26.8125, 26.875, 26.875, 26.875, 27, 27, 27, 27, 27, 27, 26.9375, 27.089287, 27.25, 27.142857, 27.25, 27.0625, 27, 27.0625, 27.0625, 27.0625, 27.0625, 27, 27.0625, 27.125, 27.125, 27.125, 27.0625, 27.0625, 27.0625, 27.013393, 26.822916, 26.799107, 26.90625, 27.1875, 27.4375, 27.625, 27.625, 27.5625, 27.4375, 27.294643, 27.174999, 27.241072, 27.383928
-10, -10, -10, -10, 32.375, 32.583336, 32.645836, 20.5, 20.5, 20.3125, 20.375, 20.357143, 20.166666, 20.142857, 20.125, 20.25, 20.3125, 20.375, 20.4375, 20.5625, 20.6875, 20.8125, 20.9375, 20.9375, 21, 21, 21, 21, 21, 21, 21, 20.9375, 20.875, 20.8125, 20.8125, 20.8125, 20.625, 20.625, 20.5625, 20.5, 20.5625, 20.5625, 20.5, 20.535713, 20.633928, 20.833334, 20.833334, 20.8125, 20.875, 20.875, 21, 21, 21, 21, 21, 21.0625, 21.0625, 21.0625, 21.0625, 21, 21.0625, 21.0625, 21.125, 21.1875, 21.1875, 21.25, 21.1875, 21.1875, 21.25, 21.4375, 21.6875, 21.875, 21.9375, 21.9375, 21.8125, 21.6875, 21.75, 21.6875, 21.75, 21.901787, 22.044643, 22.107143, 22.125, 22.0625, 22, 22, 22, 21.90625, 21.84375, 21.71875, 21.790178, 22.125, 22.1875, 22.4375, 22.4375, 22.3125, 22.25, 22.125, 22.0625, 21.946426, 21.741074, 21.875, 21.9375, 22.1875, 22.25, 22.25, 22.0625, 22.151787, 22.491072, 22.6875, 22.9375, 22.964287, 23, 23, 23, 23, 22.875, 22.8125, 22.8125, 22.8125, 22.8125, 22.705357, 22.75, 22.75, 22.875, 23, 23, 23, 23.125, 23.098213, 23.026787, 23, 22.875, 22.9375, 22.875, 22.875, 22.875, 22.875, 22.9375, 23.125, 23.1875, 23.25, 23.3125, 23.25, 23.1875, 23.125, 23.0625, 23.133928, 23.5, 23.446428, 23.464287, 23.678572, 23.723213, 23.875, 23.9375, 24, 24, 24.125, 24.1875, 24.1875, 24.1875, 24.125, 24.0625, 24, 24, 23.9375, 23.955357, 24.145834, 24.044643, 24.0625, 24, 23.9375, 24, 24, 24.0625, 24.0625, 24.0625, 24.0625, 24, 24.125, 24.1875, 24.1875, 24.3125, 24.4375, 24.4375, 24.625, 24.6875, 24.625, 24.5625, 24.4375, 24.3125, 24.1875, 24.375, 24.5625, 24.75, 24.9375, 25, 24.9375, 24.9375, 24.9375, 24.9375, 25, 25.0625, 25.035713, 24.892857, 24.892857, 24.875, 25, 25.0625, 25.0625, 25.0625, 25.125, 25.1875, 25.1875, 25.1875, 25.0625, 25, 25, 25, 25.1875, 25.160713, 25.089287, 25.125, 25, 25.0625, 25.0625, 25, 24.9375, 24.9375, 24.9375, 25.0625, 25.1875, 25.375, 25.4375, 25.375, 25.25, 25.125, 25.25, 25.375, 25.375, 25.375, 25.3125, 25.3125, 25.5, 25.75, 25.875, 26.089287, 26.294643, 26.428572, 26.5, 26.4375, 26.375, 26.1875, 26.0625, 26, 26, 26, 26.071428, 26.458334, 26.482143, 26.5, 26.392857, 26.1875, 26.0625, 26, 25.848213, 25.776787, 25.875, 25.875, 26, 26.0625, 26.0625, 26.125, 26.1875, 26.125, 26.125, 26.125, 26.25, 26.5, 26.75, 26.9375, 27, 26.875, 26.875, 26.875, 26.875, 27, 27, 27, 27, 27, 27, 26.9375, 27.089287, 27.25, 27.142857, 27.25, 27.0625, 27, 27.0625, 27.0625, 27.0625, 27.0625, 27, 27, 27, 27, 27, 27, 27, 26.9375, 26.90625, 26.90625, 26.90625, 27.03125, 27.25, 27.4375, 27.625, 27.625, 27.5625, 27.4375, 27.375, 27.375, 27.3125, 27.455357, 27.645834, 27.741072, 27.8125, 27.8125, 27.875, 27.9375, 28, 27.9375, 27.875, 27.9375, 27.9375, 28, 27.9375, 27.8125, 27.75, 27.5625, 27.4375, 27.375, 27.25, 27.25, 27.375, 27.375, 27.4375, 27.5, 27.5625, 27.6875, 27.8125, 27.9375, 28, 28.0625, 28.0625, 28.083334, -10, -10, -10, -10, -10, -10, -10, -10, -10, -10, -10, -10, -10, -10, -10, -10, -10, -10, -10, -10, -10, -10, -10, 32.333332, 32.555557, 32.638889, 32.75, 32.583336, 20.416666, 20.375, 20.357143, 20.166666, 20.142857, 20.125, 20.25, 20.3125, 20.375, 20.4375, 20.5, 20.5625, 20.6875, 20.8125, 20.875, 21, 21, 21, 21, 21, 21, 21, 21, 20.9375, 20.9375, 20.9375, 20.875, 20.75, 20.625, 20.5, 20.375, 20.446428, 20.575001, 20.321428, 20.321428, 20.383928, 20.645834, 20.770834, 20.8125, 20.875, 20.875, 21, 21, 21, 21, 21, 21.0625, 21.0625, 21, 21, 20.9375, 20.9375, 21, 21.125, 21.1875, 21.1875, 21.151787, 21.0625, 21.125, 21.25, 21.5, 21.75, 21.875, 21.9375, 21.9375, 21.8125, 21.75, 21.8125, 21.75, 21.8125, 21.901787, 22.044643, 22.107143, 22.1875, 22.125, 22, 21.892857, 21.875, 21.78125, 21.71875, 21.59375, 21.602678, 21.875, 21.9375, 22.1875, 22.3125, 22.25, 22.25, 22.1875, 22, 21.973213, 21.901787, 22.0625, 22.125, 22.1875, 22.1875, 22.125, 22, 22.151787, 22.491072, 22.625, 22.839287, 22.9375, 22.9375, 23, 23, 23, 22.9375, 22.875, 22.875, 22.875, 22.8125, 22.642857, 22.625, 22.625, 22.75, 22.9375, 23.0625, 23.0625, 23.1875, 23.160713, 23.026787, 22.9375, 22.8125, 22.875, 22.8125, 22.875, 22.875, 22.875, 22.9375, 23.0625, 23.125, 23.1875, 23.25, 23.25, 23.1875, 23.1875, 23.125, 23.133928, 23.4375, 23.321428, 23.276787, 23.553572, 23.660713, 23.8125, 23.9375, 23.9375, 23.875, 24.017857, 24.075001, 24.041666, 24.303572, 24.169643, 24.1875, 24.0625, 23.875, 23.75, 23.785713, 24.166668, 24.214287, 24.25, 24.125, 24.0625, 24.0625, 24.0625, 24.125, 24.0625, 24.0625, 24.0625, 24, 24.0625, 24.125, 24.125, 24.25, 24.375, 24.375, 24.5625, 24.625, 24.625, 24.5625, 24.4375, 24.3125, 24.25, 24.375, 24.5, 24.625, 24.75, 24.875, 24.875, 24.9375, 24.9375, 24.9375, 25, 25, 24.973213, 24.830357, 24.830357, 24.875, 25, 25.0625, 25.0625, 25.0625, 25.125, 25.1875, 25.1875, 25.1875, 25.0625, 25, 25, 25.0625, 25.1875, 25.1875, 25.1875, 25.125, 25.0625, 25.0625, 25.0625, 25, 24.9375, 24.9375, 24.9375, 25.0625, 25.25, 25.5, 25.5625, 25.5, 25.3125, 25.0625, 25.1875, 25.3125, 25.375, 25.5, 25.4375, 25.4375, 25.5625, 25.6875, 25.875, 26.151787, 26.419643, 26.616072, 26.625, 26.5, 26.375, 26.1875, 26.125, 26.125, 26.125, 26.125, 26.071428, 26.270834, 26.294643, 26.392857, 26.205357, 26.125, 26.0625, 26.125, 25.973213, 25.901787, 25.875, 25.8125, 25.9375, 25.9375, 26, 26, 26, 26, 26, 26.0625, 26.25, 26.4375, 26.6875, 26.875, 26.875, 26.8125, 26.8125, 26.8125, 26.875, 27, 27, 27, 27, 27, 26.9375, 26.9375, 27.0625, 27.1875, 27.25, 27.25, 27.125, 27, 27, 27, 27, 27, 27, 27, 27, 27, 27, 27, 27, 27, 27, 27, 27.0625, 27.1875, 27.3125, 27.4375, 27.5625, 27.5, 27.5, 27.5, 27.4375, 27.5625, 27.625, 27.75
-10, -10, -10, -10, 32.125, 32.333336, 32.416668, 32.5, 32.472225, 32.238094, 20.5, 20.476191, 20.222221, 20.142857, 20.125, 20.25, 20.25, 20.25, 20.25, 20.25, 20.3125, 20.5, 20.6875, 20.8125, 21, 21, 21, 20.9375, 20.875, 20.875, 20.875, 20.9375, 21, 21, 21, 21, 20.875, 20.75, 20.6875, 20.5, 20.508928, 20.575001, 20.258928, 20.258928, 20.321428, 20.645834, 20.770834, 20.8125, 20.875, 20.875, 21, 21, 21, 21, 20.9375, 20.9375, 20.9375, 20.9375, 21.0625, 21.0625, 21.0625, 21.0625, 21.125, 21.125, 21.089287, 21.125, 21.0625, 21.25, 21.375, 21.625, 21.8125, 21.875, 21.9375, 21.9375, 21.875, 21.875, 21.9375, 21.9375, 21.9375, 21.964287, 22.107143, 22.107143, 22.1875, 22.125, 21.9375, 21.830357, 21.8125, 21.71875, 21.59375, 21.46875, 21.415178, 21.625, 21.8125, 22.0625, 22.1875, 22.1875, 22.1875, 22.125, 21.9375, 21.9375, 21.9375, 22.0625, 22.1875, 22.1875, 22.125, 22.0625, 22.0625, 22.294643, 22.5, 22.5625, 22.803574, 23.008926, 23, 23.125, 23, 23, 22.9375, 22.875, 22.875, 22.875, 22.8125, 22.642857, 22.625, 22.5625, 22.6875, 22.9375, 23.098213, 23.125, 23.1875, 23.098213, 22.964287, 22.875, 22.8125, 22.875, 22.8125, 22.9375, 22.9375, 22.9375, 23, 23.0625, 23.125, 23.25, 23.25, 23.25, 23.25, 23.160713, 23.089287, 23.125, 23.294643, 23.258928, 23.214287, 23.491072, 23.598213, 23.8125, 23.9375, 23.9375, 23.875, 23.955357, 24.012501, 24.104166, 24.428572, 24.294643, 24.3125, 24.125, 23.875, 23.75, 23.785713, 24.166668, 24.214287, 24.3125, 24.1875, 24.125, 24.125, 24.0625, 24.125, 24.0625, 24.0625, 24.0625, 24, 24, 24, 24, 24.1875, 24.3125, 24.3125, 24.4375, 24.375, 24.375, 24.375, 24.3125, 24.3125, 24.3125, 24.375, 24.4375, 24.4375, 24.5625, 24.75, 24.875, 25, 25, 25, 25, 25, 25.035713, 24.892857, 24.892857, 24.9375, 25, 25.0625, 25.0625, 25.0625, 25.0625, 25.0625, 25.0625, 25.0625, 25, 25, 24.9375, 24.9375, 25, 25, 25.0625, 25.0625, 25.0625, 25.0625, 25, 24.9375, 24.9375, 24.973213, 25, 25.0625, 25.1875, 25.4375, 25.5, 25.5, 25.3125, 25.125, 25.25, 25.375, 25.5, 25.625, 25.625, 25.6875, 25.75, 25.8125, 25.875, 26.026787, 26.232143, 26.366072, 26.4375, 26.375, 26.3125, 26.1875, 26.125, 26.125, 26.125, 26.0625, 25.946428, 26.020834, 26.044643, 25.892857, 26.017857, 26.125, 26.0625, 26.1875, 26.160713, 26.026787, 26.0625, 25.9375, 26, 26, 26, 26, 26, 26, 26, 26.0625, 26.1875, 26.3125, 26.5625, 26.75, 26.75, 26.8125, 26.8125, 26.8125, 26.9375, 27, 27, 27, 27, 27, 26.9375, 26.9375, 27, 27.0625, 27.125, 27.125, 27.0625, 27, 27, 27, 27, 27, 27, 27, 27, 27, 27, 27, 27, 27, 27, 26.9375, 27, 27.0625, 27.125, 27.375, 27.5, 27.5625, 27.6875, 27.6875, 27.625, 27.75, 27.75, 27.75, 27.8125, 27.75, 27.75, 27.8125, 27.875, 27.9375, 28, 27.9375, 27.875, 27.9375, 28.0625, 28.125, 28, 27.767857, 27.6875, 27.5625, 27.5, 27.375, 27.0625, 26.9375, 26.9375, 26.9375, 27, 27, 27.0625, 27.1875, 27.4375, 27.625, 27.75, 27.875, 27.875, 27.916666, -10, -10, -10, -10, -10, -10, -10, -10, -10, -10, -10, -10, -10, -10, -10, -10, -10, -10, -10, -10, -10, -10, -10, 31.583334, 31.791666, 31.9375, 32.1875, 32.291668, 32.206348, 32.053574, 32, 31.583332, 20, 20, 20.3125, 20.229166, 20.1875, 20.125, 20.0625, 20.125, 20.375, 20.625, 20.8125, 21, 21, 21, 20.9375, 20.8125, 20.75, 20.75, 20.8125, 20.9375, 21, 21, 21, 20.9375, 20.8125, 20.75, 20.625, 20.633928, 20.637501, 20.321428, 20.321428, 20.383928, 20.833334, 21.020834, 21, 21, 20.9375, 21, 21.0625, 21.125, 21.125, 21.0625, 21, 20.9375, 21, 21.0625, 21, 21, 20.9375, 21.0625, 21.125, 21.151787, 21.1875, 21.1875, 21.4375, 21.5625, 21.75, 21.875, 21.875, 21.9375, 22, 22, 22, 22, 22, 22, 22, 22, 22, 22.0625, 22.0625, 21.9375, 21.830357, 21.8125, 21.78125, 21.71875, 21.65625, 21.59375, 21.625, 21.8125, 22, 22.1875, 22.1875, 22.1875, 22.1875, 22.0625, 22.125, 22.25, 22.3125, 22.375, 22.3125, 22.125, 22, 22, 22.232143, 22.4375, 22.482143, 22.553574, 22.821426, 22.857143, 23.0625, 23, 23, 22.9375, 22.875, 22.8125, 22.8125, 22.8125, 22.75, 22.75, 22.6875, 22.75, 23, 23.223213, 23.25, 23.25, 23.125, 23, 22.875, 22.875, 22.875, 22.8125, 22.9375, 22.9375, 22.9375, 23, 23.0625, 23.0625, 23.125, 23.125, 23.1875, 23.3125, 23.285713, 23.214287, 23.25, 23.357143, 23.330357, 23.264286, 23.419643, 23.482143, 23.75, 23.875, 23.9375, 23.875, 23.955357, 24.012501, 24.104166, 24.428572, 24.294643, 24.3125, 24.125, 23.875, 23.75, 23.785713, 24.166668, 24.214287, 24.375, 24.25, 24.1875, 24.1875, 24.0625, 24.0625, 24, 24, 24, 24, 24, 24, 24, 24.25, 24.375, 24.4375, 24.5625, 24.4375, 24.375, 24.3125, 24.3125, 24.375, 24.4375, 24.5, 24.4375, 24.375, 24.5, 24.6875, 24.875, 25, 25, 25, 25, 25, 25.0625, 25, 25, 25.098213, 25, 25.0625, 25, 25, 25.0625, 25.0625, 25.0625, 25.0625, 25, 25, 24.9375, 24.9375, 24.9375, 24.9375, 25, 25, 25, 25, 24.9375, 25, 25.125, 25.223213, 25.25, 25.1875, 25.1875, 25.3125, 25.375, 25.375, 25.3125, 25.25, 25.375, 25.5625, 25.625, 25.75, 25.8125, 25.875, 26, 25.9375, 25.9375, 26.026787, 26.107143, 26.178572, 26.1875, 26.125, 26.125, 26.0625, 26, 26, 26, 26, 25.946428, 25.833334, 25.846939, 26, 25.955357, 26.0625, 26, 26.125, 26.125, 26.0625, 26.0625, 26, 26, 26, 26, 26.0625, 26.125, 26.1875, 26.25, 26.1875, 26.1875, 26.1875, 26.375, 26.625, 26.625, 26.75, 26.75, 26.75, 26.9375, 27, 27, 27, 27, 27, 26.9375, 26.875, 26.875, 26.875, 26.875, 26.9375, 26.9375, 26.9375, 27, 27, 27, 27, 27, 27, 27, 27, 27, 27, 27, 27, 27, 26.875, 26.9375, 27, 27.0625, 27.375, 27.5, 27.625, 27.8125, 27.875, 27.8125, 27.875, 27.75, 27.625
-10, -10, -10, 29.25, 30.770834, 30.894558, 31.388393, 31.71875, 31.96875, 32.061012, 31.994049, 31.916666, 31.555555, 31.25, 31, 20.416666, 20.305555, 20.1875, 20.125, 20, 20.0625, 20.3125, 20.5625, 20.75, 20.9375, 20.9375, 20.9375, 20.9375, 20.8125, 20.75, 20.75, 20.8125, 20.9375, 21, 21, 21, 21, 20.9375, 20.9375, 20.8125, 20.758928, 20.762501, 20.446428, 20.508928, 20.5625, 20.75, 20.9375, 21, 21, 21, 21, 21.0625, 21.1875, 21.25, 21.25, 21.25, 21.125, 21.125, 21.1875, 21.125, 21.1875, 21.1875, 21.25, 21.25, 21.276787, 21.3125, 21.375, 21.625, 21.75, 21.8125, 21.875, 21.875, 21.875, 22, 22, 22, 22, 22, 22, 22, 22, 22, 22.0625, 22.0625, 21.9375, 21.767857, 21.75, 21.75, 21.75, 21.8125, 21.8125, 21.8125, 21.9375, 22, 22.0625, 22.0625, 22.0625, 22.1875, 22.125, 22.1875, 22.375, 22.3125, 22.3125, 22.25, 22, 21.9375, 22.0625, 22.357143, 22.625, 22.669643, 22.678574, 22.883926, 22.857143, 23.0625, 23, 23, 23, 22.9375, 22.875, 22.8125, 22.75, 22.75, 22.75, 22.75, 22.8125, 23.0625, 23.348213, 23.4375, 23.5, 23.3125, 23.125, 23, 22.9375, 22.9375, 22.9375, 23, 23, 23, 23, 23, 23, 23.0625, 23.0625, 23.125, 23.25, 23.223213, 23.151787, 23.3125, 23.330357, 23.1875, 23.192858, 23.232143, 23.3125, 23.625, 23.75, 23.8125, 23.8125, 23.830357, 23.887501, 23.979166, 24.303572, 24.169643, 24.1875, 24.0625, 23.875, 23.875, 23.892857, 24.083334, 24.107143, 24.25, 24.1875, 24.125, 24.125, 24, 24, 24, 24, 23.9375, 23.9375, 23.9375, 23.9375, 24.0625, 24.3125, 24.4375, 24.5625, 24.5625, 24.375, 24.1875, 24.0625, 24.125, 24.3125, 24.5625, 24.6875, 24.625, 24.5, 24.5625, 24.6875, 24.8125, 24.9375, 24.9375, 25, 25.125, 25.125, 25.125, 24.9375, 24.901787, 25.071428, 25, 25.1875, 25.0625, 25.0625, 25.0625, 24.9375, 24.875, 24.875, 24.875, 24.9375, 24.9375, 24.9375, 24.9375, 24.9375, 25.0625, 25.0625, 25, 24.964287, 24.875, 24.9375, 25.125, 25.285713, 25.3125, 25.3125, 25.375, 25.4375, 25.4375, 25.375, 25.3125, 25.3125, 25.5, 25.75, 25.8125, 25.875, 25.9375, 25.9375, 26, 25.875, 25.9375, 26, 25.9375, 25.9375, 25.875, 25.8125, 25.9375, 26.0625, 26.125, 26.1875, 26.125, 26.0625, 25.875, 25.6875, 25.6875, 25.6875, 25.8125, 26, 26, 26.125, 26.1875, 26.125, 26.125, 26.0625, 26, 26, 26, 26.0625, 26.1875, 26.3125, 26.4375, 26.375, 26.25, 26.125, 26.25, 26.4375, 26.4375, 26.5625, 26.5, 26.5625, 26.8125, 26.9375, 27, 27, 27, 27, 26.9375, 26.875, 26.875, 26.875, 26.8125, 26.8125, 26.8125, 26.8125, 26.9375, 27.0625, 27.0625, 27.0625, 27.0625, 27, 27, 27, 27, 27, 27, 27, 27, 26.875, 26.9375, 27, 27.0625, 27.375, 27.5625, 27.75, 27.9375, 28, 27.9375, 27.9375, 27.8125, 27.6875, 27.75, 27.75, 27.875, 28.0625, 28.0625, 28.0625, 28.125, 28.0625, 28.0625, 28.0625, 28.125, 28.125, 28, 27.767857, 27.6875, 27.6875, 27.625, 27.5625, 27.25, 27.0625, 27.0625, 27.125, 27.25, 27.25, 27.25, 27.25, 27.375, 27.4375, 27.4375, 27.5625, 27.625, 27.666666, -10, -10, -10, -10, -10, -10, -10, -10, -10, -10, -10, -10, -10, -10, -10, -10, -10, -10, -10, -10, -10, -10, 29, 29.738096, 30.255953, 30.625, 31.138393, 31.522322, 31.727676, 31.808037, 31.8125, 31.541666, 31.333334, 31.083334, 31, 31, 20.25, 20.166666, 20.125, 20.145834, 20.375, 20.5625, 20.75, 20.875, 20.8125, 20.8125, 20.8125, 20.75, 20.75, 20.75, 20.8125, 20.9375, 21, 21, 21, 21, 20.9375, 21, 20.9375, 20.875, 20.8125, 20.625, 20.6875, 20.75, 20.8125, 20.9375, 20.9375, 20.9375, 21, 21, 21.0625, 21.1875, 21.25, 21.25, 21.25, 21.125, 21.1875, 21.3125, 21.3125, 21.4375, 21.4375, 21.4375, 21.4375, 21.526787, 21.598213, 21.625, 21.75, 21.75, 21.75, 21.8125, 21.875, 21.875, 22, 22, 22, 22, 22, 22, 22, 22.0625, 22.125, 22.1875, 22.1875, 22.0625, 21.875, 21.8125, 21.8125, 21.8125, 21.875, 21.875, 21.875, 21.9375, 22, 22, 22, 22, 22.1875, 22.1875, 22.1875, 22.3125, 22.125, 22.125, 22.125, 21.9375, 22, 22.1875, 22.482143, 22.6875, 22.732143, 22.651787, 22.785713, 22.857143, 23, 23, 23.0625, 23.125, 23.044643, 22.791666, 22.705357, 22.5625, 22.6875, 22.8125, 22.8125, 22.9375, 23.1875, 23.348213, 23.4375, 23.5, 23.25, 23.125, 23.0625, 23, 23, 23.0625, 23.0625, 23.0625, 23, 22.9375, 22.9375, 22.9375, 23.0625, 23.0625, 23.125, 23.25, 23.160713, 23.089287, 23.3125, 23.392857, 23.294643, 23.192858, 23.169643, 23.1875, 23.5, 23.5625, 23.6875, 23.6875, 23.6875, 23.6875, 23.875, 24, 24, 24.0625, 24, 23.9375, 24, 23.9375, 23.9375, 23.9375, 24.0625, 24.1875, 24.1875, 24.1875, 24.0625, 24, 24, 24, 23.9375, 23.9375, 23.9375, 24, 24.1875, 24.4375, 24.625, 24.75, 24.6875, 24.4375, 24.1875, 24, 24.125, 24.375, 24.625, 24.8125, 24.75, 24.75, 24.8125, 24.875, 24.9375, 24.9375, 25, 25.125, 25.232143, 25.1875, 25.1875, 24.875, 24.928572, 25.107143, 25, 25.25, 25.0625, 25.125, 25.1875, 25.0625, 24.9375, 24.839287, 24.8125, 24.875, 24.9375, 24.9375, 24.9375, 24.9375, 25.0625, 25.0625, 25, 24.964287, 24.875, 24.9375, 25.125, 25.348213, 25.4375, 25.5, 25.5625, 25.5625, 25.5625, 25.5, 25.4375, 25.5, 25.625, 25.8125, 25.9375, 25.9375, 26, 26, 25.9375, 25.75, 25.75, 25.75, 25.625, 25.6875, 25.6875, 25.6875, 25.9375, 26.0625, 26.125, 26.1875, 26.125, 26.0625, 25.9375, 25.8125, 25.8125, 25.875, 25.9375, 26.0625, 26.0625, 26.125, 26.25, 26.1875, 26.25, 26.1875, 26.0625, 26.125, 26.125, 26.25, 26.375, 26.5, 26.5625, 26.5, 26.375, 26.1875, 26.25, 26.3125, 26.3125, 26.4375, 26.375, 26.5, 26.75, 26.875, 27, 27, 27, 27, 27, 27, 27, 27, 26.875, 26.8125, 26.8125, 26.8125, 26.9375, 27.0625, 27.0625, 27.125, 27.1875, 27.1875, 27.25, 27.25, 27.1875, 27.125, 27.0625, 27, 27, 26.875, 26.875, 26.875, 26.9375, 27.25, 27.4375, 27.6875, 27.875, 27.875, 27.9375, 27.9375, 27.8125, 27.75
