-10, -10, -10, -10, -10, -10, -10, -10, -10, -10, 42.875, 43.0625, 43.3125, 43.466667, -10, -10, -10, -10, -10, -10, 42.5, 42.583332, 42.410713, 42.276787, 41.9375, 41.5, 41.3125, 41.0625, 40.928574, 40.479168, 40.267857, 40.0625, 39.9375, 39.875, 39.625, 39.375, 38.9375, 38.75, 38.75, 38.5, 38.4375, 38.25, 38, 37.875, 37.625, 37.375, 37.0625, 36.6875, 36.4375, 36.1875, 36, 35.875, 35.625, 35.5, 35.25, 34.982143, 34.604168, 34.0625, 33.776787, 33.625, 33.5, 33.5625, 33.375, 33.25, 33, 32.6875, 32.5, 32.3125, 32.125, 31.708334, 31.366072, 31.089287, 31, 30.9375, 30.8125, 30.625, 30.375, 30.125, 29.866072, 29.354166, 29.166666, 29.208334, 29.232143, 29.1875, 29, 28.75, 28.4375, 28.25, 28.0625, 27.75, 27.5, 27.25, 26.910713, 26.776787, 26.705357, 26.35, 26.366072, 25.875, 25.4375, 25.1875, 25, 24.875, 24.6875, 24.330357, 23.9375, 23.651787, 23.4375, 23.375, 23.3125, 23.1875, 23.125, 22.803572, 22.428572, 22.125, 21.9375, 21.875, 21.75, 21.5, 21.25, 21, 20.723213, 20.392857, 20.133928, 19.8125, 19.5625, 19.3125, 19.0625, 19, 18.9375, 18.875, 18.625, 18.375, 18.1875, 18, 17.8125, 17.625, 17.3125, 16.9375, 16.6875, 16.375, 16.1875, 16, 15.8125, 15.5625, 15.3125, 15.0625, 14.875, 14.6875, 14.4375, 14.25, 14.0625, 13.875, 13.625, 13.375, 13.125, 13, 12.875, 12.625, 12.375, 12.125, 12, 11.9375, 11.6875, 11.4375, 11.1875, 11, 10.75, 10.5, 10.25, 10, 9.8125, 9.5625, 9.3125, 9, 8.9375, 8.6875, 8.375, 8.1517859, 7.875, 7.6875, 7.5, 7.25, 7.0625, 6.9375, 6.75, 6.5, 6.25, 6, 5.6875, 5.4375, 5.1875, 4.875, 4.8125, 4.8125, 4.875, 5, 5.0982141, 5.0625, 5.0625, 5, 5, 5, 5, 5.125, 5.125, 5.1875, 5.1875, 5.125, 5.125, 5.0625, 5.125, 5.2946429, 5.3571429, 5.5535717, 5.7607145, 6.0999999, 6.2261901, 7, -10, -10, -10, -10, -10, -10, -10, -10, -10, -10, -10, -10, -10, -10, -10, -10, 32.666668, 33.599998, 33.678574, 33.96875, 33.9375, 33.9375, 34.020832, 34.333332, 34.636906, 35.041668, 34.875, 34.922619, 34.9375, 35, 35.258926, 35.5, 35.5625, 35.758926, 36.092262, 36.449997, 36.797619, 37.190475, 37.241074, 37.3125, 37.3125, 37.4375, 37.6875, 37.919643, 37.973213, 38.1875, 38.419643, 38.625, 38.875, 39, 39.0625, 39.258926, 39.625, 39.8125, 39.875, 39.8125, 39.8125, 39.848213, 40.125, 40.419643, 40.6875, 40.9375, 41.0625, 41.125, 41.0625, 41.0625, 41.258926, 41.708332, 41.991074, 42.25, 42.258926, 42.592262, 42.949406, 43.241074, 43.25, 43.1875, 43.1875, 43.383926, 44.002975, 44.428574, 44.794643, 44.9375, 45.0625, 45.0625, 45.0625, 45.0625, 45.1875, 45.4375, 45.6875, 45.8125, 45.875, 45.75, 45.75, 45.875, 45.875, 46.0625, 46.25, 46.4375, 46.6875, 46.875, 47.0625, 47.375, 47.75, 48.071426, 48.125, 48.28125, 48.40625, 48.65625, 48.90625, 49.0625, 49.25, 49.3125, 49.5, 49.5, 49.5625, 49.6875, 49.625, 49.745537, 49.825893, 50.03125, 50.28125, 50.4375, 50.6875, 50.75, 50.916668, -10, -10, -10, -10, -10, -10, -10, -10, -10, -10, -10, -10, -10, -10, -10, -10, -10, -10, -10, -10, -10, -10, -10, -10, -10, -10, -10, -10, -10, -10, -10, -10, -10, -10, -10, -10, -10, -10, -10, -10, -10, -10, -10, 42.833332, 43.25, 43.4375, 43.612499, -10, -10, -10, -10, -10, -10, 42.5, 42.6875, 42.535713, 42.339287, 42.0625, 41.5625, 41.375, 41.0625, 40.866074, 40.416668, 40.205357, 40.0625, 39.9375, 39.9375, 39.75, 39.5, 39.125, 38.875, 38.8125, 38.5625, 38.4375, 38.25, 38, 37.8125, 37.5625, 37.3125, 36.9375, 36.625, 36.375, 36.1875, 36.0625, 35.875, 35.580357, 35.375, 35.125, 34.857143, 34.479168, 34.0625, 33.8125, 33.625, 33.4375, 33.4375, 33.25, 33.1875, 33.0625, 32.6875, 32.4375, 32.25, 31.9375, 31.520834, 31.241072, 30.964287, 30.9375, 30.875, 30.6875, 30.4375, 30.1875, 30, 29.803572, 29.416666, 29.229166, 29.333334, 29.339287, 29.080357, 28.883928, 28.625, 28.375, 28.25, 27.991072, 27.5, 27.3125, 27.125, 26.883928, 26.741072, 26.633928, 26.126785, 26.178572, 25.6875, 25.375, 25.125, 24.9375, 24.8125, 24.625, 24.267857, 24, 23.75, 23.5, 23.375, 23.25, 23.125, 23, 22.8125, 22.535715, 22.089287, 22, 21.8125, 21.8125, 21.625, 21.375, 21.125, 20.8125, 20.455357, 20.196428, 19.875, 19.5625, 19.3125, 19.0625, 19, 18.9375, 18.8125, 18.5625, 18.3125, 18.125, 18, 17.8125, 17.625, 17.3125, 16.875, 16.625, 16.3125, 16.125, 16, 15.8125, 15.5625, 15.3125, 15.125, 14.9375, 14.8125, 14.5625, 14.3125, 14.125, 13.8125, 13.5625, 13.3125, 13.0625, 13, 12.9375, 12.6875, 12.4375, 12.1875, 12, 11.9375, 11.6875, 11.4375, 11.125, 10.875, 10.625, 10.375, 10.1875, 10, 9.8125, 9.5625, 9.3125, 9, 8.9375, 8.6875, 8.375, 8.1517859, 7.875, 7.625, 7.5, 7.3125, 7.1071429, 7, 6.8125, 6.5, 6.3125, 6, 5.6875, 5.4375, 5.1875, 4.9375, 4.9375, 5, 5.0625, 5.0625, 5.0625, 5, 5.0625, 5.125, 5.125, 5.0625, 4.9375, 5, 5, 5.125, 5.25, 5.1875, 5.1875, 5.25, 5.3125, 5.4821429, 5.5, 5.5535717, 5.6982145, 6.0999999, 6.2470236, 7, 7.1999998, -10, -10, -10, -10, -10, -10, -10, -10, -10, -10, -10, -10, -10, -10, -10, 32.8125, 33.574997, 33.75893, 34.15625, 34.1875, 34.1875, 34.3125, 34.375, 34.665176, 35.09375, 35.0625, 35.214287, 35.25, 35.3125, 35.571426, 35.8125, 35.9375, 36.1875, 36.383926, 36.646427, 36.922619, 37.252975, 37.241074, 37.375, 37.4375, 37.625, 37.875, 37.982143, 38, 38.294643, 38.535713, 38.75, 38.9375, 39, 39.0625, 39.321426, 39.6875, 39.875, 39.875, 39.6875, 39.6875, 39.723213, 40.0625, 40.482143, 40.75, 40.9375, 41.0625, 41.0625, 41, 41.0625, 41.25, 41.5, 41.75, 42, 42.071426, 42.467262, 42.949406, 43.339287, 43.3125, 43.25, 43.125, 43.267857, 43.979164, 44.419643, 44.794643, 44.9375, 45.0625, 45.0625, 45.125, 45.125, 45.25, 45.5, 45.6875, 45.8125, 45.875, 45.8125, 45.8125, 45.9375, 45.9375, 46.125, 46.375, 46.625, 46.9375, 47.0625, 47.1875, 47.4375, 47.75, 48.071426, 48.125, 48.25, 48.375, 48.625, 48.875, 49, 49.125, 49.1875, 49.4375, 49.473213, 49.5, 49.741074
-10, -10, -10, -10, -10, -10, -10, -10, -10, -10, -10, 43.708332, 43.854168, 44, 44.428574, 43.015873, 42.452381, 42.053574, 42, 42.25, 42.4375, 42.59375, 42.473213, 42.276787, 42, 41.5625, 41.375, 41.0625, 40.866074, 40.479168, 40.330357, 40.1875, 40.0625, 40, 39.8125, 39.5625, 39.25, 39.0625, 38.875, 38.625, 38.4375, 38.1875, 38, 37.8125, 37.5625, 37.3125, 36.875, 36.5625, 36.3125, 36.125, 36.0625, 35.875, 35.642857, 35.375, 35.0625, 34.8125, 34.5, 34.1875, 33.9375, 33.6875, 33.428574, 33.166668, 33.017857, 33, 33, 32.75, 32.5625, 32.4375, 32.116074, 31.4375, 31.196428, 30.901787, 30.9375, 30.9375, 30.6875, 30.4375, 30.1875, 30, 29.866072, 29.479166, 29.291666, 29.395834, 29.276787, 29.017857, 28.821428, 28.5625, 28.375, 28.25, 27.928572, 27.5, 27.375, 27.25, 27.125, 26.720238, 26.517857, 25.939285, 25.991072, 25.5, 25.25, 25.0625, 24.8125, 24.75, 24.5625, 24.205357, 24.0625, 23.875, 23.6875, 23.5625, 23.375, 23.1875, 23, 22.875, 22.660715, 22.276787, 22.1875, 22, 22, 21.75, 21.5, 21.125, 20.776787, 20.5, 20.25, 20, 19.6875, 19.4375, 19.1875, 19.0625, 19, 18.8125, 18.5625, 18.3125, 18.0625, 18, 17.8125, 17.625, 17.375, 16.9375, 16.6875, 16.375, 16.125, 16, 15.8125, 15.625, 15.4375, 15.25, 15.125, 15, 14.6875, 14.4375, 14.1875, 13.8125, 13.5625, 13.3125, 13.0625, 13, 12.875, 12.625, 12.375, 12.125, 12, 11.875, 11.625, 11.375, 11.0625, 10.8125, 10.5625, 10.3125, 10.125, 10, 9.8125, 9.5625, 9.3125, 9, 8.875, 8.625, 8.3125, 8.0892859, 7.875, 7.6875, 7.625, 7.4375, 7.2321429, 7, 6.75, 6.4375, 6.25, 6.0625, 5.75, 5.5, 5.25, 5, 5, 5.125, 5.1875, 5.1875, 5.1875, 5.0625, 5.1875, 5.1875, 5.1875, 5.0625, 4.875, 4.875, 4.875, 5.0625, 5.125, 5.125, 5.125, 5.125, 5.1875, 5.4375, 5.625, 5.6785717, 5.8410716, 6.2249999, 6.3303571, 7, -10, -10, -10, -10, -10, -10, -10, -10, -10, -10, -10, -10, -10, -10, 33, 33, 32.958336, 33.549999, 33.732143, 34.0625, 34.0625, 34.0625, 34.28125, 34.46875, 34.78125, 35.09375, 35.1875, 35.375, 35.5, 35.625, 35.821426, 36.125, 36.1875, 36.375, 36.508926, 36.708927, 36.976189, 37.107143, 37.0625, 37.1875, 37.375, 37.6875, 38, 38.044643, 37.964287, 38.294643, 38.598213, 38.910713, 39.0625, 39.0625, 39.0625, 39.28125, 39.5, 39.75, 39.75, 39.65625, 39.6875, 39.723213, 40, 40.3125, 40.5625, 40.6875, 40.8125, 40.8125, 40.8125, 40.9375, 41.196426, 41.625, 41.8125, 42.0625, 42, 42.205357, 42.925594, 43.32143, 43.375, 43.3125, 43.0625, 43.142857, 43.791664, 44.232143, 44.714287, 44.875, 45.0625, 45.0625, 45.0625, 45.0625, 45.125, 45.375, 45.625, 45.8125, 45.9375, 45.875, 45.875, 45.9375, 46, 46.25, 46.5, 46.75, 47.0625, 47.125, 47.25, 47.5, 47.75, 48.071426, 48.125, 48.25, 48.3125, 48.5625, 48.8125, 49, 49.125, 49.125, 49.375, 49.410713, 49.5, 49.866074, 49.857143, 50.089287, 50.294643, 50.366074, 50.3125, 50.4375, 50.5625, 50.75, 51, -10, -10, -10, -10, -10, -10, -10, -10, -10, -10, -10, -10, -10, -10, -10, -10, -10, -10, -10, -10, -10, -10, -10, -10, -10, -10, -10, -10, -10, -10, -10, -10, -10, -10, -10, -10, -10, -10, -10, -10, -10, -10, -10, -10, 44.041664, 43.991669, 44.104168, 44.035717, 43.519051, 42.46825, 42.160717, 42.083332, 42.333332, 42.625, 42.729168, 42.6875, 42.5, 42.125, 41.642857, 41.3125, 41.0625, 41.157738, 40.833336, 40.622025, 40.375, 40.1875, 40.125, 39.9375, 39.75, 39.5, 39.1875, 38.830357, 38.5, 38.25, 37.982143, 37.714287, 37.625, 37.375, 37.25, 36.803574, 36.375, 36.1875, 36, 36.0625, 35.9375, 35.767857, 35.5, 35.25, 35, 34.625, 34.375, 34.125, 33.8125, 33.553574, 33.104168, 32.830357, 32.75, 32.8125, 32.6875, 32.5625, 32.4375, 32.116074, 31.666666, 31.392857, 31.089287, 31, 30.9375, 30.6875, 30.4375, 30.1875, 30, 29.928572, 29.541666, 29.354166, 29.333334, 29.089287, 28.830357, 28.571428, 28.375, 28.1875, 28.0625, 27.803572, 27.5, 27.4375, 27.375, 27.25, 26.720238, 26.455357, 25.814285, 25.866072, 25.4375, 25.3125, 24.955357, 24.6875, 24.5625, 24.5, 24.3125, 24.25, 24.125, 23.875, 23.6875, 23.4375, 23.1875, 23, 22.9375, 22.723215, 22.339287, 22.25, 22, 22.0625, 21.803572, 21.4375, 21.0625, 20.651787, 20.5, 20.25, 20.125, 19.875, 19.5625, 19.3125, 19.125, 19, 18.8125, 18.5625, 18.3125, 18, 17.9375, 17.6875, 17.4375, 17.25, 16.8125, 16.625, 16.375, 16.125, 16.0625, 15.9375, 15.8125, 15.6875, 15.5, 15.303572, 15.0625, 14.8125, 14.5, 14.25, 13.767857, 13.5, 13.25, 13.0625, 12.9375, 12.75, 12.5, 12.25, 12, 11.875, 11.75, 11.5, 11.3125, 11.0625, 10.75, 10.5, 10.25, 10.0625, 9.9375, 9.8125, 9.5625, 9.3125, 9.125, 8.875, 8.625, 8.3125, 8.0267859, 7.875, 7.6875, 7.625, 7.4375, 7.2321429, 6.9375, 6.625, 6.3125, 6.125, 6, 5.75, 5.5, 5.25, 5, 5, 5.0625, 5.125, 5.125, 5.125, 5.0625, 5.1875, 5.1875, 5.1875, 5.0625, 4.8125, 4.6875, 4.6875, 4.8125, 4.9375, 5.0625, 5.0625, 5.125, 5.1875, 5.375, 5.625, 5.7410717, 5.7874999, 6.0625, 6.1755953, -10, -10, -10, -10, -10, -10, -10, -10, -10, -10, -10, -10, -10, -10, 32.75, 32.777775, 32.833332, 32.979168, 33.507141, 33.741074, 34.0625, 34.125, 34.1875, 34.4375, 34.625, 34.875, 35.125, 35.25, 35.5, 35.6875, 35.875, 36, 36.125, 36.1875, 36.3125, 36.508926, 36.700001, 36.767857, 37, 37.09375, 37.40625, 37.71875, 38.03125, 38.3125, 38.232143, 38.089287, 38.357143, 38.629463, 39.004463, 39.15625, 39.15625, 39.0625, 39.21875, 39.5, 39.857143, 39.919643, 39.635418, 39.508926, 39.4375, 39.6875, 40, 40.375, 40.5, 40.625, 40.75, 40.75, 40.9375, 41.267857, 41.75, 41.8125, 42.026787, 41.9375, 42.133926, 42.717262, 43.142857, 43.25, 43.25, 43.0625, 43.142857, 43.791664, 44.169643, 44.544643, 44.6875, 44.8125, 44.875, 44.875, 44.875, 44.9375, 45.1875, 45.544643, 45.875, 46.035713, 45.901787, 45.9375, 45.875, 46.0625, 46.375, 46.625, 46.9375, 47.25, 47.25, 47.375, 47.5625, 47.6875, 47.973213, 48.0625, 48.125, 48.25, 48.5, 48.75, 49, 49, 49, 49.25, 49.330357, 49.5625, 49.991074
-10, -10, -10, -10, -10, -10, -10, -10, -10, -10, -10, 43.833332, 43.783337, 43.84375, 43.651787, 43.095238, 42.476189, 42.245537, 42.1875, 42.375, 42.625, 42.71875, 42.75, 42.5625, 42.25, 41.830357, 41.5625, 41.5, 41.645836, 41.291668, 41.014881, 40.6875, 40.4375, 40.25, 40.0625, 39.9375, 39.6875, 39.145832, 38.6875, 38.25, 38.089287, 38.026787, 37.797619, 37.541668, 37.258926, 37.125, 36.732143, 36.166668, 36.017857, 35.875, 36, 36, 35.892857, 35.625, 35.375, 35.125, 34.6875, 34.4375, 34.1875, 33.8125, 33.553574, 33.041668, 32.767857, 32.6875, 32.75, 32.6875, 32.5625, 32.375, 31.991072, 31.541666, 31.330357, 31.125, 31.0625, 31, 30.75, 30.5625, 30.375, 30.25, 30.1875, 29.9375, 29.580357, 29.3125, 28.982143, 28.705357, 28.446428, 28.25, 28.0625, 27.9375, 27.803572, 27.5625, 27.5, 27.375, 27.151785, 26.630953, 26.375, 25.964287, 25.9375, 25.6875, 25.428572, 24.955357, 24.625, 24.375, 24.3125, 24.125, 24.125, 24.0625, 23.875, 23.6875, 23.4375, 23.1875, 22.9375, 22.8125, 22.607143, 22.339287, 22.25, 22.0625, 22, 21.678572, 21.205357, 20.875, 20.526787, 20.4375, 20.25, 20.1875, 20, 19.75, 19.5, 19.25, 19.0625, 18.8125, 18.5625, 18.3125, 18, 17.9375, 17.6875, 17.4375, 17.25, 16.875, 16.625, 16.375, 16.125, 16, 16, 15.875, 15.75, 15.5, 15.178572, 14.9375, 14.75, 14.5, 14.25, 13.660714, 13.375, 13.125, 13, 12.875, 12.6875, 12.4375, 12.1875, 12, 11.8125, 11.625, 11.375, 11.125, 10.875, 10.5625, 10.3125, 10.125, 10, 9.875, 9.6875, 9.4375, 9.1875, 9.0625, 8.8125, 8.5625, 8.3125, 8.0625, 8, 7.8125, 7.6875, 7.5, 7.2321429, 6.875, 6.5625, 6.25, 6.0625, 5.9375, 5.6875, 5.4375, 5.1875, 5, 5, 5, 5, 5, 5, 5, 5.125, 5.125, 5.125, 5, 4.8125, 4.8125, 4.875, 5.0625, 5.25, 5.3125, 5.25, 5.25, 5.1875, 5.25, 5.4375, 5.625, 5.75, 5.875, 5.9375, -10, -10, -10, -10, -10, -10, -10, -10, -10, -10, -10, -10, -10, -10, 32.666668, 32.666664, 32.75, 33, 33.464287, 33.75, 34.0625, 34.125, 34.25, 34.4375, 34.625, 34.8125, 35, 35.25, 35.5, 35.75, 35.9375, 36, 36.125, 36.1875, 36.375, 36.625, 36.857143, 37, 37.125, 37.28125, 37.53125, 37.950893, 38.21875, 38.40625, 38.28125, 38.183037, 38.388393, 38.647324, 39.004463, 39.15625, 39.15625, 39.0625, 39.21875, 39.5, 39.857143, 39.919643, 39.635418, 39.508926, 39.5, 39.75, 40.0625, 40.4375, 40.5, 40.5625, 40.6875, 40.6875, 40.875, 41.276787, 41.958332, 41.982143, 42.151787, 42, 42.196426, 42.770832, 43.080357, 43.25, 43.1875, 43.125, 43.196426, 43.645832, 43.991074, 44.294643, 44.4375, 44.625, 44.75, 44.75, 44.75, 44.75, 45, 45.464287, 45.75, 45.910713, 45.776787, 45.8125, 45.8125, 46.0625, 46.375, 46.625, 46.9375, 47.3125, 47.375, 47.5625, 47.75, 47.75, 47.9375, 48, 48, 48.1875, 48.4375, 48.625, 48.875, 48.8125, 48.8125, 49.125, 49.30357, 49.580357, 50.089287, 50.169643, 50.4375, 50.3125, 50.276787, 50.3125, 50.482143, 50.6875, 50.875, 51, -10, -10, -10, -10, -10, -10, -10, -10, -10, -10, -10, -10, -10, -10, -10, -10, -10, -10, -10, -10, -10, -10, -10, -10, -10, -10, -10, -10, -10, -10, -10, -10, -10, -10, -10, -10, -10, -10, -10, -10, -10, -10, -10, -10, 43.633331, 43.766666, 43.75, 43.541668, 43.369049, 43.083332, 42.745537, 42.455357, 42.375, 42.375, 42.40625, 42.5, 42.544643, 42.3125, 42.080357, 41.8125, 41.8125, 42.020836, 41.604168, 41.327381, 40.9375, 40.6875, 40.4375, 40.1875, 40.0625, 39.75, 39.208332, 38.6875, 38.1875, 38.026787, 37.964287, 37.735119, 37.479168, 37.196426, 37.0625, 36.732143, 36.104168, 35.919643, 35.75, 35.875, 36, 36, 35.8125, 35.553574, 35.1875, 34.8125, 34.5, 34.3125, 33.9375, 33.678574, 33.166668, 32.892857, 32.75, 32.75, 32.75, 32.625, 32.4375, 32.116074, 31.666666, 31.517857, 31.3125, 31.125, 31.026787, 30.8125, 30.6875, 30.625, 30.5, 30.366072, 29.854166, 29.535713, 29.160713, 28.767857, 28.633928, 28.375, 28.25, 28.0625, 27.9375, 27.875, 27.8125, 27.6875, 27.5, 27.116072, 26.541666, 26.258928, 26, 26, 25.875, 25.616072, 25.142857, 24.8125, 24.5, 24.375, 24.1875, 24.125, 24.0625, 23.8125, 23.625, 23.375, 23.125, 22.9375, 22.75, 22.5625, 22.3125, 22.125, 21.9375, 21.75, 21.366072, 20.892857, 20.625, 20.3125, 20.3125, 20.1875, 20.125, 20.0625, 19.875, 19.625, 19.375, 19.125, 18.8125, 18.5625, 18.3125, 18, 17.9375, 17.6875, 17.4375, 17.25, 16.875, 16.625, 16.375, 16.125, 16, 15.9375, 15.8125, 15.6875, 15.4375, 15.116072, 14.875, 14.75, 14.5625, 14.375, 13.848214, 13.5, 13.1875, 13.0625, 12.8125, 12.5625, 12.3125, 12.0625, 11.9375, 11.8125, 11.5625, 11.3125, 11.0625, 10.8125, 10.5625, 10.3125, 10.125, 10, 9.8125, 9.625, 9.375, 9.0625, 9, 8.6875, 8.4375, 8.25, 8, 7.9375, 7.75, 7.5625, 7.3125, 7.125, 6.8125, 6.5, 6.25, 6, 5.9375, 5.75, 5.5, 5.25, 5.0625, 5.0625, 5.0625, 5.0625, 5.0625, 5.0625, 5.0625, 5.125, 5.125, 5.0625, 5, 4.875, 4.875, 4.9375, 5.125, 5.375, 5.5, 5.4375, 5.3125, 5.125, 5.0625, 5.25, 5.5, 5.5625, 5.625, 5.5833335, -10, -10, -10, -10, -10, -10, -10, -10, -10, -10, -10, -10, -10, -10, 32.625, 32.5, 32.625, 32.875, 33.446426, 33.75, 34, 34.0625, 34.1875, 34.375, 34.625, 34.875, 35, 35.3125, 35.5625, 35.75, 36, 36, 36.0625, 36.125, 36.25, 36.5, 36.794643, 36.9375, 37.125, 37.28125, 37.46875, 37.897324, 38.364582, 38.513393, 38.40625, 38.183037, 38.28125, 38.575893, 38.941963, 39.15625, 39.15625, 39.0625, 39.21875, 39.5, 39.857143, 39.982143, 39.760418, 39.696426, 39.75, 40, 40.25, 40.5625, 40.5625, 40.5, 40.625, 40.625, 40.8125, 41.276787, 42.020832, 42.080357, 42.214287, 42.0625, 42.196426, 42.770832, 43.080357, 43.25, 43.1875, 43.1875, 43.25, 43.5625, 43.875, 44.107143, 44.3125, 44.5, 44.71875, 44.84375, 44.90625, 44.90625, 45.0625, 45.401787, 45.5625, 45.73214, 45.776787, 45.75, 45.705357, 45.9375, 46.25, 46.607143, 46.9375, 47.25, 47.3125, 47.375, 47.526787, 47.669643, 47.9375, 48.0625, 48.0625, 48.1875, 48.3125, 48.5, 48.75, 48.75, 48.875, 49.125, 49.330357, 49.723213, 50.160713
-10, -10, -10, -10, -10, -10, -10, -10, -10, -10, -10, -10, 44.053333, 43.798611, 43.671429, 43.561226, 43.25, 42.96875, 42.705357, 42.5, 42.3125, 42.25, 42.339287, 42.589287, 42.491074, 42.321426, 41.770832, 41.678574, 41.895836, 41.479168, 41.264881, 41, 40.8125, 40.5625, 40.3125, 40.125, 39.6875, 39.110119, 38.6875, 38.25, 38.151787, 38.089287, 37.735119, 37.416668, 37.133926, 37, 36.732143, 36.104168, 35.919643, 35.75, 35.875, 36, 36, 35.8125, 35.553574, 35.1875, 34.875, 34.5625, 34.375, 34, 33.6875, 33.375, 33.0625, 32.875, 32.8125, 32.75, 32.5625, 32.3125, 32, 31.75, 31.625, 31.5, 31.3125, 31.151787, 31, 30.8125, 30.6875, 30.5625, 30.303572, 29.791666, 29.473213, 29.098213, 28.767857, 28.696428, 28.4375, 28.3125, 28.1875, 28, 27.9375, 27.767857, 27.5625, 27.25, 26.8125, 26.4375, 26.1875, 26.0625, 26.0625, 26, 25.803572, 25.330357, 25.0625, 24.75, 24.625, 24.4375, 24.3125, 24.1875, 23.8125, 23.5, 23.25, 22.9375, 22.75, 22.5625, 22.3125, 22, 21.8125, 21.625, 21.4375, 21.178572, 20.705357, 20.4375, 20.125, 20.125, 20.0625, 20.0625, 20, 19.8125, 19.5625, 19.3125, 19.125, 18.8125, 18.5625, 18.3125, 18, 17.9375, 17.75, 17.5, 17.3125, 16.9375, 16.625, 16.375, 16.125, 16, 15.875, 15.6875, 15.5, 15.25, 14.928572, 14.75, 14.6875, 14.5, 14.375, 13.910714, 13.5625, 13.25, 13.125, 12.8125, 12.5625, 12.3125, 12.0625, 11.9375, 11.8125, 11.5625, 11.3125, 11.0625, 10.8125, 10.625, 10.375, 10.1875, 10.0625, 9.7410717, 9.4375, 9.25, 8.9375, 9, 8.6875, 8.4375, 8.25, 8, 7.9375, 7.6875, 7.4375, 7.1875, 7, 6.75, 6.5, 6.25, 6, 5.9375, 5.75, 5.5, 5.25, 5.0625, 5.0625, 5.0625, 5.125, 5.1875, 5.1875, 5.1875, 5.125, 5.0625, 5, 5, 4.9375, 4.9375, 5, 5.125, 5.375, 5.5, 5.4375, 5.3125, 5.125, 5.0625, 5.25, 5.5, 5.4910717, 5.375, 5.4444447, -10, -10, -10, -10, -10, -10, -10, -10, -10, -10, -10, -10, -10, -10, 32.5, 32.333332, 32.5, 32.75, 33.42857, 33.75, 34, 34.0625, 34.25, 34.4375, 34.6875, 34.9375, 35.0625, 35.375, 35.625, 35.8125, 36, 36, 36, 36.0625, 36.1875, 36.4375, 36.732143, 36.875, 37.0625, 37.21875, 37.46875, 37.866074, 38.302082, 38.450893, 38.34375, 38.151787, 38.28125, 38.513393, 38.84375, 39.09375, 39.09375, 39.0625, 39.25, 39.5625, 39.919643, 40.107143, 39.916668, 39.946426, 40.0625, 40.3125, 40.5625, 40.75, 40.625, 40.5, 40.5625, 40.5625, 40.8125, 41.267857, 41.958332, 42.11607, 42.214287, 42.125, 42.1875, 42.625, 43.080357, 43.25, 43.25, 43.3125, 43.4375, 43.857143, 44.0625, 44.1875, 44.3125, 44.4375, 44.71875, 44.84375, 44.96875, 44.96875, 45.125, 45.464287, 45.5625, 45.79464, 45.964287, 46.035713, 45.955357, 46.017857, 46.25, 46.544643, 46.875, 47.1875, 47.25, 47.25, 47.401787, 47.607143, 47.875, 48, 48, 48.1875, 48.357143, 48.5625, 48.75, 48.6875, 48.8125, 49, 49.205357, 49.598213, 50.035713, 50.1875, 50.5, 50.25, 50.303574, 50.544643, 50.723213, 50.9375, 51, 51, -10, -10, -10, -10, -10, -10, -10, -10, -10, -10, -10, -10, -10, -10, -10, -10, -10, -10, -10, -10, -10, -10, -10, -10, -10, -10, -10, -10, -10, -10, -10, -10, -10, -10, -10, -10, -10, -10, -10, -10, -10, -10, -10, -10, -10, -10, 42.940479, 43.462502, 43.535713, 43.53125, 43.28125, 42.970982, 42.640625, 42.285713, 42.135418, 42.339287, 42.651787, 42.741074, 42.616074, 42.083332, 41.647957, 41.488098, 41.15625, 41.004463, 40.875, 40.75, 40.5, 40.3125, 40.053574, 39.416668, 38.869049, 38.607143, 38.375, 38.339287, 38.357143, 38.020832, 37.541668, 37.258926, 37, 36.741074, 36.229168, 35.982143, 35.8125, 35.875, 36, 36, 35.8125, 35.553574, 35.1875, 34.9375, 34.625, 34.4375, 34.125, 33.8125, 33.625, 33.375, 33.1875, 33.0625, 32.9375, 32.6875, 32.375, 32.0625, 31.8125, 31.75, 31.6875, 31.5, 31.276787, 31.0625, 30.875, 30.75, 30.625, 30.366072, 29.854166, 29.535713, 29.223213, 28.892857, 28.758928, 28.5625, 28.375, 28.375, 28.1875, 28.0625, 27.830357, 27.5, 27.1875, 26.75, 26.4375, 26.1875, 26.125, 26.1875, 26.133928, 25.741072, 25.366072, 25.125, 24.9375, 24.8125, 24.5625, 24.4375, 24.223213, 23.696428, 23.375, 23.125, 22.875, 22.6875, 22.4375, 22.1875, 21.875, 21.6875, 21.5, 21.25, 21, 20.642857, 20.375, 20.125, 20, 20, 20, 19.9375, 19.8125, 19.5625, 19.3125, 19.125, 18.75, 18.5, 18.25, 18, 18, 17.8125, 17.5625, 17.3125, 16.9375, 16.625, 16.375, 16.125, 16, 15.8125, 15.5625, 15.3125, 15, 14.75, 14.6875, 14.5625, 14.4375, 14.3125, 14.017857, 13.6875, 13.375, 13.1875, 12.875, 12.625, 12.375, 12.125, 12, 11.875, 11.625, 11.375, 11.0625, 10.75, 10.5625, 10.3125, 10.125, 10.0625, 9.8035717, 9.4375, 9.25, 8.9375, 8.9375, 8.6875, 8.4375, 8.25, 8, 7.9375, 7.6875, 7.4375, 7.1875, 7, 6.75, 6.5, 6.25, 6, 5.9375, 5.75, 5.5, 5.25, 5.0625, 5.0625, 5.0625, 5.1875, 5.25, 5.25, 5.25, 5.0625, 4.9375, 4.875, 4.875, 4.9375, 5.0625, 5.125, 5.25, 5.375, 5.4375, 5.375, 5.25, 5.125, 5.1339283, 5.4375, 5.625, 5.6994047, 5.25, -10, -10, -10, -10, -10, -10, -10, -10, -10, -10, -10, -10, -10, -10, -10, 32.625, 32.392857, 32.5, 32.75, 33.42857, 33.75, 34, 34, 34.1875, 34.375, 34.625, 34.9375, 35.0625, 35.3125, 35.5625, 35.75, 35.9375, 36, 36, 36.0625, 36.1875, 36.5, 36.794643, 36.9375, 37.0625, 37.0625, 37.21875, 37.522324, 37.958332, 38.138393, 38.125, 38.026787, 38.21875, 38.419643, 38.625, 38.875, 38.875, 38.875, 39.151787, 39.482143, 39.741074, 40, 40, 40.125, 40.375, 40.5625, 40.8125, 40.9375, 40.75, 40.6875, 40.6875, 40.6875, 40.9375, 41.321426, 41.895832, 42.24107, 42.3125, 42.1875, 42.151787, 42.5, 43.00893, 43.223213, 43.25, 43.375, 43.5625, 44.044643, 44.3125, 44.375, 44.4375, 44.5, 44.71875, 44.90625, 45.09375, 45.09375, 45.25, 45.482143, 45.5, 45.821426, 46.0625, 46.098213, 46.017857, 45.892857, 46.125, 46.464287, 46.75, 47.0625, 47.125, 47.125, 47.339287, 47.607143, 47.875, 48, 48, 48.1875, 48.357143, 48.5625, 48.75, 48.75, 48.875, 49, 49.160713, 49.473213, 49.785713
-10, -10, -10, -10, -10, -10, -10, -10, -10, -10, -10, -10, -10, 42.904762, 43.587502, 43.76786, 43.8125, 43.5625, 43.174107, 42.71875, 42.207588, 41.901043, 41.964287, 42.387756, 42.4375, 42.636902, 42.127975, 41.660713, 41.361607, 41.09375, 40.90625, 40.8125, 40.625, 40.375, 40.25, 39.928574, 39.354168, 39.098213, 38.857143, 38.6875, 38.5625, 38.3125, 37.9375, 37.5, 37.25, 37, 36.8125, 36.5, 36.276787, 36.0625, 36, 36.0625, 35.9375, 35.75, 35.491074, 35.125, 34.9375, 34.625, 34.4375, 34.1875, 33.9375, 33.8125, 33.5625, 33.3125, 33.125, 33, 32.75, 32.5, 32.25, 32, 32, 31.9375, 31.6875, 31.401787, 31.0625, 30.75, 30.5625, 30.375, 30.178572, 29.791666, 29.580357, 29.285713, 28.955357, 28.758928, 28.5625, 28.375, 28.375, 28.1875, 28.0625, 27.892857, 27.5625, 27.25, 26.8125, 26.4375, 26.1875, 26.125, 26.1875, 26.071428, 25.6875, 25.428572, 25.1875, 25.125, 24.9375, 24.6875, 24.4375, 24.098213, 23.508928, 23.1875, 23, 22.8125, 22.6875, 22.4375, 22.1875, 21.875, 21.6875, 21.5, 21.25, 21.0625, 20.8125, 20.5625, 20.3125, 20.125, 20.0625, 20, 19.875, 19.6875, 19.4375, 19.1875, 19.125, 18.848213, 18.517857, 18.258928, 18, 18, 17.8125, 17.5625, 17.3125, 16.875, 16.5625, 16.3125, 16.0625, 16, 15.75, 15.5, 15.25, 15, 14.875, 14.8125, 14.625, 14.4375, 14.3125, 14.125, 13.875, 13.5625, 13.3125, 13, 12.75, 12.5, 12.1875, 11.892857, 11.8125, 11.625, 11.4375, 11.25, 10.875, 10.625, 10.375, 10.125, 10.0625, 9.8660717, 9.5, 9.3125, 9, 8.9375, 8.6875, 8.4375, 8.25, 8, 7.9375, 7.75, 7.5, 7.25, 7, 6.6875, 6.4375, 6.1875, 6, 5.9375, 5.75, 5.5, 5.25, 5.0625, 5.0625, 5.0625, 5.25, 5.3125, 5.3125, 5.3125, 5, 4.875, 4.8125, 4.8125, 4.9375, 5, 5, 5.0625, 5.0625, 5.0625, 5.0625, 5, 5, 5.1339283, 5.5, 5.6875, 5.8035717, -10, -10, -10, -10, -10, -10, -10, -10, -10, -10, -10, -10, -10, -10, -10, 33.5, 32.75, 32.452381, 32.5, 32.75, 33.42857, 33.75, 34, 34, 34.125, 34.3125, 34.5, 34.75, 34.9375, 35.125, 35.4375, 35.6875, 35.875, 36, 36.0625, 36.1875, 36.232143, 36.362499, 36.616074, 36.669643, 36.8125, 36.78125, 36.890625, 37.165176, 37.708332, 37.950893, 38.046875, 37.995537, 38.1875, 38.357143, 38.5625, 38.8125, 38.8125, 38.90625, 39.183037, 39.513393, 39.772324, 40, 40, 40.125, 40.3125, 40.4375, 40.6875, 40.8125, 40.75, 40.8125, 40.8125, 40.8125, 40.9375, 41.214287, 41.669643, 42.0625, 42.125, 42.03125, 41.995537, 42.34375, 42.91518, 43.160713, 43.25, 43.375, 43.5625, 44.044643, 44.3125, 44.375, 44.4375, 44.5, 44.71875, 44.96875, 45.21875, 45.21875, 45.3125, 45.375, 45.375, 45.758926, 46.1875, 46.392857, 46.330357, 46.142857, 46.276787, 46.696426, 46.991074, 47.25, 47.25, 47.1875, 47.339287, 47.607143, 47.875, 47.9375, 47.9375, 48.125, 48.339287, 48.5625, 48.75, 48.8125, 48.9375, 49, 49.196426, 49.580357, 49.75, 49.964287, 50.232143, 50.303574, 50.526787, 50.794643, 50.928574, 51, 51.125, 51.166664, -10, -10, -10, -10, -10, -10, -10, -10, -10, -10, -10, -10, -10, -10, -10, -10, -10, -10, -10, -10, -10, -10, -10, -10, -10, -10, -10, -10, -10, -10, -10, -10, -10, -10, -10, -10, -10, -10, -10, -10, -10, -10, -10, -10, -10, -10, 42.916668, 43.400002, 43.64286, 43.75, 43.625, 43.3125, 42.875, 42.426338, 41.994793, 41.901787, 41.897957, 42.479164, 42.627975, 42.145832, 41.598213, 41.174107, 40.96875, 40.71875, 40.625, 40.4375, 40.1875, 40.125, 39.803574, 39.229168, 38.9375, 38.732143, 38.625, 38.5625, 38.3125, 37.9375, 37.5, 37.25, 37, 36.875, 36.625, 36.4375, 36.1875, 36.0625, 36, 35.8125, 35.5625, 35.3125, 35.0625, 34.8125, 34.5625, 34.3125, 34.1875, 34, 33.875, 33.580357, 33.3125, 33.1875, 33.035713, 32.705357, 32.446426, 32.1875, 32, 32, 32, 31.875, 31.625, 31.1875, 30.705357, 30.375, 30.125, 29.9375, 29.8125, 29.5625, 29.3125, 29.125, 28.9375, 28.75, 28.5, 28.4375, 28.1875, 28.0625, 27.830357, 27.5, 27.1875, 26.75, 26.4375, 26.1875, 26.125, 26.1875, 26.071428, 25.6875, 25.428572, 25.1875, 25.0625, 24.8125, 24.5625, 24.25, 23.910713, 23.383928, 23.0625, 22.9375, 22.8125, 22.6875, 22.4375, 22.1875, 21.9375, 21.8125, 21.6875, 21.4375, 21.25, 21, 20.75, 20.5, 20.3125, 20.1875, 20, 19.767857, 19.5, 19.25, 19.0625, 19.125, 19.035713, 18.75, 18.363094, 18, 17.9375, 17.75, 17.5, 17.3125, 16.875, 16.625, 16.4375, 16.1875, 16.125, 15.875, 15.5625, 15.3125, 15.0625, 14.9375, 14.875, 14.625, 14.375, 14.1875, 14, 13.8125, 13.5625, 13.3125, 13, 12.75, 12.5, 12.1875, 11.892857, 11.8125, 11.625, 11.4375, 11.25, 10.9375, 10.6875, 10.4375, 10.1875, 10.0625, 9.9285717, 9.625, 9.4375, 9.1875, 9.0625, 8.75, 8.5, 8.25, 8, 8, 7.8125, 7.5625, 7.3125, 7, 6.6875, 6.4375, 6.1875, 6, 5.875, 5.625, 5.375, 5.125, 5, 5, 5, 5.1875, 5.25, 5.25, 5.25, 4.9375, 4.8125, 4.8125, 4.8125, 4.9375, 5, 5, 5, 4.9375, 4.875, 4.875, 4.875, 4.9375, 5.1339283, 5.5, 5.6875, 5.8452377, -10, -10, -10, -10, -10, -10, -10, -10, -10, -10, -10, -10, -10, -10, -10, 33.5, 32.875, 32.535713, 32.5625, 32.8125, 33.42857, 33.75, 34, 34, 34.125, 34.25, 34.375, 34.5625, 34.75, 34.9375, 35.3125, 35.625, 35.8125, 36, 36.0625, 36.125, 36.044643, 36.076786, 36.410713, 36.464287, 36.714287, 36.78125, 36.783482, 37.165176, 37.666668, 38.022324, 38.162949, 38.03125, 38.1875, 38.25, 38.5, 38.75, 38.8125, 38.96875, 39.245537, 39.575893, 39.834824, 40, 40, 40, 40.0625, 40.142857, 40.604168, 40.883926, 40.9375, 41.0625, 41, 40.90625, 40.90625, 41.058037, 41.450893, 41.883926, 42, 41.96875, 41.933037, 42.21875, 42.754463, 43.035713, 43.1875, 43.3125, 43.5, 43.919643, 44.1875, 44.3125, 44.3125, 44.375, 44.571426, 44.825001, 44.955357, 45.0625, 45.125, 45.3125, 45.375, 45.75, 46.0625, 46.392857, 46.4375, 46.267857, 46.401787, 46.776787, 47.160713, 47.4375, 47.5, 47.5, 47.625, 47.75, 47.875, 47.8125, 47.8125, 48.0625, 48.375, 48.5625, 48.6875, 48.6875, 48.75, 48.875, 49.196426, 49.5625, 49.6875
-10, -10, -10, -10, -10, -10, -10, -10, -10, -10, -10, -10, -10, 43, 43.5, 43.630955, 43.625, 43.5, 43.1875, 42.875, 42.551338, 42.173363, 41.987499, 42.035713, 42.363094, 42.574402, 42.3125, 41.8125, 41.361607, 41.03125, 40.65625, 40.4375, 40.1875, 40, 40, 39.741074, 39.229168, 38.9375, 38.732143, 38.5625, 38.5, 38.3125, 37.973213, 37.517857, 37.330357, 37.0625, 37, 36.75, 36.5, 36.25, 36, 35.875, 35.625, 35.375, 35.1875, 35, 34.8125, 34.5625, 34.3125, 34.1875, 34.0625, 34, 33.767857, 33.5, 33.25, 32.92857, 32.580357, 32.321426, 32.125, 32, 32, 32, 31.875, 31.6875, 31.241072, 30.622023, 30.321428, 30.0625, 30, 29.875, 29.625, 29.375, 29.1875, 29, 28.8125, 28.5625, 28.375, 28.125, 28, 27.8125, 27.5, 27.25, 26.8125, 26.5, 26.25, 26.0625, 26.125, 26.008928, 25.5625, 25.303572, 25.0625, 24.875, 24.625, 24.375, 24, 23.660713, 23.258928, 23, 22.9375, 22.9375, 22.75, 22.5, 22.25, 22, 21.9375, 21.875, 21.625, 21.375, 21.125, 20.875, 20.625, 20.4375, 20.25, 20, 19.767857, 19.5, 19.25, 19.0625, 19.125, 19.098213, 18.8125, 18.425594, 18.0625, 17.9375, 17.6875, 17.4375, 17.1875, 16.75, 16.5625, 16.375, 16.1875, 16.125, 15.9375, 15.625, 15.375, 15.125, 15, 14.9375, 14.75, 14.5, 14.25, 14.0625, 13.8125, 13.625, 13.375, 13, 12.776786, 12.5625, 12.25, 12.017857, 11.875, 11.625, 11.4375, 11.25, 10.9375, 10.625, 10.375, 10.125, 10, 10, 9.8125, 9.5625, 9.3125, 9.0625, 8.75, 8.5, 8.25, 8, 7.9375, 7.75, 7.5, 7.25, 7, 6.6875, 6.4375, 6.1875, 6, 5.875, 5.625, 5.375, 5.125, 5, 5, 5, 5.125, 5.125, 5.125, 5.125, 4.875, 4.875, 4.875, 4.875, 5.0625, 5.0625, 5.0625, 5.0625, 4.9375, 4.875, 4.875, 4.875, 4.9375, 5.0714283, 5.375, 5.5625, 5.7291665, -10, -10, -10, -10, -10, -10, -10, -10, -10, -10, -10, -10, -10, -10, -10, -10, 33.125, 32.785713, 32.78125, 32.96875, 33.477676, 33.78125, 34, 34, 34.0625, 34.125, 34.25, 34.4375, 34.625, 34.8125, 35.1875, 35.5, 35.75, 36.0625, 36.1875, 36.25, 36.107143, 35.969643, 36.223213, 36.151787, 36.44643, 36.760418, 36.783482, 37.196426, 37.604168, 37.959824, 38.100449, 38, 38.1875, 38.25, 38.5, 38.75, 38.75, 38.90625, 39.120537, 39.450893, 39.772324, 39.9375, 39.9375, 39.8125, 39.830357, 40.038689, 40.532738, 40.883926, 41, 41.125, 41.0625, 41.040176, 41.15625, 41.245537, 41.575893, 41.848213, 41.9375, 41.84375, 41.745537, 41.924107, 42.480656, 42.910713, 43.125, 43.25, 43.4375, 43.6875, 44, 44.125, 44.125, 44.258926, 44.571426, 44.825001, 44.955357, 45, 45, 45.125, 45.25, 45.5625, 45.8125, 46.107143, 46.1875, 46.125, 46.339287, 46.776787, 47.223213, 47.5625, 47.6875, 47.75, 47.8125, 47.875, 47.9375, 47.875, 47.875, 48.0625, 48.267857, 48.375, 48.4375, 48.5, 48.625, 48.875, 49.321426, 49.6875, 49.75, 49.901787, 49.982143, 50.178574, 50.5, 50.75, 50.9375, 51, 51.125, 51.166664, -10, -10, -10, -10, -10, -10, -10, -10, -10, -10, -10, -10, -10, -10, -10, -10, -10, -10, -10, -10, -10, -10, -10, -10, -10, -10, -10, -10, -10, -10, -10, -10, -10, -10, -10, -10, -10, -10, -10, -10, -10, -10, -10, -10, -10, -10, -10, 43.625, 43.607143, 43.53125, 43.34375, 43.046875, 42.734375, 42.515625, 42.194199, 41.844643, 41.785713, 42.050594, 42.324402, 42.1875, 41.892857, 41.517857, 41.25, 40.928574, 40.479168, 40.196426, 40, 40, 39.75, 39.375, 39.08036, 38.857143, 38.5625, 38.5, 38.3125, 38.035713, 37.642857, 37.482143, 37.1875, 37.09375, 36.84375, 36.46875, 36.15625, 35.8125, 35.625, 35.375, 35.1875, 35.0625, 34.9375, 34.8125, 34.625, 34.375, 34.3125, 34.133926, 33.708332, 33.4375, 33.1875, 33.0625, 32.80357, 32.517857, 32.258926, 32.0625, 32, 32, 32, 31.9375, 31.75, 31.303572, 30.577379, 30.258928, 30, 29.9375, 29.875, 29.6875, 29.4375, 29.25, 29.0625, 28.75, 28.5, 28.25, 28, 27.875, 27.6875, 27.4375, 27.1875, 26.8125, 26.5625, 26.3125, 26, 25.892857, 25.75, 25.5625, 25.375, 25.1875, 24.9375, 24.625, 24.375, 23.875, 23.5, 23.3125, 23.125, 23.125, 23.125, 22.8125, 22.5, 22.25, 22, 22, 22, 21.75, 21.5, 21.25, 21, 20.75, 20.5625, 20.3125, 20, 19.705357, 19.4375, 19.1875, 19, 19.125, 19.160713, 18.875, 18.488094, 18.0625, 17.875, 17.625, 17.375, 17.125, 16.625, 16.4375, 16.25, 16.125, 16.125, 16, 15.6875, 15.4375, 15.1875, 15, 15, 14.875, 14.6875, 14.4375, 14.1875, 13.875, 13.625, 13.375, 13, 12.839286, 12.625, 12.25, 11.982142, 11.875, 11.6875, 11.5625, 11.375, 11.0625, 10.75, 10.5, 10.25, 10.0625, 10, 9.8125, 9.5625, 9.3125, 9, 8.6875, 8.4375, 8.1875, 8, 7.9375, 7.75, 7.5, 7.25, 6.9375, 6.625, 6.375, 6.125, 6, 5.875, 5.625, 5.375, 5.125, 5, 5.0625, 5.125, 5.1875, 5.1875, 5.125, 5.0625, 4.9375, 5, 5, 5, 5.125, 5.0625, 5.0625, 5.0625, 4.9375, 4.875, 4.875, 4.875, 4.96875, 5.09375, 5.21875, 5.40625, 5.458333, 5.166667, -10, -10, -10, -10, -10, -10, -10, -10, -10, -10, -10, -10, -10, -10, -10, 33.375, 33.059525, 33.0625, 33.1875, 33.526787, 33.8125, 34, 34, 34, 34.071426, 34.395832, 34.544643, 34.75, 34.875, 35.1875, 35.5, 35.78125, 36.15625, 36.34375, 36.40625, 36.232143, 35.969643, 36.098213, 36.026787, 36.32143, 36.697918, 36.814732, 37.196426, 37.541668, 37.834824, 37.944199, 37.90625, 38.15625, 38.34375, 38.65625, 38.875, 38.875, 39.03125, 39.15625, 39.40625, 39.71875, 39.875, 39.9375, 39.8125, 39.830357, 40.038689, 40.532738, 40.883926, 41, 41.1875, 41.125, 41.102676, 41.15625, 41.183037, 41.513393, 41.723213, 41.9375, 41.879463, 41.674107, 41.840775, 42.385414, 42.875, 43.125, 43.1875, 43.4375, 43.625, 43.982143, 44.125, 44.125, 44.196426, 44.508926, 44.762501, 44.892857, 45, 44.9375, 45.0625, 45.1875, 45.4375, 45.75, 46.044643, 46.1875, 46.1875, 46.401787, 46.794643, 47.285713, 47.8125, 47.9375, 48.0625, 48, 48, 48, 47.875, 47.875, 48, 48.142857, 48.25, 48.3125, 48.4375, 48.625, 48.875, 49.321426, 49.6875, 49.8125
-10, -10, -10, -10, -10, -10, -10, -10, -10, -10, -10, -10, -10, -10, 44, 43.75, 43.517857, 43.234375, 42.90625, 42.65625, 42.53125, 42.287949, 41.960712, 41.702381, 41.9375, 42.157738, 42.080357, 41.830357, 41.4375, 41.080357, 40.803574, 40.354168, 40.071426, 39.8125, 39.75, 39.598213, 39.1875, 38.95536, 38.75, 38.5, 38.375, 38.142857, 37.910713, 37.580357, 37.482143, 37.3125, 37.15625, 36.90625, 36.352676, 35.924107, 35.625, 35.375, 35.25, 35.125, 35, 34.9375, 34.875, 34.75, 34.5, 34.383926, 33.842262, 33.279762, 33.071426, 33.0625, 33, 32.86607, 32.580357, 32.321426, 32.125, 32.0625, 32, 32, 31.928572, 31.625, 31.241072, 30.514879, 30.258928, 30, 29.9375, 29.875, 29.75, 29.5, 29.3125, 29.125, 28.8125, 28.5625, 28.3125, 28.0625, 27.8125, 27.5625, 27.3125, 27.0625, 26.8125, 26.6875, 26.428572, 25.916666, 25.642857, 25.4375, 25.3125, 25.25, 25.223213, 24.9375, 24.580357, 24.3125, 23.875, 23.625, 23.5625, 23.4375, 23.375, 23.3125, 22.9375, 22.5625, 22.3125, 22.0625, 22, 22, 21.75, 21.5, 21.25, 21, 20.75, 20.5625, 20.3125, 20, 19.767857, 19.5, 19.25, 19.0625, 19.0625, 19.125, 18.919643, 18.541666, 18.125, 17.8125, 17.5625, 17.3125, 17.0625, 16.625, 16.4375, 16.25, 16.125, 16.125, 16.0625, 15.75, 15.5, 15.25, 15, 14.9375, 14.8125, 14.6875, 14.5, 14.294643, 13.791667, 13.508928, 13.25, 12.9375, 12.839286, 12.625, 12.3125, 12.151786, 11.9375, 11.6875, 11.5, 11.25, 11.0625, 10.875, 10.6875, 10.4375, 10.1875, 10.0625, 9.875, 9.6875, 9.4375, 9.0625, 8.6428566, 8.375, 8.125, 8, 7.9375, 7.6875, 7.4375, 7.1875, 6.875, 6.625, 6.375, 6.125, 6, 5.875, 5.625, 5.375, 5.125, 5.03125, 5.125, 5.25, 5.3125, 5.28125, 5.1875, 5.0625, 5, 5, 5, 5, 5, 4.9375, 4.9375, 4.9375, 4.96875, 5.09375, 5.09375, 5.09375, 5.09375, 5.09375, 5.15625, 5.28125, 5.3630953, 5.4444447, -10, -10, -10, -10, -10, -10, -10, -10, -10, -10, -10, -10, -10, -10, -10, 33.5, 33.25, 33.28125, 33.34375, 33.575893, 33.84375, 34, 34, 34, 34.133926, 34.583332, 34.830357, 35, 35.0625, 35.25, 35.5, 35.75, 36.0625, 36.1875, 36.1875, 36.0625, 35.919643, 35.919643, 35.982143, 36.32143, 36.791668, 37.017857, 37.321426, 37.541668, 37.803574, 37.866074, 37.84375, 38.15625, 38.40625, 38.71875, 38.9375, 38.9375, 39, 39.0625, 39.3125, 39.625, 39.8125, 39.9375, 39.8125, 39.830357, 40.038689, 40.532738, 40.946426, 41.169643, 41.375, 41.3125, 41.227676, 41.28125, 41.28125, 41.53125, 41.732143, 42.0625, 42.008926, 41.660713, 41.788692, 42.416664, 42.973213, 43.28125, 43.28125, 43.5, 43.625, 43.982143, 44.1875, 44.1875, 44.196426, 44.446426, 44.700001, 44.830357, 45, 44.9375, 45.125, 45.25, 45.5, 45.75, 45.875, 46, 46.0625, 46.3125, 46.625, 47.107143, 47.625, 47.8125, 48, 48, 48, 48, 47.9375, 47.9375, 48, 48.035713, 48.1875, 48.375, 48.669643, 48.875, 49.0625, 49.3125, 49.4375, 49.5625, 49.625, 49.6875, 49.8125, 50.1875, 50.625, 50.910713, 51.125, 51.1875, 51.166668, -10, -10, -10, -10, -10, -10, -10, -10, -10, -10, -10, -10, -10, -10, -10, -10, -10, -10, -10, -10, -10, -10, -10, -10, -10, -10, -10, -10, -10, -10, -10, -10, -10, -10, -10, -10, -10, -10, -10, -10, -10, -10, -10, -10, -10, -10, -10, 44, 43.625, 43.413689, 43.140625, 42.8125, 42.625, 42.5, 42.350449, 42.023212, 41.586311, 41.413689, 41.541668, 41.642857, 41.520409, 41.125, 40.892857, 40.803574, 40.416668, 40.071426, 39.633926, 39.392857, 39.223213, 38.9375, 38.866074, 38.8125, 38.625, 38.4375, 38.267857, 38.098213, 37.8125, 37.586311, 37.455357, 37.21875, 37.03125, 36.477676, 35.986607, 35.6875, 35.375, 35.25, 35.125, 35, 35, 35, 34.875, 34.625, 34.321426, 33.654762, 33.092262, 32.92857, 33, 33, 32.86607, 32.580357, 32.321426, 32.1875, 32.098213, 31.964287, 32, 31.866072, 31.625, 31.241072, 30.514879, 30.258928, 30, 30, 29.875, 29.75, 29.5, 29.25, 29.125, 28.875, 28.625, 28.375, 28.125, 27.8125, 27.625, 27.375, 27.125, 26.9375, 26.8125, 26.553572, 25.979166, 25.535713, 25.25, 25.0625, 25.0625, 25.098213, 24.875, 24.580357, 24.3125, 23.9375, 23.6875, 23.625, 23.5, 23.375, 23.3125, 23, 22.6875, 22.4375, 22.1875, 22.0625, 22, 21.75, 21.5, 21.25, 21, 20.8125, 20.625, 20.375, 20.125, 19.9375, 19.625, 19.375, 19.125, 19, 18.928572, 18.5625, 18.375, 18.0625, 17.8125, 17.5625, 17.3125, 16.9375, 16.5625, 16.3125, 16.0625, 16, 16, 16, 15.75, 15.5, 15.25, 15, 14.875, 14.6875, 14.455357, 14.25, 14.044643, 13.604167, 13.383928, 13.1875, 12.9375, 12.839286, 12.625, 12.3125, 12.089286, 11.8125, 11.5625, 11.375, 11.1875, 11.0625, 10.9375, 10.8125, 10.5625, 10.3125, 10.125, 9.875, 9.6875, 9.4375, 9.0625, 8.6428566, 8.3125, 7.9553571, 7.875, 7.8125, 7.625, 7.4375, 7.1875, 6.875, 6.625, 6.375, 6.125, 6, 5.9375, 5.6875, 5.4375, 5.1875, 5.03125, 5.1875, 5.375, 5.5, 5.46875, 5.3125, 5.125, 5, 5, 5, 5, 5, 4.9375, 4.9375, 4.9375, 4.984375, 5.140625, 5.140625, 5.078125, 5.0625, 5.03125, 5.03125, 5.15625, 5.2589283, 5.4583335, 5.875, -10, -10, -10, -10, -10, -10, -10, -10, -10, -10, -10, -10, -10, -10, 33.666668, 33.458332, 33.46875, 33.5, 33.625, 33.875, 34, 34, 34, 34.133926, 34.645832, 34.892857, 35.125, 35.25, 35.375, 35.625, 35.8125, 36.0625, 36.1875, 36.1875, 36.125, 36.017857, 35.9375, 36.0625, 36.419643, 36.854168, 37.25, 37.4375, 37.4375, 37.625, 37.6875, 37.84375, 38.21875, 38.53125, 38.78125, 39, 38.9375, 38.9375, 38.9375, 39.1875, 39.5, 39.75, 40, 40, 40.142857, 40.324406, 40.416069, 40.803574, 41.044643, 41.285713, 41.214287, 41.321426, 41.482143, 41.5625, 41.8125, 41.875, 42.0625, 41.883926, 41.473213, 41.547619, 42.458332, 43.10714, 43.46875, 43.53125, 43.6875, 43.78125, 44.138393, 44.28125, 44.34375, 44.383926, 44.5625, 44.75, 44.9375, 45, 45.0625, 45.25, 45.375, 45.625, 45.8125, 45.9375, 46.125, 46.25, 46.5625, 46.723213, 46.964287, 47.4375, 47.5625, 47.875, 47.9375, 48, 48, 48, 48, 48, 48.0625, 48.25, 48.5625, 48.919643, 49.0625, 49.25, 49.375, 49.4375, 49.5625
-10, -10, -10, -10, -10, -10, -10, -10, -10, -10, -10, -10, -10, -10, -10, 43.583332, 43.372021, 43.140625, 42.8125, 42.625, 42.5625, 42.457588, 42.11607, 41.479168, 41.017857, 40.988098, 40.785713, 40.785713, 40.8125, 40.674107, 40.584824, 40.260418, 39.977676, 39.508926, 39.267857, 39.098213, 38.875, 38.901787, 38.8125, 38.625, 38.375, 38.142857, 38.125, 37.955357, 37.586311, 37.464287, 37.15625, 37.03125, 36.602676, 36.111607, 35.875, 35.5625, 35.375, 35.25, 35.0625, 35, 34.9375, 34.8125, 34.5625, 34.196426, 33.529762, 32.904762, 32.67857, 32.8125, 32.9375, 32.910713, 32.642857, 32.446426, 32.3125, 32.223213, 32.089287, 32, 31.741072, 31.4375, 31.0625, 30.598213, 30.4375, 30.1875, 30.125, 29.9375, 29.75, 29.5, 29.25, 29.125, 28.875, 28.625, 28.375, 28.125, 27.875, 27.6875, 27.4375, 27.1875, 26.9375, 26.8125, 26.553572, 25.979166, 25.535713, 25.25, 25.0625, 25.0625, 25.098213, 24.875, 24.517857, 24.178572, 23.90625, 23.71875, 23.65625, 23.5625, 23.375, 23.25, 23.0625, 22.741072, 22.375, 22.1875, 22, 22, 21.75, 21.5, 21.25, 21, 20.8125, 20.6875, 20.5, 20.25, 20.0625, 19.571428, 19.205357, 19, 18.875, 18.803572, 18.5, 18.3125, 18.0625, 17.9375, 17.732143, 17.4375, 17.116072, 16.580357, 16.321428, 16.0625, 16, 16, 15.9375, 15.6875, 15.4375, 15.1875, 15, 14.875, 14.625, 14.392857, 14.1875, 13.982143, 13.604167, 13.321428, 13.125, 12.875, 12.75, 12.5625, 12.223214, 11.928572, 11.6875, 11.4375, 11.3125, 11.125, 11.0625, 11, 10.9375, 10.6875, 10.4375, 10.1875, 9.875, 9.6875, 9.4375, 9.0625, 8.6428566, 8.3125, 7.8928571, 7.8125, 7.8125, 7.625, 7.5, 7.25, 6.875, 6.625, 6.375, 6.125, 6, 5.9375, 5.6875, 5.4375, 5.1875, 5.03125, 5.1875, 5.375, 5.5, 5.46875, 5.3125, 5.125, 5, 4.9375, 4.9375, 4.9375, 4.875, 4.875, 4.875, 4.875, 4.984375, 5.140625, 5.140625, 5.015625, 4.96875, 4.9375, 4.9375, 5.0625, 5.2678571, 5.625, 5.9166665, 6.125, -10, -10, -10, -10, -10, -10, -10, -10, -10, -10, -10, -10, -10, -10, 33.5, 33.4375, 33.53125, 33.625, 33.875, 34, 34, 33.9375, 34.071426, 34.583332, 34.875, 35.1875, 35.375, 35.5, 35.75, 35.875, 36, 36.0625, 36.0625, 36.0625, 36.125, 36.125, 36.3125, 36.5625, 36.75, 37.1875, 37.482143, 37.6875, 37.875, 37.875, 37.96875, 38.21875, 38.53125, 38.78125, 39.0625, 39.125, 39.125, 39.125, 39.3125, 39.4375, 39.6875, 40.0625, 40.232143, 40.4375, 40.419643, 40.287498, 40.732143, 40.901787, 41.160713, 40.964287, 41.035713, 41.357143, 41.455357, 41.714287, 41.75, 41.875, 41.758926, 41.410713, 41.529762, 42.375, 42.98214, 43.28125, 43.34375, 43.455357, 43.822918, 44.272324, 44.40625, 44.46875, 44.4375, 44.4375, 44.6875, 44.875, 45.0625, 45.1875, 45.375, 45.5, 45.6875, 45.8125, 46, 46.25, 46.4375, 46.75, 46.785713, 46.901787, 47.25, 47.34375, 47.6875, 47.8125, 47.9375, 47.96875, 48, 48.0625, 48.125, 48.3125, 48.625, 48.9375, 49.232143, 49.25, 49.3125, 49.375, 49.4375, 49.625, 49.6875, 49.75, 49.875, 50.205353, 50.979164, 51.33036, 51.625, 51.6875, 51.666668, -10, -10, -10, -10, -10, -10, -10, -10, -10, -10, -10, -10, -10, -10, -10, -10, -10, -10, -10, -10, -10, -10, -10, -10, -10, -10, -10, -10, -10, -10, -10, -10, -10, -10, -10, -10, -10, -10, -10, -10, -10, -10, -10, -10, -10, -10, -10, -10, 43.666668, 43.309521, 43.182293, 42.9375, 42.875, 42.758926, 42.395088, 42.00893, 41.385418, 40.924107, 40.831848, 40.464287, 40.357143, 40.375, 40.236607, 40.15625, 40.09375, 39.90625, 39.446426, 39.142857, 38.973213, 38.8125, 39, 39, 38.857143, 38.416668, 38.089287, 38, 37.830357, 37.434525, 37.339287, 37.125, 37.0625, 36.821426, 36.392857, 36.1875, 35.875, 35.5625, 35.4375, 35.25, 35.125, 35.0625, 34.8125, 34.5, 34.071426, 33.395832, 33.071426, 32.883926, 33, 33.0625, 33.035713, 32.705357, 32.446426, 32.205357, 32.035713, 31.839287, 31.75, 31.491072, 31.3125, 31.0625, 30.767857, 30.6875, 30.375, 30.25, 30, 29.75, 29.5, 29.25, 29.125, 28.875, 28.625, 28.375, 28.125, 27.9375, 27.75, 27.5, 27.25, 26.9375, 26.75, 26.491072, 25.979166, 25.642857, 25.4375, 25.25, 25.1875, 25.160713, 24.8125, 24.455357, 24.116072, 23.90625, 23.84375, 23.71875, 23.625, 23.4375, 23.25, 23.1875, 22.866072, 22.3125, 22.1875, 21.875, 21.875, 21.625, 21.375, 21.1875, 21, 20.8125, 20.6875, 20.5, 20.1875, 20, 19.508928, 19.080357, 18.875, 18.6875, 18.553572, 18.3125, 18.1875, 18.0625, 18, 17.857143, 17.625, 17.303572, 16.830357, 16.508928, 16.1875, 16.0625, 16, 15.875, 15.625, 15.375, 15.125, 15, 14.875, 14.5625, 14.267857, 14.0625, 13.857143, 13.604167, 13.383928, 13.1875, 12.875, 12.625, 12.4375, 12.160714, 11.901786, 11.625, 11.3125, 11.125, 11, 11, 11, 11, 10.75, 10.5, 10.1875, 9.8125, 9.625, 9.375, 9.125, 8.7053566, 8.375, 7.9553571, 7.8125, 7.8125, 7.625, 7.5, 7.25, 6.9375, 6.6875, 6.4375, 6.1875, 6, 5.875, 5.625, 5.375, 5.125, 5.03125, 5.125, 5.25, 5.375, 5.34375, 5.25, 5.125, 5, 4.9375, 4.9375, 4.9375, 4.875, 4.875, 4.875, 4.875, 4.984375, 5.140625, 5.140625, 5.015625, 4.9375, 4.84375, 4.84375, 4.96875, 5.2767859, 6.0416665, 6.1458335, 6.2738094, 6.1999998, -10, -10, -10, -10, -10, -10, -10, -10, -10, -10, -10, -10, -10, -10, 33.28125, 33.458332, 33.53125, 33.78125, 33.9375, 33.9375, 33.9375, 34, 34.3125, 34.642857, 35.0625, 35.4375, 35.625, 35.875, 35.90625, 35.90625, 35.90625, 35.90625, 35.9375, 36.0625, 36.125, 36.321426, 36.6875, 36.8125, 37.25, 37.544643, 37.8125, 38.0625, 38.0625, 38.125, 38.3125, 38.5625, 38.875, 39.1875, 39.3125, 39.3125, 39.3125, 39.4375, 39.5, 39.75, 40.125, 40.357143, 40.5, 40.544643, 40.349998, 40.732143, 40.964287, 41.035713, 40.714287, 40.764881, 41.336311, 41.464287, 41.714287, 41.6875, 41.6875, 41.660713, 41.517857, 41.675598, 42.416668, 42.85714, 43.09375, 43.09375, 43.142857, 43.572918, 44.09375, 44.316963, 44.40625, 44.5, 44.4375, 44.6875, 44.875, 45.0625, 45.25, 45.375, 45.4375, 45.571426, 45.8125, 46.0625, 46.4375, 46.625, 46.9375, 46.848213, 46.866074, 47.035713, 47.15625, 47.5625, 47.75, 47.9375, 47.90625, 47.875, 47.90625, 47.96875, 48.28125, 48.71875, 49.020832, 49.144642, 49.25, 49.241074, 49.3125, 49.375, 49.5625
-10, -10, -10, -10, -10, -10, -10, -10, -10, -10, -10, -10, -10, -10, -10, -10, 43.041664, 43.010418, 42.875, 42.875, 42.758926, 42.410713, 42.080357, 41.65625, 41.090775, 40.665176, 40.28125, 40.1875, 40.1875, 40.21875, 40.21875, 40.15625, 39.96875, 39.633926, 39.330357, 39.0625, 38.9375, 39.0625, 39.1875, 39.107143, 38.666668, 38.339287, 38.125, 37.892857, 37.372025, 37.151787, 37, 37, 36.9375, 36.625, 36.375, 36.0625, 35.75, 35.625, 35.5, 35.3125, 35.1875, 34.875, 34.5625, 34.1875, 33.8125, 33.5625, 33.3125, 33.1875, 33.1875, 33.035713, 32.705357, 32.4375, 31.997025, 31.86607, 31.714287, 31.6875, 31.5, 31.5, 31.232143, 30.919643, 30.8125, 30.4375, 30.3125, 30, 29.6875, 29.4375, 29.1875, 29.0625, 28.8125, 28.5625, 28.25, 27.8125, 27.75, 27.5625, 27.4375, 27.25, 26.875, 26.625, 26.375, 26.0625, 25.892857, 25.8125, 25.5625, 25.375, 25.1875, 24.75, 24.4375, 24.116072, 23.90625, 23.84375, 23.65625, 23.5, 23.3125, 23.125, 23.1875, 22.991072, 22.4375, 22.196428, 21.767857, 21.6875, 21.4375, 21.25, 21.125, 20.9375, 20.75, 20.625, 20.4375, 20.125, 19.875, 19.383928, 18.955357, 18.8125, 18.625, 18.428572, 18.1875, 18.0625, 18, 18.0625, 17.919643, 17.6875, 17.366072, 16.830357, 16.508928, 16.1875, 16.0625, 16, 15.8125, 15.5625, 15.3125, 15.0625, 15, 14.9375, 14.625, 14.267857, 14, 13.75, 13.6875, 13.5, 13.3125, 12.875, 12.5, 12.3125, 12.035714, 11.776786, 11.5625, 11.25, 11.0625, 11, 11, 11, 10.9375, 10.6875, 10.4375, 10.125, 9.75, 9.5, 9.25, 9.0625, 8.8125, 8.5, 8.0803566, 7.875, 7.8125, 7.625, 7.5, 7.25, 7, 6.75, 6.5, 6.25, 6, 5.875, 5.625, 5.375, 5.125, 5, 5.0625, 5.125, 5.1875, 5.1875, 5.125, 5.0625, 5, 5, 5, 5, 5, 5, 5, 5.0625, 5.078125, 5.078125, 5.015625, 4.828125, 4.78125, 4.78125, 4.84375, 4.96875, 5.2053571, 5.8988094, 6.2458334, 6.2053571, 6.2666664, -10, -10, -10, -10, -10, -10, -10, -10, -10, -10, -10, -10, -10, -10, 33.0625, 33.314583, 33.482143, 33.741074, 33.9375, 33.9375, 33.9375, 33.9375, 34.125, 34.357143, 34.821426, 35.458332, 35.741074, 36, 36, 36, 36, 36, 36, 36.0625, 36.125, 36.321426, 36.6875, 36.875, 37.3125, 37.607143, 37.875, 38.0625, 38.0625, 38.125, 38.3125, 38.5625, 38.875, 39.1875, 39.3125, 39.3125, 39.375, 39.5, 39.5625, 39.8125, 40.125, 40.357143, 40.5, 40.544643, 40.318748, 40.638393, 40.825893, 40.879463, 40.526787, 40.48988, 41.202381, 41.330357, 41.651787, 41.625, 41.5625, 41.6875, 41.6875, 41.883926, 42.479168, 42.758926, 42.875, 42.8125, 42.830357, 43.291668, 43.875, 44.160713, 44.3125, 44.4375, 44.375, 44.625, 44.8125, 45, 45.3125, 45.375, 45.4375, 45.571426, 45.75, 46.0625, 46.5, 46.6875, 47, 46.910713, 46.866074, 46.973213, 47.09375, 47.5, 47.6875, 47.9375, 47.84375, 47.75, 47.65625, 47.683037, 48.138393, 48.584824, 48.833332, 48.787498, 48.90625, 48.928574, 49.125, 49.375, 49.65625, 49.8125, 49.9375, 50, 50.267853, 50.979164, 51.401787, 51.6875, 51.75, 52, -10, -10, -10, -10, -10, -10, -10, -10, -10, -10, -10, -10, -10, -10, -10, -10, -10, -10, -10, -10, -10, -10, -10, -10, -10, -10, -10, -10, -10, -10, -10, -10, -10, -10, -10, -10, -10, -10, -10, -10, -10, -10, -10, -10, -10, -10, -10, -10, -10, 42.944443, 42.972225, 42.916668, 43, 42.821426, 42.379463, 42.107143, 41.78125, 41.385418, 41.040176, 40.65625, 40.5, 40.375, 40.28125, 40.21875, 40.09375, 40.03125, 39.919643, 39.580357, 39.321426, 39.0625, 39.0625, 39.125, 39.044643, 38.729168, 38.464287, 38.1875, 37.910713, 37.455357, 37.133926, 37, 36.875, 36.8125, 36.5625, 36.3125, 36.125, 35.875, 35.8125, 35.75, 35.5, 35.3125, 35, 34.6875, 34.375, 34, 33.714287, 33.5, 33.3125, 33.25, 33, 32.75, 32.491074, 31.997025, 31.892857, 31.75, 31.6875, 31.5, 31.4375, 31.169643, 30.901787, 30.8125, 30.4375, 30.3125, 30, 29.6875, 29.4375, 29.1875, 29.0625, 28.75, 28.5, 28.1875, 27.6875, 27.5625, 27.205357, 27.125, 26.9375, 26.625, 26.4375, 26.1875, 26, 25.9375, 25.875, 25.625, 25.375, 25.1875, 24.75, 24.4375, 24.116072, 23.84375, 23.78125, 23.59375, 23.375, 23.25, 23.0625, 23.125, 22.991072, 22.5, 22.258928, 21.830357, 21.6875, 21.375, 21.1875, 21.0625, 20.875, 20.625, 20.4375, 20.25, 19.9375, 19.6875, 19.258928, 18.830357, 18.75, 18.625, 18.4375, 18.3125, 18.125, 18.0625, 18.0625, 17.919643, 17.6875, 17.366072, 16.830357, 16.508928, 16.1875, 16.0625, 15.9375, 15.6875, 15.5, 15.25, 15.0625, 15.0625, 14.9375, 14.6875, 14.4375, 14.125, 13.9375, 13.875, 13.625, 13.4375, 12.9375, 12.5, 12.3125, 12.035714, 11.776786, 11.5625, 11.25, 11.0625, 11, 11, 11, 10.875, 10.625, 10.375, 10.0625, 9.75, 9.5, 9.25, 9.0625, 8.8125, 8.5625, 8.25, 8, 7.9375, 7.75, 7.625, 7.375, 7.125, 6.8125, 6.5, 6.25, 6, 5.8125, 5.5625, 5.3125, 5.0625, 5, 5, 4.9375, 4.9375, 4.9375, 4.9375, 5, 5, 5, 5, 5.0625, 5.0625, 5.0625, 5.0625, 5.125, 5.125, 5.09375, 5.03125, 4.84375, 4.8125, 4.84375, 4.90625, 4.96875, 5.1428571, 5.8363094, 6.1833334, 6.1428571, 6.1999998, -10, -10, -10, -10, -10, -10, -10, -10, -10, -10, -10, -10, -10, -10, 32.75, 33.058334, 33.325893, 33.584824, 33.875, 33.8125, 33.875, 33.875, 34, 34.263393, 34.665176, 35.302082, 35.647324, 35.9375, 36, 36, 36, 36, 36, 36, 36.0625, 36.258926, 36.5625, 36.875, 37.3125, 37.607143, 37.9375, 38.0625, 38.0625, 38.125, 38.3125, 38.5625, 38.875, 39.1875, 39.3125, 39.3125, 39.375, 39.4375, 39.4375, 39.6875, 39.9375, 40.169643, 40.3125, 40.366074, 40.268749, 40.522324, 40.700893, 40.84375, 40.625, 40.48988, 41.157738, 41.142857, 41.464287, 41.5, 41.5625, 41.8125, 41.875, 42.125, 42.4375, 42.625, 42.6875, 42.5625, 42.580357, 43.081844, 43.78125, 44.066963, 44.21875, 44.25, 44.25, 44.5625, 44.8125, 44.892857, 45.142857, 45.1875, 45.419643, 45.571426, 45.8125, 46.0625, 46.375, 46.5625, 46.8125, 46.8125, 46.901787, 47.035713, 47.21875, 47.5625, 47.75, 47.9375, 47.78125, 47.625, 47.53125, 47.558037, 48.013393, 48.522324, 48.708332, 48.662498, 48.84375, 48.866074, 49.125, 49.4375, 49.71875
-10, -10, -10, -10, -10, -10, -10, -10, -10, -10, -10, -10, -10, -10, -10, -10, -10, -10, -10, -10, 42.633926, 42.177082, 42.026787, 41.78125, 41.71875, 41.40625, 41.03125, 40.8125, 40.625, 40.5625, 40.491074, 40.1875, 40.125, 40.044643, 39.830357, 39.61607, 39.145832, 38.991074, 39.0625, 39.044643, 38.791668, 38.589287, 38.1875, 37.875, 37.5, 37.1875, 37.0625, 36.875, 36.8125, 36.5625, 36.25, 36.026787, 35.875, 35.875, 35.875, 35.625, 35.4375, 35.125, 34.8125, 34.5625, 34.1875, 33.839287, 33.625, 33.375, 33.25, 33.0625, 32.8125, 32.491074, 31.934525, 31.767857, 31.625, 31.6875, 31.625, 31.5625, 31.294643, 30.901787, 30.6875, 30.3125, 30.125, 29.9375, 29.6875, 29.4375, 29.1875, 29, 28.75, 28.5, 28.25, 27.75, 27.5625, 27.205357, 27.1875, 27, 26.75, 26.625, 26.3125, 26.125, 25.9375, 25.75, 25.5, 25.25, 25.125, 24.75, 24.5, 24.25, 23.875, 23.75, 23.5, 23.25, 23.1875, 23.0625, 23.125, 23.0625, 22.6875, 22.383928, 21.955357, 21.625, 21.3125, 21.125, 21, 20.8125, 20.5625, 20.3125, 20.0625, 19.75, 19.5, 19.25, 18.9375, 18.875, 18.75, 18.5625, 18.375, 18.1875, 18.0625, 17.9375, 17.75, 17.5625, 17.25, 16.875, 16.5625, 16.25, 16.0625, 15.875, 15.625, 15.4375, 15.1875, 15.0625, 15.0625, 14.875, 14.625, 14.375, 14.0625, 13.9375, 13.9375, 13.6875, 13.5, 13.0625, 12.5625, 12.3125, 12.0625, 11.8125, 11.625, 11.375, 11.125, 11.0625, 11, 11, 10.8125, 10.5625, 10.3125, 10, 9.8125, 9.5625, 9.3125, 9.0625, 8.75, 8.5, 8.25, 8.0625, 8, 7.875, 7.6875, 7.4375, 7.1875, 6.875, 6.5625, 6.3125, 6.0625, 5.75, 5.5, 5.25, 5, 5, 5.0714283, 5.2708335, 5.3660717, 5.2142859, 5.3660717, 5.1666665, 5.0714283, 5, 5.0714283, 5.3125, 5.3125, 5.375, 5.3125, 5.375, 5.375, 5.28125, 5.15625, 4.96875, 4.9776783, 5.1374998, 5.0714283, 5.1428571, 5.1964283, 5.7738094, 6.1833334, 6.0803571, 6.1999998, -10, -10, -10, -10, -10, -10, -10, -10, -10, -10, -10, -10, -10, -10, 32.5, 32.833332, 33.241074, 33.544643, 33.875, 33.8125, 33.9375, 34, 34.125, 34.34375, 34.665176, 35.177082, 35.522324, 35.8125, 35.9375, 36, 36, 36, 36, 36, 36.125, 36.383926, 36.75, 37.0625, 37.4375, 37.625, 37.875, 37.9375, 37.9375, 38, 38.25, 38.5625, 38.875, 39.125, 39.1875, 39.1875, 39.25, 39.3125, 39.375, 39.625, 39.8125, 40.0625, 40.25, 40.375, 40.46875, 40.59375, 40.84375, 40.96875, 40.875, 40.704166, 40.970238, 40.9375, 41.25, 41.553574, 41.857143, 42.125, 42.1875, 42.375, 42.5625, 42.6875, 42.8125, 42.6875, 42.6875, 42.977676, 43.584824, 43.879463, 44.09375, 44.125, 44.125, 44.375, 44.625, 44.705357, 44.955357, 45.0625, 45.294643, 45.508926, 45.8125, 46, 46.25, 46.4375, 46.6875, 46.8125, 46.964287, 47.098213, 47.3125, 47.625, 47.8125, 48, 47.875, 47.660713, 47.433037, 47.433037, 47.700893, 48.209824, 48.458332, 48.474998, 48.78125, 48.866074, 49.125, 49.4375, 49.71875, 49.875, 50, 50, 50.125, 50.375, 50.669643, 50.875, 51, -10, -10, -10, -10, -10, -10, -10, -10, -10, -10, -10, -10, -10, -10, -10, -10, -10, -10, -10, -10, -10, -10, -10, -10, -10, -10, -10, -10, -10, -10, -10, -10, -10, -10, -10, -10, -10, -10, -10, -10, -10, -10, -10, -10, -10, -10, -10, -10, -10, -10, -10, -10, -10, -10, 42.4375, 42.197914, 42.089287, 41.875, 41.8125, 41.5625, 41.25, 41.0625, 40.875, 40.8125, 40.669643, 40.1875, 40.125, 39.982143, 39.830357, 39.61607, 39.145832, 38.928574, 38.9375, 38.9375, 38.875, 38.767857, 38.5, 38.1875, 37.75, 37.330357, 37.125, 36.875, 36.8125, 36.5625, 36.3125, 36.07143, 35.830357, 35.758926, 35.6875, 35.4375, 35.25, 35.0625, 34.8125, 34.625, 34.3125, 33.901787, 33.6875, 33.4375, 33.25, 33.0625, 32.8125, 32.553574, 32.104164, 31.955357, 31.875, 31.875, 31.75, 31.5625, 31.232143, 30.839287, 30.5625, 30.25, 30.0625, 29.875, 29.625, 29.375, 29.125, 28.9375, 28.8125, 28.5625, 28.3125, 27.8125, 27.5625, 27.205357, 27.1875, 27, 26.8125, 26.6875, 26.375, 26.1875, 25.875, 25.625, 25.3125, 25, 24.9375, 24.625, 24.4375, 24.25, 23.8125, 23.6875, 23.4375, 23.125, 23.0625, 22.9375, 23, 23, 22.8125, 22.446428, 22.080357, 21.75, 21.5, 21.3125, 21.125, 20.875, 20.625, 20.375, 20.125, 19.8125, 19.5, 19.25, 19, 19, 18.9375, 18.8125, 18.5625, 18.3125, 18.125, 17.9375, 17.6875, 17.5, 17.1875, 16.75, 16.455357, 16.25, 16.0625, 15.875, 15.651786, 15.4375, 15.1875, 15.1875, 15.098214, 14.767857, 14.508928, 14.25, 14, 13.9375, 13.875, 13.625, 13.4375, 13.0625, 12.625, 12.375, 12.125, 11.875, 11.6875, 11.4375, 11.1875, 11.0625, 11, 10.9375, 10.6875, 10.4375, 10.125, 9.875, 9.8125, 9.5625, 9.375, 9.125, 8.75, 8.5, 8.25, 8.0625, 8, 7.9375, 7.75, 7.5, 7.25, 6.9375, 6.625, 6.375, 6.125, 5.8125, 5.625, 5.46875, 5.34375, 5.40625, 5.6026783, 5.8333335, 5.9285717, 6.375, 5.9285717, 5.7023807, 5.4642859, 5.3928571, 5.4464283, 5.75, 5.8125, 5.875, 5.8125, 5.875, 5.8125, 5.71875, 5.59375, 5.40625, 5.4776783, 5.6374998, 5.5089283, 5.5803571, 5.5625, 5.7946429, 6.2249999, 6.1875, 6.1333332, -10, -10, -10, -10, -10, -10, -10, -10, -10, -10, -10, -10, -10, -10, 32.25, 32.599998, 33.261902, 33.598213, 33.9375, 33.875, 33.9375, 34.0625, 34.25, 34.504463, 34.727676, 35.114582, 35.397324, 35.6875, 35.875, 36, 36, 36, 36, 36.0625, 36.25, 36.5, 36.75, 37.0625, 37.375, 37.625, 37.875, 37.9375, 37.9375, 37.9375, 38.125, 38.4375, 38.6875, 38.9375, 39, 39.0625, 39.1875, 39.3125, 39.4375, 39.625, 39.8125, 40.0625, 40.3125, 40.4375, 40.53125, 40.65625, 40.84375, 41.03125, 41.0625, 40.912498, 40.959824, 40.959824, 41.28125, 41.709824, 42.044643, 42.25, 42.25, 42.375, 42.5625, 42.75, 42.9375, 42.875, 42.875, 43.102676, 43.53125, 43.78125, 43.96875, 43.9375, 44, 44.1875, 44.5, 44.580357, 44.830357, 45, 45.263393, 45.53125, 45.71875, 45.96875, 46.1875, 46.4375, 46.6875, 46.875, 47, 47.0625, 47.3125, 47.5625, 47.8125, 48, 48, 47.848213, 47.651787, 47.651787, 47.732143, 48.053574, 48.3125, 48.5, 48.71875, 49, 49.25, 49.5625, 49.84375
-10, -10, -10, -10, -10, -10, -10, -10, -10, -10, -10, -10, -10, -10, -10, -10, -10, -10, -10, -10, 42.5, 42.25, 42.151787, 41.9375, 41.9375, 41.8125, 41.553574, 41.1875, 41, 40.875, 40.732143, 40.25, 40.1875, 39.982143, 39.892857, 39.67857, 39.208332, 38.910713, 38.714287, 38.75, 38.75, 38.875, 38.678574, 38.3125, 37.928574, 37.285713, 37.080357, 36.8125, 36.8125, 36.625, 36.375, 36.13393, 35.830357, 35.758926, 35.616074, 35.25, 35.125, 34.9375, 34.75, 34.5625, 34.1875, 33.714287, 33.5, 33.25, 33.125, 32.9375, 32.6875, 32.4375, 32.125, 32, 31.9375, 31.8125, 31.6875, 31.4375, 31.125, 30.875, 30.5625, 30.3125, 30.0625, 29.875, 29.625, 29.375, 29.125, 28.9375, 28.875, 28.625, 28.375, 27.955357, 27.625, 27.267857, 27.1875, 27, 26.8125, 26.6875, 26.375, 26.25, 25.9375, 25.6875, 25.4375, 25.053572, 24.875, 24.625, 24.375, 24.25, 23.8125, 23.6875, 23.5, 23.25, 23.1875, 23.0625, 23, 22.875, 22.6875, 22.4375, 22.1875, 21.9375, 21.75, 21.5, 21.25, 21, 20.6875, 20.4375, 20.1875, 19.8125, 19.5, 19.25, 19.0625, 19.0625, 19, 18.729166, 18.5, 18.25, 18.125, 17.875, 17.625, 17.4375, 17.125, 16.75, 16.517857, 16.375, 16.1875, 15.9375, 15.678572, 15.5, 15.25, 15.3125, 15.160714, 14.767857, 14.508928, 14.25, 14, 13.9375, 13.875, 13.625, 13.4375, 13.0625, 12.625, 12.375, 12.125, 11.9375, 11.75, 11.5, 11.25, 11.0625, 10.9375, 10.8125, 10.5625, 10.3125, 10, 9.75, 9.6875, 9.4375, 9.3125, 9.0625, 8.625, 8.375, 8.125, 8, 8, 8, 7.875, 7.625, 7.375, 7.0625, 6.8125, 6.6875, 6.5, 6.3392859, 6.0612249, 5.9948983, 5.9642859, 6, 6.6887751, 6.916667, 6.954082, 7.0357141, 6.954082, 6.6598635, 6.2767859, 6.2053571, 6.2589283, 6.625, 6.625, 6.625, 6.4553571, 6.4375, 6.375, 6.375, 6.375, 6.25, 6.5816321, 6.7999997, 6.4255953, 5.7738094, 5.75, 5.9166665, 6.1666665, 6.25, -10, -10, -10, -10, -10, -10, -10, -10, -10, -10, -10, -10, -10, -10, -10, 32.291668, 32.614285, 33.261902, 33.598213, 33.9375, 33.875, 33.9375, 34.125, 34.375, 34.691963, 34.90625, 35.03125, 35.25, 35.53125, 35.78125, 35.96875, 36, 36.0625, 36.125, 36.25, 36.5, 36.6875, 36.9375, 37.1875, 37.4375, 37.6875, 37.875, 37.9375, 37.9375, 37.9375, 38.0625, 38.375, 38.625, 38.875, 39, 39.0625, 39.125, 39.25, 39.375, 39.5625, 39.875, 40.125, 40.375, 40.5, 40.5625, 40.6875, 40.8125, 41, 41.0625, 41.0625, 41.09375, 41.15625, 41.40625, 41.834824, 42.107143, 42.1875, 42.25, 42.375, 42.5625, 42.8125, 43, 43, 43, 43.258926, 43.625, 43.8125, 43.9375, 43.875, 43.9375, 44.0625, 44.4375, 44.517857, 44.705357, 44.9375, 45.200893, 45.46875, 45.71875, 45.96875, 46.125, 46.3125, 46.5, 46.625, 46.8125, 46.9375, 47.25, 47.5625, 47.8125, 48, 48.0625, 47.973213, 47.901787, 47.9375, 47.875, 48.125, 48.375, 48.625, 48.875, 49.25, 49.5, 49.75, 50, 50, 50, 50, 50, 50.0625, 50.1875, 50.375, 50.5, -10, -10, -10, -10, -10, -10, -10, -10, -10, -10, -10, -10, -10, -10, -10, -10, -10, -10, -10, -10, -10, -10, -10, -10, -10, -10, -10, -10, -10, -10, -10, -10, -10, -10, -10, -10, -10, -10, -10, -10, -10, -10, -10, -10, -10, -10, -10, -10, -10, -10, -10, -10, -10, -10, 42.5, 42.333332, 42.25, 42, 42, 41.875, 41.616074, 41.25, 41.125, 41.0625, 40.866074, 40.208332, 40.0625, 39.8125, 40, 39.794643, 39.458332, 39.223213, 38.964287, 39, 38.875, 38.875, 38.678574, 38.3125, 37.928574, 37.285713, 37.080357, 36.875, 36.875, 36.6875, 36.4375, 36.13393, 35.830357, 35.821426, 35.678574, 35.3125, 35.142857, 34.9375, 34.6875, 34.5, 34.125, 33.625, 33.375, 33.125, 33, 32.9375, 32.75, 32.5, 32.125, 31.901787, 31.9375, 31.8125, 31.642857, 31.383928, 31.0625, 30.9375, 30.6875, 30.419643, 29.979166, 29.830357, 29.5625, 29.375, 29.1875, 28.9375, 28.9375, 28.6875, 28.375, 27.910713, 27.6875, 27.4375, 27.375, 27.1875, 26.875, 26.6875, 26.375, 26.3125, 26.0625, 25.8125, 25.446428, 25.017857, 24.8125, 24.5625, 24.375, 24.25, 23.8125, 23.75, 23.5625, 23.375, 23.3125, 23.125, 23.0625, 22.8125, 22.5625, 22.3125, 22.0625, 21.875, 21.75, 21.5, 21.25, 21.0625, 20.75, 20.5625, 20.3125, 19.875, 19.517857, 19.25, 19.0625, 19.0625, 18.9375, 18.666666, 18.4375, 18.1875, 18.125, 17.875, 17.625, 17.4375, 17.1875, 16.875, 16.642857, 16.5, 16.25, 15.9375, 15.678572, 15.4375, 15.1875, 15.25, 15.098214, 14.830357, 14.571428, 14.3125, 14.125, 14, 13.875, 13.625, 13.375, 13.0625, 12.75, 12.5, 12.25, 12, 11.75, 11.5, 11.25, 11.0625, 10.9375, 10.75, 10.5625, 10.3125, 10, 9.8125, 9.6875, 9.4375, 9.3125, 9.0625, 8.625, 8.4375, 8.1875, 8.0625, 8.125, 8.0625, 7.9375, 7.75, 7.4285717, 7.1125002, 7.1875, 7.1964283, 7.1875, 7.3520408, 7.8095241, 7.8839288, 7.9791665, 7.8541665, 7.6479592, 7.5833335, 7.6160717, 7.8125, 7.8035717, 7.7789116, 7.6326528, 7.5204082, 7.5408163, 7.7857141, 7.7857141, 7.5625, 7.3928571, 7.375, 7.25, 7.4642859, 7.5714288, 7.5765305, 7.7551017, 7.9238091, 7.2238097, -10, -10, -10, -10, -10, -10, -10, -10, -10, -10, -10, -10, -10, -10, -10, -10, -10, -10, -10, 33, 32.395836, 32.678574, 33.369049, 33.714287, 34, 34, 34, 34.25, 34.5625, 34.848213, 35.0625, 35.0625, 35.21875, 35.46875, 35.71875, 35.96875, 36, 36.125, 36.25, 36.4375, 36.6875, 36.8125, 37.0625, 37.25, 37.5, 37.75, 37.875, 37.9375, 37.9375, 37.9375, 38, 38.3125, 38.5625, 38.8125, 39, 39.0625, 39.125, 39.1875, 39.339287, 39.607143, 39.928574, 40.1875, 40.375, 40.5, 40.5625, 40.6875, 40.8125, 40.9375, 41, 41, 41.03125, 41.15625, 41.34375, 41.772324, 42.044643, 42.125, 42.3125, 42.4375, 42.625, 42.875, 43, 43.0625, 43.125, 43.375, 43.625, 43.8125, 43.875, 43.875, 43.875, 43.875, 44.25, 44.5625, 44.848213, 45.0625, 45.15625, 45.34375, 45.59375, 45.90625, 46.125, 46.25, 46.375, 46.508926, 46.895832, 46.982143, 47.25, 47.4375, 47.5625, 47.8125, 47.9375, 47.973213, 47.964287, 48, 48.008926, 48.262501, 48.392857, 48.6875, 48.8125, 49.25, 49.5, 49.75, 50.0625
-10, -10, -10, -10, -10, -10, -10, -10, -10, -10, -10, -10, -10, -10, -10, -10, -10, -10, -10, -10, 42.625, 42.416668, 42.3125, 42.0625, 42, 41.9375, 41.678574, 41.3125, 41.25, 41.1875, 41.044643, 40.375, 40.133926, 39.8125, 39.875, 39.625, 39.5, 39.357143, 39.089287, 39.125, 39, 38.9375, 38.741074, 38.375, 37.928574, 37.285713, 37.080357, 36.875, 36.803574, 36.5, 36.375, 36.107143, 35.892857, 35.883926, 35.678574, 35.3125, 35.142857, 34.9375, 34.6875, 34.5, 34.0625, 33.5625, 33.3125, 33.0625, 33, 32.9375, 32.8125, 32.5625, 32.25, 32.026787, 32.0625, 31.919643, 31.535713, 31.267857, 30.875, 30.875, 30.75, 30.482143, 30.104166, 29.785713, 29.5, 29.3125, 29.1875, 29, 29, 28.75, 28.3125, 27.8125, 27.5625, 27.3125, 27.25, 27, 26.6875, 26.4375, 26.1875, 26.1875, 26.0625, 25.875, 25.508928, 25.080357, 24.8125, 24.553572, 24.25, 24.1875, 23.8125, 23.875, 23.6875, 23.5, 23.375, 23.0625, 22.9375, 22.625, 22.375, 22.1875, 22, 21.875, 21.75, 21.5, 21.25, 21.125, 20.8125, 20.625, 20.375, 19.9375, 19.580357, 19.3125, 19.125, 19.0625, 18.9375, 18.604166, 18.375, 18.125, 18.0625, 17.875, 17.625, 17.4375, 17.1875, 16.9375, 16.705357, 16.5625, 16.3125, 16, 15.803572, 15.625, 15.375, 15.375, 15.160714, 14.892857, 14.633928, 14.375, 14.1875, 14, 13.8125, 13.5625, 13.3125, 13, 12.8125, 12.625, 12.375, 12.0625, 11.642857, 11.375, 11.125, 11, 10.9375, 10.75, 10.625, 10.4375, 10.125, 9.9375, 9.75, 9.5, 9.4375, 9.3125, 9, 8.8125, 8.625, 8.5, 8.5625, 8.5625, 8.4375, 8.3125, 7.8112249, 7.4857144, 7.9375, 8.0089283, 8.3214283, 8.530612, 8.7653065, 8.8647966, 8.9821424, 8.875, 8.53125, 8.5, 8.4375, 8.5625, 8.8214283, 8.8775511, 8.9387751, 8.8673468, 8.8571424, 8.8928576, 8.7857141, 8.7142859, 8.6632652, 8.7142859, 8.333333, 8.458333, 8.8928576, 8.9336729, 9.0714283, 9.1428576, -10, -10, -10, -10, -10, -10, -10, -10, -10, -10, -10, -10, -10, -10, -10, -10, -10, -10, -10, -10, 33, 32.500004, 32.742859, 33.297619, 33.452381, 33.928574, 33.928574, 34, 34.25, 34.5625, 34.848213, 35.0625, 35.0625, 35.21875, 35.46875, 35.71875, 35.96875, 36, 36.1875, 36.375, 36.625, 36.875, 36.9375, 37.125, 37.3125, 37.5, 37.75, 37.875, 37.9375, 38, 38, 38, 38.25, 38.5, 38.75, 39, 39.0625, 39.125, 39.21875, 39.433037, 39.700893, 40.022324, 40.25, 40.3125, 40.4375, 40.5, 40.625, 40.8125, 40.875, 40.964287, 41.035713, 41.09375, 41.28125, 41.34375, 41.65625, 41.8125, 42, 42.25, 42.455357, 42.857143, 43.116074, 43.1875, 43.1875, 43.25, 43.4375, 43.6875, 43.875, 43.875, 43.9375, 44, 44.0625, 44.4375, 44.6875, 44.910713, 45.0625, 45.09375, 45.28125, 45.53125, 45.84375, 46.125, 46.25, 46.375, 46.508926, 46.958332, 47.044643, 47.28125, 47.4375, 47.5, 47.75, 47.84375, 47.9375, 48, 48.0625, 48.196426, 48.387501, 48.517857, 48.75, 48.8125, 49.25, 49.5, 49.75, 50.0625, 50.1875, 50.1875, 50.1875, 50.125, 50.125, 50.34375, 50.625, 50.833332, -10, -10, -10, -10, -10, -10, -10, -10, -10, -10, -10, -10, -10, -10, -10, -10, -10, -10, -10, -10, -10, -10, -10, -10, -10, -10, -10, -10, -10, -10, -10, -10, -10, -10, -10, -10, -10, -10, -10, -10, -10, -10, -10, -10, -10, -10, -10, -10, -10, -10, -10, -10, -10, -10, 42.625, 42.416668, 42.3125, 42.0625, 42, 42, 41.741074, 41.375, 41.3125, 41.1875, 41.11607, 40.5625, 40.258926, 40, 40, 39.8125, 39.6875, 39.482143, 39.089287, 39, 38.875, 38.723213, 38.455357, 38.1875, 37.741074, 37.267857, 37.080357, 36.875, 36.732143, 36.229168, 36.080357, 35.875, 35.875, 35.9375, 35.741074, 35.375, 35.205357, 35, 34.8125, 34.5625, 34.0625, 33.517857, 33.25, 33, 33, 32.9375, 32.875, 32.6875, 32.375, 32.151787, 32.125, 31.919643, 31.535713, 31.267857, 30.8125, 30.75, 30.625, 30.357143, 29.979166, 29.660713, 29.375, 29.1875, 29.125, 29, 28.9375, 28.6875, 28.25, 27.75, 27.5, 27.25, 27.1875, 26.9375, 26.6875, 26.4375, 26.1875, 26.1875, 26.125, 26, 25.696428, 25.330357, 25, 24.741072, 24.375, 24.25, 23.9375, 23.9375, 23.8125, 23.625, 23.4375, 23.125, 22.9375, 22.625, 22.375, 22.1875, 22, 21.875, 21.75, 21.5625, 21.3125, 21.125, 20.705357, 20.5, 20.25, 19.9375, 19.642857, 19.375, 19.1875, 19.0625, 18.875, 18.479166, 18.25, 18, 18, 17.875, 17.625, 17.375, 17.125, 16.9375, 16.8125, 16.625, 16.375, 16.0625, 15.839286, 15.75, 15.5625, 15.4375, 15.25, 15.0625, 14.75, 14.5, 14.25, 14, 13.8125, 13.5625, 13.3125, 12.9375, 12.8125, 12.625, 12.375, 12.125, 11.705357, 11.4375, 11.1875, 11.0625, 10.9375, 10.8125, 10.75, 10.625, 10.4375, 10.375, 10.25, 10.0625, 10, 9.8125, 9.5, 9.3125, 9.0625, 8.9375, 9.0625, 9.3367357, 9.125, 9.25, 9.2023811, 8.9916668, 9.1071424, 9.2959185, 9.4285717, 9.5510206, 9.5446434, 9.5535717, 9.625, 9.5625, 9.375, 9.375, 9.6428576, 9.8571424, 9.9285717, 10, 10.035714, 9.8928576, 9.8928576, 9.625, 9.5, 9.7142859, 9.7653065, 9.8571424, 10.041667, 10.083333, 9.9285717, 9.969388, 10.035714, 10.071428, -10, -10, -10, -10, -10, -10, -10, -10, -10, -10, -10, -10, -10, -10, -10, -10, -10, -10, -10, -10, 33, 32.666668, 32.76786, 33.089287, 33.211311, 33.785713, 33.866074, 34, 34.1875, 34.375, 34.625, 34.8125, 34.8125, 35.049107, 35.427082, 35.709824, 35.96875, 36, 36.1875, 36.375, 36.5, 36.6875, 36.75, 36.982143, 37.25, 37.5, 37.75, 37.875, 38, 38.125, 38.1875, 38.25, 38.4375, 38.6875, 38.875, 39.0625, 39.0625, 39, 39.09375, 39.308037, 39.638393, 40.022324, 40.21875, 40.21875, 40.21875, 40.15625, 40.267857, 40.645832, 40.875, 41.089287, 41.160713, 41.25, 41.375, 41.294643, 41.424999, 41.75, 42.008926, 42.375, 42.642857, 42.982143, 43.178574, 43.1875, 43.1875, 43.28125, 43.46875, 43.71875, 43.90625, 44, 44.125, 44.25, 44.375, 44.6875, 44.9375, 45.098213, 45.1875, 45.125, 45.25, 45.5, 45.75, 46, 46.0625, 46.1875, 46.383926, 46.958332, 47.107143, 47.28125, 47.4375, 47.4375, 47.6875, 47.78125, 47.875, 47.9375, 48, 48.258926, 48.512501, 48.642857, 48.875, 48.875, 49.1875, 49.4375, 49.625, 49.9375
-10, -10, -10, -10, -10, -10, -10, -10, -10, -10, -10, -10, -10, -10, -10, -10, -10, -10, -10, -10, 42.549999, 42.297619, 42.25, 42, 42, 42, 41.75, 41.5, 41.375, 41.25, 41.17857, 40.625, 40.321426, 40.0625, 40, 39.875, 39.6875, 39.4375, 39.089287, 38.9375, 38.8125, 38.598213, 38.339287, 38.1875, 37.75, 37.5625, 37.375, 37.125, 36.857143, 36.184525, 36.017857, 35.8125, 35.8125, 35.8125, 35.625, 35.375, 35.205357, 35.0625, 34.875, 34.6875, 34.241074, 33.559525, 33.330357, 33.0625, 33.0625, 33.0625, 33, 32.875, 32.6875, 32.401787, 32.3125, 32.044643, 31.535713, 31.330357, 30.875, 30.8125, 30.75, 30.419643, 29.979166, 29.55357, 29.25, 29.0625, 29.0625, 29, 28.9375, 28.6875, 28.25, 27.75, 27.5625, 27.3125, 27.1875, 26.901787, 26.6875, 26.4375, 26.25, 26.1875, 26.0625, 25.875, 25.571428, 25.276787, 25.0625, 24.803572, 24.4375, 24.25, 23.9375, 23.9375, 23.8125, 23.5625, 23.375, 23.0625, 22.875, 22.625, 22.4375, 22.25, 22.0625, 21.9375, 21.75, 21.5625, 21.3125, 21.0625, 20.642857, 20.4375, 20.1875, 20, 19.705357, 19.4375, 19.1875, 19, 18.875, 18.625, 18.375, 18.125, 18, 17.9375, 17.6875, 17.4375, 17.1875, 17, 16.875, 16.625, 16.375, 16.0625, 15.8125, 15.6875, 15.5, 15.3125, 15.1875, 15.0625, 14.75, 14.5, 14.25, 13.9375, 13.6875, 13.4375, 13.1875, 12.875, 12.8125, 12.625, 12.375, 12.0625, 11.705357, 11.4375, 11.1875, 11.125, 10.9375, 10.901786, 11.044643, 11.053572, 11, 10.9375, 10.8125, 10.625, 10.642858, 10.607142, 10.535714, 10.285714, 9.8214283, 9.6785717, 9.7857141, 10.443878, 10.392858, 10.464286, 10.035714, 9.9083338, 10.208333, 10.540816, 10.494898, 10.3125, 10.375, 10.375, 10.375, 10.375, 10.428572, 10.530612, 10.755102, 10.857142, 11.035714, 11.035714, 11.035714, 10.928572, 10.857142, 10.5, 10.4375, 10.714286, 10.82653, 10.928572, 10.964286, 10.964286, 10.928572, 10.785714, 10.875, 10.9375, -10, -10, -10, -10, -10, -10, -10, -10, -10, -10, -10, -10, -10, -10, -10, -10, -10, -10, -10, -10, 33, 32.666668, 32.678574, 32.857143, 32.970238, 33.642857, 33.803574, 34.0625, 34.3125, 34.5, 34.580357, 34.705357, 34.6875, 34.955357, 35.395832, 35.678574, 35.9375, 36, 36.125, 36.25, 36.3125, 36.4375, 36.5625, 36.794643, 37.0625, 37.3125, 37.5, 37.625, 37.8125, 38, 38.125, 38.3125, 38.5, 38.75, 38.9375, 39.0625, 39.0625, 39, 39.03125, 39.245537, 39.638393, 40.066963, 40.28125, 40.28125, 40.21875, 40.03125, 40.107143, 40.565475, 40.803574, 41.089287, 41.160713, 41.25, 41.40625, 41.357143, 41.549999, 41.9375, 42.165176, 42.5, 42.705357, 42.982143, 43.178574, 43.1875, 43.1875, 43.28125, 43.46875, 43.71875, 43.90625, 44.125, 44.3125, 44.5, 44.6875, 44.875, 45.125, 45.196426, 45.151787, 45.125, 45.1875, 45.5, 45.75, 46, 46.0625, 46.25, 46.571426, 47.252975, 47.419643, 47.46875, 47.5, 47.4375, 47.625, 47.78125, 47.875, 47.9375, 48, 48.321426, 48.637501, 48.767857, 49, 48.9375, 49.125, 49.375, 49.5625, 49.875, 50, 49.9375, 50, 50.0625, 50.357143, 50.78125, 51.15625, 51.375, -10, -10, -10, -10, -10, -10, -10, -10, -10, -10, -10, -10, -10, -10, -10, -10, -10, -10, -10, -10, -10, -10, -10, -10, -10, -10, -10, -10, -10, -10, -10, -10, -10, -10, -10, -10, -10, -10, -10, -10, -10, -10, -10, -10, -10, -10, -10, -10, -10, -10, -10, -10, -10, 42.5, 42.549999, 42.297619, 42.25, 42, 42, 42, 41.75, 41.5, 41.3125, 41.125, 41.107143, 40.729168, 40.446426, 40.125, 39.875, 39.75, 39.5, 39.3125, 39, 38.633926, 38.5, 38.285713, 38.089287, 38, 37.625, 37.5, 37.3125, 37.125, 36.857143, 36.184525, 36.017857, 35.8125, 35.8125, 35.6875, 35.4375, 35.1875, 35.0625, 35, 34.9375, 34.8125, 34.419643, 33.601192, 33.410713, 33.125, 33.125, 33.125, 33, 32.9375, 32.875, 32.625, 32.4375, 32.044643, 31.517857, 31.321428, 30.9375, 30.875, 30.75, 30.4375, 30.0625, 29.535713, 29.25, 29.0625, 29.035713, 28.964287, 28.9375, 28.625, 28.25, 27.82143, 27.625, 27.357143, 27.041666, 26.794643, 26.6875, 26.5, 26.375, 26.1875, 26, 25.8125, 25.625, 25.375, 25.125, 24.866072, 24.4375, 24.3125, 24.035713, 23.964287, 23.9375, 23.625, 23.4375, 23.125, 22.8125, 22.5625, 22.4375, 22.3125, 22.1875, 22.0625, 21.767857, 21.5625, 21.3125, 21, 20.580357, 20.3125, 20.0625, 20, 19.8125, 19.5625, 19.3125, 19.0625, 18.9375, 18.6875, 18.4375, 18.1875, 18, 18, 17.75, 17.5, 17.25, 17, 16.9375, 16.6875, 16.4375, 16.1875, 15.9375, 15.8125, 15.625, 15.375, 15.1875, 15.0625, 14.75, 14.5, 14.25, 13.9375, 13.6875, 13.4375, 13.1875, 12.8125, 12.6875, 12.5625, 12.375, 12.25, 12.080357, 11.8125, 11.5625, 11.5, 11.3125, 11.401786, 11.607143, 11.678572, 11.6875, 11.625, 11.5625, 11.366072, 11.175, 11.303572, 11.303572, 11.57653, 11.708333, 11.666667, 11.625, 11.551021, 11.535714, 11.607142, 11.833333, 11.875, 11.875, 11.637755, 11.566327, 11.229167, 11.491072, 11.704082, 11.416667, 11.775511, 11.145833, 11.193453, 11.663264, 11.775511, 12, 11.964286, 11.75, 11.6875, 11.625, 11.4375, 11.571428, 11.642858, 11.535714, 11.625, 11.625, 11.625, 11.625, 11.785714, 11.875, 12.166666, 13.166666, -10, -10, -10, -10, -10, -10, -10, -10, -10, -10, -10, -10, -10, -10, -10, -10, -10, -10, -10, 33, 32.75, 32.776787, 32.8125, 32.916668, 33.580357, 33.678574, 34.026787, 34.357143, 34.482143, 34.517857, 34.580357, 34.5625, 34.830357, 35.333332, 35.616074, 35.875, 36, 36.125, 36.1875, 36.1875, 36.3125, 36.4375, 36.669643, 36.9375, 37.125, 37.1875, 37.3125, 37.5, 37.6875, 37.9375, 38.125, 38.25, 38.553574, 38.849998, 38.9375, 39.3125, 39.25, 39.40625, 39.53125, 39.78125, 40.138393, 40.28125, 40.352676, 40.418751, 40.102676, 40.1875, 40.565475, 40.803574, 41.089287, 41.160713, 41.1875, 41.370537, 41.464287, 41.737499, 42.1875, 42.352676, 42.625, 42.830357, 43.080357, 43.241074, 43.25, 43.125, 43.15625, 43.34375, 43.59375, 43.84375, 44.1875, 44.4375, 44.6875, 44.9375, 45.0625, 45.25, 45.285713, 45.214287, 45.1875, 45.25, 45.5, 45.75, 46, 46.0625, 46.3125, 46.625, 47.107143, 47.375, 47.46875, 47.625, 47.625, 47.6875, 47.84375, 47.875, 47.9375, 48.125, 48.375, 48.625, 48.8125, 48.964287, 49.107143, 49.241074, 49.5, 49.625, 49.8125
-10, -10, -10, -10, -10, -10, -10, -10, -10, -10, -10, -10, -10, -10, -10, -10, -10, -10, -10, -10, 42.424999, 42.214283, 42.1875, 41.9375, 42, 42, 41.75, 41.5, 41.25, 41, 41, 40.75, 40.5, 40.1875, 39.875, 39.75, 39.5625, 39.4375, 39.107143, 38.550594, 38.321426, 38.098213, 37.964287, 37.875, 37.5625, 37.4375, 37.25, 37.125, 36.866074, 36.309525, 36.017857, 35.75, 35.625, 35.4375, 35.25, 35.0625, 35, 35, 35, 34.866074, 34.336311, 33.547623, 33.348213, 33.125, 33.125, 33.125, 33, 32.9375, 32.75, 32.392857, 32.1875, 31.8125, 31.5, 31.375, 31, 30.8125, 30.625, 30.3125, 30, 29.580357, 29.3125, 29.0625, 28.910713, 28.776787, 28.6875, 28.375, 28.0625, 27.669643, 27.4375, 27.169643, 26.791666, 26.669643, 26.625, 26.5, 26.4375, 26.1875, 26, 25.875, 25.6875, 25.375, 25.125, 24.973213, 24.625, 24.455357, 24.160713, 23.964287, 24, 23.6875, 23.5, 23.25, 22.9375, 22.75, 22.6875, 22.5625, 22.366072, 22.041666, 21.714285, 21.5, 21.3125, 21, 20.642857, 20.375, 20.125, 20.0625, 19.875, 19.625, 19.375, 19.125, 18.9375, 18.75, 18.5, 18.25, 18.0625, 17.9375, 17.6875, 17.4375, 17.1875, 17, 17, 16.75, 16.5, 16.25, 15.9375, 15.75, 15.5625, 15.3125, 15.125, 15, 14.6875, 14.4375, 14.1875, 13.9375, 13.6875, 13.4375, 13.1875, 12.875, 12.8125, 12.75, 12.625, 12.651786, 12.723214, 12.5, 12.375, 12.25, 12.0625, 12.223214, 12.779593, 12.714286, 12.87755, 12.625, 12.6875, 12.275511, 12.057143, 12.168367, 12.366072, 12.561225, 12.428572, 12.321428, 12.285714, 12.346939, 12.357142, 12.428572, 12.535714, 12.678572, 12.714286, 12.709184, 12.637755, 12.476191, 12.704082, 12.770409, 13.184525, 13.051021, 12.023809, 12.078232, 12.37755, 12.454082, 12.875, 12.75, 12.625, 12.714286, 12.571428, 12.464286, 12.464286, 12.375, 12.473214, 12.5625, 12.285714, 12.482143, 12.4875, 12.921768, 12.724489, 12.948979, 13.222221, -10, -10, -10, -10, -10, -10, -10, -10, -10, -10, -10, -10, -10, -10, -10, -10, -10, -10, -10, 32.75, 32.666668, 32.75, 32.919643, 33.125, 33.526787, 33.642857, 34.110119, 34.473213, 34.607143, 34.642857, 34.705357, 34.6875, 34.892857, 35.333332, 35.553574, 35.8125, 36, 36.125, 36.098213, 35.964287, 36.0625, 36.1875, 36.544643, 36.875, 37.125, 37.125, 37.1875, 37.3125, 37.4375, 37.6875, 37.875, 37.9375, 38.25, 38.745834, 38.866074, 39.375, 39.375, 39.5625, 39.6875, 39.875, 40.169643, 40.28125, 40.415176, 40.418751, 40.040176, 40.125, 40.440475, 40.803574, 41.125, 41.1875, 41.25, 41.433037, 41.651787, 41.924999, 42.4375, 42.540176, 42.75, 42.875, 42.910713, 43, 43.0625, 43, 43.09375, 43.28125, 43.46875, 43.71875, 44.0625, 44.375, 44.6875, 44.9375, 45.0625, 45.3125, 45.410713, 45.339287, 45.3125, 45.3125, 45.4375, 45.625, 45.875, 45.9375, 46.294643, 46.65625, 47.107143, 47.4375, 47.5625, 47.71875, 47.75, 47.6875, 47.8125, 47.8125, 47.875, 48.125, 48.375, 48.5625, 48.6875, 48.857143, 49.190475, 49.357147, 49.625, 49.6875, 49.8125, 49.946426, 50.012501, 49.946426, 50.133926, 50.357143, 50.75, 51.09375, 51.208336, -10, -10, -10, -10, -10, -10, -10, -10, -10, -10, -10, -10, -10, -10, -10, -10, -10, -10, -10, -10, -10, -10, -10, -10, -10, -10, -10, -10, -10, -10, -10, -10, -10, -10, -10, -10, -10, -10, -10, -10, -10, -10, -10, -10, -10, -10, -10, -10, -10, -10, -10, -10, -10, -10, 42.424999, 42.130951, 42.089287, 41.875, 41.9375, 42, 41.75, 41.5, 41.25, 41, 41, 40.8125, 40.5625, 40.1875, 39.767857, 39.5625, 39.375, 39.375, 39.232143, 38.747025, 38.279762, 38.0625, 37.9375, 37.875, 37.625, 37.5, 37.375, 37.25, 37.0625, 36.705357, 36.3125, 36, 35.75, 35.4375, 35.25, 35.0625, 35, 34.9375, 34.9375, 34.785713, 34.238094, 33.592262, 33.348213, 33.1875, 33.125, 33.125, 33.0625, 33.0625, 32.883926, 32.351189, 32.125, 31.75, 31.5, 31.375, 31, 30.75, 30.526787, 30.1875, 29.875, 29.517857, 29.1875, 28.9375, 28.660713, 28.401787, 28.3125, 28, 27.8125, 27.482143, 27.3125, 27.107143, 26.729166, 26.669643, 26.625, 26.5, 26.4375, 26.1875, 26, 25.8125, 25.625, 25.25, 25, 24.910713, 24.5625, 24.455357, 24.160713, 23.964287, 23.9375, 23.625, 23.4375, 23.1875, 22.875, 22.6875, 22.625, 22.5, 22.303572, 21.916666, 21.526785, 21.25, 21.125, 20.9375, 20.75, 20.5625, 20.375, 20.25, 20.0625, 19.75, 19.4375, 19.1875, 19, 18.8125, 18.5625, 18.3125, 18.0625, 17.875, 17.625, 17.375, 17.125, 17, 17, 16.75, 16.5, 16.25, 15.9375, 15.75, 15.5, 15.25, 15.0625, 14.9375, 14.6875, 14.5, 14.25, 14.0625, 13.875, 13.625, 13.553572, 13.271429, 13.375, 13.446428, 13.3125, 13.566327, 13.719388, 13.5, 13.392858, 13.25, 13.188775, 13.656462, 13.956462, 13.755102, 13.87755, 13.75, 13.857142, 13.994048, 13.866666, 13.827381, 13.596939, 13.428572, 13.375, 13.276786, 13, 13.1875, 13, 13.071428, 13.375, 13.5, 13.5, 13.464286, 13.693878, 13.583334, 13.882653, 13.767858, 14.336736, 14.336736, 14.180554, 14.087302, 14.095238, 14.035714, 13.928572, 13.821428, 13.625, 13.625, 13.25, 13.178572, 13.142858, 13.4375, 13.642858, 13.714286, 13.916667, 13.693878, 13.7, 13.886054, 13.571428, 13.62755, 13.680272, -10, -10, -10, -10, -10, -10, -10, -10, -10, -10, -10, -10, -10, -10, -10, -10, -10, -10, -10, 32.75, 32.75, 32.9375, 33.169643, 33.375, 33.732143, 33.830357, 34.297619, 34.723213, 34.857143, 34.892857, 35.017857, 35, 35.125, 35.375, 35.5, 35.75, 36, 36.125, 36.035713, 35.901787, 36, 36.125, 36.544643, 36.875, 37.0625, 37, 37, 37, 37.133926, 37.583332, 37.803574, 37.875, 38.125, 38.620834, 38.803574, 39.4375, 39.5625, 39.75, 39.75, 39.901787, 40.214287, 40.294643, 40.446426, 40.450001, 40.133926, 40.232143, 40.42857, 40.886906, 41.107143, 41.25, 41.1875, 41.308037, 41.669643, 42.0625, 42.544643, 42.65625, 42.75, 42.8125, 42.910713, 43.035713, 43.125, 43.125, 43.1875, 43.294643, 43.229168, 43.321426, 43.607143, 44.25, 44.642857, 44.9375, 45.0625, 45.3125, 45.473213, 45.464287, 45.4375, 45.4375, 45.5, 45.5625, 45.75, 45.830357, 46.232143, 46.53125, 47, 47.375, 47.5, 47.71875, 47.75, 47.6875, 47.75, 47.6875, 47.6875, 47.946426, 48.395832, 48.580357, 48.65625, 48.763393, 49.096725, 49.357147, 49.6875, 49.8125, 49.9375
-10, -10, -10, -10, -10, -10, -10, -10, -10, -10, -10, -10, -10, -10, -10, -10, -10, -10, -10, -10, 42.5, 41.916664, 41.922619, 41.8125, 41.875, 42, 41.75, 41.5, 41.3125, 41.0625, 41.0625, 40.9375, 40.625, 40.1875, 39.660713, 39.375, 39.1875, 39.375, 39.392857, 38.880951, 38.071426, 37.770832, 37.732143, 37.732143, 37.5625, 37.4375, 37.3125, 37.25, 37.125, 36.875, 36.4375, 36.125, 35.8125, 35.4375, 35.25, 35.0625, 35, 34.875, 34.875, 34.660713, 34.122025, 33.738098, 33.392857, 33.25, 33.125, 33.125, 33.125, 33.1875, 32.99107, 32.306549, 32.071426, 31.6875, 31.5, 31.3125, 30.875, 30.5625, 30.276787, 29.9375, 29.6875, 29.4375, 29.0625, 28.8125, 28.473213, 28.089287, 28, 27.75, 27.6875, 27.589287, 27.375, 27.169643, 26.791666, 26.705357, 26.625, 26.5, 26.375, 26.125, 26, 25.8125, 25.5625, 25.125, 24.8125, 24.785713, 24.5625, 24.580357, 24.348213, 24.089287, 23.9375, 23.5625, 23.375, 23.125, 22.875, 22.6875, 22.5625, 22.4375, 22.178572, 21.729166, 21.339285, 21.0625, 21, 20.875, 20.6875, 20.392857, 20.1875, 20, 19.875, 19.625, 19.375, 19.1875, 19, 18.8125, 18.5625, 18.3125, 18.0625, 17.8125, 17.5625, 17.3125, 17.0625, 17, 16.9375, 16.6875, 16.4375, 16.1875, 16, 15.875, 15.625, 15.375, 15.1875, 15.0625, 14.875, 14.8125, 14.625, 14.625, 14.357142, 14.178572, 14.204082, 15.038095, 14.5, 14.581633, 14.428572, 14.566327, 14.683673, 14.607142, 14.571428, 14.1875, 14.196428, 14.855441, 15.038095, 14.795918, 14.87755, 14.5, 14.857142, 14.959184, 15.008163, 14.938775, 14.67347, 14.591836, 14.428572, 14.151786, 14.583333, 14.125, 14.583333, 14.666667, 14.3125, 14.375, 14.607142, 14.464286, 14.714286, 14.666666, 14.678572, 14.767858, 15.044643, 15.234694, 15.04762, 14.95238, 14.918367, 14.816327, 14.714286, 14.571428, 14.571428, 14.642858, 15, 15.005952, 14.875, 14.882653, 14.882653, 14.964286, 14.928572, 14.836736, 14.735715, 14.681547, 14.760203, 15.345238, 15.50397, 16.803572, 17.1, -10, -10, -10, -10, -10, -10, -10, -10, -10, -10, -10, -10, -10, -10, -10, -10, -10, 32.75, 32.75, 33.026787, 33.401787, 33.616074, 33.9375, 34.017857, 34.422619, 34.785713, 34.825893, 34.90625, 34.96875, 34.84375, 34.901787, 35.241074, 35.375, 35.6875, 35.9375, 36.0625, 36.035713, 35.901787, 35.9375, 36.026787, 36.526787, 36.9375, 37.125, 37.0625, 37.0625, 36.9375, 37.080357, 37.729164, 37.919643, 38.0625, 38.25, 38.683334, 38.866074, 39.4375, 39.5625, 39.75, 39.6875, 39.785713, 40.190475, 40.276787, 40.508926, 40.575001, 40.383926, 40.486607, 40.477676, 40.802082, 40.888393, 41.071426, 41.075001, 41.044643, 41.419643, 41.544643, 42.032143, 42.5, 42.598213, 42.8125, 42.879463, 42.973213, 43.125, 43.1875, 43.3125, 43.482143, 43.504166, 43.3125, 43.473213, 44.0625, 44.63393, 45.044643, 45.25, 45.5, 45.6875, 45.75, 45.6875, 45.6875, 45.625, 45.5625, 45.625, 45.642857, 45.982143, 46.21875, 46.642857, 47.1875, 47.3125, 47.65625, 47.6875, 47.75, 47.875, 47.875, 47.9375, 48.196426, 48.583332, 48.705357, 48.71875, 48.763393, 49.096725, 49.419647, 49.75, 49.875, 50, 50.133926, 50.200001, 50.071426, 50.267853, 50.360714, 50.517857, 50.9375, 51.016666, -10, -10, -10, -10, -10, -10, -10, -10, -10, -10, -10, -10, -10, -10, -10, -10, -10, -10, -10, -10, -10, -10, -10, -10, -10, -10, -10, -10, -10, -10, -10, -10, -10, -10, -10, -10, -10, -10, -10, -10, -10, -10, -10, -10, -10, -10, -10, -10, -10, -10, -10, -10, -10, -10, -10, 41.958332, 41.943451, 41.875, 41.8125, 41.9375, 41.6875, 41.4375, 41.375, 41.125, 41.0625, 40.892857, 40.5625, 40.1875, 39.785713, 39.59375, 39.53125, 39.633926, 39.535713, 39.059525, 37.988098, 37.726189, 37.732143, 37.794643, 37.651787, 37.625, 37.4375, 37.3125, 37.151787, 36.9375, 36.5, 36.1875, 35.705357, 35.375, 35.1875, 35.0625, 35, 34.75, 34.6875, 34.410713, 33.943455, 33.821426, 33.5, 33.375, 33.1875, 33.1875, 33.1875, 33.1875, 32.883926, 32.181549, 31.946428, 31.625, 31.5, 31.3125, 30.8125, 30.4375, 30.151787, 29.75, 29.625, 29.4375, 29.0625, 28.75, 28.3125, 27.875, 27.6875, 27.5625, 27.5625, 27.625, 27.4375, 27.25, 27, 26.8125, 26.416666, 26.267857, 26.125, 25.9375, 25.875, 25.6875, 25.375, 24.9375, 24.6875, 24.723213, 24.5625, 24.580357, 24.3125, 24.0625, 23.875, 23.625, 23.4375, 23.1875, 23, 22.75, 22.5625, 22.3125, 21.928572, 21.479166, 21.196428, 21, 21, 20.9375, 20.8125, 20.508928, 20.104166, 19.892857, 19.75, 19.5625, 19.375, 19.1875, 19, 18.875, 18.6875, 18.4375, 18.1875, 17.875, 17.5625, 17.375, 17.1875, 17.1875, 17.116072, 16.666666, 16.383928, 16.1875, 16.125, 16.15625, 16.09375, 15.90625, 15.78125, 15.5625, 15.3125, 15.25, 15.0625, 15.357142, 15.708333, 15.875, 16.077381, 15.996939, 15.714286, 15.688775, 15.3125, 15.464286, 15.598214, 15.785714, 15.5625, 15.571428, 15.510203, 15.654761, 15.845833, 15.696428, 15.767857, 15.625, 15.75, 15.8125, 15.919643, 15.732143, 15.375, 15.438775, 15.25, 15.17347, 15.214286, 15.142858, 15.214286, 15.367347, 15.607142, 15.714286, 15.892858, 15.795918, 15.52381, 15.510203, 15.668367, 15.836734, 15.6875, 15.6875, 15.625, 15.5625, 15.5, 15.375, 15.25, 15.125, 15.125, 15.1875, 15.642858, 15.755102, 15.714286, 15.954082, 15.918367, 15.964286, 16, 15.794643, 15.675, 15.770833, 15.897959, 16.081633, 16.312925, 17.035715, 17.4, -10, -10, -10, -10, -10, -10, -10, -10, -10, -10, -10, -10, -10, -10, -10, -10, -10, 32.75, 32.666668, 32.839287, 33.214287, 33.428574, 33.928574, 34.25, 34.614582, 34.834824, 34.875, 34.9375, 35.03125, 35.03125, 35.026787, 35.303574, 35.4375, 35.6875, 35.9375, 36, 35.973213, 35.901787, 35.848213, 35.866074, 36.401787, 36.794643, 37.0625, 37.125, 37.125, 37, 37.142857, 37.738094, 38.190475, 38.632656, 38.571426, 38.833332, 38.991074, 39.1875, 39.375, 39.5, 39.5, 39.660713, 40.065475, 40.214287, 40.5, 40.5, 40.5, 40.522324, 40.352676, 40.614582, 40.575893, 40.821426, 40.887501, 40.767857, 40.9375, 40.857143, 41.335716, 42.275002, 42.369045, 42.633926, 42.65625, 42.785713, 43.0625, 43.3125, 43.5, 43.732143, 43.691666, 43.5, 43.598213, 44.1875, 44.732143, 45.00893, 45.25, 45.375, 45.5625, 45.625, 45.625, 45.6875, 45.6875, 45.625, 45.625, 45.705357, 46.044643, 46.28125, 46.767857, 47.1875, 47.25, 47.59375, 47.625, 47.875, 48.125, 48.1875, 48.25, 48.383926, 48.708332, 48.767857, 48.78125, 48.799107, 48.989582, 49.303574, 49.625, 49.8125, 50
-10, -10, -10, -10, -10, -10, -10, -10, -10, -10, -10, -10, -10, -10, -10, -10, -10, -10, -10, -10, -10, 42.125, 42.047619, 42, 41.8125, 41.8125, 41.5625, 41.3125, 41.25, 41, 40.875, 40.705357, 40.4375, 40.0625, 39.660713, 39.53125, 39.46875, 39.571426, 39.491074, 39.035713, 37.979168, 37.726189, 37.794643, 37.892857, 37.669643, 37.633926, 37.4375, 37.25, 37.089287, 36.875, 36.5, 36.25, 35.767857, 35.4375, 35.1875, 34.991074, 34.75, 34.5, 34.4375, 34.294643, 34.089287, 34.0625, 33.6875, 33.5, 33.25, 33.1875, 33.1875, 33.1875, 33.008926, 32.413689, 32.133926, 31.75, 31.5, 31.25, 30.75, 30.4375, 30.151787, 29.75, 29.625, 29.4375, 29.0625, 28.8125, 28.4375, 27.991072, 27.6875, 27.625, 27.5625, 27.6875, 27.5625, 27.375, 27.125, 26.8125, 26.247023, 26.017857, 25.875, 25.75, 25.6875, 25.5, 25.125, 24.8125, 24.544643, 24.401787, 24.375, 24.375, 24.1875, 24, 23.8125, 23.625, 23.5625, 23.3125, 23.125, 22.8125, 22.5, 22.1875, 21.75, 21.5, 21.3125, 21.125, 21.125, 21, 20.75, 20.446428, 20.041666, 19.830357, 19.75, 19.625, 19.4375, 19.25, 19.0625, 18.875, 18.75, 18.5625, 18.3125, 18.0625, 17.6875, 17.5, 17.375, 17.375, 17.366072, 16.979166, 16.758928, 16.625, 16.625, 16.71875, 16.78125, 16.71875, 16.857143, 16.714285, 16.25, 16.125, 15.9375, 16, 16.357143, 16.607143, 16.959185, 16.948214, 17, 16.696428, 16.714285, 16.785715, 16.714285, 16.75, 16.714285, 16.607143, 16.612246, 16.583332, 16.645832, 16.857143, 16.857143, 16.75, 16.785715, 16.785715, 16.836735, 16.658163, 16.15625, 16.15625, 16.008928, 15.901786, 15.9375, 15.8125, 16, 16.196428, 16.75, 16.892857, 17.035715, 16.903061, 16.333334, 16.321428, 16.491072, 16.625, 16.580357, 16.4375, 16.041666, 15.883928, 15.821428, 16.020834, 16.053572, 15.785714, 15.857142, 16, 16.4375, 16.473213, 16.375, 16.491072, 16.632654, 16.724489, 16.928572, 17, 17, 17, 17.035715, 16.875, 17.107143, 17.276787, 17.612499, 18.625, 19.214287, 20.166668, 20.666668, -10, -10, -10, -10, -10, -10, -10, -10, -10, -10, -10, -10, -10, 33, 32.833336, 32.964287, 33.169643, 33.366074, 33.866074, 34.169643, 34.40625, 34.59375, 34.6875, 34.8125, 35.013393, 35.09375, 35.089287, 35.366074, 35.5, 35.6875, 35.9375, 35.9375, 36, 35.973213, 35.8125, 35.928574, 36.383926, 36.732143, 37, 37.0625, 37.0625, 37, 37.205357, 37.863094, 38.377975, 38.741074, 38.875, 38.875, 39.026787, 39.232143, 39.428574, 39.491074, 39.25, 39.473213, 39.922619, 40.089287, 40.4375, 40.375, 40.083332, 40.270409, 39.915176, 40.284225, 40.325893, 40.633926, 40.762501, 40.642857, 40.642857, 40.443878, 40.832649, 42.087502, 42.181545, 42.508926, 42.53125, 42.723213, 43.0625, 43.4375, 43.625, 43.919643, 43.879166, 43.816326, 43.908165, 44.125, 44.57143, 44.928574, 45.178574, 45.3125, 45.4375, 45.5, 45.5625, 45.6875, 45.8125, 45.8125, 45.75, 45.767857, 46, 46.1875, 46.705357, 47.125, 47.0625, 47.339287, 47.3125, 47.625, 47.9375, 48.0625, 48.125, 48.133926, 48.476189, 48.726189, 48.834824, 48.90625, 48.90625, 49.125, 49.4375, 49.6875, 49.9375, 50, 49.8125, 49.8125, 49.946426, 50.173214, 50.517857, 51.044643, 51.183334, -10, -10, -10, -10, -10, -10, -10, -10, -10, -10, -10, -10, -10, -10, -10, -10, -10, -10, -10, -10, -10, -10, -10, -10, -10, -10, -10, -10, -10, -10, -10, -10, -10, -10, -10, -10, -10, -10, -10, -10, -10, -10, -10, -10, -10, -10, -10, -10, -10, -10, -10, -10, -10, -10, -10, 42.400002, 42.083332, 42.0625, 41.875, 41.8125, 41.5625, 41.3125, 41.25, 40.9375, 40.75, 40.517857, 40.25, 40, 39.69643, 39.385418, 39.385418, 39.458931, 39.1875, 38.785713, 37.895836, 37.726189, 37.857143, 37.830357, 37.607143, 37.508926, 37.1875, 37, 36.776787, 36.5625, 36.3125, 36.125, 35.705357, 35.4375, 35.1875, 34.928574, 34.625, 34.375, 34.25, 34.125, 34.0625, 34, 33.75, 33.5625, 33.3125, 33.25, 33.125, 33, 32.875, 32.455357, 32.196426, 31.875, 31.5, 31.25, 30.75, 30.5, 30.25, 29.875, 29.8125, 29.5625, 29.25, 29, 28.6875, 28.334822, 28.03125, 27.9375, 27.6875, 27.71875, 27.53125, 27.25, 27, 26.625, 26.059523, 25.866072, 25.571428, 25.4375, 25.4375, 25.3125, 24.964287, 24.8125, 24.482143, 24.401787, 24.375, 24.3125, 24.1875, 23.9375, 23.8125, 23.625, 23.5625, 23.375, 23.1875, 22.9375, 22.6875, 22.375, 21.9375, 21.625, 21.375, 21.1875, 21.125, 21, 20.75, 20.383928, 19.916666, 19.705357, 19.625, 19.625, 19.5, 19.3125, 19.125, 18.875, 18.8125, 18.6875, 18.4375, 18.3125, 18, 17.8125, 17.839287, 17.982143, 18.044643, 17.476191, 17.571428, 17.642857, 17.642857, 17.678572, 17.928572, 18.035715, 18.035715, 17.928572, 17.642857, 17.464285, 16.857143, 16.928572, 17.035715, 17.464287, 17.6875, 17.785715, 18, 17.892857, 17.785715, 17.821428, 17.75, 17.5625, 17.5625, 17.5, 17.714285, 17.714285, 17.785715, 17.857143, 17.857143, 17.821428, 17.892857, 18, 17.773809, 17.432142, 17.21875, 17.013393, 16.883928, 16.6875, 16.651787, 16.732143, 16.833334, 16.996429, 17.491072, 17.892857, 18.107143, 17.974489, 17.59524, 17.510204, 17.704082, 17.857143, 17.734694, 17.375, 16.65476, 16.545918, 16.530611, 16.985119, 17.275511, 17.541666, 17.625, 17.583334, 17.214287, 17.223213, 17.1875, 17.366072, 17.392857, 17.544643, 17.625, 17.92347, 17.928572, 17.892857, 17.75, 17.75, 17.785713, 17.732143, 17.933929, 18.5, 19.047619, 20.277779, 20.873016, 21.5, -10, -10, -10, -10, -10, -10, -10, -10, -10, -10, -10, -10, 33, 32.833336, 32.901787, 33.107143, 33.303574, 33.741074, 34.107143, 34.34375, 34.53125, 34.6875, 34.6875, 34.763393, 34.861607, 34.964287, 35.303574, 35.5625, 35.6875, 35.9375, 35.9375, 36.125, 36.223213, 36.125, 36.241074, 36.526787, 36.794643, 37.0625, 37.125, 37.125, 37.125, 37.258926, 37.717262, 38.199406, 38.553574, 38.6875, 38.75, 38.964287, 39.214287, 39.366074, 39.366074, 39.1875, 39.321426, 39.690475, 39.919643, 40.3125, 40.3125, 39.791664, 39.447422, 39.760418, 40.02232, 40.15625, 40.477676, 40.731251, 40.736607, 40.78125, 40.607143, 40.862499, 41.837502, 41.994045, 42.321426, 42.34375, 42.625, 43.107143, 43.5, 43.75, 44.0625, 44.212502, 44.116074, 44.178574, 44.1875, 44.553574, 44.803574, 45.053574, 45.1875, 45.25, 45.25, 45.4375, 45.625, 45.8125, 45.9375, 45.875, 45.875, 46, 46.25, 46.6875, 47.0625, 47, 47.178574, 47.294643, 47.616074, 48, 48.1875, 48.25, 48.3125, 48.601189, 48.833332, 48.991074, 49, 49, 49.125, 49.375, 49.5625, 49.8125
