-10, -10, -10, -10, -10, -10, -10, -10, -10, 27.75, 28.211905, 28.904169, 29.580954, 30.017857, 30.809525, 32.25, 33.37619, 33.64286, 33.6875, 33.321426, 32.771427, 32.138889, 31.91111, 22, 22.0625, 22, 22, 21.9375, 21.875, 21.8125, 21.6875, 21.5, 21.375, 21.1875, 21.0625, 21.0625, 20.875, 20.75, 20.5, 20.25, 20.125, 20, 20, 20, 19.875, 19.75, 19.5, 19.25, 19.0625, 18.875, 18.875, 18.875, 18.75, 18.5625, 18.3125, 18.0625, 18, 18, 18, 18, 17.875, 17.625, 17.375, 17.125, 17, 17, 16.9375, 16.8125, 16.5625, 16.375, 16.1875, 16, 15.8125, 15.5625, 15.375, 15.3125, 15.25, 15.25, 15.25, 15.107143, 14.875, 14.75, 14.5625, 14.4375, 14.3125, 14.1875, 14, 13.875, 13.8125, 13.75, 13.5625, 13.375, 13.1875, 13, 13, 13, 12.9375, 12.875, 12.607143, 12.276786, 12.125, 11.9375, 12, 12, 11.9375, 11.9375, 11.6875, 11.4375, 11.25, 11, 11, 11, 10.75, 10.5, 10.3125, 10.0625, 10.0625, 10.0625, 9.875, 9.75, 9.5, 9.25, 9.125, 9, 9, 9, 8.9375, 8.8125, 8.6875, 8.5, 8.3125, 8.1875, 8.0625, 8, 8, 7.875, 7.625, 7.375, 7.125, 7, 7, 7, 6.9375, 6.75, 6.5, 6.25, 6.0833335, -10, -10, -10, -10, -10, -10, 16, 15.8375, 15.345239, 14.693453, 14.276786, 13.8125, 13.5, 13.25, 13, 13, 13, 13.0625, 13.0625, 13.0625, 13.0625, 13, 13, 13, 13, 13, 13, 13, 12.9375, 12.8125, 12.75, 12.6875, 12.6875, 12.830357, 13.083333, 13.178572, 13.1875, 13.125, 13.0625, 13, 13, 13, 13, 12.9375, 12.875, 12.875, 12.875, 12.9375, 12.9375, 12.875, 12.8125, 12.75, 12.9375, 13.035714, 13, 12.883928, 12.75, 12.75, 12.8125, 12.875, 13, 13.25, 13.5, 14, 14.75, 15.428572, 15.75, 16, 16, 15.428572, 13.333333, 12.571428, 12, 12, -10, -10, -10, -10, 17.75, 17.75, 17.598213, 17.330357, 17.299999, 17.535715, 17.741072, 18, 18, 18.15625, 18.265625, 18.4375, 18.4375, 18.5, 18.583334, -10, -10, -10, -10, -10, -10, -10, -10, -10, -10, -10, -10, -10, -10, 48, 47.833336, 47.75, 47.892857, 48.033333, 47.911114, -10, -10, -10, -10, -10, -10, -10, -10, -10, -10, -10, -10, -10, -10, -10, -10, -10, -10, -10, -10, -10, -10, -10, -10, -10, -10, -10, -10, -10, -10, -10, -10, -10, -10, -10, -10, -10, -10, -10, -10, -10, -10, -10, -10, -10, -10, -10, -10, -10, -10, -10, -10, -10, -10, -10, -10, -10, -10, -10, -10, -10, -10, -10, -10, -10, -10, -10, -10, -10, -10, -10, -10, -10, -10, -10, -10, -10, -10, -10, -10, -10, -10, -10, -10, -10, -10, -10, -10, -10, -10, -10, -10, -10, -10, -10, -10, -10, -10, -10, -10, -10, -10, -10, -10, -10, -10, -10, -10, -10, -10, -10, -10, -10, -10, -10, -10, -10, -10, -10, -10, -10, -10, -10, -10, -10, 28, 28.366667, 29.041668, 29.614285, 30.154762, 30.873016, 32.020832, 33.083332, 33.401787, 33.5, 33.258926, 32.75, 32.020832, 31.474998, 22.9, 22.1, 22.071428, 22, 21.9375, 21.8125, 21.6875, 21.5, 21.3125, 21.1875, 21.0625, 21, 21, 20.8125, 20.6875, 20.4375, 20.1875, 20.125, 20, 20, 20, 19.9375, 19.8125, 19.5625, 19.3125, 19.0625, 18.875, 18.875, 18.875, 18.75, 18.5625, 18.3125, 18.0625, 18, 18, 18, 18, 17.8125, 17.5625, 17.3125, 17.0625, 17, 17, 17, 16.875, 16.625, 16.4375, 16.25, 16.125, 16, 15.8125, 15.5625, 15.4375, 15.3125, 15.25, 15.25, 15.107143, 14.9375, 14.875, 14.75, 14.6875, 14.5, 14.3125, 14.0625, 13.875, 13.8125, 13.6875, 13.5, 13.3125, 13.125, 13, 13, 13, 13, 12.875, 12.625, 12.375, 12.125, 12, 12, 12, 11.9375, 11.9375, 11.6875, 11.4375, 11.25, 11, 11, 11, 10.75, 10.5, 10.25, 10, 10, 9.9375, 9.8125, 9.625, 9.375, 9.1875, 9.0625, 9, 9, 9, 9, 8.9375, 8.8125, 8.625, 8.375, 8.1875, 8.0625, 8, 7.9375, 7.75, 7.5, 7.25, 7.0625, 7, 7, 7, 6.875, 6.625, 6.375, 6.125, 6, -10, -10, -10, -10, -10, -10, 16, 15.8375, 15.345239, 14.693453, 14.276786, 13.8125, 13.5, 13.25, 13, 13, 13, 13, 13, 13, 13, 13, 13, 13, 13, 13, 13, 13, 13, 12.875, 12.8125, 12.75, 12.6875, 12.892857, 13.145833, 13.241072, 13.25, 13.125, 13.0625, 13, 13, 13, 13, 13, 13, 13.0625, 13.125, 13.1875, 13.1875, 13.0625, 12.9375, 12.8125, 12.875, 12.910714, 12.955357, 12.946428, 12.875, 12.9375, 12.875, 12.9375, 13, 13.25, 13.5, 14, 14.75, 15.428572, 15.75, 16, 16, 15.508928, 13.785714, 12.720238, 12.107143, 12, -10, -10, -10, -10, 17.4375, 17.375, 17.191963, 16.995537, 17.125, 17.294643, 17.625, 17.875, 17.9375, 18.09375, 18.140625, 18.34375, 18.316963, 18.375, 18.5875, -10, -10, -10, -10, -10, -10, -10, -10, -10, -10, -10, -10, -10, -10, 48, 47.75, 47.625, 47.642857, 47.771431, 47.933334, -10, -10, -10, -10, -10, -10, -10, -10, -10, -10, -10, -10, -10, -10, -10, -10, -10, -10, -10, -10, -10, -10, -10, -10, -10, -10, -10, -10, -10, -10, -10, -10, -10, -10, -10, -10, -10, -10, -10, -10, -10, -10, -10, -10, -10, -10, -10, -10, -10, -10, -10, -10, -10, -10, -10, -10, -10, -10, -10, -10, -10, -10, -10, -10, -10, -10, -10, -10, -10, -10, -10, -10, -10, -10, -10, -10, -10, -10, -10, -10, -10, -10, -10, -10, -10, -10, -10, -10, -10, -10, -10, -10, -10, -10, -10, -10, -10, -10, -10, -10, -10, -10
-10, -10, -10, -10, -10, -10, -10, -10, -10, 28, 28.35, 28.895834, 29.642857, 30.151787, 30.797619, 31.782738, 32.583332, 33.026787, 33.25, 33.294643, 33.044643, 32.238094, 31.577776, 23.960001, 22.35, 22.258928, 22.125, 22, 21.8125, 21.6875, 21.5, 21.3125, 21.1875, 21.0625, 21, 21, 20.8125, 20.625, 20.375, 20.125, 20.0625, 20, 20, 20, 19.875, 19.75, 19.5, 19.25, 19.0625, 18.875, 18.875, 18.875, 18.8125, 18.625, 18.375, 18.1875, 18.035713, 17.964287, 18, 17.9375, 17.75, 17.5625, 17.3125, 17.0625, 17.0625, 17, 17, 16.875, 16.6875, 16.5, 16.3125, 16.1875, 16.0625, 15.9375, 15.75, 15.6875, 15.5, 15.375, 15.3125, 15.107143, 15, 15, 14.9375, 14.9375, 14.6875, 14.4375, 14.0625, 13.8125, 13.75, 13.625, 13.5, 13.3125, 13.125, 13, 13, 13, 13, 12.8125, 12.5625, 12.3125, 12.0625, 12, 12, 12, 11.9375, 11.875, 11.625, 11.375, 11.1875, 10.9375, 10.875, 10.8125, 10.5625, 10.375, 10.1875, 10, 10, 9.9375, 9.8125, 9.625, 9.375, 9.1875, 9.0625, 9, 9, 9, 9, 9, 8.875, 8.6875, 8.4375, 8.1875, 8.0625, 7.9375, 7.8125, 7.625, 7.375, 7.1875, 7.0625, 7, 7, 7, 6.875, 6.625, 6.375, 6.125, 6, -10, -10, -10, -10, -10, -10, 16, 15.9, 15.46131, 14.717262, 14.285714, 13.8125, 13.5, 13.25, 13, 13, 13, 13, 13, 13, 13, 13, 13, 13, 13, 13, 13, 13, 13, 12.9375, 12.9375, 12.875, 12.8125, 13.017857, 13.208333, 13.303572, 13.3125, 13.125, 13.0625, 13, 13, 13, 13, 13, 13.0625, 13.1875, 13.3125, 13.4375, 13.4375, 13.25, 13.0625, 12.875, 12.8125, 12.875, 13.0625, 13.125, 13.125, 13.1875, 13.0625, 13.0625, 13.0625, 13.25, 13.5, 14, 14.75, 15.428572, 15.75, 16, 16, 15.589286, 14.238095, 12.869048, 12.257143, 12, -10, -10, -10, -10, 17.1875, 17.0625, 16.941963, 16.808037, 16.9375, 17.169643, 17.5, 17.75, 17.875, 17.96875, 17.984375, 18.1875, 18.223213, 18.40625, 18.670834, -10, -10, -10, -10, -10, -10, -10, -10, -10, -10, -10, -10, -10, -10, 48, 47.666668, 47.5, 47.455357, 47.583931, 47.945236, -10, -10, -10, -10, -10, -10, -10, -10, -10, -10, -10, -10, -10, -10, -10, -10, -10, -10, -10, -10, -10, -10, -10, -10, -10, -10, -10, -10, -10, -10, -10, -10, -10, -10, -10, -10, -10, -10, -10, -10, -10, -10, -10, -10, -10, -10, -10, -10, -10, -10, -10, -10, -10, -10, -10, -10, -10, -10, -10, -10, -10, -10, -10, -10, -10, -10, -10, -10, -10, -10, -10, -10, -10, -10, -10, -10, -10, -10, -10, -10, -10, -10, -10, -10, -10, -10, -10, -10, -10, -10, -10, -10, -10, -10, -10, -10, -10, -10, -10, -10, -10, -10, -10, -10, -10, -10, -10, -10, -10, -10, -10, -10, -10, -10, -10, -10, -10, -10, -10, -10, -10, -10, -10, -10, -10, 28, 28.333334, 28.75, 29.642857, 30.1875, 30.714285, 31.720238, 32.357143, 32.848213, 33.1875, 33.357143, 33.223213, 32.666668, 32.313332, 23.485714, 22.766666, 22.571428, 22.3125, 22.125, 21.875, 21.75, 21.5625, 21.3125, 21.1875, 21.0625, 21, 21, 20.875, 20.625, 20.375, 20.125, 20, 20, 20, 20, 19.875, 19.6875, 19.4375, 19.1875, 19.0625, 18.9375, 18.9375, 18.875, 18.75, 18.5625, 18.3125, 18.1875, 18.035713, 17.964287, 18, 17.9375, 17.75, 17.5625, 17.3125, 17.0625, 17.0625, 17, 17, 16.875, 16.6875, 16.5, 16.3125, 16.1875, 16.125, 16.0625, 15.9375, 15.875, 15.625, 15.375, 15.1875, 15, 15, 15, 15, 14.9375, 14.6875, 14.4375, 14, 13.75, 13.6875, 13.5625, 13.5, 13.3125, 13.125, 13, 13, 13, 13, 12.75, 12.5, 12.25, 12, 12, 12, 12, 12, 11.9375, 11.6875, 11.375, 11.089286, 10.875, 10.8125, 10.75, 10.5, 10.25, 10.0625, 9.9375, 9.9375, 9.9375, 9.875, 9.75, 9.5, 9.3125, 9.125, 9, 9, 9, 9, 9, 8.8125, 8.625, 8.375, 8.125, 8.0625, 7.9375, 7.8125, 7.625, 7.375, 7.1875, 7.0625, 7, 7, 7, 6.875, 6.625, 6.375, 6.125, 6, -10, -10, -10, -10, -10, 16, 16, 15.9, 15.452381, 14.571429, 14.214285, 13.75, 13.5, 13.25, 13, 13, 13, 13, 13, 13, 13, 12.9375, 12.9375, 12.9375, 12.9375, 13, 13, 13, 13, 13, 13, 13, 13, 13.125, 13.125, 13.125, 13.125, 13, 13, 13, 13, 13, 13, 13, 13.0625, 13.1875, 13.3125, 13.375, 13.3125, 13.125, 12.9375, 12.8125, 12.8125, 12.875, 13.0625, 13.1875, 13.25, 13.3125, 13.1875, 13.125, 13.0625, 13.25, 13.5, 14, 14.75, 15.428572, 15.75, 16, 15.785714, 15.236734, 14.17687, 12.687075, 12.090475, -10, -10, -10, -10, 17, 16.9375, 16.833334, 16.754463, 16.683037, 16.8125, 17.044643, 17.3125, 17.5625, 17.75, 17.875, 17.9375, 18.15625, 18.254463, 18.46875, 18.775, -10, -10, -10, -10, -10, -10, -10, -10, -10, -10, -10, -10, -10, -10, 48, 47.666668, 47.5, 47.455357, 47.646431, 48.135712, 49.214287, 49.708336, -10, -10, -10, -10, -10, -10, -10, -10, -10, -10, -10, -10, -10, -10, -10, -10, -10, -10, -10, -10, -10, -10, -10, -10, -10, -10, -10, -10, -10, -10, -10, -10, -10, -10, -10, -10, -10, -10, -10, -10, -10, -10, -10, -10, -10, -10, -10, -10, -10, -10, -10, -10, -10, -10, -10, -10, -10, -10, -10, -10, -10, -10, -10, -10, -10, -10, -10, -10, -10, -10, -10, -10, -10, -10, -10, -10, -10, -10, -10, -10, -10, -10, -10, -10, -10, -10, -10, -10, -10, -10, -10, -10, -10, -10, -10, -10, -10, -10, -10, -10
-10, -10, -10, -10, -10, -10, -10, -10, -10, 28, 28.333334, 28.75, 29.714285, 30.357143, 30.892857, 31.741072, 32.321426, 32.8125, 33.3125, 33.580357, 33.544643, 32.708332, 31.925169, 23.68, 22.85, 22.613094, 22.375, 22.25, 22, 21.9375, 21.8125, 21.5, 21.3125, 21.125, 21, 21, 20.9375, 20.75, 20.5, 20.25, 20.0625, 20, 20, 20, 19.875, 19.625, 19.375, 19.125, 19, 19, 19, 18.875, 18.75, 18.5, 18.25, 18.1875, 18.035713, 17.964287, 18, 17.875, 17.75, 17.5625, 17.3125, 17.125, 17.0625, 17, 16.9375, 16.75, 16.5625, 16.3125, 16.1875, 16.125, 16.0625, 16.0625, 16, 15.875, 15.625, 15.375, 15.125, 15, 15, 15, 15, 14.875, 14.625, 14.375, 14, 13.875, 13.875, 13.75, 13.625, 13.375, 13.125, 13, 13, 13, 12.9375, 12.6875, 12.4375, 12.1875, 12, 12, 12, 12, 12, 11.9375, 11.6875, 11.375, 11.089286, 10.875, 10.75, 10.625, 10.375, 10.125, 10, 9.9375, 9.9375, 9.9375, 9.9375, 9.875, 9.625, 9.4375, 9.1875, 9, 9, 9, 9, 8.9375, 8.6875, 8.4375, 8.1875, 8, 8, 7.9375, 7.75, 7.5625, 7.3125, 7.125, 7.0625, 7, 7, 7, 6.875, 6.625, 6.375, 6.125, 6, -10, -10, -10, -10, -10, -10, 16, 16, 15.714286, 14.666667, 14.285714, 13.75, 13.5, 13.25, 13, 13, 13, 13, 13, 13, 13, 12.9375, 12.9375, 12.9375, 12.9375, 13, 13, 13, 13, 13, 13, 13, 13, 13.125, 13.125, 13.125, 13.125, 13, 13, 13, 13, 13, 13, 13, 13.0625, 13.1875, 13.3125, 13.375, 13.375, 13.25, 13.125, 13.0625, 13, 13.0625, 13.125, 13.25, 13.3125, 13.3125, 13.25, 13.125, 13.0625, 13.25, 13.5, 14, 14.75, 15.428572, 15.75, 16, 15.571428, 13.627777, 12.857143, 11.611112, 12.120636, -10, -10, -10, -10, 17, 17, 16.8125, 16.78125, 16.78125, 16.75, 16.9375, 17.125, 17.34375, 17.5625, 17.75, 17.875, 18.0625, 18.191963, 18.40625, 18.691668, -10, -10, -10, -10, -10, -10, -10, -10, -10, -10, -10, -10, -10, -10, 48, 47.750004, 47.625, 47.5625, 47.758926, 48.410713, 49.142857, 49.722225, 50.285713, 50.5, -10, -10, -10, -10, -10, -10, -10, -10, -10, -10, -10, -10, -10, -10, -10, -10, -10, -10, -10, -10, -10, -10, -10, -10, -10, -10, -10, -10, -10, -10, -10, -10, -10, -10, -10, -10, -10, -10, -10, -10, -10, -10, -10, -10, -10, -10, -10, -10, -10, -10, -10, -10, -10, -10, -10, -10, -10, -10, -10, -10, -10, -10, -10, -10, -10, -10, -10, -10, -10, -10, -10, -10, -10, -10, -10, -10, -10, -10, -10, -10, -10, -10, -10, -10, -10, -10, -10, -10, -10, -10, -10, -10, -10, -10, -10, -10, -10, -10, -10, -10, -10, -10, -10, -10, -10, -10, -10, -10, -10, -10, -10, -10, -10, -10, -10, -10, -10, -10, -10, -10, -10, 28, 28.333334, 28.75, 29.714285, 30.357143, 30.892857, 31.741072, 32.321426, 32.875, 33.645832, 33.913689, 33.699406, 33.041664, 32.767857, 32.291664, 23, 22.722221, 22.5, 22.333334, 21.9375, 21.895834, 21.875, 21.5625, 21.375, 21.1875, 21, 21, 21, 20.8125, 20.5625, 20.3125, 20.0625, 20, 20, 20, 19.875, 19.625, 19.375, 19.125, 19, 19, 19, 18.8125, 18.625, 18.375, 18.125, 18.125, 18.035713, 17.964287, 17.9375, 17.8125, 17.75, 17.5625, 17.375, 17.1875, 17, 16.875, 16.75, 16.5625, 16.4375, 16.25, 16.125, 16.0625, 16, 16, 16, 15.8125, 15.625, 15.375, 15.125, 15.0625, 15, 15, 15, 14.8125, 14.5625, 14.3125, 13.9375, 13.875, 13.8125, 13.6875, 13.5, 13.1875, 13.017857, 13, 13, 13.03125, 12.84375, 12.59375, 12.34375, 12.125, 12.0625, 12.0625, 12.0625, 12.0625, 12, 11.875, 11.625, 11.3125, 11.026786, 10.875, 10.75, 10.625, 10.4375, 10.1875, 10.0625, 9.9375, 9.875, 9.9375, 9.9375, 9.9375, 9.6875, 9.4375, 9.1875, 9, 9, 9, 9, 8.875, 8.625, 8.375, 8.125, 8, 8, 7.9375, 7.8125, 7.625, 7.375, 7.1875, 7.0625, 7, 7, 7, 6.9375, 6.6875, 6.4375, 6.1875, 6, -10, -10, -10, -10, -10, -10, 16, 16, 15.723215, 14.812501, 14.357142, 13.8125, 13.5, 13.25, 13, 13, 12.9375, 12.875, 12.875, 12.875, 12.875, 12.8125, 12.75, 12.75, 12.8125, 12.9375, 13, 12.9375, 12.9375, 12.875, 12.8125, 12.8125, 12.75, 12.875, 13, 13.169643, 13.1875, 13.0625, 12.964286, 12.875, 12.875, 13, 13.035714, 13.0625, 13.125, 13.125, 13.1875, 13.1875, 13.125, 13.0625, 12.9375, 12.9375, 13, 13.169643, 13.1875, 13.3125, 13.3125, 13.3125, 13.34375, 13.21875, 13.15625, 13.28125, 13.5, 14, 14.75, 15.428572, 15.75, 16, 15.357143, 13.088096, 12.285715, 11.214286, -10, -10, -10, -10, 16.75, 17, 17.1875, 17.125, 17.1875, 17.125, 17, 17.0625, 17, 17.15625, 17.3125, 17.5, 17.875, 18.03125, 18.3125, 18.5625, 18.750002, -10, -10, -10, -10, -10, -10, -10, -10, -10, -10, -10, -10, -10, -10, 48, 47.833336, 47.75, 47.75, 48.008926, 48.610718, 49.023811, 49.755955, 50.190475, 50.444443, -10, -10, -10, -10, -10, -10, -10, -10, -10, -10, -10, -10, -10, -10, -10, -10, -10, -10, -10, -10, -10, -10, -10, -10, -10, -10, -10, -10, -10, -10, -10, -10, -10, -10, -10, -10, -10, -10, -10, -10, -10, -10, -10, -10, -10, -10, -10, -10, -10, -10, -10, -10, -10, -10, -10, -10, -10, -10, -10, -10, -10, -10, -10, -10, -10, -10, -10, -10, -10, -10, -10, -10, -10, -10, -10, -10, -10, -10, -10, -10, -10, -10, -10, -10, -10, -10, -10, -10, -10, -10, -10, -10, -10, -10, -10, -10, -10, -10
-10, -10, -10, -10, -10, -10, -10, -10, -10, 28.125, 28.416666, 28.8125, 29.723213, 30.428572, 30.9375, 31.625, 32.258926, 32.928574, 33.8125, 34.348213, 34.053574, 33.041664, 32.55357, 32.361111, 32.25, 32, 32, 32, 21.9375, 21.8125, 21.8125, 21.5, 21.3125, 21.1875, 21, 21, 21, 20.8125, 20.5625, 20.3125, 20.0625, 20, 20, 20, 19.9375, 19.6875, 19.4375, 19.1875, 19, 19, 18.9375, 18.6875, 18.4375, 18.25, 18.0625, 18.0625, 18.0625, 17.9375, 17.8125, 17.75, 17.6875, 17.5, 17.375, 17.1875, 16.9375, 16.875, 16.75, 16.5, 16.3125, 16.125, 16, 16, 16, 16, 16, 15.75, 15.5625, 15.3125, 15.0625, 15.0625, 15, 15, 15, 14.75, 14.5, 14.25, 13.9375, 13.9375, 13.8125, 13.625, 13.4375, 13.098214, 12.919642, 13, 12.9375, 13.03125, 12.78125, 12.53125, 12.28125, 12.0625, 12.125, 12.125, 12.125, 12.125, 12, 11.9375, 11.6875, 11.375, 11.089286, 10.9375, 10.875, 10.8125, 10.625, 10.3125, 10.125, 9.9375, 9.875, 9.9375, 9.9375, 9.9375, 9.6875, 9.4375, 9.1875, 9, 9, 9, 9, 8.875, 8.625, 8.375, 8.125, 8, 8, 8, 7.9375, 7.8125, 7.5625, 7.3125, 7.125, 7, 7, 7, 6.9375, 6.6875, 6.4375, 6.1875, 6, -10, -10, -10, -10, -10, -10, 16, 16, 15.732143, 15.020834, 14.535714, 14, 13.625, 13.375, 13.125, 13.0625, 12.9375, 12.75, 12.6875, 12.625, 12.625, 12.5, 12.375, 12.375, 12.5, 12.794643, 12.9375, 12.9375, 12.9375, 12.8125, 12.6875, 12.625, 12.5, 12.625, 12.875, 13.214287, 13.3125, 13.25, 13.089286, 12.9375, 12.8125, 12.964286, 13.071428, 13.0625, 13.125, 13, 13, 12.9375, 12.875, 12.875, 12.75, 12.8125, 13, 13.276787, 13.294643, 13.229167, 13.205357, 13.125, 13.21875, 13.15625, 13.09375, 13.28125, 13.5625, 14.178572, 14.919643, 15.508928, 15.8125, 16, 15.178572, 12.733334, 11.857143, 11, -10, -10, 15.75, 16, 16.5, 16.9375, 17.294643, 17.375, 17.5, 17.375, 17.1875, 17.125, 17, 17.09375, 17.21875, 17.4375, 17.8125, 18.03125, 18.3125, 18.53125, 18.708334, -10, -10, -10, -10, -10, -10, -10, -10, -10, -10, -10, -10, -10, -10, 48, 47.916668, 47.875, 47.9375, 48.196426, 48.557144, 48.880955, 49.69643, 50.142857, 50.520832, -10, -10, -10, -10, -10, -10, -10, -10, -10, -10, -10, -10, -10, -10, -10, -10, -10, -10, -10, -10, -10, -10, -10, -10, -10, -10, -10, -10, -10, -10, -10, -10, -10, -10, -10, -10, -10, -10, -10, -10, -10, -10, -10, -10, -10, -10, -10, -10, -10, -10, -10, -10, -10, -10, -10, -10, -10, -10, -10, -10, -10, -10, -10, -10, -10, -10, -10, -10, -10, -10, -10, -10, -10, -10, -10, -10, -10, -10, -10, -10, -10, -10, -10, -10, -10, -10, -10, -10, -10, -10, -10, -10, -10, -10, -10, -10, -10, -10, -10, -10, -10, -10, -10, -10, -10, -10, -10, -10, -10, -10, -10, -10, -10, -10, -10, -10, -10, -10, -10, -10, -10, 28.25, 28.5, 28.84375, 29.700893, 30.464287, 31.026787, 31.625, 32.151787, 32.75, 33.770832, 34.267857, 34, 33.270832, 32.86607, 32.520832, 32.111111, 31.904762, 31.833334, 31.888887, 21.9375, 21.8125, 21.75, 21.5, 21.375, 21.25, 21.125, 21.0625, 21, 20.8125, 20.5625, 20.3125, 20.0625, 20, 20, 20, 20, 19.75, 19.5, 19.25, 19, 19, 18.9375, 18.75, 18.5625, 18.4375, 18.3125, 18.25, 18.125, 17.830357, 17.625, 17.5, 17.5625, 17.4375, 17.375, 17.25, 16.9375, 16.875, 16.75, 16.5625, 16.375, 16.1875, 16.0625, 16, 16, 16, 16, 15.8125, 15.625, 15.375, 15.125, 15.0625, 15, 15, 15, 14.8125, 14.5625, 14.3125, 14.0625, 14, 13.8125, 13.5625, 13.3125, 13.035714, 12.919642, 13.0625, 13, 12.96875, 12.71875, 12.53125, 12.28125, 12.125, 12.1875, 12.125, 12.125, 12.125, 12, 11.9375, 11.6875, 11.4375, 11.1875, 11, 10.9375, 10.875, 10.6875, 10.4375, 10.25, 10, 9.9375, 9.9375, 9.9375, 9.875, 9.6875, 9.4375, 9.1875, 9.0625, 9, 9, 9, 8.875, 8.625, 8.375, 8.125, 8, 7.9375, 7.9375, 7.875, 7.75, 7.5625, 7.3125, 7.125, 7, 7, 7, 6.875, 6.625, 6.375, 6.125, 6, -10, -10, -10, -10, -10, -10, 16, 16, 15.741072, 15.291667, 14.821428, 14.205357, 13.821428, 13.5625, 13.3125, 13.1875, 13, 12.6875, 12.5625, 12.4375, 12.375, 12.25, 12.0625, 12.0625, 12.1875, 12.544643, 12.8125, 12.8125, 12.8125, 12.625, 12.4375, 12.375, 12.3125, 12.5625, 12.982143, 13.339287, 13.4375, 13.3125, 13.089286, 12.875, 12.75, 12.901786, 13.008928, 13.0625, 13.1875, 13.0625, 13.0625, 13.0625, 13, 13, 12.8125, 12.8125, 12.9375, 13.214287, 13.263393, 13.072917, 12.986607, 12.90625, 13.09375, 13.21875, 13.28125, 13.53125, 13.875, 14.535715, 15.169643, 15.651786, 15.875, 16, 15.330357, 13.109523, 12.301021, 11.607142, -10, -10, 15.666667, 15.916668, 16.553572, 17.044643, 17.482143, 17.6875, 17.8125, 17.616072, 17.25, 17.125, 16.9375, 17.03125, 17.15625, 17.3125, 17.65625, 17.84375, 18.25, 18.458334, 18.611113, -10, -10, -10, -10, -10, -10, -10, -10, -10, -10, -10, -10, -10, -10, 48, 48, 48, 48.125, 48.383926, 48.637501, 48.880955, 49.57143, 49.973213, 50.389881, 51, 51.404762, -10, -10, -10, -10, -10, -10, -10, -10, -10, -10, -10, -10, -10, -10, -10, -10, -10, -10, -10, -10, -10, -10, -10, -10, -10, -10, -10, -10, -10, -10, -10, -10, -10, -10, -10, -10, -10, -10, -10, -10, -10, -10, -10, -10, -10, -10, -10, -10, -10, -10, -10, -10, -10, -10, -10, -10, -10, -10, -10, -10, -10, -10, -10, -10, -10, -10, -10, -10, -10, -10, -10, -10, -10, -10, -10, -10, -10, -10, -10, -10, -10, -10, -10, -10, -10, -10, -10, -10, -10, -10, -10, -10, -10, -10, -10, -10
-10, -10, -10, -10, -10, -10, -10, -10, -10, 28.375, 28.583332, 28.875, 29.678572, 30.5, 31.044643, 31.616072, 32.336311, 32.89286, 33.833332, 34.232143, 33.9375, 33.4375, 33.098213, 32.723213, 32.226189, 31.928572, 31.75, 31.729166, 21.833334, 21.75, 21.6875, 21.5625, 21.5, 21.375, 21.25, 21.125, 21, 20.75, 20.5, 20.25, 20, 20, 20, 20, 20, 19.75, 19.5, 19.25, 19, 19, 18.9375, 18.8125, 18.6875, 18.5625, 18.4375, 18.3125, 18.125, 17.830357, 17.5625, 17.5, 17.5625, 17.4375, 17.4375, 17.25, 16.9375, 16.875, 16.8125, 16.6875, 16.5625, 16.375, 16.25, 16.107143, 15.892857, 15.821428, 15.75, 15.625, 15.5, 15.3125, 15.125, 15.0625, 15, 15, 15, 14.875, 14.625, 14.375, 14.125, 14, 13.8125, 13.625, 13.375, 13.035714, 12.919642, 13.098214, 13, 13.03125, 12.71875, 12.59375, 12.34375, 12.1875, 12.25, 12.125, 12.125, 12.125, 12, 11.9375, 11.75, 11.5, 11.25, 11.0625, 11, 11, 10.8125, 10.5625, 10.3125, 10, 9.9375, 9.9375, 9.875, 9.75, 9.5625, 9.375, 9.25, 9.25, 9.1875, 9.125, 9.0625, 8.9375, 8.6875, 8.4375, 8.1875, 8, 7.9375, 7.9375, 7.875, 7.75, 7.5625, 7.3125, 7.125, 7, 7, 6.9375, 6.75, 6.5, 6.25, 6.0625, 6, -10, -10, -10, -10, -10, -10, 16, 16, 15.8125, 15.625, 15.178572, 14.434524, 14.017857, 13.6875, 13.4375, 13.25, 13, 12.616072, 12.229167, 12.080357, 12.0625, 12.071428, 11.90625, 11.90625, 11.96875, 12.294643, 12.5625, 12.5625, 12.5625, 12.375, 12.1875, 12.125, 12.125, 12.46875, 13.013393, 13.433037, 13.53125, 13.375, 13.089286, 12.8125, 12.6875, 12.839286, 12.946428, 13.0625, 13.1875, 13.0625, 13.0625, 13, 12.875, 12.892857, 12.7125, 12.604167, 12.9375, 13.151787, 13.325893, 13.197917, 13.174107, 13.09375, 13.174107, 13.28125, 13.34375, 13.647322, 14.291667, 14.964286, 15.482143, 15.794643, 15.9375, 16, 15.482142, 14.633334, 14.166667, 13.805556, 15.125, 15.125, 15.5625, 15.875001, 16.482143, 17.151787, 17.607143, 17.875, 18, 17.741072, 17.375, 17.1875, 16.9375, 17, 17.15625, 17.223213, 17.433037, 17.625, -10, -10, -10, -10, -10, -10, -10, -10, -10, -10, -10, -10, -10, -10, -10, -10, -10, -10, 48, 48, 48.0625, 48.285713, 48.619644, 48.880955, 49.50893, 49.9375, 50.431545, 50.916668, 51.26984, 51, -10, -10, -10, -10, -10, -10, -10, -10, -10, -10, -10, -10, -10, -10, -10, -10, -10, -10, -10, -10, -10, -10, -10, -10, -10, -10, -10, -10, -10, -10, -10, -10, -10, -10, -10, -10, -10, -10, -10, -10, -10, -10, -10, -10, -10, -10, -10, -10, -10, -10, -10, -10, -10, -10, -10, -10, -10, -10, -10, -10, -10, -10, -10, -10, -10, -10, -10, -10, -10, -10, -10, -10, -10, -10, -10, -10, -10, -10, -10, -10, -10, -10, -10, -10, -10, -10, -10, -10, -10, -10, -10, -10, -10, -10, -10, -10, -10, -10, -10, -10, -10, -10, -10, -10, -10, -10, -10, -10, -10, -10, -10, -10, -10, -10, -10, -10, -10, -10, 28.5, 28.666666, 28.875, 29.571428, 30.476191, 30.973215, 31.535715, 32.5625, 33.14286, 33.84375, 34.242561, 34.135418, 33.625, 33.348213, 32.910713, 32.288689, 31.991072, 31.75, 31.729166, 31.375, 21.888887, 21.8125, 21.75, 21.6875, 21.5, 21.375, 21.1875, 21, 20.8125, 20.5625, 20.3125, 20.0625, 20, 19.9375, 19.9375, 19.9375, 19.6875, 19.5, 19.25, 19, 19, 18.9375, 18.875, 18.8125, 18.6875, 18.5625, 18.375, 18.0625, 17.767857, 17.5625, 17.5, 17.5625, 17.4375, 17.375, 17.1875, 17, 17, 17, 16.9375, 16.75, 16.5, 16.375, 16.142857, 15.785714, 15.642857, 15.5, 15.4375, 15.3125, 15.1875, 15.0625, 15, 15, 15, 14.9375, 14.8125, 14.5625, 14.3125, 14.125, 14, 13.875, 13.6875, 13.5, 13.223214, 13.026786, 13.098214, 13, 13, 12.8125, 12.6875, 12.4375, 12.25, 12.1875, 12.0625, 12.0625, 12.0625, 12, 12, 11.875, 11.6875, 11.5, 11.3125, 11.1875, 11.125, 10.8125, 10.5, 10.25, 10, 10, 10, 9.9375, 9.8125, 9.625, 9.5, 9.375, 9.3125, 9.25, 9.125, 9.0625, 9, 8.75, 8.5, 8.25, 8, 7.9375, 7.9375, 7.875, 7.75, 7.5625, 7.3125, 7.125, 7, 7, 6.9375, 6.6875, 6.4375, 6.1875, 6, 6, 6, -10, -10, -10, -10, -10, 16, 16, 15.8125, 15.6875, 15.285714, 14.559524, 14.205357, 13.84375, 13.59375, 13.34375, 13.09375, 12.678572, 12.229167, 12.017857, 11.9375, 11.915178, 11.75, 11.75, 11.8125, 12.214287, 12.4375, 12.5, 12.4375, 12.25, 12.1875, 12.1875, 12.3125, 12.65625, 13.138393, 13.388393, 13.46875, 13.3125, 13.0625, 12.9375, 13.104167, 13.267858, 13.183673, 13.4375, 13.446428, 13.104167, 13.0625, 12.875, 12.75, 12.767857, 12.65, 12.604167, 12.9375, 13.044643, 13.200893, 13.135417, 13.174107, 13.09375, 13.142857, 13.25, 13.375, 13.803572, 14.666667, 15.214286, 15.669643, 15.8125, 15.9375, 15.96875, 15.602678, 15.035714, 14.678572, 14.476191, 15, 15.083333, 15.375, 15.729167, 16.535713, 17.258928, 17.669643, 17.9375, 18, 17.803572, 17.46875, 17.3125, 17.125, 17.125, 17.3125, 17.258928, 17.133036, 17.458334, -10, -10, -10, -10, -10, -10, -10, -10, -10, -10, -10, -10, -10, -10, -10, -10, -10, -10, 48, 48, 48.0625, 48.276787, 48.607143, 49.07143, 49.482143, 50, 50.473213, 50.9375, 51.327381, 51.333332, -10, -10, -10, -10, -10, -10, -10, -10, -10, -10, -10, -10, -10, -10, -10, -10, -10, -10, -10, -10, -10, -10, -10, -10, -10, -10, -10, -10, -10, -10, -10, -10, -10, -10, -10, -10, -10, -10, -10, -10, -10, -10, -10, -10, -10, -10, -10, -10, -10, -10, -10, -10, -10, -10, -10, -10, -10, -10, -10, -10, -10, -10, -10, -10, -10, -10, -10, -10, -10, -10, -10, -10, -10, -10, -10, -10, -10, -10, -10, -10, -10, -10, -10, -10, -10, -10, -10, -10, -10, -10, -10, -10, -10, -10, -10
-10, -10, -10, -10, -10, -10, -10, -10, -10, 28.5, 28.666666, 28.8125, 29.455357, 30.535713, 31.035715, 31.630953, 32.833332, 33.589287, 34.09375, 34.075893, 33.90625, 33.6875, 33.5625, 33.17857, 32.226189, 31.919643, 31.625, 31.666666, 31.5, 31.666666, 21.8125, 21.854166, 21.875, 21.625, 21.5, 21.25, 21, 20.8125, 20.5625, 20.3125, 20.0625, 20, 19.9375, 19.9375, 19.9375, 19.75, 19.553572, 19.1875, 19, 18.9375, 19, 18.9375, 18.9375, 18.75, 18.5625, 18.375, 18, 17.830357, 17.6875, 17.5625, 17.5625, 17.375, 17.25, 17.125, 17, 17, 17, 17, 16.8125, 16.5625, 16.4375, 16.080357, 15.660714, 15.455357, 15.25, 15.25, 15.1875, 15.125, 15.0625, 15, 15, 14.9375, 14.8125, 14.6875, 14.4375, 14.25, 14.125, 14, 13.875, 13.6875, 13.4375, 13.1875, 13.0625, 13.098214, 13.0625, 13, 12.875, 12.75, 12.5625, 12.375, 12.1875, 12.0625, 12, 11.9375, 11.875, 11.8125, 11.6875, 11.5625, 11.4375, 11.3125, 11.1875, 11.125, 10.875, 10.5625, 10.3125, 10.0625, 10, 10, 9.9375, 9.8125, 9.6875, 9.5625, 9.4375, 9.4375, 9.375, 9.2321434, 9.0625, 8.9375, 8.625, 8.4375, 8.1875, 8, 7.9375, 7.9375, 7.875, 7.6875, 7.5, 7.25, 7.0625, 7, 7, 6.9375, 6.75, 6.5, 6.25, 6.0625, 6, -10, -10, -10, -10, -10, -10, 16, 15.916667, 15.75, 15.625, 15.285714, 14.622024, 14.330357, 13.90625, 13.385417, 13.066964, 12.75, 12.459822, 12.072917, 11.955357, 11.9375, 11.977678, 11.875, 11.875, 11.875, 12.044643, 12.125, 12.142857, 12.270833, 12.169643, 12.1875, 12.25, 12.4375, 12.78125, 13.200893, 13.34375, 13.34375, 13.125, 12.901786, 12.875, 13.345239, 13.660715, 14.166667, 13.875, 13.696428, 13.247025, 13.125, 12.8125, 12.6875, 12.705357, 12.65, 12.666667, 12.9375, 12.9375, 13.09375, 13.21875, 13.28125, 13.28125, 13.267857, 13.375, 13.5625, 13.991072, 14.854167, 15.223214, 15.625, 15.75, 15.875, 15.96875, 15.71875, 15.34375, 14.986607, 14.8125, 14.8125, 14.9375, 15.25, 15.75, 16.714285, 17.428572, 17.75, 17.9375, 17.9375, 17.803572, 17.450893, 17.25, 17.125, 17.169643, 17.40625, 17.290178, 17.133036, -10, -10, -10, -10, -10, -10, -10, -10, -10, -10, -10, -10, -10, -10, -10, -10, -10, -10, -10, 48, 48, 48, 48.214287, 48.607143, 49.107143, 49.5, 50, 50.410713, 50.830357, 51.285713, 51.5, 52.333332, -10, -10, -10, -10, -10, -10, -10, -10, -10, -10, -10, -10, -10, -10, -10, -10, -10, -10, -10, -10, -10, -10, -10, -10, -10, -10, -10, -10, -10, -10, -10, -10, -10, -10, -10, -10, -10, -10, -10, -10, -10, -10, -10, -10, -10, -10, -10, -10, -10, -10, -10, -10, -10, -10, -10, -10, -10, -10, -10, -10, -10, -10, -10, -10, -10, -10, -10, -10, -10, -10, -10, -10, -10, -10, -10, -10, -10, -10, -10, -10, -10, -10, -10, -10, -10, -10, -10, -10, -10, -10, -10, -10, -10, -10, -10, -10, -10, -10, -10, -10, -10, -10, -10, -10, -10, -10, -10, -10, -10, -10, -10, -10, -10, -10, -10, -10, -10, 28.291666, 28.749998, 28.915178, 29.549107, 30.571428, 31.133928, -10, -10, 34.080357, 34.302086, 34.25, 34.03125, 33.803574, 33.5, 33.17857, 32.392857, 32.11607, 31.75, 31.625, 31.4375, 31.444443, 21.75, 21.75, 21.75, 21.5, 21.375, 21.1875, 21, 20.8125, 20.5625, 20.3125, 20.0625, 20.0625, 20, 20, 19.9375, 19.6875, 19.491072, 19.125, 19, 18.9375, 19, 18.875, 18.875, 18.6875, 18.4375, 18.3125, 18, 17.9375, 17.875, 17.75, 17.625, 17.375, 17.1875, 17.0625, 17, 17, 17, 17, 16.875, 16.625, 16.5, 16.142857, 15.660714, 15.455357, 15.1875, 15.125, 15.0625, 15, 15, 15, 15, 14.875, 14.6875, 14.5625, 14.375, 14.25, 14.1875, 14.0625, 13.875, 13.6875, 13.4375, 13.125, 13, 13.035714, 13, 13.0625, 12.875, 12.6875, 12.5, 12.25, 12.125, 12.0625, 12, 11.9375, 11.8125, 11.6875, 11.5625, 11.5, 11.4375, 11.375, 11.25, 11.125, 10.875, 10.5625, 10.3125, 10.0625, 10, 10, 9.9375, 9.875, 9.6875, 9.5625, 9.4375, 9.4375, 9.4375, 9.2946434, 9.125, 8.875, 8.5625, 8.375, 8.125, 8, 8, 8, 7.9375, 7.75, 7.5, 7.25, 7.0625, 7, 7, 6.9375, 6.8125, 6.5625, 6.3125, 6.125, 6, -10, -10, -10, -10, -10, -10, 16, 15.833334, 15.6875, 15.5, 15.116072, 14.604167, 14.321428, 13.834822, 13.114584, 12.763392, 12.375, 12.147322, 11.822917, 11.767857, 11.875, 12.040178, 12, 12, 12, 12.044643, 12, 12.080357, 12.208333, 12.169643, 12.25, 12.25, 12.4375, 12.71875, 12.96875, 13.03125, 12.933036, 12.8125, 12.758929, 12.9375, 13.532739, 13.910715, 14.321428, 14.0625, 13.758928, 13.247025, 13.0625, 12.6875, 12.625, 12.642857, 12.65, 12.729167, 13, 13, 13.125, 13.3125, 13.375, 13.375, 13.267857, 13.25, 13.4375, 13.803572, 14.604167, 14.928572, 15.375, 15.607143, 15.8125, 15.96875, 15.709822, 15.135417, 14.745535, 14.5, 14.5, 14.625, 14.875, 15.455357, 16.702381, 17.428572, 17.8125, 17.9375, 17.9375, 17.875, 17.669643, 17.40625, 17.34375, 17.294643, 17.46875, 17.321428, 17.080952, -10, -10, -10, -10, -10, -10, -10, -10, -10, -10, -10, -10, -10, -10, -10, -10, -10, -10, -10, 48, 48, 47.9375, 48.089287, 48.482143, 49.044643, 49.616074, 50.169643, 50.5625, 51, 51.375, 51.75, 52.388885, -10, -10, -10, -10, -10, -10, -10, -10, -10, -10, -10, -10, -10, -10, -10, -10, -10, -10, -10, -10, -10, -10, -10, -10, -10, -10, -10, -10, -10, -10, -10, -10, -10, -10, -10, -10, -10, -10, -10, -10, -10, -10, -10, -10, -10, -10, -10, -10, -10, -10, -10, -10, -10, -10, -10, -10, -10, -10, -10, -10, -10, -10, -10, -10, -10, -10, -10, -10, -10, -10, -10, -10, -10, -10, -10, -10, -10, -10, -10, -10, -10, -10, -10, -10, -10, -10, -10, -10, -10, -10, -10, -10, -10, -10
-10, -10, -10, -10, -10, -10, -10, -10, -10, 28.229166, 28.791666, 29.035715, 29.642857, 30.607141, 31.303572, -10, -10, 34.25, 34.34375, 34.28125, 34.0625, 33.866074, 33.5, 33.142857, 32.40625, 32.24107, 31.910713, 31.705357, 31.508928, 31.333332, 21.666666, 21.5, 21.5, 21.3125, 21.25, 21.125, 21, 20.875, 20.6875, 20.4375, 20.1875, 20.1875, 20.035713, 19.892857, 19.830357, 19.5625, 19.428572, 19.125, 18.9375, 18.875, 18.9375, 18.75, 18.8125, 18.625, 18.375, 18.25, 17.9375, 17.8125, 17.75, 17.625, 17.4375, 17.25, 17.0625, 17, 17, 17, 17, 16.9375, 16.75, 16.5, 16.3125, 16.035713, 15.767857, 15.633928, 15.4375, 15.3125, 15.1875, 15.0625, 15, 15, 15, 14.875, 14.625, 14.4375, 14.25, 14.125, 14.125, 14.0625, 13.8125, 13.625, 13.375, 13.125, 13.0625, 13, 13, 13, 12.9375, 12.6875, 12.5, 12.3125, 12.125, 12.125, 12.0625, 11.9375, 11.8125, 11.6875, 11.5, 11.4375, 11.375, 11.3125, 11.25, 11.125, 10.875, 10.625, 10.375, 10.125, 10.0625, 10, 10, 10, 9.8125, 9.625, 9.375, 9.25, 9.25, 9.1696434, 9.0625, 8.8125, 8.5, 8.3125, 8.0625, 8, 8, 8, 8, 7.8125, 7.5625, 7.3125, 7.0625, 7, 7, 7, 6.875, 6.625, 6.375, 6.125, 6, -10, -10, -10, -10, -10, -10, 16, 15.833334, 15.625, 15.3125, 14.830357, 14.5, 14.1875, 13.772322, 13.052084, 12.638392, 12.25, 12.03125, 11.90625, 11.875, 11.9375, 11.96875, 11.90625, 11.90625, 11.96875, 12.107143, 12.125, 12.267857, 12.458333, 12.357143, 12.4375, 12.4375, 12.5625, 12.8125, 12.9375, 12.9375, 12.839286, 12.75, 12.758929, 12.9375, 13.532739, 13.973215, 14.223214, 14.0625, 13.723214, 13.184525, 13, 12.6875, 12.6875, 12.6875, 12.75, 13, 13.0625, 13.0625, 12.9375, 13, 13, 13.125, 13.1875, 13.25, 13.5, 13.75, 14.25, 14.5625, 15.0625, 15.464286, 15.75, 15.96875, 15.665178, 14.84375, 14.433035, 14.1875, 14.25, 14.375, 14.669643, 15.601191, 16.809525, 17.50893, 17.875, 17.9375, 17.9375, 17.9375, 17.732143, 17.46875, 17.40625, 17.294643, 17.40625, 17.285713, 17.116665, -10, -10, -10, -10, -10, -10, -10, -10, -10, -10, -10, -10, -10, -10, -10, -10, -10, -10, -10, 48, 48, 48, 48.125, 48.4375, 48.919643, 49.491074, 50.107143, 50.544643, 51.0625, 51.5, 52, 52.416664, 52.833336, -10, -10, -10, -10, -10, -10, -10, -10, -10, -10, -10, -10, -10, -10, -10, -10, -10, -10, -10, -10, -10, -10, -10, -10, -10, -10, -10, -10, -10, -10, -10, -10, -10, -10, -10, -10, -10, -10, -10, -10, -10, -10, -10, -10, -10, -10, -10, -10, -10, -10, -10, -10, -10, -10, -10, -10, -10, -10, -10, -10, -10, -10, -10, -10, -10, -10, -10, -10, -10, -10, -10, -10, -10, -10, -10, -10, -10, -10, -10, -10, -10, -10, -10, -10, -10, -10, -10, -10, -10, -10, -10, -10, -10, -10, -10, -10, -10, -10, -10, -10, -10, -10, -10, -10, -10, -10, -10, -10, -10, -10, -10, -10, -10, -10, -10, -10, 28.229166, 28.833334, 29.129465, 29.790178, 30.680059, 31.553572, -10, -10, 34.125, 34.125, 34.0625, 33.90625, 33.803574, 33.5, 33.205357, 32.495537, 32.36607, 32.035713, 31.830357, 31.633928, 31.416666, 31.5, 21.333334, 21.25, 21.125, 21.125, 21.0625, 21, 20.875, 20.75, 20.5, 20.25, 20.3125, 20.223213, 20.0625, 19.809523, 19.580357, 19.366072, 19.125, 19, 18.875, 18.9375, 18.6875, 18.6875, 18.5, 18.25, 18.1875, 18, 17.8125, 17.6875, 17.5, 17.25, 17.125, 17, 17, 17, 16.9375, 16.9375, 16.875, 16.6875, 16.5, 16.25, 16, 15.875, 15.8125, 15.6875, 15.5, 15.3125, 15.125, 15, 15, 15, 14.8125, 14.5625, 14.375, 14.1875, 14.125, 14.125, 14.0625, 13.75, 13.5625, 13.3125, 13.0625, 13.0625, 13, 13, 13, 12.9375, 12.75, 12.5625, 12.375, 12.1875, 12.125, 12.0625, 11.9375, 11.8125, 11.6875, 11.5, 11.375, 11.25, 11.125, 11.0625, 11, 10.875, 10.75, 10.5, 10.25, 10.125, 10, 10, 10, 9.875, 9.625, 9.375, 9.25, 9.1875, 9.1696434, 9.0625, 8.75, 8.4375, 8.25, 8, 8, 8, 8, 8, 7.8125, 7.5625, 7.3125, 7.0625, 7, 7, 7, 6.875, 6.625, 6.375, 6.125, 6, -10, -10, -10, -10, -10, 16, 16, 15.833334, 15.625, 15.25, 14.651786, 14.267857, 13.9375, 13.553572, 12.958334, 12.669642, 12.34375, 12.21875, 12.03125, 11.9375, 12, 12, 12, 12, 12, 12, 11.9375, 12.080357, 12.364583, 12.388393, 12.53125, 12.53125, 12.5625, 12.75, 12.8125, 12.8125, 12.776786, 12.75, 12.821429, 12.875, 13.116072, 13.419643, 13.598214, 13.5, 13.339286, 13.080357, 12.875, 12.6875, 12.625, 12.625, 12.75, 13, 13.0625, 13.0625, 13, 13.0625, 13.125, 13.25, 13.25, 13.25, 13.375, 13.5625, 13.875, 14.3125, 14.875, 15.446428, 15.75, 15.892857, 15.258928, 14.419643, 13.964285, 13.8125, 13.875, 14, 14.357143, 15.538691, 16.773809, 17.50893, 17.875, 17.875, 17.8125, 17.75, 17.513393, 17.28125, 17.28125, 17.232143, 17.3125, 17.25, 17.229166, 17.1875, 17.3125, 17.607143, 17.833332, -10, -10, -10, -10, -10, -10, -10, -10, -10, -10, -10, -10, -10, -10, -10, 48, 48, 47.9375, 48, 48.1875, 48.5, 49.116074, 49.732143, 50.348213, 50.991074, 51.482143, 52, 52.458332, 52.888889, 53.416664, -10, -10, -10, -10, -10, -10, -10, -10, -10, -10, -10, -10, -10, -10, -10, -10, -10, -10, -10, -10, -10, -10, -10, -10, -10, -10, -10, -10, -10, -10, -10, -10, -10, -10, -10, -10, -10, -10, -10, -10, -10, -10, -10, -10, -10, -10, -10, -10, -10, -10, -10, -10, -10, -10, -10, -10, -10, -10, -10, -10, -10, -10, -10, -10, -10, -10, -10, -10, -10, -10, -10, -10, -10, -10, -10, -10, -10, -10, -10, -10, -10, -10, -10, -10, -10, -10, -10, -10, -10, -10, -10, -10
-10, -10, -10, -10, -10, -10, -10, -10, -10, 28.229166, 28.895834, 29.30134, 30.058037, 30.747768, 31.678572, 32.214287, 32.875, 33.857143, 33.895836, 33.875, 33.78125, 33.678574, 33.375, 33.125, 32.709824, 32.5625, 32.223213, 31.955357, 31.696428, 31.4375, 31.5, 31.666668, 21.3125, 21.166666, 21.125, 21.0625, 21, 20.875, 20.75, 20.5, 20.25, 20.3125, 20.285713, 20.1875, 19.934523, 19.705357, 19.4375, 19.25, 19.0625, 18.9375, 18.9375, 18.6875, 18.625, 18.4375, 18.1875, 18.125, 18, 17.75, 17.5625, 17.4375, 17.25, 17.1875, 17.125, 17.0625, 17, 16.875, 16.8125, 16.6875, 16.5, 16.4375, 16.25, 16.125, 16.0625, 16, 15.9375, 15.6875, 15.4375, 15.1875, 15, 14.9375, 14.875, 14.6875, 14.4375, 14.3125, 14.1875, 14.125, 14.125, 14.0625, 13.8125, 13.625, 13.375, 13.125, 13.0625, 13, 13, 13, 12.9375, 12.8125, 12.5625, 12.375, 12.1875, 12.0625, 12.0625, 12, 11.9375, 11.8125, 11.625, 11.4375, 11.25, 11.125, 11.0625, 11, 10.875, 10.8125, 10.625, 10.375, 10.25, 10.0625, 10, 10, 9.875, 9.6875, 9.4375, 9.25, 9.125, 9.0625, 9.0625, 8.75, 8.5, 8.25, 8, 8, 8, 8, 8, 7.8125, 7.5625, 7.3125, 7.0625, 7, 7, 7, 6.8125, 6.5625, 6.3125, 6.0625, 6, -10, -10, -10, -10, -10, -10, 16, 15.916667, 15.6875, 15.3125, 14.651786, 13.997024, 13.633928, 13.303572, 13.041667, 12.883928, 12.6875, 12.714286, 12.375, 12.25, 12.1875, 12.125, 12.0625, 12, 12, 12.0625, 12.0625, 12.25, 12.46875, 12.566964, 12.71875, 12.65625, 12.5625, 12.6875, 12.6875, 12.6875, 12.714286, 12.75, 12.857143, 12.875, 12.9375, 13.0625, 13.223214, 13.125, 13.089286, 13, 12.75, 12.625, 12.5625, 12.5625, 12.75, 13, 13.0625, 13.0625, 13.0625, 13.1875, 13.232143, 13.1875, 13.1875, 13.0625, 13.1875, 13.3125, 13.5625, 14.0625, 14.741072, 15.428572, 15.75, 15.785713, 14.821428, 13.964287, 13.571428, 13.5, 13.5625, 13.6875, 14.035715, 15.476191, 16.738094, 17.50893, 17.875, 17.875, 17.75, 17.625, 17.40625, 17.28125, 17.21875, 17.125, 17.125, 17.15625, 17.229166, 17.291666, 17.291666, 17.404762, 17.622221, -10, -10, -10, -10, -10, -10, -10, -10, -10, -10, -10, -10, -10, -10, -10, 48, 48, 47.875, 47.875, 48, 48.1875, 48.8125, 49.565475, 50.223213, 50.928574, 51.464287, 52, 52.5, 52.916668, 53.444443, 53.666668, -10, -10, -10, -10, -10, -10, -10, -10, -10, -10, -10, -10, -10, -10, -10, -10, -10, -10, -10, -10, -10, -10, -10, -10, -10, -10, -10, -10, -10, -10, -10, -10, -10, -10, -10, -10, -10, -10, -10, -10, -10, -10, -10, -10, -10, -10, -10, -10, -10, -10, -10, -10, -10, -10, -10, -10, -10, -10, -10, -10, -10, -10, -10, -10, -10, -10, -10, -10, -10, -10, -10, -10, -10, -10, -10, -10, -10, -10, -10, -10, -10, -10, -10, -10, -10, -10, -10, -10, -10, -10, -10, -10, -10, -10, -10, -10, -10, -10, -10, -10, -10, -10, -10, -10, -10, -10, -10, -10, -10, -10, -10, -10, -10, -10, 28.4375, 28.895834, 29.408482, 30.16518, 30.819197, 31.678572, 32.238094, 32.708332, 33.450893, 33.572918, 33.700893, 33.71875, 33.75, 33.5625, 33.25, 32.897324, 32.625, 32.348213, 32.142857, 31.821428, 31.5625, 31.4375, 31.444445, 21.5, 21.333332, 21.25, 21.125, 21, 20.875, 20.75, 20.5, 20.25, 20.25, 20.223213, 20.1875, 19.970238, 19.723213, 19.446428, 19.25, 19.0625, 18.875, 18.8125, 18.5625, 18.5, 18.3125, 18.125, 18.0625, 17.9375, 17.75, 17.5625, 17.5, 17.375, 17.375, 17.3125, 17.1875, 17.0625, 16.8125, 16.6875, 16.5, 16.25, 16.25, 16.125, 16.0625, 16.0625, 16, 16, 15.75, 15.5, 15.25, 15, 14.875, 14.75, 14.5625, 14.3125, 14.1875, 14.0625, 14, 14, 14, 13.8125, 13.625, 13.4375, 13.1875, 13.125, 13.0625, 13, 13, 13, 12.9375, 12.6875, 12.5, 12.25, 12.0625, 12.0625, 12, 12, 11.875, 11.6875, 11.4375, 11.1875, 11.0625, 11, 11, 10.9375, 10.875, 10.6875, 10.4375, 10.25, 10.0625, 10, 10, 9.9375, 9.8125, 9.5625, 9.3125, 9.125, 9, 9, 8.75, 8.5, 8.25, 8, 8, 8, 8, 8, 7.75, 7.5, 7.25, 7, 7, 7, 7, 6.75, 6.5, 6.25, 6.0625, 6.1875, -10, -10, -10, -10, -10, -10, 16, 16, 15.75, 15.375, 14.714286, 13.788692, 13.392857, 13.125, 13.125, 13.0625, 13, 12.9375, 12.75, 12.625, 12.4375, 12.25, 12.125, 12, 12, 12.0625, 12.0625, 12.25, 12.53125, 12.691964, 12.90625, 12.84375, 12.6875, 12.75, 12.75, 12.875, 13, 13, 13, 12.875, 12.8125, 12.875, 12.973214, 12.875, 12.901786, 12.875, 12.6875, 12.6875, 12.625, 12.625, 12.8125, 13, 13.0625, 13.0625, 13.0625, 13.1875, 13.232143, 13.1875, 13.1875, 13.0625, 13.125, 13.1875, 13.4375, 13.9375, 14.732143, 15.5, 15.919643, 15.821428, 14.476191, 13.619047, 13.125, 13.125, 13.1875, 13.375, 13.892858, 15.666667, 16.67857, 17.50893, 17.8125, 17.875, 17.6875, 17.589287, 17.4375, 17.196428, 17.133928, 17, 17.0625, 17.1875, 17.375, 17.397322, 17.268749, 17.482143, 17.616667, -10, -10, -10, -10, -10, -10, -10, -10, -10, -10, -10, -10, -10, -10, -10, 48, 48, 47.875, 47.875, 48, 48.125, 48.571426, 49.270832, 49.973213, 50.723213, 51.339287, 51.9375, 52.482143, 53, 53.458332, 53.777782, -10, -10, -10, -10, -10, -10, -10, -10, -10, -10, -10, -10, -10, -10, -10, -10, -10, -10, -10, -10, -10, -10, -10, -10, -10, -10, -10, -10, -10, -10, -10, -10, -10, -10, -10, -10, -10, -10, -10, -10, -10, -10, -10, -10, -10, -10, -10, -10, -10, -10, -10, -10, -10, -10, -10, -10, -10, -10, -10, -10, -10, -10, -10, -10, -10, -10, -10, -10, -10, -10, -10, -10, -10, -10, -10, -10, -10, -10, -10, -10, -10, -10, -10, -10, -10, -10, -10, -10, -10, -10, -10
-10, -10, -10, -10, -10, -10, -10, -10, -10, 28.5, 28.854166, 29.319197, 30.248512, 30.890625, 31.678572, 32.357143, 32.959824, 33.424107, 33.59375, 33.794643, 33.785713, 33.705357, 33.508926, 33.25, 32.991074, 32.75, 32.5625, 32.428574, 31.916666, 31.633928, 31.4375, 31.333334, 21.428572, 21.083332, 21.0625, 21, 20.875, 20.75, 20.5625, 20.3125, 20.125, 20.125, 20.1875, 20.294643, 20.077381, 19.848213, 19.508928, 19.25, 19.125, 18.875, 18.75, 18.5, 18.3125, 18.1875, 18.0625, 18.0625, 18, 17.875, 17.75, 17.6875, 17.625, 17.5625, 17.4375, 17.25, 17.0625, 16.8125, 16.6875, 16.5625, 16.3125, 16.3125, 16.1875, 16.0625, 16.0625, 16, 16, 15.75, 15.5, 15.25, 15, 14.875, 14.75, 14.5, 14.25, 14.125, 14, 14, 14, 14, 13.875, 13.625, 13.4375, 13.1875, 13.0625, 13.125, 13.125, 13.125, 13.0625, 12.892857, 12.625, 12.375, 12.1875, 12, 12, 12, 11.9375, 11.75, 11.5625, 11.3125, 11.125, 11.0625, 11, 11, 11, 10.875, 10.6875, 10.4375, 10.1875, 10.0625, 10, 10, 10, 9.9375, 9.6875, 9.4375, 9.1875, 9, 9, 8.75, 8.5, 8.25, 8, 8, 8, 8, 7.9375, 7.6875, 7.4375, 7.1875, 7, 7, 7, 7, 6.8125, 6.5625, 6.3125, 6.125, 6.2946429, 7.3499999, -10, -10, -10, -10, -10, 16, 15.916667, 15.6875, 15.375, 14.75, 13.642858, 13.276785, 13, 13, 13.0625, 13.0625, 13.0625, 13, 12.875, 12.625, 12.375, 12.1875, 12, 11.9375, 11.9375, 11.875, 12, 12.34375, 12.629464, 12.90625, 12.90625, 12.75, 12.75, 12.75, 12.875, 12.9375, 12.9375, 12.9375, 12.875, 12.875, 12.875, 12.9375, 12.875, 12.9375, 12.875, 12.625, 12.625, 12.5625, 12.625, 12.8125, 12.9375, 13, 13, 13.125, 13.25, 13.294643, 13.1875, 13.125, 13, 13, 13.0625, 13.3125, 13.8125, 14.723215, 15.571428, 16.089287, 15.857141, 14.166666, 13.369047, 12.541667, 12.580357, 12.5625, 12.8125, 13.428572, 15.333333, 16.42857, 17.35268, 17.71875, 17.84375, 17.6875, 17.589287, 17.5625, 17.321428, 17.171429, 17.25, 17.241072, 17.4375, 17.553572, 17.397322, 17.268749, 17.464285, 17.616667, -10, -10, -10, -10, -10, -10, -10, -10, -10, -10, -10, -10, -10, -10, -10, 48, 48, 47.875, 47.8125, 47.901787, 48.107143, 48.571426, 49.208332, 49.866074, 50.598213, 51.214287, 51.8125, 52.357143, 52.9375, 53.410713, 53.726192, 54.464287, 54.633331, -10, -10, -10, -10, -10, -10, -10, -10, -10, -10, -10, -10, -10, -10, -10, -10, -10, -10, -10, -10, -10, -10, -10, -10, -10, -10, -10, -10, -10, -10, -10, -10, -10, -10, -10, -10, -10, -10, -10, -10, -10, -10, -10, -10, -10, -10, -10, -10, -10, -10, -10, -10, -10, -10, -10, -10, -10, -10, -10, -10, -10, -10, -10, -10, -10, -10, -10, -10, -10, -10, -10, -10, -10, -10, -10, -10, -10, -10, -10, -10, -10, -10, -10, -10, -10, -10, -10, -10, -10, -10, -10, -10, -10, -10, -10, -10, -10, -10, -10, -10, -10, -10, -10, -10, -10, -10, -10, -10, -10, -10, -10, -10, 28.5, 28.895832, 29.430803, 30.311012, 30.953125, 31.65625, 32.357143, 32.959824, 33.424107, 33.71875, 34.044643, 34.017857, 33.747025, 33.455357, 33.1875, 33.026787, 32.8125, 32.6875, 32.482143, 31.770832, 31.455357, 31.1875, 31.083334, 20.666666, 20.833332, 20.875, 20.875, 20.75, 20.625, 20.375, 20.125, 20, 20, 20.0625, 20.1875, 20.160713, 19.892857, 19.571428, 19.25, 19.0625, 18.875, 18.75, 18.5625, 18.4375, 18.3125, 18.1875, 18.125, 18, 17.9375, 17.875, 17.875, 17.875, 17.8125, 17.625, 17.375, 17.125, 16.875, 16.75, 16.625, 16.375, 16.3125, 16.1875, 16.0625, 16.0625, 16, 16, 15.75, 15.5, 15.25, 15, 14.875, 14.75, 14.5625, 14.3125, 14.1875, 14.0625, 14, 14, 14, 13.9375, 13.75, 13.5625, 13.3125, 13.125, 13.125, 13.125, 13.125, 13, 12.767857, 12.5, 12.25, 12.125, 12, 12, 12, 11.875, 11.625, 11.375, 11.125, 11, 11, 11, 10.9375, 10.9375, 10.8125, 10.625, 10.4375, 10.1875, 10.0625, 10, 10, 10, 10, 9.75, 9.5, 9.25, 9, 9, 8.75, 8.5, 8.25, 8, 8, 8, 8, 7.875, 7.625, 7.375, 7.125, 7, 7, 7, 7, 6.875, 6.625, 6.375, 6.1875, 6.2946429, 7.3499999, -10, -10, -10, -10, -10, 16, 15.833334, 15.625, 15.3125, 14.741072, 13.642858, 13.276785, 13, 12.875, 12.875, 12.8125, 12.8125, 12.9375, 12.9375, 12.75, 12.5, 12.1875, 11.875, 11.8125, 11.8125, 11.875, 12.09375, 12.46875, 12.754464, 12.90625, 12.875, 12.75, 12.75, 12.75, 12.8125, 12.75, 12.75, 12.8125, 12.875, 13, 13, 13.0625, 12.9375, 12.9375, 12.875, 12.6875, 12.75, 12.75, 12.8125, 12.875, 12.9375, 12.9375, 12.9375, 13.0625, 13.125, 13.107143, 13, 13, 12.9375, 13, 13, 13.25, 13.75, 14.714286, 15.642857, 16.258928, 16.089285, 14.666666, 13.386906, 12.434525, 12.267857, 12.25, 12.5, 13.011905, 15.277778, 16.380951, 17.464287, 17.760416, 17.890625, 17.8125, 17.776787, 17.8125, 17.508928, 17.358929, 17.4375, 17.428572, 17.6875, 17.741072, 17.553572, 17.424999, 17.535713, 17.616667, -10, -10, -10, -10, -10, -10, -10, -10, -10, -10, -10, -10, -10, -10, -10, 48, 48, 47.875, 47.75, 47.857143, 48.252975, 48.758926, 49.395832, 49.9375, 50.544643, 51.107143, 51.6875, 52.232143, 52.75, 53.160713, 53.559525, 54.253967, 54.422222, -10, -10, -10, -10, -10, -10, -10, -10, -10, -10, -10, -10, -10, -10, -10, -10, -10, -10, -10, -10, -10, -10, -10, -10, -10, -10, -10, -10, -10, -10, -10, -10, -10, -10, -10, -10, -10, -10, -10, -10, -10, -10, -10, -10, -10, -10, -10, -10, -10, -10, -10, -10, -10, -10, -10, -10, -10, -10, -10, -10, -10, -10, -10, -10, -10, -10, -10, -10, -10, -10, -10, -10, -10, -10, -10, -10, -10, -10, -10, -10, -10, -10, -10, -10, -10, -10, -10, -10, -10
-10, -10, -10, -10, -10, -10, -10, -10, -10, 28.375, 28.766666, 29.488094, 30.364582, 31.075893, 31.78125, 32.482143, 32.959824, 33.379463, 33.65625, 33.982143, 33.955357, 33.622025, 33.330357, 33.125, 33.0625, 32.866074, 32.625, 32.419643, 31.645832, 31.392857, 31.145834, 31, 20.571428, 20.666666, 20.6875, 20.6875, 20.625, 20.5625, 20.375, 20.1875, 20.0625, 20, 20, 20.0625, 20.035713, 19.705357, 19.446428, 19.1875, 19, 18.875, 18.75, 18.5625, 18.5, 18.375, 18.25, 18.1875, 17.9375, 17.875, 17.875, 17.875, 17.9375, 17.875, 17.625, 17.375, 17.125, 16.9375, 16.875, 16.8125, 16.5625, 16.375, 16.1875, 16, 16, 16, 15.9375, 15.6875, 15.4375, 15.1875, 15, 14.9375, 14.875, 14.75, 14.5, 14.3125, 14.125, 14, 14, 14, 13.9375, 13.8125, 13.625, 13.375, 13.1875, 13.125, 13.125, 13.125, 13, 12.767857, 12.5, 12.25, 12.125, 12, 12, 12, 11.875, 11.625, 11.375, 11.125, 11, 11, 11, 10.875, 10.8125, 10.625, 10.375, 10.25, 10.0625, 10, 10, 10, 10, 9.9375, 9.6875, 9.4375, 9.1875, 9, 9, 8.75, 8.5, 8.25, 8, 8, 8, 8, 7.8125, 7.5625, 7.3125, 7.0625, 7, 6.9375, 6.875, 6.875, 6.8125, 6.625, 6.4375, 6.25, 6.2946429, -10, -10, -10, -10, -10, -10, 16, 15.833334, 15.625, 15.25, 14.5625, 13.619047, 13.330357, 13.035714, 12.839286, 12.875, 12.75, 12.8125, 12.9375, 12.9375, 12.75, 12.5, 12.1875, 11.875, 11.8125, 11.875, 11.9375, 12.09375, 12.40625, 12.59375, 12.84375, 12.9375, 12.875, 12.767857, 12.625, 12.5, 12.392857, 12.583333, 12.741072, 12.875, 13, 12.9375, 12.875, 12.75, 12.8125, 12.848214, 12.875, 13, 12.9375, 13, 12.9375, 12.9375, 12.9375, 12.9375, 13, 13, 13, 13, 13, 13, 13, 13, 13.25, 13.75, 14.714286, 15.642857, 16.321428, 16.258928, 15.023809, 13.071429, 11.970239, 11.642857, 11.75, 12.15625, 12.683332, -10, -10, 17.450893, 17.71875, 17.875, 17.875, 17.964287, 18.0625, 17.758928, 17.608929, 17.6875, 17.678572, 17.875, 17.803572, 17.616072, 17.549999, 17.723213, 17.816666, -10, -10, -10, -10, -10, -10, -10, -10, -10, -10, -10, -10, -10, -10, -10, 48, 48, 47.875, 47.776787, 48.026787, 48.494049, 49, 49.4375, 49.9375, 50.482143, 51, 51.5625, 52.107143, 52.625, 53.035713, 53.580357, 54.297619, 54.566666, -10, -10, -10, -10, -10, -10, -10, -10, -10, -10, -10, -10, -10, -10, -10, -10, -10, -10, -10, -10, -10, -10, -10, -10, -10, -10, -10, -10, -10, -10, -10, -10, -10, -10, -10, -10, -10, -10, -10, -10, -10, -10, -10, -10, -10, -10, -10, -10, -10, -10, -10, -10, -10, -10, -10, -10, -10, -10, -10, -10, -10, -10, -10, -10, -10, -10, -10, -10, -10, -10, -10, -10, -10, -10, -10, -10, -10, -10, -10, -10, -10, -10, -10, -10, -10, -10, -10, -10, -10, -10, -10, -10, -10, -10, -10, -10, -10, -10, -10, -10, -10, -10, -10, -10, -10, -10, -10, -10, -10, -10, -10, -10, 28.333334, 29.016666, 29.642857, 30.444941, 31.254465, 31.950893, 32.598213, 33.147324, 33.566963, 33.84375, 34.09375, 33.955357, 33.497025, 33.267857, 33.0625, 33.0625, 32.928574, 32.5625, 32.357143, 31.708332, 31.410715, 31.333334, 21.5, 20.666666, 20.625, 20.625, 20.5625, 20.5, 20.5, 20.3125, 20.1875, 20.125, 20, 20, 20, 20, 19.75, 19.5, 19.25, 19, 18.9375, 18.875, 18.75, 18.6875, 18.5, 18.3125, 18.1875, 17.9375, 17.8125, 17.75, 17.6875, 17.6875, 17.625, 17.4375, 17.25, 17.0625, 17, 17, 17, 16.75, 16.5, 16.25, 16, 16, 16, 15.875, 15.625, 15.375, 15.125, 15, 15, 15, 14.875, 14.625, 14.375, 14.125, 14, 14, 14, 14, 13.875, 13.625, 13.375, 13.125, 13.0625, 13.125, 13.125, 13, 12.767857, 12.5, 12.25, 12.125, 12, 12, 12, 11.875, 11.625, 11.375, 11.125, 11, 11, 11, 10.875, 10.75, 10.5625, 10.3125, 10.1875, 10.0625, 10, 10, 10, 10, 9.875, 9.625, 9.375, 9.125, 9, 9, 8.75, 8.5625, 8.3125, 8.0625, 8.0625, 8, 8, 7.75, 7.5625, 7.3125, 7.0625, 7.0625, 6.9375, 6.875, 6.875, 6.875, 6.6875, 6.5, 6.25, 6.1071429, -10, -10, -10, -10, -10, 16, 16, 15.833334, 15.625, 15.1875, 14.455357, 13.702381, 13.383928, 13.098214, 12.839286, 12.875, 12.75, 12.8125, 12.9375, 12.9375, 12.75, 12.4375, 12.017857, 11.75, 11.75, 11.982143, 12.125, 12.28125, 12.53125, 12.65625, 12.84375, 12.96875, 12.84375, 12.674107, 12.46875, 12.25, 12.142857, 12.395833, 12.616072, 12.8125, 13, 12.875, 12.75, 12.625, 12.6875, 12.848214, 13.044643, 13.1875, 13.125, 13.125, 13, 12.9375, 12.9375, 12.9375, 13, 13, 13, 13, 13, 13, 13, 13, 13.25, 13.75, 14.714286, 15.571428, 16.214287, 16.285713, 15.333334, 12.958333, 11.773809, 11.267857, 11.4375, 11.9375, 12.426189, -10, -10, 17.59375, 17.78125, 17.875, 17.9375, 18, 18.0625, 17.916666, 17.716667, 18.125, 17.991072, 18.09375, 17.834822, 17.5625, 17.625, 17.669643, 17.833332, -10, -10, -10, -10, -10, -10, -10, -10, -10, -10, -10, -10, -10, -10, -10, 48, 48, 47.875, 47.776787, 48.026787, 48.494049, 49.0625, 49.5, 50, 50.5, 51, 51.5625, 52.107143, 52.5625, 52.973213, 53.455357, 54.172619, 54.587502, 55.464287, 55.666668, -10, -10, -10, -10, -10, -10, -10, -10, -10, -10, -10, -10, -10, -10, -10, -10, -10, -10, -10, -10, -10, -10, -10, -10, -10, -10, -10, -10, -10, -10, -10, -10, -10, -10, -10, -10, -10, -10, -10, -10, -10, -10, -10, -10, -10, -10, -10, -10, -10, -10, -10, -10, -10, -10, -10, -10, -10, -10, -10, -10, -10, -10, -10, -10, -10, -10, -10, -10, -10, -10, -10, -10, -10, -10, -10, -10, -10, -10, -10, -10, -10, -10, -10, -10, -10, -10, -10
-10, -10, -10, -10, -10, -10, -10, -10, -10, -10, 29.1, 29.642857, 30.21875, 31.254465, 31.977678, 32.575893, 32.96875, 33.40625, 33.71875, 33.9375, 33.919643, 33.604168, 33.375, 33.0625, 33.0625, 32.866074, 32.5625, 32.397324, 31.979166, 31.714285, 31.666666, 21.333334, 21, 20.9375, 20.875, 20.6875, 20.5, 20.4375, 20.25, 20.1875, 20.125, 20, 20, 20, 20, 19.75, 19.5, 19.25, 19, 19, 19, 18.9375, 18.9375, 18.6875, 18.4375, 18.25, 17.9375, 17.8125, 17.75, 17.6875, 17.6875, 17.625, 17.4375, 17.25, 17.0625, 17, 17, 17, 16.75, 16.5, 16.25, 16, 16, 15.9375, 15.75, 15.5, 15.25, 15.0625, 15, 15, 15, 14.875, 14.625, 14.375, 14.125, 14, 14, 14, 14, 13.9375, 13.6875, 13.4375, 13.1875, 13, 13, 13, 12.9375, 12.875, 12.625, 12.375, 12.1875, 12, 12, 12, 11.9375, 11.75, 11.5, 11.25, 11.0625, 11, 11, 10.875, 10.75, 10.5625, 10.3125, 10.1875, 10.0625, 10, 10, 10, 10, 9.8125, 9.5625, 9.3125, 9.0625, 9, 9, 8.75, 8.625, 8.4375, 8.1875, 8.1875, 8.0625, 7.9375, 7.6875, 7.5, 7.25, 7.0625, 7.0625, 6.9375, 6.875, 6.875, 6.875, 6.6875, 6.5, 6.25, 6, -10, -10, -10, -10, -10, 16, 16, 15.916667, 15.6875, 15.1875, 14.348214, 13.678572, 13.375, 13.098214, 12.901786, 12.9375, 12.8125, 12.875, 12.9375, 12.9375, 12.875, 12.598214, 12.098214, 11.821428, 11.875, 12.169643, 12.375, 12.59375, 12.71875, 12.84375, 12.941964, 12.861607, 12.665178, 12.424107, 12.21875, 12.0625, 12.017857, 12.270833, 12.553572, 12.75, 12.9375, 12.8125, 12.625, 12.5, 12.5625, 12.848214, 13.169643, 13.3125, 13.25, 13.1875, 13, 12.9375, 12.9375, 12.9375, 13, 13, 13, 13, 13, 13, 13, 13, 13.25, 13.75, 14.714286, 15.5, 16.107143, 16.142857, 15.261904, 12.589286, 11.607142, 11.125, 11.383928, 12.166667, 12.604761, -10, -10, 17.479166, 17.732143, 17.90625, 17.9375, 18, 18, -10, -10, 18.166666, 18.0625, 18.09375, 17.84375, 17.6875, 17.625, 17.5625, 17.666666, -10, -10, -10, -10, -10, -10, -10, -10, -10, -10, -10, -10, -10, -10, -10, 48, 48, 47.875, 47.839287, 48.125, 48.511902, 49.0625, 49.5, 50, 50.4375, 50.928574, 51.729168, 52.25, 52.625, 52.9375, 53.375, 54.002975, 54.616074, 55.452381, 55.777782, -10, -10, -10, -10, -10, -10, -10, -10, -10, -10, -10, -10, -10, -10, -10, -10, -10, -10, -10, -10, -10, -10, -10, -10, -10, -10, -10, -10, -10, -10, -10, -10, -10, -10, -10, -10, -10, -10, -10, -10, -10, -10, -10, -10, -10, -10, -10, -10, -10, -10, -10, -10, -10, -10, -10, -10, -10, -10, -10, -10, -10, -10, -10, -10, -10, -10, -10, -10, -10, -10, -10, -10, -10, -10, -10, -10, -10, -10, -10, -10, -10, -10, -10, -10, -10, -10, -10, -10, -10, -10, -10, -10, -10, -10, -10, -10, -10, -10, -10, -10, -10, -10, -10, -10, -10, -10, -10, -10, -10, -10, -10, 29.225, 29.75, 30.354166, 31.577381, 32.25, 32.71875, 32.96875, 33.28125, 33.53125, 33.6875, 33.75, 33.6875, 33.553574, 33.25, 33.1875, 32.928574, 32.625, 32.59375, 32.383926, 31.976189, 31.916666, 21.25, 21.25, 21.1875, 21.0625, 20.8125, 20.625, 20.5, 20.3125, 20.25, 20.125, 20, 20, 20, 19.9375, 19.6875, 19.4375, 19.1875, 19, 19, 19, 18.9375, 18.9375, 18.6875, 18.4375, 18.25, 17.9375, 17.8125, 17.75, 17.6875, 17.6875, 17.5625, 17.375, 17.1875, 17, 17, 17, 17, 16.75, 16.5, 16.25, 16, 16, 15.875, 15.625, 15.375, 15.125, 15, 15, 15, 15, 14.8125, 14.5625, 14.3125, 14.0625, 14, 14, 14, 14, 13.9375, 13.6875, 13.4375, 13.1875, 13, 13, 13, 13, 12.9375, 12.6875, 12.4375, 12.1875, 12, 12, 12, 12, 11.8125, 11.5625, 11.3125, 11.0625, 11, 10.9375, 10.8125, 10.625, 10.375, 10.1875, 10.0625, 10, 10, 9.9375, 9.875, 9.875, 9.625, 9.4375, 9.25, 9, 9, 9, 8.75, 8.625, 8.4375, 8.1875, 8.1875, 8, 7.8125, 7.5625, 7.375, 7.1875, 7.0625, 7.0625, 6.9375, 6.875, 6.875, 6.875, 6.6875, 6.5, 6.25, 6, -10, -10, -10, -10, -10, 16, 16, 16, 15.75, 15.25, 14.369047, 13.577381, 13.3125, 13.035714, 12.964286, 13, 12.9375, 13, 12.9375, 12.9375, 12.9375, 12.830357, 12.473214, 12.258928, 12.214286, 12.482143, 12.625, 12.8125, 12.875, 12.9375, 12.973214, 12.799107, 12.540178, 12.299107, 12.09375, 12.0625, 12.205357, 12.75, 13.011905, 12.979167, 12.9375, 12.75, 12.5625, 12.5, 12.625, 12.910714, 13.232143, 13.25, 13.1875, 13.125, 13, 13, 13, 12.9375, 12.875, 12.875, 12.9375, 13.035714, 13.0625, 13.0625, 13, 13, 13.25, 13.75, 14.714286, 15.428572, 16, 15.910714, 13.722222, 12.178572, 11.214286, 10.946428, 11.467261, 12.254168, 12.695239, 13.75, 14.571428, 17.510416, 17.669643, 17.859375, 17.875, 17.9375, 18, -10, -10, -10, 18.125, 18.09375, 17.78125, 17.5625, 17.4375, 17.375, 17.5, -10, -10, -10, -10, -10, -10, -10, -10, -10, -10, -10, -10, -10, -10, -10, 48, 48, 47.9375, 47.964287, 48.30357, 48.678574, 49.125, 49.5625, 50, 50.4375, 50.928574, 51.729168, 52.25, 52.625, 52.955357, 53.482143, 54.044643, 54.678574, 55.232143, 55.761906, 56.309525, -10, -10, -10, -10, -10, -10, -10, -10, -10, -10, -10, -10, -10, -10, -10, -10, -10, -10, -10, -10, -10, -10, -10, -10, -10, -10, -10, -10, -10, -10, -10, -10, -10, -10, -10, -10, -10, -10, -10, -10, -10, -10, -10, -10, -10, -10, -10, -10, -10, -10, -10, -10, -10, -10, -10, -10, -10, -10, -10, -10, -10, -10, -10, -10, -10, -10, -10, -10, -10, -10, -10, -10, -10, -10, -10, -10, -10, -10, -10, -10, -10, -10, -10, -10, -10, -10
-10, -10, -10, -10, -10, -10, -10, -10, -10, -10, 29.5, 29.833334, 30.377975, 31.761906, 32.428574, 32.90625, 33.21875, 33.575893, 33.78125, 33.883926, 33.666668, 33.6875, 33.660713, 33.4375, 33.4375, 33.25, 33.125, 33.03125, 32.883926, 32.351189, 31.999998, 21.333334, 21.25, 21.1875, 21.125, 20.9375, 20.75, 20.5625, 20.3125, 20.1875, 20.0625, 20, 20, 20, 19.9375, 19.6875, 19.4375, 19.1875, 19, 19, 19, 19, 19, 18.75, 18.5, 18.25, 18, 17.9375, 17.875, 17.8125, 17.6875, 17.5, 17.3125, 17.125, 17, 17, 17, 17, 16.75, 16.5, 16.25, 16, 16, 15.8125, 15.625, 15.4375, 15.1875, 15.125, 15.0625, 15, 15, 14.75, 14.5, 14.25, 14, 14, 14, 14, 14, 13.9375, 13.75, 13.5, 13.25, 13.0625, 13, 13, 13, 12.875, 12.625, 12.375, 12.125, 12, 12, 12, 12, 11.8125, 11.5625, 11.3125, 11.0625, 11, 10.9375, 10.8125, 10.625, 10.375, 10.1875, 10.0625, 10, 10, 9.875, 9.75, 9.6875, 9.4375, 9.3125, 9.1875, 9, 8.9375, 8.875, 8.625, 8.5, 8.375, 8.1875, 8.1875, 8, 7.75, 7.5, 7.3125, 7.125, 7.0625, 7.0625, 7, 7, 7, 7, 6.75, 6.5, 6.25, 6, -10, -10, -10, -10, -10, 16, 16, 16, 15.75, 15.25, 14.369047, 13.577381, 13.25, 13, 13, 13, 13, 13, 12.9375, 12.9375, 13, 12.892857, 12.535714, 12.383928, 12.339286, 12.607143, 12.8125, 13, 13, 13.0625, 12.973214, 12.799107, 12.602678, 12.46875, 12.40625, 12.4375, 12.625, 12.979167, 13.083333, 12.872025, 12.75, 12.5625, 12.5, 12.5, 12.625, 12.875, 13.044643, 13, 13, 12.9375, 12.875, 12.875, 12.875, 12.75, 12.6875, 12.75, 12.8125, 12.973214, 13.0625, 13.0625, 13, 13, 13.25, 13.75, 14.714286, 15.428572, 16, 15.741072, 13.224489, 12.101191, 11.209822, 11.165178, 11.686011, 12.327085, -10, -10, -10, 17.666666, 17.773809, 17.9375, 17.9375, 17.9375, 18, -10, -10, -10, 18.166666, 18.125, 17.84375, 17.625, 17.46875, 17.40625, 17.458334, -10, -10, -10, -10, -10, -10, -10, -10, -10, -10, -10, -10, -10, -10, -10, 48, 48, 48, 48, 48.196426, 48.5, 48.883926, 49.520832, 50, 50.4375, 50.928574, 51.729168, 52.1875, 52.5, 52.776787, 53.377975, 53.9375, 54.553574, 55.107143, 55.782738, 56.349209, 56.666668, -10, -10, -10, -10, -10, -10, -10, -10, -10, -10, -10, -10, -10, -10, -10, -10, -10, -10, -10, -10, -10, -10, -10, -10, -10, -10, -10, -10, -10, -10, -10, -10, -10, -10, -10, -10, -10, -10, -10, -10, -10, -10, -10, -10, -10, -10, -10, -10, -10, -10, -10, -10, -10, -10, -10, -10, -10, -10, -10, -10, -10, -10, -10, -10, -10, -10, -10, -10, -10, -10, -10, -10, -10, -10, -10, -10, -10, -10, -10, -10, -10, -10, -10, -10, -10, -10, -10, -10, -10, -10, -10, -10, -10, -10, -10, -10, -10, -10, -10, -10, -10, -10, -10, -10, -10, -10, -10, -10, -10, 29.333334, 30, 30.523809, 31.708336, 32.321426, 33.052082, 33.366074, 33.732143, 33.875, 33.84375, 33.479168, 33.5625, 33.535713, 33.5, 33.5625, 33.428574, 33.3125, 33.21875, 32.883926, 32.351189, 31.812498, 31.200001, 21.083334, 21.0625, 21.0625, 21, 20.875, 20.625, 20.4375, 20.3125, 20.1875, 20.1875, 20.125, 20.0625, 19.9375, 19.6875, 19.4375, 19.1875, 19, 19, 19, 19, 18.9375, 18.6875, 18.4375, 18.25, 18.0625, 18.0625, 18.0625, 18, 17.875, 17.6875, 17.4375, 17.1875, 17.0625, 16.9375, 16.875, 16.8125, 16.625, 16.5, 16.3125, 16.125, 16.0625, 15.75, 15.625, 15.5, 15.25, 15.25, 15.125, 15, 15, 14.8125, 14.625, 14.375, 14.125, 14.0625, 14, 14, 14, 14, 13.875, 13.6875, 13.4375, 13.1875, 13.0625, 13, 13, 12.875, 12.6875, 12.4375, 12.1875, 12, 11.875, 11.875, 11.875, 11.8125, 11.625, 11.375, 11.125, 11, 10.9375, 10.8125, 10.6875, 10.4375, 10.25, 10.125, 10, 10, 9.8125, 9.625, 9.5, 9.25, 9.1875, 9.125, 9.0625, 8.9732141, 8.7678566, 8.5089283, 8.3125, 8.25, 8.125, 8.125, 8, 7.75, 7.5625, 7.375, 7.1875, 7.125, 7.0625, 7, 7, 7, 7, 6.8125, 6.5625, 6.3125, 6.0833335, 6, -10, -10, -10, -10, 16, 16, 16, 15.741072, 15.104167, 14.22619, 13.452381, 13.1875, 12.9375, 13, 13, 13, 13, 12.9375, 12.9375, 13.0625, 13.017857, 12.830357, 12.696428, 12.589286, 12.75, 12.875, 13, 13, 13.125, 13.098214, 13.017857, 12.883928, 12.75, 12.6875, 12.6875, 12.875, 13.166667, 13.145833, 12.809525, 12.625, 12.4375, 12.5, 12.625, 12.75, 12.9375, 12.875, 12.6875, 12.6875, 12.75, 12.8125, 12.839286, 12.875, 12.6875, 12.6875, 12.75, 12.8125, 12.973214, 13.0625, 13.0625, 13, 13, 13.25, 13.75, 14.714286, 15.5, 16.035713, 15.607141, 12.999999, 12.035714, 11.21875, 11.352678, 11.811011, 12.275001, -10, -10, -10, 17.555555, 17.698412, 17.8125, 17.854166, 17.875, 18, -10, -10, -10, -10, -10, 17.8125, 17.708334, 17.53125, 17.5625, 17.583334, -10, -10, -10, -10, -10, -10, -10, -10, -10, -10, -10, -10, -10, -10, -10, 48, 48, 48, 48, 48.133926, 48.375, 48.633926, 49.217258, 49.916668, 50.383926, 50.928574, 51.666668, 52.080357, 52.4375, 52.714287, 53.377975, 53.9375, 54.491074, 54.9375, 55.6875, 56.345238, 56.777782, -10, -10, -10, -10, -10, -10, -10, -10, -10, -10, -10, -10, -10, -10, -10, -10, -10, -10, -10, -10, -10, -10, -10, -10, -10, -10, -10, -10, -10, -10, -10, -10, -10, -10, -10, -10, -10, -10, -10, -10, -10, -10, -10, -10, -10, -10, -10, -10, -10, -10, -10, -10, -10, -10, -10, -10, -10, -10, -10, -10, -10, -10, -10, -10, -10, -10, -10, -10, -10, -10, -10, -10, -10, -10, -10, -10, -10, -10, -10, -10, -10, -10, -10, -10, -10
-10, -10, -10, -10, -10, -10, -10, -10, -10, -10, -10, 30.5, 31, 31.833336, 32.357143, 33.229164, 33.544643, 33.785713, 33.6875, 33.625, 33.166668, 33.3125, 33.419643, 33.625, 33.6875, 33.553574, 33.205357, 33.0625, 32.633926, 32.101189, 31.541666, 31.133333, 21, 21, 21, 20.9375, 20.9375, 20.75, 20.5625, 20.4375, 20.25, 20.1875, 20.125, 20.0625, 19.9375, 19.75, 19.5, 19.25, 19.0625, 19, 19, 19, 18.9375, 18.6875, 18.4375, 18.25, 18.0625, 18.0625, 18.0625, 18, 17.875, 17.6875, 17.4375, 17.1875, 17.0625, 16.9375, 16.8125, 16.75, 16.625, 16.5625, 16.4375, 16.25, 16.125, 15.8125, 15.75, 15.625, 15.375, 15.3125, 15.125, 15, 15, 14.875, 14.75, 14.5625, 14.3125, 14.1875, 14.0625, 14, 14, 14, 13.875, 13.6875, 13.4375, 13.1875, 13.0625, 13, 13, 12.8125, 12.625, 12.375, 12.125, 12, 11.8125, 11.75, 11.75, 11.625, 11.5, 11.3125, 11.0625, 11, 10.9375, 10.8125, 10.6875, 10.4375, 10.25, 10.125, 10, 10, 9.75, 9.5625, 9.375, 9.125, 9.125, 9.0625, 9.0625, 8.9107141, 8.6428566, 8.3839283, 8.125, 8.0625, 8, 8, 7.9375, 7.8125, 7.6875, 7.5625, 7.375, 7.25, 7.125, 7, 7, 7, 6.9375, 6.6875, 6.4375, 6.2857141, 6.0833335, -10, -10, -10, -10, -10, 16, 16, 16, 15.803572, 15.220238, 14.238094, 13.488096, 13.1875, 12.9375, 13, 12.9375, 12.9375, 12.9375, 12.875, 12.9375, 12.9375, 12.857143, 12.8125, 12.75, 12.714286, 12.875, 12.9375, 13, 13, 13.0625, 13.0625, 13.125, 13.0625, 13, 12.9375, 12.875, 13.125, 13.479167, 13.377976, 12.934525, 12.6875, 12.375, 12.5625, 12.6875, 12.8125, 13, 12.8125, 12.5625, 12.5625, 12.625, 12.75, 12.839286, 12.875, 12.6875, 12.6875, 12.75, 12.8125, 12.973214, 13.0625, 13.0625, 13, 13, 13.25, 13.75, 14.714286, 15.571428, 16.071428, 15.776785, 13.648809, 12.154762, 11.325893, 11.290178, 11.802083, 11.941667, -10, -10, -10, -10, -10, 17.5625, 17.6875, 17.75, 17.958334, -10, -10, -10, -10, -10, 17.8125, 17.791668, 17.6875, 17.875, 17.916668, -10, -10, -10, -10, -10, -10, -10, -10, -10, -10, -10, -10, -10, -10, -10, 48, 48, 48, 48, 48.071426, 48.3125, 48.508926, 49.092258, 49.791668, 50.321426, 50.9375, 51.482143, 51.9375, 52.3125, 52.714287, 53.440475, 54, 54.4375, 54.830357, 55.5625, 56.261906, 56.770836, 57.380951, -10, -10, -10, -10, -10, -10, -10, -10, -10, -10, -10, -10, -10, -10, -10, -10, -10, -10, -10, -10, -10, -10, -10, -10, -10, -10, -10, -10, -10, -10, -10, -10, -10, -10, -10, -10, -10, -10, -10, -10, -10, -10, -10, -10, -10, -10, -10, -10, -10, -10, -10, -10, -10, -10, -10, -10, -10, -10, -10, -10, -10, -10, -10, -10, -10, -10, -10, -10, -10, -10, -10, -10, -10, -10, -10, -10, -10, -10, -10, -10, -10, -10, -10, -10, -10, -10, -10, -10, -10, -10, -10, -10, -10, -10, -10, -10, -10, -10, -10, -10, -10, -10, -10, -10, -10, -10, -10, -10, -10, 30.75, 31.166666, 31.666668, 32.178574, 33.041664, 33.388393, 33.691963, 33.53125, 33.46875, 32.979168, 33.0625, 33.169643, 33.4375, 33.5625, 33.491074, 33.142857, 32.875, 32.4375, 32.017857, 31.416666, 31.183334, 21, 21, 21, 20.9375, 20.9375, 20.8125, 20.625, 20.5, 20.3125, 20.1875, 20.125, 20.0625, 20, 19.875, 19.625, 19.375, 19.125, 19, 19, 19, 18.9375, 18.6875, 18.4375, 18.25, 18.0625, 18.0625, 18.0625, 18, 17.875, 17.75, 17.5, 17.25, 17.125, 16.9375, 16.8125, 16.75, 16.625, 16.5625, 16.4375, 16.25, 16.125, 15.875, 15.875, 15.8125, 15.5625, 15.4375, 15.1875, 15, 15, 14.875, 14.75, 14.625, 14.375, 14.25, 14.125, 14, 14, 14, 13.875, 13.6875, 13.4375, 13.1875, 13.0625, 13, 13, 12.875, 12.75, 12.5625, 12.3125, 12.125, 11.875, 11.75, 11.6875, 11.5625, 11.4375, 11.25, 11.0625, 11, 11, 10.9375, 10.8125, 10.5625, 10.3125, 10.125, 10, 10, 9.8125, 9.6875, 9.4375, 9.1875, 9.125, 9, 9.0625, 8.8482141, 8.5178566, 8.2589283, 8, 8, 8, 8, 8, 7.9375, 7.875, 7.75, 7.5, 7.3125, 7.125, 7, 7, 7, 6.875, 6.5625, 6.3125, 6.3303571, 6.2333336, -10, -10, -10, -10, -10, 16, 16, 16, 15.866072, 15.336309, 14.238094, 13.625, 13.25, 13, 13, 12.9375, 12.9375, 12.9375, 12.9375, 12.96875, 12.875, 12.625, 12.5, 12.53125, 12.625, 12.875, 13, 12.9375, 12.9375, 13, 13.0625, 13.25, 13.25, 13.1875, 13.125, 13, 13.125, 13.1875, 12.982143, 12.642857, 12.5625, 12.25, 12.5, 12.6875, 12.75, 13, 12.75, 12.5625, 12.5625, 12.625, 12.8125, 12.839286, 12.875, 12.75, 12.8125, 12.875, 12.875, 12.9375, 13, 13, 13, 13, 13.25, 13.75, 14.714286, 15.571428, 16.008928, 15.883928, 14.465987, 12.357143, 11.504464, 11.21875, 11.53125, 11.625, -10, -10, -10, -10, -10, 17.25, 17.5, 17.669643, 17.895834, -10, -10, -10, -10, -10, 17.75, 17.833334, 17.8125, 18.0625, 18.145834, -10, -10, -10, -10, -10, -10, -10, -10, -10, -10, -10, -10, -10, -10, -10, 48, 48, 48, 48, 47.9375, 48.026787, 48.339287, 48.940475, 49.697918, 50.227676, 50.875, 51.464287, 51.9375, 52.375, 52.821426, 53.458332, 54, 54.625, 55, 55.571426, 56.190475, 56.729168, 57.253967, 57.5, -10, -10, -10, -10, -10, -10, -10, -10, -10, -10, -10, -10, -10, -10, -10, -10, -10, -10, -10, -10, -10, -10, -10, -10, -10, -10, -10, -10, -10, -10, -10, -10, -10, -10, -10, -10, -10, -10, -10, -10, -10, -10, -10, -10, -10, -10, -10, -10, -10, -10, -10, -10, -10, -10, -10, -10, -10, -10, -10, -10, -10, -10, -10, -10, -10, -10, -10, -10, -10, -10, -10, -10, -10, -10, -10, -10, -10, -10, -10, -10, -10, -10, -10
-10, -10, -10, -10, -10, -10, -10, -10, -10, -10, -10, 31, 31.333334, 31.5, 32, 32.791664, 33.013393, 33.22768, 33.239582, 33.254463, 33.125, 33.1875, 33.25, 33.392857, 33.212502, 33.241074, 32.821426, 32.616074, 31.979166, 31.589285, 31.25, 31.111113, 21.166666, 21.125, 21.0625, 20.9375, 20.9375, 20.875, 20.6875, 20.5625, 20.375, 20.1875, 20.125, 20.0625, 20, 19.875, 19.625, 19.375, 19.125, 19, 19, 19, 18.9375, 18.6875, 18.4375, 18.25, 18.0625, 18.0625, 18.0625, 18, 17.9375, 17.875, 17.625, 17.375, 17.1875, 16.9375, 16.8125, 16.75, 16.6875, 16.625, 16.5, 16.3125, 16.125, 15.9375, 15.9375, 15.875, 15.625, 15.4375, 15.1875, 15, 15, 14.9375, 14.8125, 14.6875, 14.4375, 14.25, 14.125, 14, 14, 14, 13.8125, 13.625, 13.375, 13.125, 13.0625, 13, 13, 12.9375, 12.8125, 12.6875, 12.4375, 12.1875, 11.9375, 11.75, 11.625, 11.5, 11.375, 11.1875, 11.0625, 11, 11, 11, 10.875, 10.625, 10.375, 10.125, 10, 10, 9.875, 9.75, 9.5, 9.25, 9.125, 9, 9.0625, 8.8482141, 8.5178566, 8.3214283, 8.0625, 8.0625, 8.0625, 8, 7.9375, 7.9375, 7.9375, 7.875, 7.6875, 7.4375, 7.1875, 7, 7, 7, 6.8125, 6.5, 6.25, 6.3303571, 6.3166671, -10, -10, -10, -10, -10, 16, 16, 16, 15.866072, 15.336309, 14.238094, 13.625, 13.25, 13, 12.9375, 12.8125, 12.8125, 12.8125, 12.875, 12.96875, 12.8125, 12.5625, 12.517857, 12.65625, 12.75, 13, 13, 12.9375, 12.9375, 13, 13.0625, 13.1875, 13.1875, 13.125, 13.0625, 13, 13.0625, 13.125, 12.919643, 12.625, 12.625, 12.3125, 12.5625, 12.75, 12.75, 13, 12.875, 12.8125, 12.875, 13, 13.125, 13.089286, 13.0625, 12.9375, 13, 13, 12.9375, 12.9375, 12.9375, 12.9375, 13, 13, 13.25, 13.6875, 14.535714, 15.630953, 16.008928, 16.053572, 14.946428, 12.559525, 11.651786, 11.1875, 11.4375, 11.5, -10, -10, -10, -10, -10, 16.916666, 17.4, 17.598215, 17.895834, 18, -10, -10, -10, -10, 17.6875, 17.791668, 17.8125, 18.09375, 18.1875, 18.166668, -10, -10, -10, -10, -10, -10, -10, -10, -10, -10, -10, -10, -10, -10, 48, 48, 48, 47.9375, 47.875, 48.026787, 48.375, 48.857143, 49.572918, 50.102676, 50.875, 51.401787, 52, 52.482143, 53, 53.5, 54, 54.75, 55.0625, 55.571426, 56.083332, 56.6875, 57.190475, 57.583332, -10, -10, -10, -10, -10, -10, -10, -10, -10, -10, -10, -10, -10, -10, -10, -10, -10, -10, -10, -10, -10, -10, -10, -10, -10, -10, -10, -10, -10, -10, -10, -10, -10, -10, -10, -10, -10, -10, -10, -10, -10, -10, -10, -10, -10, -10, -10, -10, -10, -10, -10, -10, -10, -10, -10, -10, -10, -10, -10, -10, -10, -10, -10, -10, -10, -10, -10, -10, -10, -10, -10, -10, -10, -10, -10, -10, -10, -10, -10, -10, -10, -10, -10, -10, -10, -10, -10, -10, -10, -10, -10, -10, -10, -10, -10, -10, -10, -10, -10, -10, -10, -10, -10, -10, -10, -10, -10, -10, 30.916666, 31.250002, 31.5, 32, 32.645832, 32.834824, 32.97768, 33.096725, 33.075893, 33.1875, 33.25, 33.25, 32.976192, 32.703571, 32.75, 32.678574, 32.553574, 32.041668, 31.589285, 31.270834, 22, 21.333332, 21.25, 21.125, 20.9375, 20.9375, 20.9375, 20.6875, 20.5, 20.25, 20, 20, 20, 20, 19.9375, 19.6875, 19.4375, 19.1875, 19, 19, 19, 19, 18.75, 18.5, 18.25, 18, 18, 18, 18, 17.9375, 17.8125, 17.5625, 17.3125, 17.125, 17, 16.9375, 16.9375, 16.875, 16.75, 16.5625, 16.3125, 16.125, 16, 16, 15.875, 15.625, 15.375, 15.125, 15, 15, 14.9375, 14.8125, 14.6875, 14.4375, 14.25, 14.125, 14, 14, 14, 13.75, 13.5, 13.25, 13, 13, 13, 13, 12.875, 12.6875, 12.5625, 12.3125, 12.125, 12, 11.75, 11.5625, 11.375, 11.1875, 11.0625, 11, 11, 11, 11, 10.8125, 10.5625, 10.3125, 10.0625, 10, 10, 9.9375, 9.8125, 9.5625, 9.3125, 9.125, 9, 9, 8.8125, 8.5625, 8.4375, 8.25, 8.1875, 8.1875, 8.0625, 7.9375, 7.9375, 7.9375, 7.875, 7.6875, 7.4375, 7.1875, 7, 7, 7, 6.75, 6.375, 6.125, 6.2053571, 6.2333336, -10, -10, -10, -10, -10, 16, 16, 16, 15.875, 15.482143, 14.309524, 13.642857, 13.25, 13, 12.9375, 12.8125, 12.8125, 12.8125, 12.875, 12.96875, 12.875, 12.75, 12.767857, 12.96875, 13, 13.125, 13.0625, 12.9375, 12.9375, 12.9375, 12.9375, 13, 13, 12.9375, 12.875, 12.8125, 12.883928, 13.208333, 13.089286, 12.875, 12.8125, 12.5, 12.6875, 12.8125, 12.8125, 13, 12.875, 12.8125, 12.875, 12.9375, 13.0625, 13.125, 13, 12.9375, 12.875, 12.875, 12.9375, 12.973214, 13, 13, 13, 13, 13.25, 13.6875, 14.523809, 15.702382, 16.004463, 16.21875, 15.602678, 12.965987, 11.964286, 11.385417, 11.642857, 11.783334, -10, -10, -10, -10, -10, 16.741667, 17.295834, 17.517859, 17.8125, -10, -10, -10, -10, -10, 17.75, 17.833334, 17.875, 18.0625, 18.145834, 18.111113, -10, -10, -10, -10, -10, -10, -10, -10, -10, -10, -10, -10, -10, -10, -10, 48, 48, 47.9375, 47.875, 48.089287, 48.5, 49.035713, 49.53125, 50.03125, 50.875, 51.339287, 51.9375, 52.357143, 52.9375, 53.482143, 54, 54.875, 55.1875, 55.6875, 56, 56.5625, 57.107143, 57.5625, 58.214287, 58.5, -10, -10, -10, -10, -10, -10, -10, -10, -10, -10, -10, -10, -10, -10, -10, -10, -10, -10, -10, -10, -10, -10, -10, -10, -10, -10, -10, -10, -10, -10, -10, -10, -10, -10, -10, -10, -10, -10, -10, -10, -10, -10, -10, -10, -10, -10, -10, -10, -10, -10, -10, -10, -10, -10, -10, -10, -10, -10, -10, -10, -10, -10, -10, -10, -10, -10, -10, -10, -10, -10, -10, -10, -10, -10, -10, -10, -10, -10, -10, -10, -10
-10, -10, -10, -10, -10, -10, -10, -10, -10, -10, 30.5, 30.888887, 31.166668, 31.475, 32.083332, 32.491074, 32.59375, 32.674107, 32.971725, 32.950893, 33.1875, 33.25, 33.125, 32.726192, 32.453571, 32.5625, 32.660713, 32.616074, 32.104168, 31.589285, 31.291668, 22, 21.499998, 21.375, 21.1875, 21, 21, 21, 20.75, 20.5, 20.25, 20, 20, 20, 20, 19.9375, 19.6875, 19.4375, 19.1875, 19, 19, 19, 19, 18.8125, 18.5625, 18.3125, 18.0625, 18, 18, 18, 17.875, 17.75, 17.5, 17.25, 17.125, 17, 16.9375, 16.875, 16.75, 16.5625, 16.4375, 16.25, 16.125, 16.0625, 16, 15.875, 15.625, 15.375, 15.125, 15, 15, 14.9375, 14.8125, 14.625, 14.375, 14.1875, 14.0625, 14, 14, 14, 13.75, 13.5, 13.25, 13, 13, 13, 13, 12.9375, 12.75, 12.625, 12.375, 12.125, 12.0625, 11.8125, 11.5625, 11.375, 11.0625, 10.9375, 10.9375, 10.9375, 11, 11, 10.8125, 10.5625, 10.3125, 10.0625, 10, 10, 10, 9.875, 9.625, 9.375, 9.125, 9, 9, 8.875, 8.625, 8.5625, 8.4375, 8.3125, 8.3125, 8.125, 7.9375, 7.9375, 7.9375, 7.8125, 7.625, 7.375, 7.125, 7, 7, 7, 6.75, 6.4375, 6.1875, 6.1696429, 6.2333336, -10, -10, -10, -10, -10, 16, 16, 16, 15.8125, 15.366072, 14.297619, 13.607143, 13.25, 13, 12.9375, 12.875, 12.875, 12.875, 12.875, 12.90625, 12.875, 12.875, 13.017857, 13.28125, 13.3125, 13.375, 13.3125, 13.1875, 13.125, 13.0625, 13, 13, 13, 12.9375, 12.8125, 12.6875, 12.696428, 13.020833, 13.017858, 12.9375, 12.875, 12.625, 12.75, 12.875, 12.875, 13, 13, 13, 13.0625, 13.125, 13.125, 13.0625, 12.875, 12.8125, 12.75, 12.8125, 12.9375, 12.973214, 13, 13, 13, 13, 13.25, 13.6875, 14.488095, 15.52381, 15.84375, 16.09375, 15.651785, 14.412698, 12.315476, 11.791667, 11.973214, 12.150001, -10, -10, -10, -10, 17.466667, 16.791666, 17.391071, 17.571428, 17.854166, -10, -10, -10, -10, -10, 17.875, 18, 18, 18.09375, 18.125, 18.083334, -10, -10, -10, -10, -10, -10, -10, -10, -10, -10, -10, -10, -10, -10, -10, 48, 48, 47.9375, 47.875, 48.098213, 48.625, 49.098213, 49.65625, 50.209824, 50.973213, 51.357143, 51.875, 52.232143, 52.8125, 53.357143, 53.928574, 54.958332, 55.25, 55.75, 56, 56.5, 57, 57.520832, 58.142857, 58.444443, -10, -10, -10, -10, -10, -10, -10, -10, -10, -10, -10, -10, -10, -10, -10, -10, -10, -10, -10, -10, -10, -10, -10, -10, -10, -10, -10, -10, -10, -10, -10, -10, -10, -10, -10, -10, -10, -10, -10, -10, -10, -10, -10, -10, -10, -10, -10, -10, -10, -10, -10, -10, -10, -10, -10, -10, -10, -10, -10, -10, -10, -10, -10, -10, -10, -10, -10, -10, -10, -10, -10, -10, -10, -10, -10, -10, -10, -10, -10, -10, -10, -10, -10, -10, -10, -10, -10, -10, -10, -10, -10, -10, -10, -10, -10, -10, -10, -10, -10, -10, -10, -10, -10, -10, -10, -10, -10, 30.958334, 31.35, 32.125, 32.57143, 32.75, 32.767857, 33.065475, 32.982143, 33.1875, 33.25, 33.0625, 32.601192, 32.328571, 32.4375, 32.535713, 32.553574, 31.979166, 31.505951, 31.222223, 22, 21.687498, 21.5, 21.25, 21, 21, 21, 20.75, 20.5, 20.25, 20, 20, 20, 20, 19.9375, 19.75, 19.5625, 19.375, 19.1875, 19.125, 19.0625, 19, 18.875, 18.625, 18.375, 18.125, 18, 18, 18, 17.8125, 17.625, 17.375, 17.125, 17.0625, 16.9375, 16.8125, 16.6875, 16.5625, 16.4375, 16.375, 16.25, 16.125, 16.0625, 16, 15.8125, 15.5625, 15.3125, 15.0625, 15, 15, 15, 14.875, 14.625, 14.375, 14.125, 14, 14, 14, 14, 13.75, 13.5, 13.25, 13, 13, 13, 13, 12.875, 12.625, 12.4375, 12.1875, 11.9375, 11.9375, 11.75, 11.5, 11.375, 11.0625, 10.875, 10.8125, 10.8125, 10.875, 10.9375, 10.875, 10.625, 10.375, 10.125, 10, 10, 10, 9.875, 9.6875, 9.4375, 9.1875, 9.0625, 9, 8.9375, 8.6875, 8.6875, 8.5625, 8.375, 8.375, 8.125, 7.9375, 7.9375, 7.9375, 7.8125, 7.625, 7.375, 7.125, 7, 7, 7, 6.75, 6.5, 6.25, 6.0625, 6.0833335, -10, -10, -10, -10, -10, 16, 16, 16, 15.75, 15.25, 14.285714, 13.571428, 13.25, 13, 12.9375, 12.875, 12.875, 12.875, 12.875, 12.9375, 12.9375, 13, 13.276785, 13.770833, 13.866072, 13.9375, 13.8125, 13.6875, 13.5, 13.267857, 13.125, 13.0625, 13.0625, 12.9375, 12.776786, 12.5625, 12.571428, 12.958333, 13.017858, 13.0625, 13, 12.8125, 12.875, 13, 13.0625, 13.1875, 13.3125, 13.25, 13.25, 13.25, 13.1875, 13.1875, 13, 12.9375, 12.8125, 12.8125, 12.9375, 12.973214, 13, 13, 13, 13, 13.25, 13.6875, 14.452381, 15.416667, 15.78125, 16.03125, 15.723213, 14.639456, 12.886905, 12.510417, 12.660714, 12.941667, -10, -10, -10, 17.714287, 17.561111, 17.166666, 17.641071, 17.714285, 17.979166, -10, -10, -10, -10, -10, 18, 18.083334, 18.0625, 18.03125, 18, 17.916666, -10, -10, -10, -10, -10, -10, -10, -10, -10, -10, -10, -10, -10, -10, -10, 48, 48, 47.9375, 47.9375, 48.205357, 48.732143, 49.125, 49.75, 50.357143, 51.071426, 51.375, 51.8125, 52.107143, 52.6875, 53.232143, 53.866074, 54.815475, 55.1875, 55.6875, 56, 56.5, 57, 57.5625, 58.107143, 58.520832, -10, -10, -10, -10, -10, -10, -10, -10, -10, -10, -10, -10, -10, -10, -10, -10, -10, -10, -10, -10, -10, -10, -10, -10, -10, -10, -10, -10, -10, -10, -10, -10, -10, -10, -10, -10, -10, -10, -10, -10, -10, -10, -10, -10, -10, -10, -10, -10, -10, -10, -10, -10, -10, -10, -10, -10, -10, -10, -10, -10, -10, -10, -10, -10, -10, -10, -10, -10, -10, -10, -10, -10, -10, -10, -10, -10, -10, -10, -10, -10, -10
-10, -10, -10, -10, -10, -10, -10, -10, -10, -10, -10, -10, 31.041666, 31.625, 32.303574, 32.75893, 32.9375, 32.9375, 33.107143, 33.0625, 33.1875, 33.1875, 32.875, 32.333336, 32.303574, 32.25, 32.419643, 32.4375, 32.0625, 31.684523, 22, 22, 21.708332, 21.5, 21.25, 21, 21, 20.9375, 20.6875, 20.4375, 20.1875, 20, 20, 20, 20, 20, 19.875, 19.678572, 19.375, 19.1875, 19.0625, 19.0625, 18.928572, 18.6875, 18.5, 18.25, 18.125, 18, 18, 17.9375, 17.6875, 17.4375, 17.1875, 17, 17, 16.9375, 16.8125, 16.625, 16.4375, 16.3125, 16.25, 16.1875, 16.125, 16.0625, 16, 15.75, 15.5, 15.25, 15, 15, 15, 14.9375, 14.8125, 14.5625, 14.3125, 14.125, 14, 14, 14, 14, 13.75, 13.5, 13.25, 13, 13, 13, 13, 12.875, 12.625, 12.375, 12.0625, 11.75, 11.75, 11.625, 11.4375, 11.375, 11.0625, 10.875, 10.8125, 10.8125, 10.875, 10.9375, 10.875, 10.625, 10.375, 10.125, 10, 10, 10, 9.9375, 9.8125, 9.5625, 9.3125, 9.125, 9, 9, 8.75, 8.6875, 8.5625, 8.3125, 8.3125, 8.125, 8, 8, 8, 7.8125, 7.5625, 7.3125, 7.0625, 7, 7, 6.9375, 6.6875, 6.4375, 6.1875, 6, 6, -10, -10, -10, -10, -10, 16, 16, 16, 15.741072, 15.104167, 14.285714, 13.616072, 13.3125, 13.0625, 13, 13, 13, 13, 12.9375, 13, 13.1875, 13.410714, 13.758928, 14.208333, 14.366072, 14.4375, 14.375, 14.1875, 13.8125, 13.410713, 13.1875, 13.125, 13.15625, 13.03125, 12.933036, 12.71875, 12.727678, 13.114583, 13.174108, 13.28125, 13.25, 13.125, 13.125, 13.1875, 13.25, 13.375, 13.5, 13.3125, 13.1875, 13.0625, 13.0625, 13.1875, 13.0625, 13.125, 13, 12.9375, 13.125, 13.098214, 13.0625, 13.0625, 13, 13, 13.25, 13.75, 14.595238, 15.28125, 15.6875, 15.790178, 15.42517, 14.440476, 13.083333, 12.947917, 13.214286, 13.816667, 15.357143, 15.9375, 16.607143, 17.476191, 17.545834, 17.4375, 17.741072, 17.785713, 17.979166, 18.291668, -10, -10, -10, 18.1875, 18.125, 18.1875, 18.15625, 18.03125, 18, 17.916666, -10, -10, -10, -10, -10, -10, -10, -10, -10, -10, -10, -10, -10, -10, -10, 48, 48, 48, 48, 48.267857, 48.75, 49.125, 49.75, 50.357143, 51.008926, 51.419643, 51.75, 52.071426, 52.6875, 53.169643, 53.803574, 54.565475, 55.0625, 55.607143, 56, 56.5, 57, 57.5, 58, 58.541664, 59.42857, 59.666668, -10, -10, -10, -10, -10, -10, -10, -10, -10, -10, -10, -10, -10, -10, -10, -10, -10, -10, -10, -10, -10, -10, -10, -10, -10, -10, -10, -10, -10, -10, -10, -10, -10, -10, -10, -10, -10, -10, -10, -10, -10, -10, -10, -10, -10, -10, -10, -10, -10, -10, -10, -10, -10, -10, -10, -10, -10, -10, -10, -10, -10, -10, -10, -10, -10, -10, -10, -10, -10, -10, -10, -10, -10, -10, -10, -10, -10, -10, -10, -10, -10, -10, -10, -10, -10, -10, -10, -10, -10, -10, -10, -10, -10, -10, -10, -10, -10, -10, -10, -10, -10, -10, -10, -10, -10, 31.041666, 31.75, 32.366074, 32.82143, 33.008926, 33.03125, 33.09375, 33.15625, 33.1875, 33.1875, 32.875, 32.4375, 32.267857, 32.1875, 32.1875, 32.25, 32, 31.722221, 22, 22, 21.729166, 21.5, 21.25, 21, 21, 20.9375, 20.75, 20.5625, 20.3125, 20.125, 20.0625, 20, 20, 20, 19.875, 19.616072, 19.276787, 19.125, 19, 19, 18.803572, 18.5625, 18.375, 18.1875, 18.125, 18, 18, 17.875, 17.625, 17.375, 17.125, 17, 17, 16.9375, 16.8125, 16.5625, 16.3125, 16.125, 16.0625, 16.0625, 16.0625, 16.0625, 15.9375, 15.6875, 15.4375, 15.1875, 15, 15, 15, 14.875, 14.6875, 14.4375, 14.1875, 14.125, 14.0625, 14.0625, 14.0625, 14, 13.75, 13.5, 13.25, 13, 13.0625, 13.0625, 13.0625, 13, 12.75, 12.5, 12.1875, 11.875, 11.8125, 11.75, 11.5625, 11.4375, 11.125, 10.875, 10.8125, 10.8125, 10.875, 10.9375, 10.875, 10.625, 10.375, 10.125, 10, 10, 10, 10, 9.9375, 9.75, 9.5, 9.25, 9.0625, 9, 8.8125, 8.6875, 8.5, 8.25, 8.1875, 8.0625, 8, 8, 8, 7.75, 7.5, 7.25, 7, 7, 7, 6.875, 6.625, 6.375, 6.125, 6, 6, -10, -10, -10, -10, -10, 16, 16, 16, 15.732143, 14.958334, 14.285714, 13.660714, 13.375, 13.125, 13, 13, 13, 13.03125, 13.03125, 13.15625, 13.34375, 13.535714, 13.883928, 14.395833, 14.785714, 14.9375, 14.9375, 14.75, 14.241072, 13.660713, 13.5, 13.375, 13.370536, 13.34375, 13.245536, 13.15625, 13.15625, 13.25, 13.223214, 13.3125, 13.34375, 13.3125, 13.3125, 13.401786, 13.607143, 13.708333, 13.729167, 13.604167, 13.729167, 13.6875, 13.625, 13.580357, 13.4375, 13.4375, 13.375, 13.375, 13.4375, 13.3125, 13.142857, 13.0625, 13, 13.0625, 13.3125, 13.75, 14.491072, 14.96875, 15.513393, 15.482142, 14.088292, 13.646258, 13.166666, 13.241072, 13.633928, 14.519049, 15.380952, 15.958333, 16.571428, 17.357143, 17.5875, 17.674999, 17.928572, 17.928572, 18.0625, 18.194445, 18.1875, 18.1875, 18.1875, 18.208334, 18.21875, 18.28125, 18.25, 18.0625, 18, 17.916666, -10, -10, -10, -10, -10, -10, -10, -10, -10, -10, -10, -10, -10, -10, -10, 48, 48, 48, 48, 48.267857, 48.75, 49.125, 49.75, 50.357143, 50.946426, 51.464287, 51.75, 52.142853, 52.75, 53.125, 53.741074, 54.315475, 54.875, 55.419643, 55.9375, 56.482143, 57, 57.5, 58, 58.583332, 59.285717, 59.527782, -10, -10, -10, -10, -10, -10, -10, -10, -10, -10, -10, -10, -10, -10, -10, -10, -10, -10, -10, -10, -10, -10, -10, -10, -10, -10, -10, -10, -10, -10, -10, -10, -10, -10, -10, -10, -10, -10, -10, -10, -10, -10, -10, -10, -10, -10, -10, -10, -10, -10, -10, -10, -10, -10, -10, -10, -10, -10, -10, -10, -10, -10, -10, -10, -10, -10, -10, -10, -10, -10, -10, -10, -10, -10, -10, -10, -10, -10, -10
-10, -10, -10, -10, -10, -10, -10, -10, -10, -10, 30.083332, 30.633333, 31.041666, 31.9, 32.376987, 32.857143, 33.095238, 33.375, 33.493752, 33.620537, 33.428574, 33.145832, 32.830357, 32.375, 32.205357, 32.125, 32.0625, 32.0625, 31.916666, 22, 22, 21.9375, 21.6875, 21.4375, 21.1875, 21, 21, 20.9375, 20.75, 20.625, 20.375, 20.1875, 20.125, 20, 20, 19.9375, 19.8125, 19.553572, 19.151787, 19, 18.8125, 18.75, 18.553572, 18.3125, 18.1875, 18.0625, 18.0625, 18, 17.9375, 17.8125, 17.5625, 17.3125, 17.125, 17, 17, 16.875, 16.75, 16.5, 16.25, 16.125, 16, 16, 16, 16, 15.9375, 15.6875, 15.4375, 15.1875, 15, 15, 15, 14.8125, 14.5625, 14.3125, 14.0625, 14.0625, 14.0625, 14.0625, 14, 13.9375, 13.6875, 13.4375, 13.25, 13, 13.0625, 13, 12.9375, 12.875, 12.6875, 12.5, 12.25, 11.9375, 11.8125, 11.8125, 11.6875, 11.5625, 11.3125, 11, 10.875, 10.875, 10.875, 10.9375, 10.875, 10.625, 10.375, 10.125, 10, 10, 10, 10, 10, 9.875, 9.625, 9.375, 9.125, 9, 8.875, 8.75, 8.5625, 8.3125, 8.1875, 8.0625, 8, 8, 8, 7.75, 7.5, 7.25, 7, 7, 7, 6.8125, 6.5625, 6.3125, 6.0625, 6, 6, -10, -10, -10, -10, -10, 16, 16, 16, 15.732143, 14.958334, 14.357142, 13.910714, 13.895833, 13.571428, 13.428572, 13.309525, 13.285714, 13.46875, 13.665178, 13.678572, 13.892858, 14.07653, 14.446428, 14.895833, 15.223214, 15.375, 15.375, 15.125, 14.616072, 13.973213, 13.875, 13.732143, 13.584822, 13.65625, 13.59375, 13.59375, 13.65625, 13.75, 13.723214, 13.75, 13.674107, 13.625, 13.625, 13.776786, 14.044643, 14.270833, 14.291667, 14.011905, 14.416667, 14.3125, 14.3125, 14.330357, 14.1875, 14.1875, 14, 13.8125, 13.75, 13.625, 13.428572, 13.205357, 13.142857, 13.1875, 13.4375, 13.875, 14.504463, 15, 15.544643, 15.366072, 13.748299, 13.404762, 13.315476, 13.584822, 14.053572, 14.729167, 15.285715, 15.90625, 16.607143, 17.214287, 17.625, 17.875, 18, 18, 18.0625, 18.083334, 17.958334, 17.958334, 17.958334, 18.09375, 18.15625, 18.15625, 18.15625, 17.958334, 17.916666, 17.916666, -10, -10, -10, -10, -10, -10, -10, -10, -10, -10, -10, -10, -10, -10, -10, 48, 48, 48, 48, 48.258926, 48.625, 49.0625, 49.6875, 50.285713, 50.848213, 51.401787, 51.6875, 52.142853, 52.8125, 53.232143, 53.8125, 54.232143, 54.75, 55.294643, 55.8125, 56.357143, 56.9375, 57.482143, 58, 58.625, 59.214287, 59.520836, 59.666664, -10, -10, -10, -10, -10, -10, -10, -10, -10, -10, -10, -10, -10, -10, -10, -10, -10, -10, -10, -10, -10, -10, -10, -10, -10, -10, -10, -10, -10, -10, -10, -10, -10, -10, -10, -10, -10, -10, -10, -10, -10, -10, -10, -10, -10, -10, -10, -10, -10, -10, -10, -10, -10, -10, -10, -10, -10, -10, -10, -10, -10, -10, -10, -10, -10, -10, -10, -10, -10, -10, -10, -10, -10, -10, -10, -10, -10, -10, -10, -10, -10, -10, -10, -10, -10, -10, -10, -10, -10, -10, -10, -10, -10, -10, -10, -10, -10, -10, -10, -10, -10, -10, 30.083332, 30.755554, 31.25, 31.983334, -10, -10, -10, 33.857143, 34.160416, 34.183037, 33.761906, 33.145832, 32.830357, 32.375, 32.205357, 32.09375, 32, 31.9375, 31.888887, 21.888887, 21.9375, 21.875, 21.625, 21.375, 21.125, 21, 20.9375, 20.8125, 20.625, 20.5625, 20.375, 20.25, 20.1875, 19.9375, 19.875, 19.75, 19.5625, 19.303572, 18.839287, 18.6875, 18.5, 18.4375, 18.303572, 18.0625, 18, 17.9375, 18, 18, 17.9375, 17.8125, 17.625, 17.375, 17.25, 17.125, 17.0625, 16.9375, 16.75, 16.5, 16.25, 16.125, 16, 16, 16, 16, 15.875, 15.625, 15.375, 15.125, 15, 15, 15, 14.8125, 14.5625, 14.3125, 14.0625, 14.0625, 14.0625, 14.0625, 14, 13.875, 13.625, 13.375, 13.1875, 13, 13.0625, 13, 12.875, 12.8125, 12.625, 12.4375, 12.25, 12, 11.875, 11.875, 11.75, 11.5625, 11.3125, 11.0625, 11, 11, 11, 11, 10.875, 10.625, 10.375, 10.125, 10, 10, 10.0625, 10.125, 10.107143, 9.854167, 9.5714283, 9.3125, 9.125, 9, 8.9375, 8.8125, 8.6875, 8.4375, 8.25, 8.125, 8, 8, 8, 7.75, 7.5, 7.25, 7, 7, 7, 6.8125, 6.5625, 6.3125, 6.0625, 6, 6, -10, -10, -10, -10, -10, 16, 16, 15.9375, 15.669643, 14.958334, 14.598214, 14.392857, 14.520833, 15.166667, 15.166667, 14.817462, 14.444444, 14.040178, 14.535714, 15.193452, 15.270833, 15.392858, 15, 15.1875, 15.482143, 15.5625, 15.625, 15.4375, 14.991072, 14.455357, 14.3125, 14.044643, 13.834822, 13.90625, 13.879464, 13.96875, 14.03125, 14.125, 14.160714, 14.25, 14.374107, 14.196428, 14.125, 14.151786, 14.419643, 14.690475, 14.729167, 15.152779, 15.261905, 15.25, 15.25, 15.163264, 15, 14.75, 14.5625, 14.3125, 14.125, 13.9375, 13.741072, 13.517857, 13.455357, 13.580357, 13.875, 14.1875, 14.705357, 15.09375, 15.575893, 15.285714, 13.583333, 13.178572, 13.127976, 13.491072, 14.053572, 14.791667, 15.392858, 16, 16.616072, 17.214287, 17.625, 17.875, 18, 18, 18, 18, 17.90625, 17.84375, 17.84375, 17.96875, 18.09375, 18.15625, 18.15625, -10, -10, 18.25, -10, -10, -10, -10, -10, -10, -10, -10, -10, -10, -10, -10, -10, -10, -10, 48, 48, 47.9375, 47.9375, 48.125, 48.375, 48.9375, 49.544643, 50.107143, 50.6875, 51.276787, 51.625, 52.142853, 52.8125, 53.232143, 53.8125, 54.232143, 54.6875, 55.169643, 55.625, 56.169643, 56.794643, 57.357143, 57.9375, 58.544643, 59.107143, 59.479168, 59.777775, 60.333332, -10, -10, -10, -10, -10, -10, -10, -10, -10, -10, -10, -10, -10, -10, -10, -10, -10, -10, -10, -10, -10, -10, -10, -10, -10, -10, -10, -10, -10, -10, -10, -10, -10, -10, -10, -10, -10, -10, -10, -10, -10, -10, -10, -10, -10, -10, -10, -10, -10, -10, -10, -10, -10, -10, -10, -10, -10, -10, -10, -10, -10, -10, -10, -10, -10, -10, -10, -10, -10, -10, -10, -10, -10, -10, -10, -10, -10
-10, -10, -10, -10, -10, -10, -10, -10, -10, -10, -10, 30.816666, 31.166668, 31.666668, -10, -10, -10, 34.383335, 34.418056, 34.17411, 33.752975, 32.9375, 32.651787, 32.25, 32.080357, 32.03125, 31.9375, 31.875, 21.5, 21.833332, 21.8125, 21.75, 21.5, 21.25, 21.0625, 21, 20.9375, 20.8125, 20.625, 20.5625, 20.375, 20.25, 20.1875, 19.9375, 19.875, 19.6875, 19.4375, 19.1875, 18.839287, 18.6875, 18.5625, 18.375, 18.25, 18.125, 18, 18, 18, 18, 17.9375, 17.875, 17.75, 17.5625, 17.5, 17.3125, 17.1875, 16.9375, 16.625, 16.4375, 16.1875, 16.125, 16.0625, 16, 16, 16, 15.875, 15.6875, 15.5, 15.3125, 15.1875, 15.125, 15.0625, 14.875, 14.625, 14.375, 14.125, 14.0625, 14.0625, 14.0625, 14, 13.875, 13.625, 13.375, 13.1875, 13, 13.0625, 13, 12.875, 12.75, 12.5625, 12.375, 12.25, 12.125, 12, 12, 11.875, 11.625, 11.375, 11.125, 11, 11, 11, 11, 10.875, 10.625, 10.375, 10.125, 10, 10, 10.0625, 10.125, 10.107143, 9.854167, 9.5714283, 9.3125, 9.125, 9, 9, 8.9375, 8.8125, 8.5625, 8.3125, 8.125, 8, 8, 8, 7.75, 7.5, 7.25, 7, 7, 7, 6.875, 6.6875, 6.4375, 6.1875, 6.0625, 6, -10, -10, -10, -10, -10, 16, 16, 15.9375, 15.678572, 15.166667, 14.901786, 14.830357, 15.309524, 15.596939, 15.333334, 15.031747, 14.595238, 14.635203, 15.089286, 15.594388, 15.660714, 15.526786, 15.375, 15.5, 15.732143, 15.75, 15.8125, 15.6875, 15.366072, 14.9375, 14.8125, 14.544643, 14.366072, 14.5, 14.401786, 14.3125, 14.375, 14.40625, 14.638392, 14.989584, 15.39949, 15, 14.666667, 14.633928, 14.888393, 15.159225, 15.345239, 15.52381, 15.604167, 15.625, 15.6875, 15.580357, 15.375, 15.1875, 14.9375, 14.75, 14.5625, 14.4375, 14.303572, 14.017857, 14.017857, 14.205357, 14.5, 14.75, 15.0625, 15.3125, 15.669643, 15.526786, 14.214286, 13.505953, 13.467262, 13.616072, 14.125, 14.6875, 15.321428, 15.9375, 16.678572, 17.32143, 17.6875, 17.9375, 18, 18, 18, 17.9375, 17.78125, 17.65625, 17.59375, 17.65625, 17.78125, 17.90625, 17.927084, -10, -10, 18.333334, -10, -10, -10, -10, -10, -10, -10, -10, -10, -10, -10, -10, -10, -10, -10, 48, 48, 47.875, 47.8125, 47.955357, 48.333332, 48.866074, 49.482143, 50.044643, 50.607143, 51.169643, 51.5625, 52.071426, 52.6875, 53.169643, 53.75, 54.232143, 54.625, 55.0625, 55.5, 55.982143, 56.607143, 57.169643, 57.866074, 58.464287, 58.9375, 59.3125, 59.654762, 60.333332, -10, -10, -10, -10, -10, -10, -10, -10, -10, -10, -10, -10, -10, -10, -10, -10, -10, -10, -10, -10, -10, -10, -10, -10, -10, -10, -10, -10, -10, -10, -10, -10, -10, -10, -10, -10, -10, -10, -10, -10, -10, -10, -10, -10, -10, -10, -10, -10, -10, -10, -10, -10, -10, -10, -10, -10, -10, -10, -10, -10, -10, -10, -10, -10, -10, -10, -10, -10, -10, -10, -10, -10, -10, -10, -10, -10, -10, -10, -10, -10, -10, -10, -10, -10, -10, -10, -10, -10, -10, -10, -10, -10, -10, -10, -10, -10, -10, -10, -10, -10, -10, -10, 30.916666, 31.166668, 31.416668, -10, -10, -10, 33.154762, 33.580952, 34.030357, 33.511902, 32.69643, 32.401787, 32.1875, 32.1875, 32.15625, 32.0625, 31.916666, 21.666666, 21.770832, 21.6875, 21.5625, 21.3125, 21.125, 21, 21, 20.9375, 20.75, 20.5, 20.375, 20.1875, 20.125, 20.125, 19.9375, 19.875, 19.625, 19.375, 19.1875, 18.875, 18.75, 18.625, 18.4375, 18.3125, 18.1875, 18.0625, 18, 18, 18, 17.9375, 17.9375, 17.875, 17.75, 17.6875, 17.4375, 17.25, 16.875, 16.5, 16.375, 16.125, 16.125, 16.0625, 15.9375, 15.9375, 15.9375, 15.9375, 15.8125, 15.6875, 15.5625, 15.375, 15.25, 15.125, 14.9375, 14.75, 14.5, 14.25, 14, 13.9375, 13.9375, 13.875, 13.875, 13.625, 13.375, 13.1875, 13, 13, 12.9375, 12.75, 12.625, 12.4375, 12.25, 12.1875, 12.0625, 12, 12, 11.9375, 11.6875, 11.4375, 11.1875, 11, 11, 11, 11, 10.875, 10.625, 10.375, 10.125, 10, 10, 10.0625, 10.125, 10.107143, 9.791667, 9.5089283, 9.25, 9.0625, 9, 9, 9, 8.875, 8.625, 8.375, 8.125, 8, 8, 8, 7.8125, 7.5625, 7.3125, 7.0625, 7, 7, 6.875, 6.6875, 6.4375, 6.1875, 6.125, 6.0833335, -10, -10, -10, -10, -10, 16, 16, 15.9375, 15.75, 15.5, 15.330357, 15.392857, 15.645833, 15.866072, 15.604167, 15.027211, 14.895833, 14.915178, 15.34375, 15.816964, 15.90625, 16.026787, 15.8125, 15.8125, 15.875, 15.875, 15.9375, 15.8125, 15.5625, 15.3125, 15.125, 14.982143, 14.901786, 14.9375, 14.839286, 14.625, 14.625, 14.6875, 15.044642, 15.520834, 16.065306, 15.87245, 15.145834, 15.0625, 15.15625, 15.575893, 15.78125, 15.9375, 16, 15.875, 15.9375, 15.875, 15.75, 15.625, 15.375, 15.1875, 14.9375, 14.8125, 14.723214, 14.486607, 14.611607, 14.913264, 15.214286, 15.25, 15.4375, 15.625, 15.8125, 15.741072, 14.931973, 13.755953, 13.491072, 13.5, 14, 14.678572, 15.321428, 15.9375, 16.741072, 17.428572, 17.75, 18, 18, 18.0625, 18.0625, 17.9375, 17.674107, 17.46875, 17.40625, 17.427084, 17.583334, 17.75, 17.777779, -10, -10, -10, -10, -10, -10, -10, -10, -10, -10, -10, -10, -10, -10, -10, -10, -10, -10, 48, 48, 47.875, 47.8125, 47.955357, 48.333332, 48.803574, 49.419643, 49.919643, 50.419643, 51, 51.482143, 52, 52.5625, 53.107143, 53.6875, 54.232143, 54.625, 55, 55.375, 55.75, 56.357143, 56.982143, 57.651787, 58.232143, 58.794643, 59.178574, 59.642853, 60.333332, 60.799999, -10, -10, -10, -10, -10, -10, -10, -10, -10, -10, -10, -10, -10, -10, -10, -10, -10, -10, -10, -10, -10, -10, -10, -10, -10, -10, -10, -10, -10, -10, -10, -10, -10, -10, -10, -10, -10, -10, -10, -10, -10, -10, -10, -10, -10, -10, -10, -10, -10, -10, -10, -10, -10, -10, -10, -10, -10, -10, -10, -10, -10, -10, -10, -10, -10, -10, -10, -10, -10, -10, -10, -10, -10, -10, -10, -10
