-10, -10, -10, -10, -10, -10, -10, -10, -10, -10, -10, -10, -10, 23.125, 23.083334, 23.0625, 23, 23, 23, 22.9375, 22.75, 22.5, 22.25, 22.1875, 22.1875, 22.25, 22.25, 22.0625, 21.9375, 21.8125, 21.8125, 21.875, 21.6875, 21.5, 21.25, 21, 21, 21, 21, 21, 20.9375, 20.75, 20.5, 20.25, 20.0625, 20, 19.875, 19.6875, 19.5, 19.3125, 19.1875, 19.1875, 19.125, 19.0625, 19.125, 19.0625, 19, 18.830357, 18.5625, 18.3125, 18.25, 18.125, 18.125, 18.125, 18, 18, 18, 17.875, 17.6875, 17.5625, 17.3125, 17.1875, 17.125, 17, 17, 17, 16.9375, 16.8125, 16.625, 16.375, 16.1875, 16.0625, 16, 16, 16, 15.875, 15.75, 15.6875, 15.4375, 15.3125, 15.125, 14.916667, 15, 15, -10, -10, -10, -10, -10, -10, -10, -10, -10, -10, -10, -10, -10, -10, -10, -10, -10, -10, -10, -10, -10, -10, -10, -10, -10, -10, 37.087299, 36.599998, 36.404762, 36.1875, 35.9375, 35.6875, 35.5, 35.125, 34.767857, 34.5625, 34.3125, 34.25, 34.3125, 34.4375, 34.485119, 34.208336, 34.017857, 33.9375, 33.875, 34, 33.883926, 33.669643, 33.566963, 33.40625, 33.46875, 33.40625, 33.517857, 33.770832, 33.794643, 33.875, 33.8125, 33.6875, 33.5625, 33.4375, 33.3125, 33.321426, 33.5, 33.5625, 33.6875, 33.6875, 33.75, 33.75, 33.6875, 33.6875, 33.875, 33.848213, 33.776787, 33.75, 33.5625, 33.625, 33.491074, 32.916668, 33.142857, 33.357143, 33.5625, 33.660713, 33.517857, 33.583332, 33.958332, 34.035713, 34.03125, 33.78125, 33.5625, 33.5, 33.5625, 33.6875, 33.6875, 33.607143, 33.535713, 33.75, 33.75, 33.6875, 33.517857, 33.392857, 33.520832, 33.419643, 33.4375, 33.5, 33.5625, 33.625, 33.8125, 33.9375, 33.875, 33.875, 33.6875, 33.625, 33.75, 33.875, 33.794643, 33.291668, 33.330357, 33.419643, 33.660713, 33.875, 34, 34, 34.0625, 34, 33.9375, 33.839287, 33.589287, 33.75, 33.732143, 33.8125, 33.875, 33.9375, 34, 34.0625, 33.857143, 34.125, 34.464287, 34.688774, 34.714287, 34.714287, 34.40625, 34.25, 34.125, 34, 33.90625, 33.90625, 33.84375, 33.933037, 34.044643, 33.982143, 34, 34, 34.125, 34.357143, 34.357143, 34.166668, 33.946426, 33.75, 33.75, 33.71875, 33.78125, 33.974491, 33.834824, 34.041668, 34.125, 34.1875, 34.1875, 34.1875, 34.125, 34, 33.9375, 33.875, 33.75, 33.839287, 33.991074, 34.464287, 34.545918, 34.107143, 34.165176, 34.200893, 34.34375, 34.397324, 34.25, 34.0625, 33.607143, 33.67857, 33.642857, 34.125, 34.3125, 34.3125, 34.3125, 34.25, 34.107143, 33.892857, 33.42857, 33.416668, 33.5, 33.583332, 33.75, 33.630951, 33.577381, 33.708332, 33.6875, 33.8125, 33.75, 33.625, 33.5, 33.625, 33.571426, -10, -10, -10, -10, -10, -10, -10, -10, -10, -10, -10, -10, -10, -10, -10, -10, -10, -10, -10, -10, -10, -10, -10, -10, -10, -10, -10, -10, -10, -10, -10, -10, -10, -10, -10, -10, -10, -10, -10, -10, -10, -10, -10, -10, -10, -10, -10, -10, -10, -10, -10, -10, -10, -10, -10, -10, -10, -10, -10, -10, -10, -10, -10, -10, -10, -10, -10, -10, -10, -10, -10, -10, -10, -10, -10, -10, -10, -10, -10, -10, -10, -10, -10, -10, -10, -10, 23.25, 23.25, 23.169643, 22.964287, 23, 22.9375, 22.875, 22.6875, 22.4375, 22.1875, 22.125, 22.125, 22.1875, 22.1875, 22.0625, 21.875, 21.6875, 21.625, 21.6875, 21.625, 21.482143, 21.1875, 21, 20.9375, 21, 21, 20.9375, 20.8125, 20.625, 20.375, 20.1875, 20.0625, 20, 19.9375, 19.8125, 19.6875, 19.5625, 19.375, 19.3125, 19.1875, 19.0625, 19.125, 19.0625, 19, 18.767857, 18.5625, 18.3125, 18.1875, 18.125, 18.125, 18.125, 18, 17.964287, 17.9375, 17.8125, 17.75, 17.625, 17.375, 17.25, 17.125, 17, 17, 17, 17, 16.9375, 16.6875, 16.4375, 16.1875, 16, 16, 16, 16, 15.875, 15.8125, 15.785714, 15.455357, 15.321428, 15.1875, 15, 15, 15, 14.875, 14.625, 14.257143, -10, -10, -10, -10, -10, -10, -10, -10, -10, -10, -10, -10, -10, -10, -10, -10, -10, -10, -10, -10, -10, -10, -10, -10, 36.466667, 36.373016, 36.125, 36, 35.75, 35.4375, 34.892857, 34.455357, 34.1875, 33.9375, 33.875, 33.875, 34.0625, 34.083332, 33.770836, 33.6875, 33.5, 33.5625, 33.625, 33.633926, 33.544643, 33.575893, 33.4375, 33.375, 33.25, 33.330357, 33.645832, 33.794643, 33.8125, 33.75, 33.6875, 33.544643, 33.354168, 33.258926, 33.133926, 33.25, 33.1875, 33.25, 33.3125, 33.4375, 33.5, 33.375, 33.3125, 33.3125, 33.1875, 33.1875, 33.125, 33, 33, 32.866074, 32.625, 32.75, 32.919643, 33.071426, 32.998215, 32.955357, 32.656464, 33.130951, 33.290813, 33.65625, 33.53125, 33.3125, 33.142857, 33.0625, 33.125, 33.125, 33.0625, 32.892857, 32.875, 32.875, 33, 33.0625, 33, 32.9375, 32.8125, 32.8125, 32.9375, 33.0625, 33.1875, 33.375, 33.4375, 33.375, 33.3125, 33.125, 33.0625, 33.357143, 33.5, 33.408165, 32.729168, 32.892857, 33.044643, 33.410713, 33.625, 33.6875, 33.625, 33.5625, 33.5625, 33.5, 33.339287, 33.089287, 33.1875, 33.232143, 33.375, 33.4375, 33.4375, 33.375, 33.375, 33.375, 33.4375, 33.392857, 33.612244, 33.520832, 33.520832, 33.75, 33.75, 33.625, 33.5, 33.40625, 33.40625, 33.34375, 33.433037, 33.575893, 33.513393, 33.53125, 33.53125, 33.5625, 33.6875, 33.8125, 33.785713, 33.589287, 33.5, 33.4375, 33.46875, 33.53125, 33.395409, 33.584824, 33.791668, 33.8125, 33.8125, 33.75, 33.75, 33.75, 33.6875, 33.6875, 33.625, 33.625, 33.75, 33.8125, 33.897957, 33.724491, 33.61607, 33.665176, 33.700893, 33.90625, 33.870537, 33.517857, 33.330357, 33.0625, 33.1875, 33.25, 33.5625, 33.8125, 33.875, 33.875, 33.75, 33.544643, 33.357143, 33.321426, 33.205357, 33.375, 33.375, 33.5625, 33.473213, 33.370537, 33.46875, 33.375, 33.458332, 33.416668, 33.369049, 33.476192, 33.607143, 33.589283, 33.116074, 33.0625, 32.875, 33.125, 33.25, 33.375, 33.5, -10, -10, -10, -10, -10, -10, -10, -10, -10, -10, -10, -10, -10, -10, -10, -10, -10, -10, -10, -10, -10, -10, -10
-10, -10, -10, -10, -10, -10, -10, -10, -10, -10, -10, -10, -10, 23.375, 23.416666, 23.357143, 23.089287, 23.125, 23, 22.8125, 22.625, 22.3125, 22.0625, 22.125, 22.232143, 22.3125, 22.3125, 22.125, 21.8125, 21.5625, 21.4375, 21.5, 21.5625, 21.544643, 21.3125, 21.125, 21, 21, 21, 20.875, 20.75, 20.5, 20.25, 20.125, 20, 20, 20, 19.9375, 19.875, 19.8125, 19.625, 19.5, 19.3125, 19.125, 19.125, 19.0625, 19, 18.705357, 18.5625, 18.375, 18.1875, 18.1875, 18.1875, 18.125, 18.0625, 18.026787, 17.9375, 17.875, 17.875, 17.8125, 17.5625, 17.375, 17.1875, 17, 17, 17, 17, 16.9375, 16.6875, 16.4375, 16.1875, 16, 16, 16, 15.9375, 15.875, 15.875, 15.785714, 15.517857, 15.321428, 15.125, 15, 15, 15, 14.916667, 14.75, 14.504762, 14.208334, 14.033333, -10, -10, -10, -10, -10, -10, -10, -10, -10, -10, -10, -10, -10, -10, -10, -10, -10, -10, -10, -10, -10, -10, -10, -10, 36.083332, 36.083332, 35.625, 35.375, 34.955357, 34.580357, 34.303574, 33.854168, 33.633926, 33.5, 33.5625, 33.583332, 33.479168, 33.4375, 33.3125, 33.25, 33.25, 33.348213, 33.50893, 33.65625, 33.522324, 33.135418, 32.852676, 32.830357, 33.145832, 33.357143, 33.375, 33.464287, 33.392857, 33.265308, 32.916668, 32.883926, 32.75, 32.6875, 32.6875, 32.625, 32.6875, 32.8125, 32.875, 32.8125, 32.75, 32.6875, 32.4375, 32.375, 32.375, 32.3125, 32.4375, 32.366074, 32.125, 32.321426, 32.557144, 32.508926, 32.364285, 32.205357, 32.136906, 32.583332, 32.848213, 33.03125, 33.059521, 32.696426, 32.5625, 32.5, 32.5, 32.5, 32.4375, 32.267857, 32.25, 32.3125, 32.473213, 32.5625, 32.625, 32.5, 32.375, 32.375, 32.4375, 32.5625, 32.6875, 32.8125, 32.8125, 32.75, 32.625, 32.5, 32.5, 32.25, 32.416668, 32.488098, 32.479168, 32.642857, 32.794643, 33.035713, 33.125, 33.1875, 33.1875, 33.1875, 33.25, 33.25, 33.089287, 32.839287, 32.96875, 33.075893, 33.258926, 33.178574, 33.071426, 33, 33.0625, 33.0625, 33.125, 32.892857, 32.897957, 32.910713, 32.875, 33.15625, 33, 32.964287, 33.044643, 33.013393, 33.09375, 33.03125, 33.120537, 33.325893, 33.200893, 33.15625, 33.15625, 33.1875, 33.375, 33.5625, 33.535713, 33.339287, 33.1875, 33.0625, 33.03125, 33.03125, 33.111607, 33.209824, 33.479168, 33.5625, 33.5625, 33.5, 33.5, 33.5, 33.4375, 33.4375, 33.375, 33.4375, 33.625, 33.6875, 33.816963, 33.58482, 33.308037, 33.258926, 33.28125, 33.46875, 33.441963, 33.267857, 33.142857, 33.0625, 33.1875, 33.3125, 33.5625, 33.625, 33.625, 33.5625, 33.4375, 33.294643, 33.107143, 33.071426, 32.955357, 33.125, 33.125, 33.25, 33.1875, 33.15625, 33.21875, 33.28125, 33.34375, 33.375, 33.3125, 33.25, 33.205357, 33.290813, 32.742859, 32.470238, 32.583332, 32.75, 32.916668, 32.916668, 32.904762, 32.200001, 32.642857, 32.785713, 32.75, 32.625, 32.5, 32.333336, -10, -10, -10, -10, -10, -10, -10, -10, -10, -10, -10, -10, -10, -10, -10, -10, -10, -10, -10, -10, -10, -10, -10, -10, -10, -10, -10, -10, -10, -10, -10, -10, -10, -10, -10, -10, -10, -10, -10, -10, -10, -10, -10, -10, -10, -10, -10, -10, -10, -10, -10, -10, -10, -10, -10, -10, -10, -10, -10, -10, -10, -10, -10, -10, -10, -10, -10, -10, -10, -10, -10, -10, 23.25, 23.333332, 23.294643, 23.089287, 23.125, 23, 22.75, 22.5, 22.125, 21.875, 22.0625, 22.276787, 22.375, 22.375, 22.125, 21.75, 21.4375, 21.25, 21.25, 21.482143, 21.836309, 21.625, 21.166666, 20.928572, 20.875, 20.9375, 20.8125, 20.625, 20.375, 20.125, 20.0625, 20, 20, 20, 20, 20, 20, 19.875, 19.6875, 19.4375, 19.1875, 19, 18.9375, 18.9375, 18.6875, 18.625, 18.4375, 18.1875, 18.1875, 18.1875, 18.125, 18.0625, 18.026787, 17.9375, 17.9375, 18, 18, 17.75, 17.5, 17.25, 17, 17, 17, 17, 16.875, 16.625, 16.375, 16.125, 16, 16, 16, 15.9375, 15.9375, 16, 15.848214, 15.580357, 15.321428, 15.0625, 15, 15, 15, 14.9375, 14.8125, 14.628572, 14.388889, 14.188889, -10, -10, -10, -10, -10, -10, -10, -10, -10, -10, -10, -10, -10, -10, -10, -10, -10, -10, -10, -10, -10, -10, -10, -10, -10, -10, 35.4375, 35.25, 34.955357, 34.642857, 34.366074, 33.854168, 33.571426, 33.375, 33.25, 33.1875, 33.080357, 33.0625, 33, 32.875, 32.8125, 32.875, 33.107143, 33.3125, 33.366074, 33.041668, 32.821426, 32.75, 32.8125, 33, 33, 32.82143, 32.785713, 32.632652, 32.604168, 32.508926, 32.375, 32.25, 32.25, 32.1875, 32.25, 32.375, 32.4375, 32.4375, 32.375, 32.3125, 32.125, 32, 32, 32, 32.1875, 32.25, 32.1875, 32.321426, 32.450001, 32.196426, 32.016071, 32, 31.866072, 32.125, 32.241074, 32.166664, 31.662697, 32.071426, 32.098213, 32.125, 32.25, 32.25, 32.1875, 31.955357, 31.875, 32, 32.160713, 32.142857, 32.133926, 31.9375, 31.875, 31.9375, 31.9375, 31.9375, 31.955357, 32, 32, 32.0625, 32, 31.9375, 31.9375, 31.9375, 32.0625, 32.178574, 32.104168, 32.267857, 32.4375, 32.660713, 32.75, 32.8125, 32.8125, 32.8125, 32.875, 32.9375, 32.910713, 32.839287, 32.84375, 32.84375, 32.883926, 32.678574, 32.508926, 32.4375, 32.5, 32.5, 32.5625, 32.4375, 32.375, 32.4375, 32.4375, 32.5625, 32.4375, 32.339287, 32.482143, 32.482143, 32.6875, 32.75, 32.839287, 33.013393, 32.825893, 32.71875, 32.65625, 32.6875, 32.9375, 33.1875, 33.160713, 33.026787, 32.875, 32.625, 32.5, 32.3125, 32.205357, 32.366074, 32.791668, 33.178574, 33.3125, 33.214287, 33.1875, 33.0625, 33, 32.9375, 32.9375, 32.973213, 33.026787, 33.0625, 33.004463, 32.799107, 32.665176, 32.6875, 32.78125, 33.03125, 33.066963, 32.892857, 32.919643, 32.9375, 32.883926, 33.008926, 33.285713, 33.125, 33.125, 33.133926, 33.1875, 32.982143, 32.75, 32.633926, 32.517857, 32.6875, 32.6875, 32.8125, 32.75, 32.71875, 32.71875, 32.78125, 32.78125, 32.8125, 32.8125, 32.75, 32.705357, 32.415813, 32.227043, 32.415176, 32.5625, 32.6875, 32.8125, 32.75, 32.418369, 32.085712, 32.476192, 32.523808, 32.583332, 32.416668, 32.333332, 32.222225, 32, 32.125, 32, 32, 31.75, 31.625, 31.708332, -10, -10, -10, -10, -10, -10, -10, -10, -10
-10, -10, -10, -10, -10, -10, -10, -10, -10, -10, -10, -10, -10, 23.375, 23.416666, 23.357143, 23.089287, 23.125, 23, 22.8125, 22.5625, 22.25, 22, 22.125, 22.339287, 22.375, 22.375, 22.1875, 21.9375, 21.6875, 21.4375, 21.267857, 21.419643, 21.711309, 21.5, 21.104166, 20.866072, 20.8125, 20.875, 20.6875, 20.5625, 20.3125, 20.125, 20.125, 20, 20, 19.9375, 19.9375, 19.9375, 19.9375, 19.875, 19.625, 19.375, 19.125, 18.875, 18.875, 18.875, 18.6875, 18.6875, 18.5, 18.25, 18.1875, 18.1875, 18.125, 18.0625, 18.089287, 18.0625, 18.0625, 18.125, 18.0625, 17.8125, 17.625, 17.375, 17.125, 17.0625, 17, 17, 16.8125, 16.5625, 16.3125, 16.0625, 16, 16, 16, 15.9375, 15.9375, 16, 15.848214, 15.580357, 15.321428, 15.0625, 15.0625, 15.0625, 15.0625, 15.0625, 14.9375, 14.803572, 14.354167, 14.141666, 14, 13.833334, -10, -10, -10, -10, -10, -10, -10, -10, -10, -10, -10, -10, -10, -10, -10, -10, -10, -10, -10, -10, -10, -10, -10, -10, 35.25, 34.9375, 34.726189, 34.5625, 34.366074, 33.854168, 33.571426, 33.375, 33.1875, 33, 32.767857, 32.6875, 32.625, 32.5625, 32.625, 32.75, 32.982143, 33.25, 33.303574, 32.916668, 32.696426, 32.5, 32.4375, 32.357143, 32.357143, 32.392857, 32.42857, 32.346939, 32.291668, 32.133926, 32, 31.8125, 31.8125, 31.75, 31.8125, 32, 32.125, 32.1875, 32.0625, 31.875, 31.625, 31.4375, 31.375, 31.375, 31.5625, 31.75, 31.919643, 32.133926, 32.262501, 31.883928, 31.578571, 31.625, 31.553572, 31.8125, 31.928572, 31.40476, 31.20578, 31.418367, 31.642857, 31.8125, 31.9375, 31.875, 31.8125, 31.517857, 31.4375, 31.625, 31.848213, 31.830357, 31.758928, 31.5625, 31.5, 31.5625, 31.5, 31.375, 31.267857, 31.142857, 31.214285, 31.5, 31.5, 31.4375, 31.375, 31.3125, 31.375, 31.5, 31.75, 32, 32.1875, 32.30357, 32.104168, 32.080357, 32.1875, 32.357143, 32.4375, 32.5625, 32.59375, 32.65625, 32.665176, 32.58482, 32.455357, 32.178574, 31.946428, 31.8125, 31.875, 31.875, 32.0625, 32.035713, 31.830357, 31.821428, 32.035713, 31.9375, 31.875, 31.839287, 31.982143, 32.044643, 32.3125, 32.4375, 32.5625, 32.59375, 32.40625, 32.28125, 32.21875, 32.25, 32.4375, 32.6875, 32.660713, 32.526787, 32.4375, 32.1875, 32.125, 32, 31.785715, 32, 32.1875, 32.553574, 32.6875, 32.714287, 32.6875, 32.5625, 32.5625, 32.4375, 32.4375, 32.473213, 32.526787, 32.642857, 32.75, 32.799107, 32.665176, 32.53125, 32.5, 32.625, 32.660713, 32.517857, 32.607143, 32.6875, 32.633926, 32.758926, 32.714287, 32.8125, 32.75, 32.758926, 32.75, 32.625, 32.607143, 32.5625, 32.455357, 32.5625, 32.5, 32.5625, 32.5, 32.4375, 32.3125, 32.3125, 32.3125, 32.375, 32.5, 32.5, 32.392857, 32.28125, 32.15625, 32.227676, 32.46875, 32.46875, 32.53125, 32.34375, 32.053574, 31.939285, 32.169643, 32.214287, 32.4375, 32.25, 32.214287, 32.166668, 32.047619, 32.166668, 32.083332, 32, 31.75, 31.583334, 31.638887, 31.625, 31.875, 31.75, 31.625, 31.5, 31.4375, 31.645832, -10, -10, -10, -10, -10, -10, -10, -10, -10, -10, -10, -10, -10, -10, -10, -10, -10, -10, -10, -10, -10, -10, -10, -10, -10, -10, -10, -10, -10, -10, -10, -10, -10, -10, -10, -10, -10, -10, -10, -10, -10, -10, -10, -10, -10, -10, -10, -10, -10, -10, -10, -10, -10, -10, -10, -10, -10, -10, 23.375, 23.333334, 23.3125, 23.125, 23.125, 23.0625, 22.875, 22.6875, 22.4375, 22.1875, 22.25, 22.401787, 22.375, 22.375, 22.1875, 22.0625, 21.875, 21.6875, 21.455357, 21.419643, 21.666666, 21.5, 21.104166, 20.991072, 20.848213, 20.839287, 20.6875, 20.5, 20.3125, 20.125, 20.125, 20, 20, 19.9375, 19.9375, 19.9375, 19.9375, 19.875, 19.625, 19.375, 19.125, 18.875, 18.875, 18.875, 18.75, 18.6875, 18.5625, 18.375, 18.25, 18.25, 18.125, 18.0625, 18.125, 18.125, 18.125, 18.125, 18, 17.8125, 17.6875, 17.4375, 17.25, 17.125, 17, 17, 16.8125, 16.625, 16.375, 16.125, 16.0625, 16, 16, 15.9375, 15.9375, 15.9375, 15.8125, 15.6875, 15.4375, 15.1875, 15.125, 15.0625, 15.0625, 15.0625, 14.9375, 14.8125, 14.5625, 14.416667, 14.083333, 13.972222, 13.982143, 13.375, 13.25, -10, -10, -10, -10, -10, -10, -10, -10, -10, -10, -10, -10, -10, -10, -10, -10, -10, -10, -10, -10, -10, -10, 34.833332, 34.777775, 34.666668, 34.366074, 33.916668, 33.633926, 33.4375, 33.125, 32.8125, 32.517857, 32.375, 32.375, 32.25, 32.25, 32.25, 32.357143, 32.625, 32.741074, 32.416668, 32.258926, 32.0625, 31.875, 31.9375, 31.875, 31.8125, 31.8125, 31.75, 31.6875, 31.6875, 31.75, 31.625, 31.5625, 31.4375, 31.375, 31.4375, 31.589287, 31.857143, 31.794643, 31.75, 31.5625, 31.25, 31.1875, 31.0625, 31.125, 31.3125, 31.419643, 31.571428, 31.637501, 31.375, 31.303572, 31.375, 31.4375, 31.625, 31.678572, 31.104166, 30.791668, 30.866072, 31, 31.458334, 31.553572, 31.526787, 31.5, 31.3125, 31.375, 31.5625, 31.785713, 31.767857, 31.633928, 31.4375, 31.375, 31.348213, 31.142857, 30.946428, 30.767857, 30.8125, 30.9375, 31.125, 31.1875, 31.1875, 31.116072, 30.854166, 30.892857, 31.053572, 31.604166, 31.866072, 32.0625, 31.991072, 31.604166, 31.482143, 31.5625, 31.794643, 31.9375, 32.125, 32.21875, 32.28125, 32.290176, 32.14732, 31.955357, 31.678572, 31.446428, 31.3125, 31.4375, 31.5, 31.75, 31.776787, 31.309523, 31.276785, 31.107143, 31.375, 31.375, 31.276787, 31.357143, 31.4375, 31.8125, 31.9375, 32.0625, 32.0625, 31.9375, 31.8125, 31.839287, 31.910713, 32, 32.1875, 32.125, 32.125, 32.0625, 31.9375, 31.8125, 31.625, 31.5, 31.4375, 31.625, 32.022324, 32.1875, 32.308037, 32.28125, 32.125, 32.09375, 31.9375, 31.875, 31.647959, 31.673471, 32.098213, 32.200893, 32.28125, 32.21875, 32.21875, 32.25, 32.3125, 32.375, 32.375, 32.464287, 32.5, 32.321426, 32.383926, 32.5, 32.607143, 32.508926, 32.279762, 32.25, 32.125, 32.158482, 32.09375, 32.09375, 32.09375, 32.109375, 32.15625, 32.15625, 32.21875, 32.0625, 32, 31.9375, 31.9375, 32.035713, 31.892857, 31.75, 31.625, 31.5625, 31.758928, 32.004463, 31.861607, 31.947916, 31.84375, 31.491072, 31.403572, 31.607143, 31.589285, 31.875, 31.625, 31.589287, 31.625, 31.723213, 31.875, 31.8125, 31.75, 31.5625, 31.4375, 31.407738, 30.972221, 31.194445, 31.388887, 31.416666, 31.416666, 31.291666, 31.513887, 31.5625, 31.6875
-10, -10, -10, -10, -10, -10, -10, -10, -10, -10, -10, -10, -10, 23.5, 23.416668, 23.375, 23.1875, 23.125, 23.0625, 22.9375, 22.8125, 22.6875, 22.4375, 22.375, 22.357143, 22.1875, 22.1875, 22.0625, 22, 21.9375, 21.8125, 21.517857, 21.419643, 21.541666, 21.3125, 20.979166, 20.866072, 20.723213, 20.714287, 20.535713, 20.205357, 20.080357, 20, 20.169643, 20.1875, 20.1875, 20.0625, 20, 19.9375, 19.9375, 19.875, 19.625, 19.375, 19.125, 18.875, 18.875, 18.875, 18.8125, 18.75, 18.5625, 18.4375, 18.25, 18.1875, 18.125, 18, 18.0625, 18.125, 18.125, 18.125, 17.9375, 17.8125, 17.6875, 17.5, 17.375, 17.1875, 17.0625, 17, 16.875, 16.75, 16.5, 16.25, 16.125, 16, 16, 16, 16, 16, 15.9375, 15.8125, 15.5625, 15.375, 15.25, 15.125, 15.125, 15.0625, 14.9375, 14.8125, 14.625, 14.5, 14.3125, 14.166667, 14.154762, 13.666667, 13.5, 13.541666, -10, -10, -10, -10, -10, -10, -10, -10, -10, -10, -10, -10, -10, -10, -10, -10, -10, -10, -10, -10, -10, -10, -10, -10, 34.25, 34, 33.729168, 33.5625, 33.125, 32.6875, 32.267857, 32.0625, 32.0625, 31.9375, 31.9375, 31.8125, 31.75, 31.9375, 32.0625, 32, 31.9375, 31.8125, 31.625, 31.625, 31.5625, 31.5, 31.5, 31.5, 31.5625, 31.5625, 31.625, 31.5, 31.3125, 31.1875, 31.125, 31.125, 31.214287, 31.482143, 31.419643, 31.4375, 31.4375, 31.160713, 31.026787, 30.9375, 30.875, 30.821428, 30.87245, 30.892857, 30.785715, 30.9375, 31, 31.1875, 31.3125, 31.4375, 31.303572, 30.729166, 30.5625, 30.482143, 30.580357, 30.958334, 30.991072, 31.026787, 31.0625, 31, 31.125, 31.25, 31.375, 31.267857, 31.071428, 30.9375, 30.875, 30.848213, 30.642857, 30.446428, 30.330357, 30.375, 30.5, 30.6875, 30.6875, 30.625, 30.491072, 30.166666, 30.205357, 30.366072, 30.979166, 31.428572, 31.723213, 31.678572, 31.0625, 30.803572, 30.964285, 31.12245, 31.224489, 31.208334, 31.25, 31.464285, 31.616072, 31.220238, 31.050594, 31.083334, 31.053572, 31.0625, 31.0625, 31.0625, 31.25, 31.214287, 30.809523, 30.776785, 30.75, 30.875, 30.9375, 30.8125, 30.75, 30.830357, 31.1875, 31.375, 31.5, 31.321428, 31.4375, 31.375, 31.526787, 31.571428, 31.526787, 31.75, 31.660713, 31.75, 31.8125, 31.75, 31.669643, 31.375, 31.15625, 30.90625, 31.09375, 31.428572, 31.428572, 31.808037, 31.78125, 31.625, 31.59375, 31.4375, 31.375, 31.285713, 31.339287, 31.535713, 31.669643, 31.875, 31.8125, 31.8125, 31.8125, 31.8125, 31.875, 31.875, 31.964287, 31.9375, 31.696428, 31.696428, 31.75, 31.888393, 31.790178, 31.623512, 31.464285, 31.392857, 31.674107, 31.625, 31.625, 31.625, 31.65625, 31.75, 31.8125, 31.9375, 31.75, 31.6875, 31.625, 31.53125, 31.6875, 31.625, 31.5625, 31.59375, 31.625, 31.875, 31.933035, 31.611607, 31.635416, 31.53125, 31.3125, 31.241072, 31.160713, 31.008928, 31.258928, 31.200001, 31.169643, 31.375, 31.426338, 31.65625, 31.6875, 31.625, 31.484375, 31.28125, 31.116072, 30.746599, 31.119049, 31.470238, 31.5, 31.4375, 31.28125, 31.447916, 31.541666, 31.708334, 31.916666, 31.75, 31.611113, 31.75, 31.333334, -10, -10, -10, -10, -10, -10, -10, -10, -10, -10, -10, -10, -10, -10, -10, -10, -10, -10, -10, -10, -10, -10, -10, -10, -10, -10, -10, -10, -10, -10, -10, -10, -10, -10, -10, -10, -10, -10, -10, -10, -10, -10, -10, -10, -10, -10, -10, -10, -10, -10, -10, 23.625, 23.500002, 23.4375, 23.1875, 23.0625, 23, 22.9375, 22.875, 22.9375, 22.75, 22.625, 22.4375, 22.1875, 22.125, 21.9375, 21.9375, 21.9375, 21.8125, 21.580357, 21.375, 21.125, 20.9375, 20.9375, 20.875, 20.723213, 20.651787, 20.383928, 20.044643, 19.946428, 19.714287, 19.950893, 19.96875, 20.09375, 20.03125, 20, 19.9375, 19.9375, 19.875, 19.625, 19.375, 19.125, 18.9375, 18.9375, 18.9375, 18.9375, 18.875, 18.6875, 18.625, 18.375, 18.25, 18.1875, 18, 18.0625, 18.125, 18.125, 18.0625, 17.8125, 17.6875, 17.5625, 17.4375, 17.375, 17.1875, 17.0625, 17, 16.9375, 16.8125, 16.5625, 16.3125, 16.125, 16, 16, 16, 16, 16, 16, 15.875, 15.625, 15.4375, 15.25, 15.125, 15.125, 15.0625, 14.9375, 14.8125, 14.625, 14.5625, 14.5, 14.4375, 14.303572, 13.875, 13.6875, 13.694444, 13.708334, -10, -10, -10, -10, -10, -10, -10, -10, -10, -10, -10, -10, -10, -10, -10, -10, -10, -10, -10, -10, -10, -10, -10, -10, 33.5, 33.333336, 33.204082, 32.6875, 32.303574, 31.875, 31.6875, 31.625, 31.5625, 31.5625, 31.5, 31.4375, 31.285715, 31.357143, 31.5, 31.5, 31.5, 31.375, 31.375, 31.3125, 31.25, 31.25, 31.25, 31.375, 31.4375, 31.5, 31.375, 31.125, 30.9375, 30.8125, 30.75, 30.776787, 30.982143, 30.919643, 30.9375, 30.9375, 30.723213, 30.589287, 30.5625, 30.5, 30.5625, 30.607143, 30.5625, 30.4375, 30.5, 30.5625, 30.8125, 31, 31.125, 31.125, 30.75, 30.544643, 30.357143, 30.294643, 30.416668, 30.382654, 30.589287, 30.625, 30.625, 30.75, 30.8125, 30.875, 30.875, 30.75, 30.6875, 30.625, 30.535713, 30.330357, 30.196428, 30.25, 30.375, 30.5, 30.625, 30.5, 30.3125, 30.147322, 29.65476, 29.924107, 30.084822, 30.666666, 31.053572, 31.285713, 31.241072, 30.625, 30.366072, 29.928572, 29.663095, 29.845238, 30.263607, 30.78125, 31.03125, 31.053572, 30.57823, 30.550594, 30.583334, 30.616072, 30.625, 30.625, 30.625, 30.75, 30.714287, 30.309523, 30.214285, 30.1875, 30.3125, 30.4375, 30.4375, 30.3125, 30.392857, 30.625, 30.6875, 30.8125, 30.8125, 30.8125, 30.8125, 31.026787, 31.071428, 30.964287, 31.125, 30.973213, 31.0625, 31.25, 31.4625, 31.366072, 31.205357, 31, 30.6875, 30.75, 30.84375, 31, 31.21875, 31.28125, 31.25, 31.15625, 31.0625, 30.875, 30.8125, 31, 31.223213, 31.482143, 31.625, 31.5625, 31.5625, 31.5625, 31.5, 31.5, 31.5, 31.5, 31.4375, 31.375, 31.375, 31.5625, 31.763393, 31.727678, 31.489584, 31.28125, 31.125, 31.1875, 31.1875, 31.1875, 31.25, 31.3125, 31.4375, 31.5, 31.651787, 31.598213, 31.5625, 31.625, 31.53125, 31.625, 31.5, 31.40625, 31.4375, 31.53125, 31.71875, 31.629463, 31.028273, 31.072916, 31.004463, 31, 30.964287, 30.75, 30.633928, 30.839285, 31.033333, 31.026787, 31.25, 31.270088, 31.40625, 31.5, 31.4375, 31.328125, 31.09375, 30.803572, 30.577381, 30.929167, 31.175594, 31.375, 31.25, 31.21875, 31.40625, 31.572916, 31.708334
-10, -10, -10, -10, -10, -10, -10, -10, -10, -10, -10, -10, -10, 23.5, 23.416668, 23.375, 23.1875, 23.0625, 23, 22.9375, 22.875, 22.875, 22.6875, 22.5, 22.3125, 22.125, 22.0625, 21.9375, 21.875, 21.875, 21.75, 21.5625, 21.375, 21.125, 21, 21, 20.9375, 20.785713, 20.651787, 20.383928, 19.982143, 19.821428, 19.526787, 19.763393, 19.84375, 20.09375, 20.129463, 19.955357, 19.892857, 19.875, 19.875, 19.75, 19.5, 19.25, 19.0625, 19, 19, 19, 18.875, 18.6875, 18.625, 18.375, 18.25, 18.1875, 18, 18, 18, 17.9375, 17.8125, 17.5625, 17.4375, 17.3125, 17.25, 17.25, 17.125, 17.0625, 17.0625, 17.0625, 16.9375, 16.714287, 16.4375, 16.1875, 16.0625, 16, 16, 16, 16, 16, 15.875, 15.625, 15.4375, 15.1875, 15.0625, 15.0625, 15, 15, 14.875, 14.6875, 14.6875, 14.625, 14.625, 14.5625, 14.25, 14, 13.770833, 13.805556, 13.5, 13.233334, -10, -10, -10, -10, -10, -10, -10, -10, -10, -10, -10, -10, -10, -10, -10, -10, -10, -10, -10, -10, -10, -10, 31.666666, 31.902779, 32.119049, 32.375, 32.178574, 31.75, 31.5, 31.267857, 31.1875, 31.0625, 30.9375, 30.8125, 30.75, 30.875, 30.9375, 31.0625, 31.1875, 31.0625, 31, 30.875, 30.6875, 30.6875, 30.6875, 30.8125, 31.008928, 31.333334, 31.270834, 30.916666, 30.696428, 30.5, 30.375, 30.339287, 30.482143, 30.482143, 30.5625, 30.625, 30.473213, 30.401787, 30.4375, 30.375, 30.375, 30.25, 30.125, 30, 30.125, 30.25, 30.5, 30.6875, 30.8125, 30.8125, 30.5625, 30.330357, 30.0625, 30.0625, 30.270834, 30.241072, 30.276787, 30.25, 30.3125, 30.4375, 30.4375, 30.4375, 30.4375, 30.375, 30.3125, 30.25, 30.035713, 29.857143, 29.857143, 29.9375, 30.125, 30.125, 30.1875, 30, 29.8125, 29.647322, 29.260416, 29.388393, 29.691965, 30.282738, 30.678572, 30.785713, 30.625, 30.319729, 30.040817, 29.571428, 29.35, 29.571428, 29.761906, 30.133928, 30.4, 30.232143, 30.041666, 29.979166, 30.208334, 30.366072, 30.4375, 30.375, 30.3125, 30.25, 30.241072, 30.041666, 30.080357, 30.0625, 30.0625, 30.0625, 30, 29.875, 29.955357, 30.1875, 30.1875, 30.3125, 30.3125, 30.3125, 30.3125, 30.526787, 30.571428, 30.464287, 30.625, 30.473213, 30.5625, 30.75, 30.9, 30.741072, 30.642857, 30.5, 30.3125, 30.4375, 30.53125, 30.625, 30.78125, 30.84375, 30.8125, 30.691963, 30.589287, 30.5, 30.5, 30.8125, 30.910713, 31, 30.9375, 30.75, 30.8125, 30.9375, 31.107143, 31.125, 31.1875, 31.1875, 31.044643, 30.791666, 30.791666, 31, 31.200893, 31.227678, 30.989584, 30.90625, 30.75, 30.8125, 30.75, 30.6875, 30.75, 30.875, 31, 31.0625, 31.151787, 31.098213, 31.0625, 31.321428, 31.09375, 31.25, 31.071428, 30.928572, 30.928572, 31.071428, 31.25, 30.973213, 30.434523, 30.479166, 30.473213, 30.5, 30.526787, 30.375, 30.25, 30.339285, 30.595833, 30.5625, 30.75, 30.734375, 30.78125, 30.901787, 31.044643, 30.997768, 30.84375, 30.491072, 30.202381, 30.491667, 30.738094, 31, 30.9375, 31.017857, 31.285713, 31.416666, -10, -10, -10, -10, -10, -10, -10, -10, -10, -10, -10, -10, -10, -10, -10, -10, -10, -10, -10, -10, -10, -10, -10, -10, -10, -10, -10, -10, -10, -10, -10, -10, -10, -10, -10, -10, -10, -10, -10, -10, -10, -10, -10, -10, -10, -10, -10, -10, -10, -10, -10, -10, -10, -10, -10, -10, -10, 23.5, 23.416668, 23.375, 23.1875, 23.0625, 23, 22.9375, 22.875, 22.875, 22.6875, 22.5, 22.3125, 22.125, 22.0625, 21.9375, 21.8125, 21.8125, 21.6875, 21.5, 21.375, 21.125, 21, 21, 20.875, 20.6875, 20.5625, 20.258928, 19.919643, 19.758928, 19.526787, 19.763393, 19.84375, 20.03125, 20.004463, 19.767857, 19.642857, 19.625, 19.6875, 19.625, 19.4375, 19.25, 19.0625, 19, 19, 19, 18.875, 18.625, 18.5, 18.25, 18.125, 18.125, 18, 18, 18, 17.9375, 17.75, 17.5, 17.3125, 17.125, 17.125, 17.125, 17.0625, 17.0625, 17.0625, 17.0625, 16.9375, 16.776787, 16.5625, 16.303572, 16.0625, 16, 15.9375, 16, 15.9375, 15.875, 15.6875, 15.4375, 15.3125, 15.125, 15.0625, 15.0625, 15, 15, 14.9375, 14.75, 14.6875, 14.625, 14.5, 14.4375, 14.25, 14.0625, 13.9375, 13.854167, 13.583333, 13.322223, -10, -10, -10, -10, -10, -10, -10, -10, -10, -10, -10, -10, -10, -10, -10, -10, -10, -10, -10, -10, -10, -10, 30.857143, 31.190477, 31.459185, 31.875, 31.928572, 31.6875, 31.625, 31.339285, 31, 30.794643, 30.625, 30.5625, 30.4375, 30.5, 30.5625, 30.625, 30.75, 30.6875, 30.625, 30.5625, 30.375, 30.401787, 30.473213, 30.5, 30.696428, 30.895834, 30.833334, 30.541666, 30.383928, 30.25, 30.1875, 30.125, 30.125, 30.125, 30.1875, 30.3125, 30.285713, 30.214287, 30.375, 30.375, 30.375, 30.25, 30, 29.8125, 29.8125, 29.875, 30, 30.1875, 30.25, 30.25, 30.125, 29.9375, 29.75, 29.75, 29.8125, 29.919643, 29.919643, 29.8125, 29.9375, 30.044643, 30.125, 30.125, 30.0625, 30, 29.866072, 29.625, 29.5625, 29.535713, 29.629463, 29.71875, 29.84375, 29.75, 29.75, 29.5625, 29.3125, 29.21875, 29.03125, 29.183037, 29.450893, 29.741072, 30.125, 30.160713, 30.0625, 29.437075, 29.188776, 29.133928, 28.9125, 29.133928, 29.324406, 29.696428, 29.9625, 29.732143, 29.604166, 29.604166, 29.958334, 30.241072, 30.3125, 30.125, 29.830357, 29.625, 29.5625, 29.625, 29.75, 29.723213, 29.517857, 29.455357, 29.4375, 29.4375, 29.5625, 29.6875, 29.6875, 29.8125, 29.8125, 29.6875, 29.928572, 29.919643, 29.964285, 29.964287, 30, 29.910713, 30, 30.160713, 30.2125, 30.017857, 29.955357, 29.875, 29.8125, 29.9375, 30, 30.0625, 30.1875, 30.3125, 30.375, 30.285713, 30.151787, 29.955357, 29.9375, 30.241072, 30.666666, 30.794643, 30.6875, 30.4375, 30.375, 30.4375, 30.669643, 30.6875, 30.75, 30.75, 30.607143, 30.416666, 30.479166, 30.6875, 30.71875, 30.78125, 30.71875, 30.71875, 30.625, 30.609375, 30.53125, 30.40625, 30.46875, 30.578125, 30.65625, 30.65625, 30.683037, 30.5051, 30.535715, 30.5, 30.84375, 30.5, 30.333334, 30.1875, 30.125, 30.270834, 30.395834, 30.6875, 30.291666, 30.3125, 30.223213, 30.25, 30.25, 30.125, 30.0625, 30.214285, 30.533333, 30.5, 30.625, 30.546875, 30.59375, 30.776787, 30.982143, 30.935268, 30.71875, 30.375, 30.223213, 30.408333, 30.446428, 30.625, 30.5625, 30.839285, 31.181549, 31.25, -10
-10, -10, -10, -10, -10, -10, -10, -10, -10, -10, -10, -10, -10, 23.375, 23.25, 23.1875, 23, 22.9375, 22.9375, 22.9375, 22.875, 22.875, 22.6875, 22.5, 22.3125, 22.125, 22.125, 22, 21.9375, 21.9375, 21.75, 21.5625, 21.375, 21.125, 21, 21, 20.9375, 20.741072, 20.4375, 20.223213, 19.964287, 19.866072, 19.651787, 19.71875, 19.71875, 19.90625, 19.816963, 19.642857, 19.580357, 19.5, 19.5, 19.258928, 19.104166, 19.229166, 19.133928, 19.125, 19.0625, 19, 18.875, 18.6875, 18.5, 18.25, 18.125, 18.0625, 18, 18, 18, 17.9375, 17.75, 17.5, 17.25, 17.0625, 17, 17, 17, 17, 17.0625, 17.0625, 16.9375, 16.839287, 16.6875, 16.428572, 16.1875, 16.0625, 15.9375, 16, 15.9375, 15.875, 15.6875, 15.4375, 15.25, 15.0625, 15, 15, 15, 15, 14.9375, 14.6875, 14.5625, 14.4375, 14.3125, 14.3125, 14.1875, 14.0625, 13.9375, 13.8125, 13.5, 13.241667, 13.125, 13, -10, -10, -10, -10, -10, -10, -10, -10, -10, -10, -10, -10, -10, -10, -10, -10, -10, -10, -10, -10, 30.333334, 30.645834, 30.964287, 31.3125, 31.584822, 31.5625, 31.625, 31.370535, 31.125, 30.8125, 30.3125, 30.241072, 30.0625, 30.1875, 30.25, 30.21875, 30.21875, 30.03125, 29.96875, 29.9375, 29.8125, 29.839287, 29.910713, 29.875, 30.071428, 30.395834, 30.395834, 30.229166, 30.133928, 29.9375, 29.875, 29.875, 29.875, 29.875, 29.875, 29.8125, 29.75, 29.8125, 29.910713, 29.830357, 29.758928, 29.6875, 29.625, 29.598213, 29.5625, 29.5625, 29.5625, 29.6875, 29.75, 29.8125, 29.8125, 29.75, 29.6875, 29.6875, 29.75, 29.857143, 29.776787, 29.5, 29.5625, 29.544643, 29.75, 29.875, 29.9375, 29.928572, 29.532738, 29.291666, 29.395834, 29.369049, 29.379463, 29.40625, 29.46875, 29.4375, 29.4375, 29.375, 29.125, 29.09375, 29.03125, 29.22768, 29.433037, 29.491072, 29.75, 29.625, 29.455357, 29.214285, 29.0625, 28.946428, 28.7875, 28.991072, 28.991072, 29.196428, 29.3375, 29.125, 29.125, 29.1875, 29.525, 29.785715, 29.826529, 29.642857, 29.267857, 29.125, 29.125, 29.1875, 29.25, 29.223213, 29.080357, 29.080357, 29.125, 29.1875, 29.3125, 29.303572, 29.112499, 29.366072, 29.232143, 29.1875, 28.916666, 29.357143, 29.553572, 29.607143, 29.354166, 29.267857, 29.375, 29.535713, 29.480356, 29.232143, 29.267857, 29.34375, 29.46875, 29.53125, 29.772322, 29.732143, 29.8125, 29.9375, 30, 29.973213, 29.830357, 29.372025, 29.330357, 29.553572, 29.979166, 30.138393, 30.03125, 29.84375, 29.84375, 29.9375, 30.169643, 30.1875, 30.25, 30.25, 30.169643, 29.952379, 29.943453, 30.1875, 30.1875, 30.4375, 30.4375, 30.4375, 30.3125, 30.15625, 30.0625, 30, 30.0625, 30.09375, 30.026787, 29.9375, 29.901787, 29.973213, 30.0625, 30.25, 30.375, 30.375, 30.25, 30.15625, 30.09375, 30.21875, 30.28125, 30.258928, 30.041666, 30.0625, 30.035713, 30, 30.0625, 30, 30, 30.142857, 30.333334, 30.357143, 30.375, 30.34375, 30.25, 30.339287, 30.482143, 30.450893, 30.375, 30.1875, 30.017857, 30.012501, 29.955357, 30.125, 30.25, 30.714285, 31.119049, 31.166666, -10, -10, -10, -10, -10, -10, -10, -10, -10, -10, -10, -10, -10, -10, -10, -10, -10, -10, -10, -10, -10, -10, -10, -10, -10, -10, -10, -10, -10, -10, -10, -10, -10, -10, -10, -10, -10, -10, -10, -10, -10, -10, -10, -10, -10, -10, -10, -10, -10, -10, -10, -10, -10, -10, -10, -10, -10, 23.375, 23.25, 23.1875, 23, 23, 23, 23, 22.9375, 22.875, 22.625, 22.375, 22.1875, 22, 22.0625, 22.0625, 22.0625, 22, 21.875, 21.6875, 21.4375, 21.25, 21.0625, 21, 21, 20.866072, 20.5, 20.3125, 20.0625, 20, 20.0625, 20.0625, 20.0625, 20.0625, 19.848213, 19.642857, 19.580357, 19.4375, 19.321428, 18.863094, 18.729166, 18.916666, 19.008928, 19.0625, 19.0625, 18.9375, 18.8125, 18.6875, 18.4375, 18.25, 18.125, 18, 18, 18, 18, 17.9375, 17.8125, 17.5625, 17.3125, 17.125, 17, 17, 17, 17, 17.0625, 17, 16.875, 16.839287, 16.75, 16.616072, 16.375, 16.1875, 16, 16, 15.9375, 15.875, 15.75, 15.5, 15.3125, 15.125, 15, 15, 15, 15, 14.875, 14.625, 14.5, 14.3125, 14.1875, 14.1875, 14.0625, 14, 13.875, 13.75, 13.5, 13.291667, 13.166667, 13.166667, 13.25, 13.25, -10, -10, -10, -10, -10, -10, -10, -10, -10, -10, -10, -10, -10, -10, -10, -10, -10, -10, -10, 30.458334, 30.732143, 31.03125, 31.40625, 31.65625, 31.78125, 31.651785, 31.3125, 31, 30.383928, 29.949406, 29.732143, 29.75, 29.8125, 29.78125, 29.535715, 29.357143, 29.321428, 29.4375, 29.3125, 29.339287, 29.410713, 29.375, 29.571428, 29.690475, 29.958334, 29.854166, 29.821428, 29.625, 29.5, 29.517857, 29.708334, 29.732143, 29.75, 29.6875, 29.5625, 29.625, 29.660713, 29.517857, 29.446428, 29.375, 29.4375, 29.473213, 29.5, 29.5, 29.375, 29.375, 29.3125, 29.375, 29.5, 29.482143, 29.375, 29.4375, 29.4375, 29.669643, 29.651787, 29.375, 29.4375, 29.357143, 29.5625, 29.75, 29.794643, 29.595238, 29.104166, 28.854166, 29.020834, 28.994049, 29.004463, 28.90625, 28.84375, 28.875, 28.9375, 29, 28.875, 28.8125, 28.625, 28.63393, 28.776787, 28.803572, 29.125, 29.0625, 28.830357, 28.526785, 28.375, 28.375, 28.4375, 28.5625, 28.5625, 28.633928, 28.7125, 28.5, 28.5, 28.6875, 29.15, 29, 29.081633, 28.821428, 28.767857, 28.625, 28.625, 28.6875, 28.75, 28.660713, 28.455357, 28.392857, 28.446428, 28.833334, 28.958334, 28.866072, 28.612499, 28.678572, 28.607143, 28.5625, 28.6875, 28.857143, 29.085035, 29.12245, 28.604166, 28.642857, 28.8125, 28.910713, 28.705357, 28.598215, 28.5625, 28.75, 28.875, 28.875, 29.275511, 29.158163, 29.214285, 29.326532, 29.3125, 29.348213, 29.205357, 28.773809, 28.875, 28.908163, 29.476191, 29.763393, 29.65625, 29.40625, 29.308037, 29.375, 29.607143, 29.6875, 29.78125, 29.84375, 29.763393, 29.546129, 29.505953, 29.625, 29.5625, 29.6875, 29.6875, 29.75, 29.75, 29.8125, 29.723213, 29.517857, 29.446428, 29.375, 29.339287, 29.375, 29.375, 29.5, 29.625, 29.729166, 29.916666, 29.916666, 29.833334, 29.8125, 29.666666, 29.75, 29.8125, 29.8125, 29.875, 29.8125, 29.75, 29.625, 29.625, 29.625, 29.6875, 29.8125, 29.8125, 29.8125, 29.75, 29.75, 29.6875, 29.714287, 29.857143, 29.857143, 29.9375, 29.9375, 29.8125, 29.8125, 29.8125, 29.8125, 30, 30.339285, 30.681549, 30.75, -10
-10, -10, -10, -10, -10, -10, -10, -10, -10, -10, -10, -10, -10, 23.625, 23.416666, 23.3125, 23.0625, 23, 23, 23, 23, 23, 22.8125, 22.5625, 22.3125, 22.0625, 22.0625, 22.0625, 22.0625, 22, 21.875, 21.6875, 21.4375, 21.25, 21.0625, 21, 21, 20.866072, 20.5625, 20.4375, 20.1875, 20.25, 20.3125, 20.25, 20.25, 20.0625, 19.75, 19.6875, 19.5625, 19.375, 19.196428, 18.613094, 18.541666, 18.791666, 18.946428, 19, 18.9375, 18.75, 18.625, 18.5625, 18.375, 18.25, 18.125, 18, 18, 18, 18, 18, 17.9375, 17.6875, 17.4375, 17.1875, 17, 17, 16.9375, 16.875, 16.875, 16.8125, 16.75, 16.8125, 16.8125, 16.741072, 16.5, 16.25, 15.964286, 15.9375, 15.875, 15.875, 15.75, 15.5, 15.3125, 15.125, 15, 15, 15, 15, 14.9375, 14.75, 14.5625, 14.3125, 14.0625, 14, 13.9375, 13.9375, 13.8125, 13.625, 13.4375, 13.25, 13.3125, 13.3125, 13.333333, 13.25, 13.125, 13, -10, -10, -10, -10, -10, -10, -10, -10, -10, -10, -10, -10, -10, -10, -10, -10, -10, 30.277779, 30.5, 30.791666, 31.208334, 31.625, 31.958334, 32.011906, 31.4375, 31.1875, 30.5, 29.72024, 29.482143, 29.375, 29.375, 29.34375, 29.21875, 29.03125, 28.90625, 28.875, 28.910713, 28.964287, 29.160713, 29.125, 29.25, 29.3125, 29.375, 29.4375, 29.5, 29.375, 29.25, 29.267857, 29.458334, 29.482143, 29.5625, 29.5625, 29.4375, 29.4375, 29.30357, 29.080357, 29.008928, 29, 29.15625, 29.254463, 29.28125, 29.214287, 28.924999, 28.982143, 28.8125, 29.017857, 29.25, 29.160715, 28.770834, 28.729166, 28.8125, 29.044643, 29.214287, 29, 29.125, 29.107143, 29.25, 29.4375, 29.419643, 29.220238, 28.854166, 28.666666, 28.958334, 28.904762, 28.78125, 28.65625, 28.53125, 28.5625, 28.651787, 28.785713, 28.625, 28.625, 28.4375, 28.419643, 28.419643, 28.375, 28.625, 28.625, 28.517857, 28.383928, 28.25, 28.25, 28.25, 28.3125, 28.3125, 28.3125, 28.3125, 28.25, 28.25, 28.4375, 28.775, 28.5, 28.581633, 28.392857, 28.455357, 28.375, 28.3125, 28.3125, 28.3125, 28.160713, 27.955357, 27.892857, 27.946428, 28.458334, 28.619049, 28.491072, 28.299999, 28.178572, 28.107143, 28.0625, 28.125, 28.357143, 28.180271, 28.071428, 28.166666, 28.17857, 28.276787, 28.410713, 28.205357, 28.223215, 28.1875, 28.375, 28.4375, 28.375, 28.2449, 28.061224, 27.940475, 28.462585, 28.928572, 29.0625, 28.919643, 28.190475, 28.196428, 28.294643, 29.011904, 29.03125, 29.191963, 29.03125, 28.995537, 29, 29.09375, 29.15625, 29.1875, 29.1875, 29.15625, 29.129463, 29.151787, 29.25, 29.1875, 29.25, 29.1875, 29.125, 29.1875, 29.3125, 29.285713, 29.142857, 29.071428, 28.785715, 28.964287, 29.0625, 29.125, 29.3125, 29.4375, 29.541666, -10, -10, -10, 29.625, 29.5, 29.5, 29.4375, 29.375, 29.375, 29.375, 29.375, 29.4375, 29.5, 29.5, 29.5, 29.5, 29.5, 29.5, 29.5, 29.5, 29.5625, 29.625, 29.6875, 29.75, 29.8125, 29.875, 29.875, 29.875, 29.875, 29.75, 29.737499, 30.096428, 30.527779, 30.666666, 30, -10, -10, -10, -10, -10, -10, -10, -10, -10, -10, -10, -10, -10, -10, -10, 8.083333, 9, 9.6428566, 10.2, -10, -10, -10, -10, -10, -10, -10, -10, -10, -10, -10, -10, -10, -10, -10, -10, -10, -10, -10, -10, -10, -10, -10, -10, -10, -10, -10, -10, -10, -10, -10, -10, -10, -10, -10, -10, -10, 23.75, 23.583334, 23.4375, 23.1875, 23.0625, 23, 23, 23, 23, 22.8125, 22.5625, 22.3125, 22.0625, 22.0625, 22.0625, 22.0625, 22, 21.8125, 21.625, 21.375, 21.1875, 21.125, 21.0625, 21.0625, 20.991072, 20.6875, 20.625, 20.375, 20.4375, 20.5, 20.375, 20.375, 20.1875, 19.875, 19.875, 19.75, 19.5625, 19.321428, 18.675594, 18.604166, 18.791666, 18.883928, 18.875, 18.75, 18.5625, 18.5, 18.5, 18.375, 18.25, 18.0625, 17.9375, 17.9375, 17.9375, 18, 18, 18, 17.75, 17.5, 17.25, 17, 17, 16.9375, 16.875, 16.875, 16.8125, 16.75, 16.75, 16.75, 16.6875, 16.625, 16.375, 16.089285, 15.9375, 15.875, 15.875, 15.75, 15.5625, 15.3125, 15.1875, 15.0625, 15.0625, 15.0625, 15, 14.875, 14.75, 14.5625, 14.3125, 14.1875, 14.0625, 14, 14, 13.75, 13.5, 13.375, 13.1875, 13.3125, 13.375, 13.25, 13.1875, 13.083333, 13, 13, -10, -10, -10, -10, -10, -10, -10, -10, -10, 27, -10, -10, -10, -10, -10, -10, -10, -10, -10, -10, -10, -10, -10, 31.583334, 31.330357, 30.65, 29.553572, 29.160715, 29, 29, 28.96875, 28.90625, 28.71875, 28.53125, 28.5, 28.535713, 28.5625, 28.6875, 28.6875, 28.75, 28.8125, 28.875, 29, 29.125, 29, 28.875, 28.830357, 28.958334, 28.982143, 29.0625, 29, 28.875, 28.875, 28.67857, 28.517857, 28.446428, 28.5625, 28.90625, 29.066963, 29.15625, 29.026787, 28.674999, 28.669643, 28.4375, 28.669643, 29.044643, 29.089287, 28.761906, 28.541666, 28.5625, 28.625, 28.919643, 28.8125, 28.875, 28.8125, 28.8125, 28.9375, 28.919643, 28.782738, 28.550594, 28.541666, 28.770834, 28.645834, 28.375, 28.1875, 28, 28, 28.151787, 28.348213, 28.3125, 28.375, 28.25, 28.294643, 28.267857, 28.089287, 28.1875, 28, 27.785713, 27.696428, 27.625, 27.75, 27.875, 27.875, 27.875, 27.8125, 27.75, 27.75, 27.6875, 27.875, 28.0875, 27.9375, 28.071428, 27.90625, 27.90625, 27.90625, 27.90625, 27.9375, 28, 27.910713, 27.705357, 27.571428, 27.571428, 28.020834, 28.119049, 27.991072, 27.737499, 27.616072, 27.607143, 27.75, 28, 28.1875, 28.166666, 28.035713, 27.645832, 27.633926, 27.651787, 27.875, 27.830357, 27.883928, 27.875, 28, 28, 27.9375, 27.991072, 27.794643, 27.767857, 28.029762, 28.303572, 28.5, 28.419643, 27.922617, 27.946428, 27.991072, 28.035715, 28.361607, 28.566963, 28.53125, 28.558037, 28.625, 28.71875, 28.71875, 28.75, 28.6875, 28.65625, 28.629463, 28.651787, 28.75, 28.75, 28.875, 28.875, 28.8125, 28.803572, 28.666666, 28.61607, 28.517857, 28.571428, 28.5875, 28.392857, 28.491072, 28.5, 28.8125, 29.0625, 29.208332, -10, -10, -10, 29.5, 29.333334, 29.333334, 28.880953, 28.619047, 29, 29.166666, 29.166666, 28.928572, 29.071428, 28.991072, 29.098213, 29.125, 29.1875, 29.1875, 29.3125, 29.375, 29.4375, 29.5, 29.5, 29.5625, 29.6875, 29.8125, 29.9375, 29.928572, 29.75, 29.833334, 29.733332, 30.033333, -10, -10, -10
-10, -10, -10, -10, -10, -10, -10, -10, -10, -10, -10, -10, -10, 23.75, 23.583334, 23.4375, 23.1875, 23.0625, 23, 23, 23, 23, 22.8125, 22.5625, 22.3125, 22.0625, 22, 22, 22, 21.9375, 21.75, 21.625, 21.4375, 21.25, 21.25, 21.125, 21.0625, 21.0625, 20.9375, 20.875, 20.6875, 20.6875, 20.6875, 20.5, 20.4375, 20.1875, 19.9375, 19.9375, 19.75, 19.5625, 19.321428, 18.854166, 18.8125, 18.75, 18.75, 18.625, 18.5, 18.3125, 18.25, 18.25, 18.1875, 18.125, 18, 17.9375, 17.9375, 17.9375, 18, 18, 17.9375, 17.75, 17.5625, 17.3125, 17.125, 17.0625, 16.9375, 16.875, 16.875, 16.75, 16.625, 16.5625, 16.5, 16.5, 16.5625, 16.375, 16.151785, 15.9375, 15.75, 15.75, 15.625, 15.5, 15.25, 15.089286, 15, 15, 15.0625, 14.9375, 14.75, 14.625, 14.4375, 14.25, 14.1875, 14.0625, 14, 14, 13.8125, 13.625, 13.5625, 13.375, 13.4375, 13.4375, 13.25, 13.1875, 13.0625, 13, 13, 13, 13, -10, -10, -10, -10, -10, -10, -10, 27, 27, -10, -10, -10, -10, -10, -10, -10, -10, -10, -10, -10, -10, -10, 31.25, 30.4, 29.458334, 29.160715, 28.9375, 28.9375, 28.9375, 28.9375, 28.875, 28.625, 28.4375, 28.24107, 28.25, 28.375, 28.4375, 28.5625, 28.5, 28.5, 28.625, 28.75, 28.6875, 28.625, 28.517857, 28.583334, 28.535715, 28.354166, 28.330357, 28.3125, 28.348213, 28.267857, 28.3125, 28.3125, 28.5, 28.71875, 28.78125, 28.84375, 28.714287, 28.424999, 28.357143, 28.0625, 28.294643, 28.669643, 28.75, 28.449406, 28.229166, 28.1875, 28.1875, 28.4375, 28.375, 28.375, 28.375, 28.1875, 28.1875, 28.075893, 27.947916, 28.040178, 28.09375, 28.1875, 28.0625, 27.875, 27.6875, 27.5625, 27.5, 27.651787, 27.910713, 28, 28.0625, 27.875, 27.8125, 27.785713, 27.776787, 27.875, 27.75, 27.580357, 27.5, 27.40625, 27.40625, 27.553572, 27.625, 27.6875, 27.8125, 27.75, 27.642857, 27.571428, 27.625, 27.6875, 27.625, 27.625, 27.53125, 27.46875, 27.53125, 27.522322, 27.375, 27.5625, 27.517857, 27.392857, 27.258928, 27.196428, 27.583334, 27.556549, 27.4375, 27.25, 27, 27.125, 27.3125, 27.6875, 27.758928, 27.375, 27.178572, 26.979166, 27.11607, 27.151787, 27.4375, 27.5625, 27.75, 27.75, 27.6875, 27.5, 27.375, 27.3125, 27.223213, 27.205357, 27.467262, 27.678572, 27.8125, 27.741072, 27.577379, 27.703571, 27.616072, 27.8125, 27.892857, 28.160713, 28.125, 28.151787, 28.1875, 28.28125, 28.28125, 28.25, 28.1875, 28.15625, 28.21875, 28.375, 28.4375, 28.4375, 28.375, 28.321428, 28.520834, 28.607143, 28.541666, 28.42857, 28.205357, 28.196428, 28.275, 28.178572, 28.303572, 28.3125, 28.5625, 28.75, 29.111109, -10, -10, -10, -10, -10, -10, 28.694445, 28.388887, -10, -10, -10, 27.75, 28.0625, 28.654762, 28.723213, 28.791666, 28.875, 29, 29.1875, 29.3125, 29.4375, 29.4375, 29.401787, 29.4375, 29.46875, 29.5625, 29.625, 29.491072, 29.270834, -10, -10, -10, -10, -10, -10, -10, -10, -10, -10, -10, -10, -10, -10, -10, -10, -10, -10, -10, -10, 8.75, 8.458334, 8.9375, 9.3839283, 9.7875004, 9.5, 9.5, 9.8392859, 9.75, 10, 10, 10, 10, 10, 10, 10, 10, 10, 10, 10, 10, -10, -10, -10, -10, -10, -10, -10, -10, -10, -10, -10, -10, -10, -10, -10, -10, -10, -10, -10, -10, -10, 23.75, 23.583334, 23.4375, 23.1875, 23.0625, 23, 23, 23, 23, 22.8125, 22.5625, 22.3125, 22.0625, 22, 22, 22, 22, 21.8125, 21.625, 21.5, 21.25, 21.25, 21.1875, 21.0625, 21, 20.875, 20.8125, 20.625, 20.625, 20.5625, 20.375, 20.3125, 20.125, 19.9375, 19.9375, 19.6875, 19.5625, 19.357143, 19.026787, 19.0625, 18.9375, 18.8125, 18.5625, 18.3125, 18.125, 18.0625, 18.125, 18.1875, 18.107143, 17.9375, 17.9375, 17.875, 17.875, 17.875, 17.875, 17.75, 17.625, 17.5, 17.25, 17.125, 17.0625, 16.9375, 16.875, 16.875, 16.8125, 16.6875, 16.5625, 16.4375, 16.3125, 16.375, 16.25, 16.026785, 15.75, 15.392857, 15.392857, 15.458333, 15.419643, 15.25, 15.089286, 14.9375, 14.9375, 15, 14.875, 14.75, 14.6875, 14.4375, 14.25, 14.1875, 14, 14, 14, 13.875, 13.75, 13.75, 13.5625, 13.5, 13.375, 13.125, 13.0625, 13, 13, 13, 13, 13, 13, -10, -10, -10, -10, -10, -10, -10, 27, 27, 27, 26.833332, -10, -10, -10, -10, -10, -10, -10, -10, -10, -10, -10, 30.104761, 29.333334, 29.303572, 29.1875, 29.125, 29, 28.901787, 28.8125, 28.5, 28.25, 27.883926, 27.8125, 27.875, 27.9375, 28.125, 28.125, 28.1875, 28.3125, 28.375, 28.3125, 28.3125, 28.25, 28.125, 27.991072, 27.389454, 27.306122, 27.357143, 27.576529, 27.830357, 27.875, 27.875, 28, 28.09375, 28.15625, 28.15625, 28.026787, 27.799999, 27.794643, 27.5625, 27.732143, 28.044643, 28.205357, 28.011906, 27.854166, 27.9375, 27.8125, 28, 27.875, 27.8125, 27.642857, 27.392857, 27.25, 27.035715, 27.066328, 27.408163, 27.709822, 27.8125, 27.75, 27.5625, 27.4375, 27.375, 27.1875, 27.339287, 27.660713, 27.770834, 27.7875, 27.875, 27.866072, 27.848213, 27.776787, 27.75, 27.5, 27.330357, 27.25, 27.15625, 27.09375, 27.241072, 27.3125, 27.375, 27.625, 27.5625, 27.517857, 27.428572, 27.205357, 27.133928, 27, 27, 26.96875, 26.96875, 27.03125, 27.022322, 26.714285, 27.0625, 27.080357, 27.089285, 27.196428, 27.0625, 27.142857, 27.035713, 26.9375, 26.607143, 26.6875, 26.75, 26.9375, 27.1875, 27.258928, 27.083334, 26.775511, 26.583332, 26.92857, 26.964287, 27.241072, 27.104166, 27.397961, 27.392857, 27.285715, 26.9375, 27, 27.125, 27.267857, 27.3125, 27.3125, 27.321428, 27.214285, 27.428572, 27.425594, 27.408928, 27.3125, 27.375, 27.330357, 27.598213, 27.5625, 27.75, 27.8125, 27.90625, 27.84375, 27.71875, 27.59375, 27.5625, 27.625, 27.8125, 27.9375, 28, 28.0625, 28.133928, 28.458334, 28.607143, 28.416666, 28.267857, 28.125, 28.125, 28.275, 28.116072, 28.241072, 28.21875, 28.34375, 28.5, -10, -10, -10, -10, -10, -10, -10, -10, -10, -10, -10, -10, -10, -10, -10, 28.994047, 28.829166, 28.883928, 29, 29.3125, 29.4375, 29.5625, 29.4375, 29.339287, 29.375, 29.34375, 29.375, 29.3125, 28.882654, 28.559525, -10, -10, -10, -10, -10, -10
-10, -10, -10, -10, -10, -10, -10, -10, -10, -10, -10, -10, -10, 23.625, 23.500002, 23.375, 23.125, 23.0625, 23, 23, 23, 23, 22.75, 22.5, 22.25, 22, 22, 22, 22, 22, 21.8125, 21.625, 21.5, 21.25, 21.25, 21.1875, 21.0625, 21, 20.875, 20.75, 20.5625, 20.5, 20.4375, 20.3125, 20.25, 20.125, 20, 20, 19.8125, 19.75, 19.544643, 19.276787, 19.25, 19.0625, 18.875, 18.625, 18.375, 18.1875, 18.125, 18.1875, 18.25, 18.169643, 18, 17.9375, 17.875, 17.8125, 17.8125, 17.8125, 17.6875, 17.625, 17.5, 17.25, 17.125, 17.0625, 17, 17, 17, 16.9375, 16.8125, 16.5625, 16.375, 16.1875, 16.1875, 16.1875, 16.0625, 15.8125, 15.455357, 15.321428, 15.270833, 15.294643, 15.125, 15.089286, 14.9375, 14.9375, 15, 14.875, 14.75, 14.6875, 14.5, 14.3125, 14.25, 14.0625, 14, 14, 13.9375, 13.875, 13.875, 13.625, 13.4375, 13.25, 13, 13, 13, 13, 13, 13, 13, 13, 12.875, 12.75, -10, -10, -10, -10, -10, -10, -10, 27, 26.833332, 26.333332, -10, -10, -10, -10, -10, -10, -10, -10, -10, -10, -10, -10, 29.404762, 29.25, 29.1875, 29, 28.901787, 28.8125, 28.5, 28.142857, 27.660713, 27.5, 27.4375, 27.5, 27.625, 27.625, 27.6875, 27.8125, 27.875, 27.8125, 27.875, 27.875, 27.75, 27.553572, 27.023808, 26.892857, 26.9375, 27.223213, 27.4375, 27.5625, 27.5625, 27.625, 27.625, 27.625, 27.625, 27.5625, 27.5, 27.4375, 27.3125, 27.339287, 27.544643, 27.776785, 27.741072, 27.625, 27.6875, 27.598213, 27.6875, 27.5625, 27.375, 27.3125, 27.053572, 26.75, 26.392857, 26.387756, 26.801022, 27.209822, 27.375, 27.375, 27.25, 27.1875, 27.125, 27, 27.125, 27.3125, 27.395834, 27.2875, 27.4375, 27.491072, 27.598213, 27.5625, 27.392857, 27.142857, 26.892857, 26.8125, 26.71875, 26.59375, 26.741072, 26.8125, 26.875, 27.125, 27.0625, 27.017857, 26.928572, 26.705357, 26.633928, 26.5, 26.4375, 26.40625, 26.40625, 26.53125, 26.647322, 26.5, 26.5, 26.5, 26.651785, 26.821428, 26.6875, 26.642857, 26.5, 26.375, 26.25, 26.25, 26.3125, 26.5, 26.75, 26.758928, 26.380953, 26.428572, 26.229166, 26.464285, 26.75, 26.919643, 26.625, 26.160713, 26.125, 26.357143, 26.375, 26.375, 26.5625, 26.767857, 26.857143, 26.729166, 26.642857, 26.625, 26.6875, 27.008928, 27.194643, 27.125, 27.1875, 27, 27.0625, 27.0625, 27.25, 27.375, 27.5, 27.5, 27.375, 27.3125, 27.3125, 27.375, 27.571428, 27.8125, 27.875, 28, 28.133928, 28.583334, 28.669643, 28.479166, 28.330357, 28.125, 28.1875, 28.275, 27.991072, 28.116072, 27.96875, 27.885416, 28, -10, -10, -10, -10, -10, -10, -10, -10, -10, -10, -10, -10, -10, -10, -10, 29.401361, 28.891666, 28.946428, 29, 29.3125, 29.4375, 29.4375, 29.25, 29.089287, 29.0625, 29.15625, 29.25, 29.1875, 28.991072, 28.523809, -10, -10, -10, -10, 6.75, 7, 7.25, 7.5999999, -10, -10, -10, -10, -10, 8.5, 8.458334, 8.25, 8.5, 8.625, 8.833333, 9, 8.875, 8.916667, 8.9375, 9.0625, 9.1875, 9.25, 9.25, 9.4196434, 9.375, 9.5625, 9.6875, 9.8125, 9.9375, 10, 10, 10, 10, 10.0625, 10.0625, 10.0625, 10.0625, 10, -10, -10, -10, -10, -10, -10, -10, -10, -10, -10, -10, -10, -10, -10, -10, -10, -10, -10, -10, -10, 23.5, 23.333334, 23.25, 23, 23, 23, 23, 23, 23, 22.8125, 22.5625, 22.3125, 22.0625, 22, 22, 22, 21.9375, 21.75, 21.5625, 21.4375, 21.25, 21.1875, 21.125, 21, 20.9375, 20.875, 20.75, 20.5625, 20.4375, 20.3125, 20.1875, 20.125, 20.0625, 20, 20, 19.875, 19.8125, 19.607143, 19.401787, 19.3125, 19.125, 19, 18.75, 18.5, 18.25, 18.125, 18.1875, 18.25, 18.232143, 18.125, 18, 17.9375, 17.8125, 17.6875, 17.6875, 17.5625, 17.5625, 17.5625, 17.3125, 17.1875, 17.125, 17, 17, 16.9375, 16.875, 16.75, 16.5, 16.3125, 16.125, 16.0625, 16.0625, 16, 15.8125, 15.517857, 15.383928, 15.333333, 15.294643, 15.125, 15.026786, 14.875, 14.875, 14.9375, 14.8125, 14.75, 14.6875, 14.5625, 14.4375, 14.3125, 14.125, 14, 14, 14, 14, 14, 13.75, 13.5, 13.25, 13, 13, 13, 13, 13, 12.9375, 12.9375, 12.9375, 12.833333, 12.75, 12.416666, -10, -10, -10, -10, -10, -10, -10, -10, 26.333332, 26, -10, -10, -10, -10, -10, -10, -10, -10, -10, -10, -10, -10, 29.5, 29.25, 29.083334, 28.933037, 28.8125, 28.4375, 27.910713, 27.410713, 27.1875, 27.125, 27.125, 27.1875, 27.25, 27.3125, 27.4375, 27.4375, 27.25, 27.214287, 27.25, 27.1875, 27.053572, 26.586308, 26.580357, 26.6875, 27.035713, 27.25, 27.3125, 27.3125, 27.3125, 27.25, 27.25, 27.21875, 27.15625, 27.15625, 27.09375, 27.0625, 27.125, 27.125, 27.223213, 27.125, 27.125, 27.1875, 27.160713, 27.125, 27, 26.875, 26.785713, 26.446428, 26.142857, 25.96875, 26.058037, 26.424107, 26.549107, 26.75, 26.75, 26.8125, 26.8125, 26.8125, 26.8125, 26.9375, 27.0625, 27.020834, 26.751785, 26.875, 26.866072, 27.0625, 27.098213, 26.955357, 26.892857, 26.75, 26.6875, 26.59375, 26.34375, 26.366072, 26.4375, 26.5, 26.642857, 26.520407, 26.517857, 26.553572, 25.928572, 26, 25.875, 25.919643, 26, 26.0625, 26.1875, 26.366072, 26.25, 26.375, 26.357143, 26.383928, 26.5625, 26.4375, 26.392857, 26.25, 26.125, 26.0625, 26, 26, 26.0625, 26.1875, 26.196428, 26.020834, 26, 26.0625, 26.258928, 26.59375, 26.638393, 26.21875, 25.959183, 25.892857, 26.125, 26, 25.9375, 26.0625, 26.267857, 26.419643, 26.354166, 26.330357, 26.25, 26.3125, 26.508928, 26.712502, 26.857143, 26.928572, 26.75, 26.6875, 26.625, 26.875, 27.035713, 27.125, 27.1875, 27, 27, 27.0625, 27.125, 27.258928, 27.5, 27.5, 27.5625, 27.776787, 28.416668, 28.598213, 28.625, 28.330357, 28.142857, 28.270834, 28.232143, 28.25, 28.375, 28.34375, 28.083332, 28.142857, -10, -10, -10, -10, -10, -10, -10, -10, -10, -10, -10, -10, -10, -10, -10, 29.645834, 29.141666, 29.102678, 29.09375, 29.25, 29.3125, 29.25, 29, 28.839287, 28.8125, 28.90625, 29, 28.9375, 28.9, 28.958334, -10, -10, -10, -10, 7, 7.25
-10, -10, -10, -10, -10, -10, -10, -10, -10, -10, -10, -10, -10, 23.5, 23.333334, 23.25, 23, 22.9375, 22.9375, 22.875, 22.8125, 22.875, 22.6875, 22.5, 22.3125, 22.0625, 22, 22, 22, 21.875, 21.6875, 21.4375, 21.25, 21.125, 21.0625, 21.0625, 21, 20.9375, 20.875, 20.75, 20.5625, 20.375, 20.1875, 20.0625, 20, 20, 20, 20, 19.9375, 19.9375, 19.732143, 19.526787, 19.375, 19.125, 19, 18.8125, 18.5625, 18.3125, 18.1875, 18.1875, 18.25, 18.294643, 18.25, 18.125, 18.125, 17.919643, 17.580357, 17.580357, 17.5, 17.5625, 17.625, 17.375, 17.1875, 17.125, 17.0625, 17.125, 17.0625, 17.0625, 16.875, 16.5625, 16.375, 16.125, 16, 16, 15.9375, 15.8125, 15.642857, 15.446428, 15.333333, 15.232143, 15.0625, 15.0625, 14.9375, 14.9375, 14.9375, 14.875, 14.875, 14.875, 14.8125, 14.625, 14.4375, 14.1875, 14, 14, 14, 14, 14, 13.75, 13.5, 13.25, 13, 13, 13, 13, 13, 12.9375, 12.9375, 12.9375, 12.8125, 12.6875, 12.361111, 12.125, 12, -10, -10, -10, -10, -10, -10, -10, 26, 25.833332, 25.666666, -10, -10, -10, -10, -10, -10, -10, -10, -10, -10, -10, 29, 28.9375, 28.870537, 28.75, 28.375, 27.848213, 27.392857, 27.125, 27, 26.875, 26.8125, 26.875, 26.9375, 26.982143, 26.729166, 26.446428, 26.401787, 26.5625, 26.625, 26.625, 26.419643, 26.375, 26.375, 26.642857, 26.875, 26.875, 26.9375, 26.875, 26.8125, 26.8125, 26.78125, 26.65625, 26.65625, 26.65625, 26.6875, 26.75, 26.6875, 26.6875, 26.5625, 26.53125, 26.65625, 26.660713, 26.71875, 26.6875, 26.5625, 26.504463, 26.258928, 26.053572, 25.9375, 25.964287, 26.142857, 26.205357, 26.375, 26.4375, 26.5625, 26.5625, 26.5625, 26.625, 26.75, 26.8125, 26.708334, 26.376785, 26.285715, 26.491072, 26.6875, 26.660713, 26.455357, 26.330357, 26.1875, 26.1875, 26.1875, 26.125, 26.1875, 26.1875, 26.1875, 26.241072, 25.872025, 25.438776, 25.732143, 24.979593, 25.321428, 25.520834, 25.651787, 25.6875, 25.580357, 25.625, 25.866072, 26.15, 26.205357, 26.25, 26.071428, 26.25, 26.053572, 25.747023, 25.705357, 25.625, 25.75, 25.887501, 25.696428, 25.633928, 25.5625, 25.625, 25.75, 25.875, 26, 26.071428, 26.34375, 26.325893, 25.950893, 25.870535, 25.75, 25.642857, 25.5625, 25.5, 25.5625, 25.489796, 25.632654, 25.729166, 25.794643, 25.785713, 25.8125, 26, 26.13393, 26.607143, 26.678572, 26.625, 26.5, 26.4375, 26.5625, 26.6875, 26.8125, 27.025, 26.892857, 27, 26.9375, 27, 27.071428, 27.375, 27.4375, 27.5625, 27.767857, 28.083334, 28.232143, 28.3125, 28.142857, 28.080357, 28.270834, 28.232143, 28.25, 28.446428, 28.59375, 28.583334, 28.799999, 29.222223, -10, -10, -10, -10, -10, -10, -10, -10, -10, -10, -10, -10, -10, -10, 29.708334, 29.225, 29.165178, 29.03125, 29.125, 29.125, 29.0625, 28.9375, 28.875, 28.875, 29, 29.083334, 29.083334, 7, 7, -10, 7, 7, 7.25, 7.125, 7.3125, 7.5, 7.6750002, 7.8333335, 8, 8.25, 8.416667, 8.416667, 8.375, 8.291667, 8.125, 8.25, 8.3125, 8.375, 8.625, 8.75, 8.875, 9, 9, 9, 9, 9, 9, 9, 9.0625, 9.25, 9.5, 9.75, 9.9375, 9.9732141, 9.7678566, 9.7678566, 9.875, 9.9375, 10.0625, 10.0625, 10, 10, -10, -10, -10, -10, -10, -10, -10, -10, -10, -10, -10, -10, -10, -10, -10, -10, -10, -10, -10, 23.375, 23.250002, 23.1875, 23.0625, 22.973213, 22.901787, 22.8125, 22.625, 22.6875, 22.5, 22.375, 22.25, 22, 21.875, 21.8125, 21.8125, 21.6875, 21.5, 21.3125, 21.0625, 21, 21, 20.9375, 20.9375, 20.9375, 20.9375, 20.9375, 20.8125, 20.625, 20.375, 20.1875, 20.0625, 20, 20, 20, 19.9375, 19.875, 19.6875, 19.5625, 19.375, 19.1875, 19, 18.875, 18.6875, 18.4375, 18.3125, 18.1875, 18.125, 18.1875, 18.25, 18.125, 18.1875, 17.982143, 17.642857, 17.580357, 17.5, 17.5, 17.625, 17.4375, 17.25, 17.1875, 17, 17, 16.9375, 16.9375, 16.8125, 16.5625, 16.375, 16.125, 16, 16, 16, 16, 16, 15.803572, 15.4375, 15.25, 15, 15, 15, 15, 15, 14.9375, 14.9375, 14.875, 14.8125, 14.6875, 14.4375, 14.25, 14.0625, 14, 14, 14, 14, 13.75, 13.5, 13.25, 13, 13, 13, 13, 13, 12.9375, 12.9375, 12.875, 12.6875, 12.5, 12.208333, 12.035714, 12.047619, 12, -10, -10, -10, -10, -10, -10, -10, 25.833332, 25.666666, 25.583332, -10, -10, -10, -10, -10, -10, -10, -10, -10, -10, 28.428572, 28.523809, 28.40625, 28.4375, 28.1875, 27.785713, 27.5, 27.25, 27.125, 26.9375, 26.75, 26.75, 26.75, 26.732143, 26.479166, 26.196428, 25.923471, 26, 26.25, 26.3125, 26.214287, 26.125, 26.0625, 26.142857, 26.25, 26.3125, 26.4375, 26.5, 26.5625, 26.5625, 26.53125, 26.40625, 26.40625, 26.40625, 26.4375, 26.5, 26.4375, 26.375, 26.25, 26.125, 26.1875, 26.160713, 26.28125, 26.34375, 26.21875, 26.254463, 26.178572, 26.011906, 25.854166, 25.821428, 25.848213, 25.901787, 26.0625, 26.125, 26.25, 26.25, 26.25, 26.34375, 26.34375, 26.21875, 26.03125, 25.776787, 25.75, 25.8125, 26, 26.035713, 25.892857, 25.830357, 25.6875, 25.6875, 25.6875, 25.75, 25.875, 25.9375, 26, 25.866072, 25.434525, 25.196428, 25.040815, 24.571428, 25.0625, 25.377977, 25.526787, 25.5625, 25.330357, 25.3125, 25.553572, 25.8375, 25.955357, 26, 25.8125, 25.8125, 25.678572, 25.416666, 25.392857, 25.375, 25.571428, 25.8375, 25.517857, 25.455357, 25.25, 25.3125, 25.4375, 25.625, 25.8125, 25.883928, 26.15625, 26.147322, 26.096727, 26.174107, 26.008928, 25.601191, 25.375, 25.125, 25.125, 25.125, 25.25, 25.25, 25.339287, 25.348213, 25.3125, 25.5, 25.63393, 26.107143, 26.241072, 26.169643, 25.987499, 26.116072, 26.178572, 26.375, 26.5, 26.7125, 26.714285, 27, 27, 27.125, 27.133928, 27.5, 27.4375, 27.5, 27.580357, 27.770834, 27.857143, 27.9375, 27.830357, 27.767857, 28.020834, 27.982143, 28, 28.133928, 28.428572, -10, -10, 27.666668, -10, -10, -10, -10, -10, -10, -10, -10, -10, -10, -10, 28.5, 28.583332, 28.75, 29.375, 29.125, 29.09375, 28.96875, 29, 29, 28.9375, 28.916666, 28.916666, 28.916666, 29.083334, 7, 7, 7, 7, 7, 7, 7, 7.25, 7.5, 7.6666665
-10, -10, -10, -10, -10, -10, -10, -10, -10, -10, -10, -10, -10, 23.25, 23.166668, 23.125, 23.0625, 22.973213, 22.839287, 22.6875, 22.4375, 22.4375, 22.3125, 22.25, 22.1875, 21.9375, 21.75, 21.6875, 21.6875, 21.625, 21.5625, 21.375, 21.125, 21.0625, 21, 20.9375, 20.9375, 20.9375, 20.9375, 21, 20.9375, 20.8125, 20.5625, 20.3125, 20.125, 20, 20, 20, 19.9375, 19.875, 19.625, 19.4375, 19.25, 19.0625, 18.9375, 18.875, 18.75, 18.5625, 18.5, 18.3125, 18.25, 18.25, 18.25, 18.1875, 18.25, 18.169643, 17.8125, 17.559523, 17.383928, 17.375, 17.535713, 17.267857, 17.071428, 17, 16.875, 16.875, 16.8125, 16.8125, 16.625, 16.4375, 16.3125, 16.0625, 16, 16, 16, 16, 16, 15.875, 15.625, 15.375, 15.125, 15, 15, 15, 15, 14.9375, 14.875, 14.75, 14.6875, 14.625, 14.4375, 14.3125, 14.125, 14, 14, 14, 14, 13.75, 13.5, 13.25, 13, 13, 13, 13, 13, 12.9375, 12.9375, 12.875, 12.75, 12.625, 12.303572, 12.026786, 11.973214, 11.75, 11.875, 11.75, -10, -10, -10, -10, -10, -10, -10, 25.583332, 25, 24.733334, -10, -10, -10, -10, -10, -10, -10, -10, 26.875, 27.083334, 27.6875, 27.96875, 27.96875, 27.830357, 27.6875, 27.5, 27.3125, 27.0625, 26.75, 26.625, 26.5625, 26.419643, 26.104166, 25.758928, 25.589287, 25.625, 25.75, 25.9375, 25.875, 25.8125, 25.6875, 25.448978, 25.571428, 25.8125, 25.9375, 26, 26.125, 26.1875, 26.21875, 26.15625, 26.15625, 26.084822, 25.987499, 26.178572, 26.116072, 26.0625, 26, 25.8125, 25.8125, 25.75, 25.71875, 25.745537, 25.65625, 25.691963, 25.75, 25.761906, 25.604166, 25.571428, 25.473213, 25.464287, 25.5, 25.5, 25.625, 25.5625, 25.714285, 25.635416, 25.885416, 25.852678, 25.78125, 25.526787, 25.4375, 25.4375, 25.5, 25.5, 25.5, 25.4375, 25.375, 25.375, 25.375, 25.5, 25.625, 25.75, 25.8125, 25.678572, 25.247025, 25.008928, 24.946426, 24.392857, 24.729166, 25.211311, 25.517859, 25.5625, 25.267857, 25.125, 25.178572, 25.4625, 25.517857, 25.625, 25.5625, 25.5625, 25.491072, 25.166666, 24.955357, 24.839287, 25.071428, 25.444643, 25.205357, 25.205357, 24.9375, 24.9375, 25, 25.125, 25.34375, 25.375, 25.53125, 25.625, 25.763393, 26.089285, 25.885204, 25.226191, 25.0625, 24.9375, 25, 25, 25.0625, 25, 25.089287, 25.223213, 25.1875, 25.375, 25.464287, 25.919643, 26.044643, 25.773809, 25.654165, 25.949406, 26.044643, 26.25, 26.3125, 26.4625, 26.464285, 26.75, 26.75, 26.9375, 26.9375, 27.125, 27.125, 27.125, 27.205357, 27.458334, 27.607143, 27.625, 27.517857, 27.455357, 27.583334, 27.607143, 27.6875, 27.758928, 27.666666, -10, -10, 27.619049, -10, -10, -10, -10, -10, -10, -10, -10, 28.625, 28.458332, 28.375, 28.5, 28.555555, 28.75, 29.125, 29.166666, 29.125, 29.041666, 29, 29, 29, 7, 7, 7, 7, 7, 7, 7, 7, 7, 7, 7, 7.1875, 7.4375, 7.625, 7.8125, 7.875, 7.875, 8, 8.125, 8.1875, 8.1875, 8.125, 8.0625, 8, 8, 8.0625, 8.1875, 8.4375, 8.6875, 8.875, 9, 9, 9, 9, 9, 9, 9, 9.0625, 9.1875, 9.4375, 9.6875, 9.875, 9.9732141, 9.7678566, 9.7678566, 9.8125, 9.875, 10, 9.9375, 9.9375, 9.916667, -10, -10, -10, -10, -10, -10, -10, -10, -10, -10, -10, -10, -10, -10, -10, -10, -10, -10, -10, 23.125, 23.083334, 23.0625, 23.0625, 23.035713, 22.875, 22.580357, 22.258928, 22.1875, 22.0625, 22.0625, 22.125, 21.9375, 21.8125, 21.75, 21.6875, 21.625, 21.625, 21.4375, 21.1875, 21.1875, 21.125, 21.0625, 21.0625, 21, 20.875, 20.9375, 20.875, 20.8125, 20.625, 20.375, 20.1875, 20, 20, 20, 19.9375, 19.875, 19.6875, 19.4375, 19.25, 19.0625, 18.875, 18.875, 18.8125, 18.6875, 18.6875, 18.4375, 18.3125, 18.25, 18.1875, 18.1875, 18.25, 18.294643, 18.0625, 17.791666, 17.425594, 17.321428, 17.348213, 17.080357, 16.946428, 16.875, 16.75, 16.75, 16.6875, 16.6875, 16.5, 16.3125, 16.151787, 15.9375, 15.9375, 16, 16, 16, 16, 15.875, 15.625, 15.375, 15.125, 15, 15, 15, 15, 15, 14.9375, 14.8125, 14.75, 14.625, 14.4375, 14.3125, 14.125, 14, 13.9375, 13.875, 13.8125, 13.5625, 13.375, 13.1875, 13, 13, 13, 13, 13, 13, 13, 12.9375, 12.8125, 12.6875, 12.428572, 12.151786, 12.098214, 11.875, 11.833333, 11.708333, 11.645834, -10, -10, -10, -10, -10, -10, -10, 25, 24.733334, 24.333332, -10, -10, -10, -10, -10, -10, -10, 26.5, 26.380953, 26.619047, 27.28125, 27.59375, 27.794643, 27.8125, 27.75, 27.455357, 26.875, 26.482143, 26.3125, 26.25, 26.044643, 25.729166, 25.446428, 25.375, 25.4375, 25.5625, 25.6875, 25.625, 25.5625, 25.375, 25.267857, 25.28125, 25.21875, 25.28125, 25.34375, 25.5, 25.625, 25.75, 25.75, 25.75, 25.616072, 25.487499, 25.616072, 25.616072, 25.625, 25.651787, 25.669643, 25.741072, 25.75, 25.71875, 25.683037, 25.46875, 25.46875, 25.607143, 25.619047, 25.479166, 25.321428, 25.1875, 25.25, 25.25, 25.3125, 25.375, 25.3125, 25, 25.190475, 25.510416, 25.477678, 25.46875, 25.3125, 25.25, 25.25, 25.3125, 25.375, 25.375, 25.3125, 25.1875, 25.053572, 24.875, 25, 25.0625, 25.25, 25.3125, 25.241072, 24.979166, 24.883928, 24.696426, 24.419643, 24.613094, 25.148811, 25.316965, 25.28125, 24.861607, 24.71875, 24.741072, 25.025, 25.008928, 24.987499, 25.116072, 25.178572, 25.241072, 24.979166, 24.741072, 24.482143, 24.642857, 25.007143, 24.892857, 25.017857, 24.8125, 24.741072, 24.5625, 24.625, 24.78125, 24.9375, 25.125, 25.28125, 25.482143, 25.291666, 25.130951, 25.038691, 24.9375, 24.875, 25, 25, 25.0625, 25, 25.089287, 25.223213, 25.0625, 25.142857, 25.133928, 25.3125, 25.428572, 25.211309, 25.216665, 25.574406, 25.669643, 25.839287, 25.9375, 26.15, 26.276785, 26.625, 26.625, 26.8125, 26.8125, 26.9375, 27, 27.0625, 27.125, 27.25, 27.357143, 27.229166, 27.267857, 27.1875, 27.1875, 27.25, 27.25, 27.321428, 27.285715, -10, -10, 27.125, 27.333332, 27.5, 27.625, 27.75, 27.875, 27.875, 28, 28, 28.5, 28.416666, 28.375, 28.5, 28.555555, 28.75, 28.916666, 7.5, 7.5, 7.3571429, 7, 7, 6.875, 7, 7, 7, 7, 7, 7, 7, 7, 7, 7, 7, 7.125, 7.375, 7.5625
-10, -10, -10, -10, -10, -10, -10, -10, -10, -10, -10, -10, -10, 23, 23, 23, 23.0625, 23.098213, 22.9375, 22.705357, 22.383928, 22.1875, 22.0625, 22, 22.0625, 21.9375, 21.8125, 21.75, 21.6875, 21.75, 21.785713, 21.517857, 21.258928, 21.125, 21.0625, 21, 21, 21, 20.8125, 20.8125, 20.6875, 20.625, 20.5, 20.3125, 20.25, 20.0625, 20, 19.892857, 19.78125, 19.71875, 19.65625, 19.46875, 19.3125, 19.125, 18.9375, 18.9375, 18.9375, 18.8125, 18.8125, 18.625, 18.4375, 18.3125, 18.125, 18.0625, 18.0625, 18.1875, 18.169643, 17.836309, 17.425594, 17.196428, 17.160713, 17.017857, 16.946428, 16.875, 16.580357, 16.4375, 16.3125, 16.375, 16.3125, 16.25, 16.151787, 15.9375, 15.9375, 16, 16, 16, 16, 15.875, 15.6875, 15.5, 15.25, 15.125, 15.0625, 15, 15, 15, 14.9375, 14.8125, 14.6875, 14.625, 14.5, 14.375, 14.25, 14.0625, 13.875, 13.8125, 13.75, 13.5, 13.375, 13.1875, 13, 13, 13, 13, 13, 13, 13, 12.875, 12.75, 12.625, 12.366072, 12.151786, 12.098214, 11.875, 11.875, 11.71875, 11.680556, 11.5625, 11.5, -10, -10, -10, -10, -10, -10, -10, 24.333332, 23.583332, 23.5, -10, -10, -10, -10, -10, -10, 25.875, 26.114582, 26.53125, 27.03125, 27.419643, 27.625, 27.6875, 27.392857, 26.8125, 26.357143, 26.0625, 25.9375, 25.6875, 25.5625, 25.375, 25.25, 25.25, 25.3125, 25.375, 25.375, 25.4375, 25.375, 25.25, 25.15625, 24.96875, 24.84375, 24.84375, 24.96875, 25.125, 25.3125, 25.4375, 25.46875, 25.366072, 25.237499, 25.366072, 25.258928, 24.958334, 24.973215, 25.290815, 25.209822, 25.5, 25.321428, 25.516369, 25.459822, 25.4375, 25.482143, 25.395834, 25.166666, 25.071428, 24.991072, 24.875, 24.875, 24.8125, 24.875, 24.8125, 24.75, 24.697916, 24.885416, 24.915178, 25.013393, 24.9375, 24.875, 24.8125, 24.8125, 24.875, 24.9375, 25, 24.9375, 24.741072, 24.464287, 24.5, 24.5, 24.75, 24.714285, 24.9375, 24.9375, 24.9375, 24.758926, 24.419643, 24.604166, 24.940477, 25.116072, 25.125, 24.8125, 24.6875, 24.6875, 24.8125, 24.758928, 24.237499, 24.551022, 24.551022, 24.8125, 24.883928, 24.723213, 24.419643, 24.392857, 24.557144, 24.633928, 24.758928, 24.625, 24.491072, 24.1875, 24.1875, 24.28125, 24.5, 24.6875, 24.78125, 24.875, 25.03125, 24.977678, 24.833334, 24.875, 24.8125, 24.9375, 24.9375, 25, 25.0625, 25.125, 25.1875, 25.0625, 25.151787, 25.3125, 25.214285, 25.428572, 25.023809, 24.966665, 25.261906, 25.482143, 25.75, 25.875, 26, 26.196428, 26.4375, 26.5, 26.625, 26.625, 26.75, 26.875, 27, 27.0625, 27.25, 27.232143, 27.041666, 27.017857, 26.875, 26.9375, 27, 27, 27, 27, 27, 27, 27.125, 27.305555, 27.5, 27.666666, 27.833334, 27.875, 27.875, 28, 28, 28.5, 28.416666, 6.875, 6.583333, 6.625, 6.5, 6.5, 7.1666665, 7.1666665, 7.1547623, 7, 7, 6.9166665, 7, 7, 7, 7, 7, 7, 7, 7, 7, 7, 7, 7.0625, 7.3125, 7.5625, 7.8125, 8, 8, 8, 7.9375, 7.875, 7.875, 7.875, 7.9375, 8.0625, 8.1875, 8.375, 8.625, 8.8125, 8.9375, 9, 9, 9, 9, 9, 9.0625, 9.1875, 9.2232141, 9.375, 9.5, 9.625, 9.875, 9.9375, 10, 10, 10, 9.9375, 9.9375, 9.9375, 9.875, 9.9375, 9.916667, -10, -10, -10, -10, -10, -10, -10, -10, -10, -10, -10, -10, -10, -10, -10, -10, -10, -10, -10, 23.125, 23.083334, 23.0625, 23, 23, 22.910713, 22.705357, 22.446428, 22.25, 22.125, 22, 22.0625, 22, 21.9375, 21.9375, 21.875, 22, 22.008928, 21.598213, 21.330357, 21.1875, 21.125, 21.125, 21.125, 21.0625, 20.875, 20.8125, 20.625, 20.5, 20.375, 20.1875, 20.25, 20.098213, 19.892857, 19.714285, 19.53125, 19.53125, 19.53125, 19.40625, 19.3125, 19.125, 19, 19, 19, 18.9375, 18.9375, 18.8125, 18.625, 18.4375, 18.1875, 18.0625, 18.0625, 18.1875, 18.232143, 17.961309, 17.550594, 17.321428, 17.223213, 17.080357, 17.008928, 16.9375, 16.642857, 16.5, 16.375, 16.4375, 16.375, 16.25, 16.151787, 15.9375, 15.9375, 16, 16, 16, 16, 15.875, 15.6875, 15.5, 15.25, 15.125, 15.0625, 15, 15, 15, 14.9375, 14.8125, 14.6875, 14.625, 14.5, 14.375, 14.25, 14, 13.8125, 13.6875, 13.5625, 13.375, 13.25, 13.125, 13, 13, 13, 13, 13, 13, 12.9375, 12.8125, 12.6875, 12.5625, 12.428572, 12.1875, 12.0625, 11.8125, 11.6875, 11.53125, 11.572917, 11.541667, 11.583333, 11.875, 11.833334, -10, -10, -10, -10, -10, -10, 23.583332, 23.5, 23.125, 23, -10, -10, -10, -10, 25.285715, 25.614582, 25.90625, 26.379463, 26.569643, 27.017857, 27.214287, 27.080357, 26.53125, 26.107143, 25.75, 25.5625, 25.3125, 25.125, 24.9375, 24.8125, 24.8125, 24.875, 24.9375, 24.9375, 25.026787, 25.133928, 25.0625, 25.03125, 24.71875, 24.5, 24.40625, 24.46875, 24.625, 24.8125, 24.9375, 24.96875, 24.928572, 24.862499, 24.973215, 24.675594, 24.151361, 24.147961, 24.214285, 24.741072, 24.714285, 24.821428, 24.922619, 25.061224, 25, 24.928572, 24.75, 24.8125, 24.785713, 24.571428, 24.392857, 24.3125, 24.25, 24.375, 24.3125, 24.25, 24.291666, 24.541666, 24.571428, 24.660715, 24.59375, 24.53125, 24.53125, 24.5625, 24.625, 24.6875, 24.75, 24.6875, 24.419643, 23.964287, 24, 23.982143, 24.25, 24.4375, 24.625, 24.6875, 24.6875, 24.535713, 24.205357, 24.291666, 24.654762, 25.074406, 25.083334, 24.645834, 24.5, 24.4375, 24.5625, 24.508928, 23.987499, 23.720238, 23.803572, 24.5625, 24.633928, 24.535713, 24.169643, 24.071428, 24.107143, 24.375, 24.5, 24.5, 24.303572, 23.9375, 23.9375, 24.013393, 24.25, 24.4375, 24.53125, 24.5, 24.53125, 24.46875, 24.5, 24.625, 24.625, 24.6875, 24.6875, 24.8125, 25, 25.125, 25.25, 25.1875, 25.214287, 25.4375, 25.642857, 25.428572, 25.104166, 25.166666, 25.369047, 25.616072, 25.8125, 25.8125, 25.9375, 26.125, 26.223213, 26.25, 26.3125, 26.3125, 26.4375, 26.625, 26.75, 26.875, 27.0625, 27.107143, 26.979166, 26.955357, 26.875, 26.9375, 27, 27, 27, 27, 27, 27, 27.166666, 27.305555, 27.5, 27.666666, 27.833334, 6.4375, 6.3125, 6.4375, 6.5625, 6.75, 7, 6.8333335, 6.5555553, 6.5, 6.3333335, 6.3333335, 6.9375, 7, 7.0535717, 7, 7, 6.9375, 7, 7, 7, 7, 7, 7, 7, 7, 7, 7, 7, 7, 7.25, 7.5
-10, -10, -10, -10, -10, -10, -10, -10, -10, -10, -10, -10, -10, 23.375, 23.25, 23.1875, 23.0625, 23, 22.973213, 22.830357, 22.571428, 22.375, 22.1875, 22, 22.0625, 22.0625, 22, 21.9375, 21.875, 21.9375, 21.883928, 21.535713, 21.267857, 21.125, 21.125, 21.125, 21.125, 21.0625, 20.8125, 20.75, 20.5, 20.3125, 20.25, 20.0625, 20.25, 20.098213, 19.684523, 19.464285, 19.15625, 19.21875, 19.28125, 19.28125, 19.3125, 19.1875, 19.0625, 19, 19, 18.9375, 18.9375, 18.8125, 18.5625, 18.375, 18.125, 18, 18, 18.0625, 18.125, 18.044643, 17.666666, 17.383928, 17.25, 17.1875, 17.1875, 17.125, 16.705357, 16.5625, 16.4375, 16.5, 16.5, 16.3125, 16.151787, 15.9375, 15.9375, 16, 16, 16, 16, 15.875, 15.6875, 15.5, 15.25, 15.125, 15.0625, 15, 15, 15, 15, 14.875, 14.6875, 14.5625, 14.375, 14.25, 14.1875, 14, 13.8125, 13.6875, 13.5, 13.3125, 13.25, 13.1875, 13.125, 13.125, 13.0625, 13, 13, 13, 12.875, 12.6875, 12.5, 12.3125, 12.25, 12.1875, 12.125, 12, 11.75, 11.53125, 11.53125, 11.441964, 11.479167, 11.964286, 11.936508, 11.9375, 11.75, -10, -10, -10, -10, -10, -10, 23.25, 23.111113, 23, -10, -10, -10, 23.694445, 24.972788, 25.09524, 25.612244, 25.256464, 26.198978, 26.489798, 26.705357, 26.1875, 25.857143, 25.625, 25.4375, 25.25, 25, 24.75, 24.5625, 24.5, 24.5, 24.5, 24.5625, 24.651787, 24.821428, 24.78125, 24.6875, 24.375, 24.15625, 24.09375, 24.15625, 24.25, 24.375, 24.375, 24.34375, 24.3125, 24.383928, 24.544643, 24.247023, 23.976191, 23.910715, 24.151787, 24.366072, 24.285715, 24.367346, 24.559525, 24.369049, 24.464285, 24.357143, 24.4375, 24.526787, 24.571426, 24.321428, 24.205357, 24.125, 24.125, 24.3125, 24.375, 24.375, 24.4375, 24.375, 24.25, 24.285715, 24.316963, 24.28125, 24.40625, 24.375, 24.375, 24.401787, 24.4375, 24.375, 24.169643, 23.714287, 23.75, 23.732143, 23.875, 24, 24.125, 24.125, 24.1875, 24.125, 24, 24.125, 24.321428, 24.708334, 24.708334, 24.333334, 24.25, 24.1875, 24.3125, 24.258928, 23.674999, 23.660713, 23.723213, 24.25, 24.446428, 24.535713, 24.267857, 24.133928, 24.0625, 24.25, 24.3125, 24.375, 24.303572, 23.9375, 24, 24.107143, 24.3125, 24.5, 24.5625, 24.5, 24.5625, 24.5625, 24.5625, 24.625, 24.5, 24.4375, 24.508928, 24.895834, 25.178572, 25.3125, 25.375, 25.25, 25.151787, 25.375, 25.571428, 25.375, 25.3125, 25.3125, 25.348213, 25.5625, 25.75, 25.875, 25.973213, 26.017857, 26.11607, 26.125, 26.1875, 26.1875, 26.3125, 26.4375, 26.5625, 26.6875, 26.8125, 26.857143, 26.791666, 26.830357, 26.8125, 26.9375, 27, 27, 27, 27, 27, 16.25, 16.333332, 6, 6.166667, 6.25, 6.5, 6.4583335, 6.375, 6.5416665, 6.625, 6.75, 7, 6.875, 6.6041665, 6.5, 6.3125, 6.3125, 6.5625, 6.6875, 6.875, 7, 7, 7, 7, 7, 7, 7, 7, 7, 7, 7, 7, 7, 7, 7, 7.25, 7.4375, 7.6875, 7.875, 7.8125, 7.875, 7.8125, 7.8125, 7.875, 7.875, 7.9375, 8.0625, 8.1875, 8.375, 8.5625, 8.75, 8.875, 8.9375, 9, 9, 9, 9, 9.125, 9.25, 9.2857141, 9.4375, 9.5625, 9.5625, 9.8125, 9.8125, 9.8125, 9.875, 9.75, 9.6875, 9.625, 9.6875, 9.8125, 9.9375, 10, -10, -10, -10, -10, -10, -10, -10, -10, -10, -10, -10, -10, -10, -10, -10, -10, -10, -10, -10, 23.5, 23.333334, 23.25, 23.0625, 22.9375, 22.9375, 22.9375, 22.75, 22.5625, 22.3125, 22.0625, 22, 22, 21.9375, 21.875, 21.875, 22, 21.946428, 21.660713, 21.455357, 21.1875, 21.125, 21.0625, 21, 21, 20.8125, 20.75, 20.5625, 20.3125, 20.25, 20.0625, 20.1875, 20.026787, 19.351189, 19.107143, 18.84375, 19.004463, 19.09375, 19.21875, 19.25, 19.1875, 19.125, 19, 19, 18.9375, 18.9375, 18.8125, 18.5625, 18.375, 18.125, 18, 18, 18, 18, 17.9375, 17.6875, 17.4375, 17.3125, 17.3125, 17.3125, 17.25, 16.830357, 16.5625, 16.4375, 16.5, 16.5, 16.3125, 16.151787, 15.9375, 15.9375, 16, 16, 16, 16, 15.9375, 15.75, 15.5625, 15.3125, 15.125, 15.125, 15.0625, 15.0625, 15.0625, 14.9375, 14.75, 14.5, 14.375, 14.25, 14.1875, 14.1875, 14, 13.875, 13.8125, 13.616072, 13.3125, 13.25, 13.09375, 13.03125, 13.03125, 12.90625, 12.875, 12.9375, 12.9375, 12.875, 12.625, 12.375, 12.125, 12, 12, 12, 11.9375, 11.8125, 11.5625, 11.5, 11.348214, 11.229167, 11.535714, 11.677721, 11.416667, 11.375, -10, -10, -10, -10, -10, -10, 23.25, 23.111113, 23.166666, 22.75, 22.410713, 22.125, 22.952381, 23.075396, 23.132936, 23.708334, 24.171429, 25.705357, 26, 26.1875, 26.0625, 25.875, 25.75, 25.5625, 25.258928, 24.729166, 24.5, 24.25, 24.1875, 24.125, 24.0625, 24.071428, 24.360119, 24.625, 24.59375, 24.46875, 24.111607, 23.90625, 23.84375, 23.9375, 24.03125, 24.125, 24.0625, 24, 24.03125, 24.102678, 24.388393, 24.247023, 24.038691, 23.767857, 23.723213, 23.8125, 23.875, 24.071428, 24.395834, 24.428572, 24.4375, 24.3125, 24.1875, 24.276787, 24.321426, 24.071428, 23.955357, 23.8125, 23.8125, 24, 24.125, 24.1875, 24.25, 24.1875, 24, 23.973215, 23.941963, 23.90625, 24.09375, 24.098213, 24, 23.991074, 24, 24, 23.991072, 23.776787, 23.875, 23.982143, 24.053572, 23.916666, 23.883928, 23.78125, 23.90625, 23.90625, 23.90625, 24.0625, 24.196428, 24.552084, 24.552084, 24.239584, 24.15625, 24.0625, 24.0625, 23.955357, 23.5, 23.357143, 23.482143, 24, 24.133928, 24.25, 24.125, 24.125, 24.1875, 24.375, 24.4375, 24.375, 24.25, 24.0625, 24.0625, 24.294643, 24.5, 24.625, 24.625, 24.4375, 24.4375, 24.4375, 24.4375, 24.5, 24.375, 24.25, 24.321428, 24.677084, 24.897322, 25.09375, 25.21875, 25.1875, 25.151787, 25.375, 25.4375, 25.4375, 25.375, 25.375, 25.410713, 25.5625, 25.75, 25.875, 25.910713, 25.955357, 25.99107, 26, 26.0625, 26.0625, 26.1875, 26.25, 26.3125, 26.375, 26.5, 26.583334, 26.833334, 26.916666, 26.916666, 27, 27, 16.875, 16.452381, 16.5, 16.5, 16.416666, 16.555555, 6, 6.1111112, 6.1666665, 6.3333335, 6.40625, 6.34375, 6.53125, 6.59375, 6.625, 6.875, 6.75, 6.625, 6.5625, 6.375, 6.375, 6.5625, 6.625, 6.8125, 6.9375, 6.9375, 7, 7, 7, 7, 7, 7, 7, 7, 7, 7, 7, 7, 7, 7.1875, 7.3125
-10, -10, -10, -10, -10, -10, -10, -10, -10, -10, -10, -10, -10, 23.625, 23.416666, 23.3125, 23.0625, 22.875, 22.8125, 22.8125, 22.625, 22.5, 22.3125, 22.0625, 22, 22, 22, 21.9375, 21.9375, 22, 21.910713, 21.767857, 21.633928, 21.4375, 21.3125, 21.1875, 21.0625, 21, 20.875, 20.875, 20.6875, 20.4375, 20.3125, 20.0625, 20.125, 19.964287, 19.351189, 19.151785, 18.9375, 19.098213, 19.0625, 19.1875, 19.1875, 19.0625, 19, 18.8125, 18.75, 18.8125, 18.8125, 18.6875, 18.5, 18.25, 18.0625, 18, 18, 18, 18, 18, 17.75, 17.5, 17.375, 17.25, 17.25, 17.25, 16.9375, 16.75, 16.625, 16.5625, 16.5, 16.3125, 16.214287, 16.044643, 15.9375, 16, 15.9375, 16, 16, 16, 15.8125, 15.5625, 15.3125, 15.0625, 15.0625, 15.125, 15.125, 15.0625, 14.830357, 14.625, 14.375, 14.25, 14.125, 14.0625, 14.0625, 13.9375, 13.9375, 13.875, 13.616072, 13.3125, 13.1875, 13.09375, 13.03125, 12.739583, 12.584822, 12.5, 12.6875, 12.8125, 12.8125, 12.625, 12.375, 12.125, 12, 12, 12, 11.9375, 11.8125, 11.625, 11.5, 11.285714, 11.166667, 11.348214, 11.19898, 11.3125, 11.28125, 10.9375, 11, -10, -10, -10, -10, -10, -10, 23.166666, 22.75, 22.607141, 22.305555, 22.458334, 22.316328, 22.328232, 22.75, 23.30625, 24.913265, 25.25, 25.428572, 25.544643, 25.625, 25.6875, 25.5625, 25.258928, 24.604166, 24.3125, 24.0625, 23.9375, 23.8125, 23.6875, 23.571428, 23.797619, 24, 23.96875, 23.84375, 23.611607, 23.53125, 23.53125, 23.65625, 23.71875, 23.75, 23.625, 23.46875, 23.46875, 23.540178, 23.857143, 23.916666, 24.080357, 23.883928, 23.834822, 23.875, 23.875, 24.0625, 24.125, 24.0625, 24.0625, 23.875, 23.75, 23.839287, 23.758926, 23.517857, 23.580357, 23.4375, 23.5625, 23.8125, 23.9375, 24, 24.1875, 24.0625, 23.75, 23.508928, 23.441963, 23.40625, 23.71875, 23.848213, 23.75, 23.678574, 23.625, 23.625, 23.678572, 23.5625, 23.625, 23.87245, 23.741072, 23.541666, 23.508928, 23.40625, 23.53125, 23.59375, 23.65625, 23.75, 23.821428, 24.145834, 24.145834, 23.895834, 23.875, 23.8125, 23.78125, 23.71875, 23.59375, 23.59375, 23.75, 23.9375, 24, 24.0625, 24, 24.125, 24.3125, 24.5, 24.625, 24.491072, 24.25, 24.125, 24.0625, 24.419643, 24.5625, 24.6875, 24.6875, 24.4375, 24.375, 24.375, 24.375, 24.4375, 24.375, 24.125, 24.026785, 24.239584, 24.272322, 24.75, 24.892857, 24.928572, 24.705357, 24.875, 25.1875, 25.1875, 25.3125, 25.3125, 25.410713, 25.5, 25.625, 25.75, 25.785713, 25.767857, 25.86607, 25.875, 25.9375, 26, 26.0625, 26.083334, 26.083334, 26.166666, 25.357143, 25.423811, 17, 17.142857, 17.428572, 17.75, 17.75, 17, 16.492064, 16.5, 16.5, 16.5, 16.666666, 17, 6.0833335, 6.125, 6.25, 6.34375, 6.3080359, 6.5758929, 6.71875, 6.7232141, 6.7678571, 6.7053571, 6.625, 6.625, 6.5, 6.4375, 6.5, 6.5, 6.6875, 6.8125, 6.875, 7, 7, 7, 7, 7, 7, 7, 7, 7, 7, 7, 7, 7, 7.125, 7.25, 7.5, 7.6875, 7.75, 7.875, 7.875, 7.9375, 8, 8, 8, 8, 7.9375, 8.0267859, 8.2232141, 8.375, 8.6875, 8.8125, 8.9375, 9, 9, 9, 9.0625, 9.0625, 9.0625, 9.1875, 9.25, 9.375, 9.625, 9.625, 9.75, 9.8125, 9.6875, 9.75, 9.6875, 9.75, 9.875, 9.9375, 10, -10, -10, -10, -10, -10, -10, -10, -10, -10, -10, -10, -10, -10, -10, -10, -10, -10, -10, -10, 23.625, 23.416666, 23.3125, 23.0625, 22.9375, 22.8125, 22.75, 22.5625, 22.3125, 22.1875, 22, 21.9375, 22, 22, 21.9375, 21.9375, 21.9375, 21.875, 21.8125, 21.6875, 21.4375, 21.25, 21.125, 21, 20.9375, 20.8125, 20.8125, 20.625, 20.4375, 20.375, 20.125, 20.125, 19.991072, 19.458332, 19.330357, 19.25, 19.410713, 19.3125, 19.4375, 19.375, 19.25, 19.178572, 18.729166, 18.571428, 18.5625, 18.5625, 18.4375, 18.3125, 18.125, 18, 18, 17.9375, 17.9375, 17.9375, 17.9375, 17.8125, 17.5625, 17.375, 17.1875, 17.125, 17.125, 16.9375, 16.8125, 16.6875, 16.625, 16.5625, 16.375, 16.276787, 16.107143, 15.9375, 16, 15.9375, 16, 16, 16, 15.8125, 15.5625, 15.3125, 15.0625, 15.0625, 15.125, 15.125, 15, 14.705357, 14.5625, 14.3125, 14.1875, 14.125, 14, 14, 14, 14, 14, 13.803572, 13.4375, 13.3125, 13.15625, 13.03125, 12.739583, 12.522322, 12.375, 12.5625, 12.625, 12.6875, 12.5625, 12.3125, 12.125, 12, 12, 12, 12, 11.9375, 11.8125, 11.625, 11.285714, 11.041667, 11.098214, 11.066964, 11.125, 11.114583, 10.958333, 10.904762, 10.725, 11.023809, -10, -10, -10, -10, -10, -10, 22.607141, 22.305555, 22.125, 21.818451, 21.787203, 22.107143, 22.4375, 22.75, 23.478571, 24.291666, 24.75, 25.081633, 25.306122, 25.15625, 25.040178, 24.604166, 24.4375, 24.1875, 23.9375, 23.714287, 23.5625, 23.446428, 23.770834, 23.785715, 23.620537, 23.46875, 23.236607, 23.25, 23.28125, 23.46875, 23.53125, 23.5625, 23.4375, 23.21875, 23.15625, 23.165178, 23.5, 23.6875, 23.875, 23.696428, 23.647322, 23.660713, 23.517857, 23.705357, 23.8125, 23.9375, 24.0625, 23.9375, 23.75, 23.651787, 23.535713, 23.375, 23.4375, 23.25, 23.25, 23.455357, 23.637501, 23.642857, 23.84375, 23.625, 23.375, 23.142857, 23.066963, 23.0625, 23.375, 23.535713, 23.5, 23.428574, 23.375, 23.375, 23.5, 23.5625, 23.5625, 23.464285, 23.553572, 23.229166, 23.196428, 23.125, 23.25, 23.375, 23.4375, 23.5, 23.5, 23.5625, 23.5625, 23.5625, 23.6875, 23.75, 23.78125, 23.65625, 23.46875, 23.40625, 23.4375, 23.6875, 23.8125, 23.9375, 24, 24.125, 24.3125, 24.375, 24.4375, 24.241072, 24, 24, 23.9375, 24.25, 24.375, 24.4375, 24.4375, 24.25, 24.25, 24.3125, 24.4375, 24.5625, 24.625, 24.46875, 24.401785, 24.263887, 24.119047, 24.15, 24.174999, 24.299999, 24.580357, 24.6875, 24.9375, 25, 25.125, 25.0625, 25.125, 25.1875, 25.3125, 25.5625, 25.598213, 25.517857, 25.580357, 25.75, 25.833334, 26, 26, -10, -10, -10, 21.916666, 21.472223, 17.222221, 17.142857, 17.202381, 17.404762, 17.333332, 16.571428, 16.190475, 16.458334, 16.553572, 16.75, 16.916666, 16.857141, 6, 6, 6.0833335, 6.4857144, 6.4017859, 6.6696429, 6.78125, 6.6919641, 6.6116071, 6.5491071, 6.5, 6.625, 6.625, 6.625, 6.6875, 6.5625, 6.6875, 6.75, 6.8125, 6.9375, 6.875, 6.8125, 6.8125, 6.875, 6.9375, 7, 7, 7, 7, 7, 7, 7, 7.125, 7.25
-10, -10, -10, -10, -10, -10, -10, -10, -10, -10, -10, -10, -10, 23.5, 23.333334, 23.25, 23, 22.9375, 22.8125, 22.6875, 22.5, 22.25, 22.125, 22, 21.9375, 22, 22.0625, 22.0625, 22.0625, 22.0625, 22, 21.875, 21.75, 21.5, 21.25, 21.125, 21, 20.9375, 20.8125, 20.8125, 20.6875, 20.5625, 20.5625, 20.3125, 20.1875, 20.053572, 19.666666, 19.580357, 19.625, 19.660713, 19.5, 19.5, 19.3125, 19.1875, 19.053572, 18.604166, 18.383928, 18.3125, 18.3125, 18.25, 18.1875, 18.0625, 18, 18, 17.9375, 17.9375, 17.9375, 17.9375, 17.875, 17.625, 17.4375, 17.25, 17.125, 17.125, 17, 16.875, 16.75, 16.6875, 16.625, 16.5, 16.401787, 16.232143, 16, 16, 15.9375, 16, 16, 16, 15.875, 15.625, 15.375, 15.125, 15.0625, 15.125, 15.125, 14.9375, 14.580357, 14.5, 14.25, 14.1875, 14.1875, 14, 14, 14, 14, 14, 13.803572, 13.4375, 13.25, 13.03125, 12.90625, 12.614583, 12.459822, 12.375, 12.5625, 12.5625, 12.625, 12.4375, 12.125, 12, 11.875, 11.9375, 12, 12, 12, 11.875, 11.625, 11.3125, 11, 10.8125, 10.78125, 10.84375, 10.90625, 10.90625, 10.803572, 10.67381, 11.015873, 10.857143, 11.125, -10, -10, -10, -10, -10, -10, 22.083334, 21.782738, 21.662203, 21.732143, 21.666666, 21.75, 21.630951, 21.837303, 22.226191, 22.940475, 23.380951, 24.21875, 24.34375, 24.282738, 24.419643, 24.25, 24.0625, 23.776787, 23.5, 23.321428, 23.520834, 23.473215, 23.339287, 23.25, 23.080357, 23.09375, 23.15625, 23.28125, 23.34375, 23.375, 23.25, 23.09375, 23.03125, 22.96875, 23.125, 23.107143, 23.285715, 23.446428, 23.334822, 23.285713, 23.080357, 23.267857, 23.285715, 23.6875, 23.9375, 23.875, 23.75, 23.53125, 23.25, 23.03125, 22.96875, 22.8125, 22.78125, 22.955357, 23.137501, 23.142857, 23.28125, 23.0625, 22.875, 22.642857, 22.53125, 22.5625, 22.75, 22.973213, 23, 23.026787, 23, 23.0625, 23.1875, 23.1875, 23.1875, 23.1875, 23.116072, 22.854166, 22.883928, 22.875, 23, 23.125, 23.1875, 23.25, 23.28125, 23.34375, 23.321428, 23.25, 23.375, 23.4375, 23.46875, 23.40625, 23.28125, 23.21875, 23.3125, 23.5625, 23.6875, 23.8125, 23.9375, 24.0625, 24.25, 24.25, 24.1875, 23.75, 23.339287, 23.4375, 23.482143, 23.8125, 24.0625, 24.0625, 24.125, 24.125, 24.125, 24.151787, 24.375, 24.544643, 24.75, 24.65625, 24.517857, 24.607143, 24.464285, 24.571428, 24.607143, 24.642857, 24.455357, 24.5625, 24.75, 24.8125, 24.9375, 25, 25.125, 25.145834, 25.166666, 25.333334, 25.416666, 25.375, 25.583334, -10, -10, -10, -10, -10, -10, -10, 20.84524, 20.047621, 17.523809, 17.178572, 17.044643, 17.053572, 16.305555, 16.321428, 16.044643, 16.440477, 16.616072, 16.8125, 16.9375, 16.714285, 14.916666, 14.428572, 13.791666, 8.2742863, 7.2448983, 7.4438777, 7.454082, 7.0461311, 6.5758929, 6.2991071, 6.3125, 6.5625, 6.6875, 6.75, 6.8125, 6.625, 6.6875, 6.75, 6.75, 6.875, 6.8125, 6.75, 6.8125, 6.875, 6.9375, 7, 7, 7, 7, 7, 7, 7, 7.125, 7.3125, 7.5625, 7.8125, 7.9375, 8, 8, 8, 7.9375, 7.875, 7.9375, 7.9375, 8, 8.2142859, 8.4107141, 8.5625, 8.8125, 8.875, 8.9375, 9, 9, 9, 9, 9, 9, 9.0625, 9.1875, 9.4375, 9.6875, 9.8125, 9.9375, 9.9375, 9.9375, 10, 10, 10.125, 10.125, 10.125, 10.166666, -10, -10, -10, -10, -10, -10, -10, -10, -10, -10, -10, -10, -10, -10, -10, -10, -10, -10, -10, 23.375, 23.250002, 23.1875, 23, 22.9375, 22.8125, 22.6875, 22.4375, 22.1875, 22.125, 22, 22, 22.0625, 22.0625, 22.0625, 21.991072, 21.862499, 21.928572, 21.803572, 21.6875, 21.4375, 21.1875, 21.0625, 21, 20.9375, 20.875, 20.875, 20.6875, 20.5625, 20.5, 20.25, 20.1875, 20.125, 20, 19.9375, 19.9375, 19.8125, 19.5625, 19.4375, 19.25, 19.125, 18.928572, 18.479166, 18.196428, 18.125, 18.125, 18.125, 18.125, 18, 18, 18, 17.9375, 17.875, 17.8125, 17.75, 17.75, 17.5625, 17.4375, 17.25, 17.0625, 17.0625, 17, 17, 16.9375, 16.875, 16.8125, 16.6875, 16.5625, 16.357143, 16.0625, 16, 15.9375, 16, 16, 16, 15.875, 15.625, 15.375, 15.125, 15, 15.0625, 15.0625, 14.8125, 14.517857, 14.5, 14.3125, 14.3125, 14.3125, 14.0625, 14, 14, 14, 14, 13.8125, 13.5625, 13.3125, 13.125, 13, 12.708333, 12.616072, 12.5, 12.625, 12.5625, 12.5, 12.3125, 12, 11.9375, 11.8125, 11.875, 11.9375, 11.9375, 12, 11.9375, 11.75, 11.5, 11.25, 11.0625, 11, 11, 10.9375, 10.8125, 10.616072, 10.567858, 10.886905, 10.821429, 11.083333, 10.875, 10.75, -10, -10, -10, -10, -10, 21.79365, 21.597221, 21.5, 21.3125, 21.013393, 20.607143, 20.681974, 21.015306, 21.734694, 22.2551, 22.75, 23.275511, 23.897322, 24.276787, 24.1875, 24.0625, 23.839287, 23.5625, 23.375, 23.25, 22.982143, 22.776787, 22.75, 22.6875, 22.75, 22.8125, 22.875, 22.9375, 22.9375, 22.875, 22.8125, 22.75, 22.6875, 22.78125, 22.8125, 22.9375, 23.125, 23.15625, 23.098213, 22.830357, 22.698978, 22.9375, 23.3125, 23.6875, 23.75, 23.6875, 23.34375, 22.892857, 22.59375, 22.46875, 22.375, 22.40625, 22.642857, 22.762501, 22.705357, 22.71875, 22.4375, 22.3125, 22.142857, 22.15625, 22.125, 22.25, 22.375, 22.4375, 22.625, 22.598213, 22.517857, 22.580357, 22.5, 22.4375, 22.375, 22.25, 22.25, 22.4375, 22.53125, 22.65625, 22.78125, 22.84375, 22.9375, 23.09375, 23.129463, 22.964285, 22.821428, 22.875, 23, 23.15625, 23.21875, 23.15625, 23.09375, 23.125, 23.3125, 23.4375, 23.625, 23.8125, 23.9375, 24.125, 23.919643, 23.270834, 22.5, 22.173471, 22.479593, 22.919643, 23.3125, 23.5625, 23.6875, 23.8125, 23.9375, 24, 24.026787, 24.25, 24.482143, 24.6875, 24.65625, 24.517857, 24.3125, 24.428572, 24.392857, 24.428572, 24.3125, 24.375, 24.5, 24.5625, 24.4375, 24.607143, 24.404764, 24.047621, 25.111113, 15.25, 15.125, 15.125, 25.166666, 15.166666, -10, -10, -10, -10, -10, -10, -10, 19.59524, 18.666668, 17.755953, 17.095238, 16.758928, 16.553572, 15.869048, 15.821428, 15.683036, 16.159227, 16.397322, 16.59375, 16.6875, 16.357141, 14.611111, 14.095238, 12.523809, 10.965477, 10.726192, 10.738095, 10.122024, 7.5669641, 6.7008929, 6.2053571, 6.21875, 6.46875, 6.65625, 6.75, 6.8125, 6.625, 6.6875, 6.75, 6.75, 6.875, 6.75, 6.6875, 6.75, 6.8125, 6.9375, 7, 7, 7, 7.0625, 7.0625, 7.0625, 7.125, 7.25, 7.5
-10, -10, -10, -10, -10, -10, -10, -10, -10, -10, -10, -10, -10, 23.375, 23.250002, 23.1875, 23, 23, 22.9375, 22.8125, 22.625, 22.375, 22.25, 22.125, 22.0625, 22.0625, 22, 22, 21.866072, 21.737499, 21.866072, 21.678572, 21.5625, 21.3125, 21.125, 21.0625, 21.0625, 21, 20.875, 20.875, 20.75, 20.625, 20.5625, 20.3125, 20.1875, 20.125, 20, 20, 20, 19.8125, 19.5, 19.276787, 19.125, 19.125, 19.053572, 18.604166, 18.321428, 18.1875, 18.1875, 18.1875, 18.1875, 18.0625, 18, 18, 17.875, 17.75, 17.625, 17.5, 17.5625, 17.4375, 17.3125, 17.1875, 17, 17, 17, 17, 17, 16.9375, 16.875, 16.6875, 16.4375, 16.25, 16.0625, 16, 16, 16, 16, 16, 15.8125, 15.5625, 15.3125, 15.0625, 15, 15, 15, 14.75, 14.5, 14.5, 14.375, 14.4375, 14.4375, 14.1875, 14.0625, 14, 14, 14, 13.875, 13.625, 13.375, 13.125, 13, 13, 12.9375, 12.875, 12.875, 12.6875, 12.5625, 12.3125, 12, 11.875, 11.6875, 11.6875, 11.75, 11.8125, 11.9375, 11.875, 11.75, 11.5, 11.25, 11.125, 11, 11, 10.9375, 10.8125, 10.553572, 10.380358, 10.678572, 10.741072, 11, 10.833333, 10.666667, 10.375, 10.166666, -10, -10, -10, -10, -10, 21.458334, 21.21875, 20.700893, 20.258928, 20.025297, 20.147322, 20.448978, 21.151361, 21.650511, 22.221939, 22.846939, 23.651787, 23.866072, 23.982143, 23.839287, 23.625, 23.4375, 23.25, 22.919643, 22.651787, 22.5625, 22.4375, 22.5, 22.5625, 22.625, 22.75, 22.75, 22.6875, 22.6875, 22.625, 22.625, 22.75, 22.75, 22.8125, 22.9375, 22.9375, 22.848213, 22.580357, 22.580357, 22.625, 23.0625, 23.5, 23.75, 23.8125, 23.459822, 22.872025, 22.540178, 22.28125, 22.1875, 22.09375, 22.142857, 22.262501, 22.142857, 22.09375, 21.875, 21.8125, 21.71875, 21.6875, 21.65625, 21.71875, 21.875, 22.0625, 22.375, 22.383928, 22.160713, 22.151787, 22.0625, 22.125, 22.0625, 22, 22, 22.1875, 22.316963, 22.370537, 22.53125, 22.46875, 22.651787, 22.879463, 22.816963, 22.678572, 22.508928, 22.5, 22.625, 22.75, 22.883928, 23.145834, 23.178572, 23.25, 23.3125, 23.4375, 23.6875, 23.910713, 24, 24.0625, 23.589287, 22.190477, 21.525511, 21.336735, 22.336309, 22.767857, 23.125, 23.375, 23.5, 23.6875, 23.9375, 24, 23.964287, 24.125, 24.357143, 24.625, 24.558037, 24.285715, 24.010204, 23.908163, 23.9949, 24.112244, 24.214285, 24.25, 24.107143, 24, 23.785715, 23.041666, 22, 19.986113, 16.089287, 15.333333, 15.166667, 15.083333, 15.125, 15.194444, -10, -10, -10, -10, -10, -10, -10, 18.263889, 18.154167, 17.521578, 16.851934, 16.401785, 16.116072, 15.604167, 15.321428, 15.254464, 15.784227, 16.129463, 16.34375, 16.4375, 16, 14.458333, 13.928572, 13.458333, 12.291838, 12.071428, 12, 11.104592, 7.947917, 6.8794641, 6.125, 6.21875, 6.40625, 6.65625, 6.875, 7, 6.875, 6.875, 6.875, 6.75, 6.8125, 6.6875, 6.625, 6.75, 6.8125, 6.9375, 7, 7, 7, 7.0625, 7.0625, 7.0625, 7.1875, 7.375, 7.625, 7.875, 7.9375, 7.875, 7.875, 7.875, 7.9375, 7.9375, 7.875, 7.9375, 7.9375, 8.125, 8.375, 8.5, 8.75, 8.875, 8.875, 8.8125, 8.8125, 8.8125, 8.875, 9, 9, 9, 9, 9.25, 9.5, 9.75, 10, 10, 10, 10, 10, 10.0625, 10.3125, 10.375, 10.3125, 10.283333, -10, -10, -10, -10, -10, -10, -10, -10, -10, -10, -10, -10, -10, -10, -10, -10, -10, -10, -10, 23.375, 23.250002, 23.1875, 23, 23, 23, 22.9375, 22.8125, 22.6875, 22.5, 22.3125, 22.1875, 22.0625, 22, 22, 21.803572, 21.674999, 21.803572, 21.616072, 21.5625, 21.3125, 21.1875, 21.098213, 21.026787, 21.0625, 20.875, 20.9375, 20.875, 20.75, 20.625, 20.375, 20.1875, 20.0625, 20, 20, 20, 19.8125, 19.5, 19.214287, 19, 18.9375, 18.8125, 18.5625, 18.375, 18.3125, 18.375, 18.375, 18.3125, 18.125, 18, 18, 17.9375, 17.75, 17.625, 17.5, 17.5, 17.4375, 17.3125, 17.1875, 17, 17, 17, 17, 17, 16.9375, 16.8125, 16.625, 16.375, 16.1875, 16.0625, 16, 16, 16, 16, 15.9375, 15.75, 15.5, 15.25, 15.0625, 15, 15, 15, 14.75, 14.4375, 14.339286, 14.25, 14.3125, 14.3125, 14.0625, 13.9375, 13.875, 13.9375, 14, 13.875, 13.625, 13.375, 13.125, 13, 13, 13, 13, 13, 12.875, 12.75, 12.4375, 12.125, 11.9375, 11.625, 11.5625, 11.5625, 11.5625, 11.6875, 11.6875, 11.625, 11.4375, 11.25, 11.125, 11, 11, 10.9375, 10.8125, 10.5625, 10.455357, 10.5625, 10.5625, 10.75, 10.625, 10.5, 10.25, 10.111111, -10, -10, -10, -10, -10, -10, 21.25, 20.684525, 20.154762, 19.674107, 19.815475, 20.095238, 20.819445, 21.279762, 21.397322, 21.637754, 22.183674, 22.866072, 23.348215, 23.482143, 23.375, 23.3125, 23.0625, 22.75, 22.5625, 22.375, 22.25, 22.25, 22.3125, 22.3125, 22.5, 22.5, 22.4375, 22.5, 22.375, 22.3125, 22.464287, 22.669643, 22.803572, 23, 22.9375, 22.75, 22.625, 22.625, 22.6875, 23.125, 23.5, 23.75, 23.875, 23.513393, 22.726191, 22.290178, 21.90625, 21.8125, 21.71875, 21.75, 21.8125, 21.6875, 21.5625, 21.4375, 21.40625, 21.5, 21.5, 21.4375, 21.40625, 21.375, 21.526787, 21.982143, 21.991072, 21.785713, 21.714287, 21.625, 21.75, 21.75, 21.75, 21.75, 21.875, 21.910713, 21.964287, 22.125, 22.125, 22.464287, 22.754463, 22.754463, 22.616072, 22.383928, 22.3125, 22.3125, 22.375, 22.508928, 22.770834, 22.866072, 23.0625, 23.125, 23.21875, 23.40625, 23.566963, 23.65625, 23.8125, 23.464287, 22.291668, 21.525511, 21.336735, 22.336309, 22.705357, 23.0625, 23.3125, 23.4375, 23.6875, 23.9375, 23.9375, 23.776787, 23.705357, 23.979593, 24.035715, 23.714285, 21.690475, 20.982141, 20.738096, 21.309523, 21.732141, 22.125, 22.416666, 22.836735, 22.87245, 23.4375, 22.864286, 19.700001, 16.944445, 15.976192, 15.3125, 15.053572, 14.9375, 14.916667, 15.083333, 15.1875, 15.4375, 15.583334, -10, -10, -10, -10, 17.583334, 17.261904, 17.198662, 16.597469, 16.214285, 15.9375, 15.75, 15.535714, 15.397322, 15.700893, 15.888393, 16.09375, 16.1875, 15.785715, 14.308333, 13.5, 13.017857, 12.830357, 12.875, 12.875, 11.857143, 8.458334, 7.1071429, 6.15625, 6.28125, 6.34375, 6.53125, 6.6875, 6.8125, 6.8125, 6.875, 6.875, 6.75, 6.8125, 6.75, 6.8125, 6.9375, 6.9375, 7, 7, 7, 7, 7.0625, 7.0625, 7.0625, 7.25, 7.4375, 7.625
