-10, -10, -10, -10, -10, -10, -10, -10, -10, -10, -10, -10, -10, -10, -10, -10, -10, -10, -10, -10, -10, -10, -10, -10, -10, -10, -10, -10, -10, -10, -10, -10, 79.208336, 78.599998, 78.321426, 77.794647, 76.860115, 76.473213, 76, 75.491074, 74.535713, 74.0625, 73.553574, 72.761909, 71.386902, 70.375, 69.529762, 68.830353, 68.428574, 67.928574, 66.875, 66.285713, 65.892853, 65.526787, 64.45417, 63.598217, 62.785713, 62.267857, 61.8125, 61.25, 60.55357, 59.571426, 58.946426, 58.1875, 57.419643, 56.88393, 56.220242, 55.675598, 55.4375, 55.1875, 54.664284, 54.632656, 54.75, 54.92857, 54.958332, 54.928574, 54.9375, 54.875, 54.9375, 54.642857, 55, 55.125, 55.294643, 55.642857, 55.714287, 55.375, 55.25, 55.125, 54.991074, 55.07143, 55.051022, 54.892857, 55, 55.07143, 55.142857, 55.142857, 55.214287, 55.285713, 55.392857, 55.392857, 55.25, 54.875, 55, 55.17857, 55.2551, 55.234692, 55.295918, 55.5, 55.285713, 55.142857, 54.875, 54.8125, 54.8125, 54.9375, 54.9375, 54.9375, 54.9375, 54.875, 54.75, 54.651787, 54.732143, 55.061226, 55.214287, 55.214287, 55.25, 55.163265, 55.043652, 55, 54.916668, 54.988094, 55.132656, 55.17857, 55.214287, 55.061222, 54.809521, 54.829929, 54.895832, 55.132652, 55.142857, 55.035713, 54.933674, 54.642857, 54.729168, 54.8125, 54.938778, 55, 55.07143, 55.25, 55.357143, 55.42857, 55.311226, 55.142857, 55.0625, 55.25, 55.392857, 55.32143, 55, 55.026787, 55.035713, 55, 55.0625, 55.0625, 55.0625, 55.125, 55.464287, 55.464287, 55.5, 55.392857, 55.25, 55.375, 55.291668, 55.291668, 55.333332, 55.285713, 55.357143, 55.357143, 55.357143, 55.17857, 54.9375, 54.875, 54.78125, 54.78125, 54.78125, 54.84375, 54.9375, 55.32143, 55.392857, 55.357143, 55.285713, 55.214287, 55.214287, 55.32143, 55.392857, 55.464287, 55.464287, 55.535713, 55.544643, 55.544643, 55.714287, 55.75, 55.714287, 55.75, 55.75, 55.714287, 55.642857, 55.57143, 55.25, 55.1875, 55.0625, 54.9375, 54.9375, 54.8125, 55.035713, 55.107143, 55.07143, 55.07143, 54.875, 54.8125, 54.75, 54.6875, 54.5625, 54.5625, 54.943878, 55.17857, 55.479591, 55.57143, 55.607143, 55.464287, 55.0625, 54.9375, 54.741074, 55, 55.125, 54.964283, 54.369049, 54.484692, 54.612244, 54.943878, 55.07143, 55.142857, 55.234692, 55.214287, 55.17857, 55.142857, 55.142857, 55.142857, 55.07143, 55, 54.892857, 54.625, 54.5625, 54.4375, 54.642857, 54.969387, 55.07143, 55.333332, 55.153057, 55.157143, 55.045918, 55.081631, 54.8125, 54.875, 54.875, 54.875, 54.875, 54.875, 54.8125, 54.75, 54.75, 54.8125, 54.9375, 54.9375, 54.99107, 54.619049, 54.438774, 54.545918, 55.083332, 55.116074, 55.357143, 55.17347, 55.07143, 55.107143, 55.07143, 55.193878, 55.142857, 55.25, 55.357143, 55.392857, 55.57143, 55.642857, 55.642857, 55.642857, 55.57143, 55.535713, 55.25, 55.1875, 54.964287, 54.877552, 55.080357, 55.080357, 55.214287, 55.357143, 55.42857, 55.464287, 55.535713, 55.42857, 55.357143, 55.357143, 55.392857, 55.362244, 55.280613, 55.285713, 55.333332, 55.107143, 55.107143, 55.07143, 55.0625, 55.25, 55.375, 55.714287, 55.67857, 55.57143, 55.5, 55.5, 55.3125, 55.4375, 55.714287, 55.67857, 55.642857, 55.67857, 55.67857, 55.586735, 55.333336, 55.234692, 55.17857, 55, 55, 55.0625, 55.125, 55.25, 55.535713, 55.535713, 55.5, 55.0625, 55.089287, 54.918369, 55.061226, 55.17857, 55.17857, 55.5625, 55.71875, 55.874996, -10, -10, -10, -10, -10, -10, -10, -10, -10, -10, -10, -10, -10, -10, -10, -10, -10, -10, -10, -10, -10, -10, -10, -10, -10, -10, -10, -10, -10, -10, -10, -10, -10, -10, -10, -10, -10, -10, -10, -10, -10, -10, -10, -10, -10, -10, -10, -10, -10, -10, -10, -10, -10, -10, -10, -10, 79.458336, 78.849998, 78.5, 77.9375, 77.020828, 76.535713, 76.125, 75.669647, 74.476196, 73.991074, 73.428574, 72.583336, 71.023819, 70.083336, 69.226189, 68.821426, 68.4375, 67.991074, 67.113091, 66.428574, 65.955353, 65.544647, 64.604172, 63.910717, 63.107143, 62.580357, 62, 61.392857, 60.67857, 59.404762, 58.8125, 58.116074, 57.401783, 56.82143, 56.229168, 55.946426, 55.875, 55.8125, 56.075001, 56.244049, 56.244049, 56.333332, 56.035713, 55.92857, 55.892857, 55.92857, 56.07143, 56.375, 56.32143, 56.42857, 56.561222, 56.67857, 56.714287, 56.303574, 56.099998, 56.125, 56.0625, 56.392857, 56.301022, 55.642857, 55.714287, 55.75, 56, 55.9375, 56, 56.0625, 56.125, 56.125, 55.9375, 55.8125, 55.75, 55.9375, 56.035713, 56.017857, 56.32653, 56.285713, 56.214287, 56.07143, 56, 56, 56.07143, 56.285713, 56.285713, 56.214287, 56.142857, 55.92857, 55.82143, 55.765308, 55.669643, 55.866074, 56.0625, 56.008926, 55.770832, 55.580357, 55.547619, 55.952381, 55.880951, 55.6875, 55.758926, 55.75, 55.8125, 55.8125, 55.5, 55.556122, 56, 55.9375, 55.875, 55.964287, 55.660713, 55.517857, 55.604168, 55.75, 55.75, 55.875, 56, 56.357143, 56.42857, 56.392857, 55.991074, 55.8125, 55.9375, 56, 56.1875, 55.92857, 55.785713, 55.7449, 55.862244, 55.785713, 55.833332, 55.833332, 55.958332, 56.25, 56.642857, 56.4375, 56.67857, 56.5, 56.32143, 56.214287, 56.142857, 56.142857, 56.214287, 56.32143, 56.392857, 56.392857, 56.392857, 56.357143, 56.214287, 56.142857, 56.035713, 55.892857, 55.892857, 55.92857, 56.07143, 56.25, 56.125, 56.0625, 56, 56, 56.0625, 56.25, 56.3125, 56.375, 56.3125, 56.25, 56.25, 56.1875, 56.42857, 56.5, 56.607143, 56.67857, 56.75, 56.67857, 56.3125, 56.1875, 56.0625, 56.0625, 56.142857, 56.107143, 56.035713, 55.92857, 56, 56.107143, 56.25, 56.408165, 55.857143, 55.714287, 55.5, 55.285713, 55.4375, 55.67857, 56.015308, 56.285713, 56.561222, 56.607143, 56.535713, 56.357143, 56.17857, 56.07143, 56.035713, 56.07143, 56.107143, 56.040813, 55.654762, 55.482143, 55.589283, 56.193878, 56.25, 56.214287, 56, 55.9375, 55.875, 55.875, 55.9375, 56, 56.25, 56.25, 55.57143, 55.392857, 55.265308, 55.204079, 55.438774, 55.922619, 56.198978, 56.25, 56.008926, 56.075001, 55.724487, 55.946426, 56, 55.92857, 55.857143, 55.785713, 55.714287, 55.642857, 55.57143, 55.57143, 55.642857, 55.5625, 55.6875, 55.75, 55.86607, 56.319447, 56.297619, 56.380951, 56.238094, 56.204082, 56.260201, 56.32143, 56.25, 56.198978, 56.214287, 56.25, 56.234692, 56.586735, 56.395832, 56.229168, 56.258926, 56.3125, 56.375, 56.4375, 56.4375, 56.3125, 56.125, 56.32143, 56.583332, 56.589283, 56.080357, 56.234692, 56.17857, 56.25, 56.392857, 56.464287, 56.57143, 56.642857, 56.57143, 56.57143, 56.57143, 56.520409, 56.479591, 56.42857, 56.32143, 56.285713, 56.285713, 56.285713, 56.392857, 56.5, 56.688774, 56.94286, 56.795918, 56.724487
-10, -10, -10, -10, -10, -10, -10, -10, -10, -10, -10, -10, -10, -10, -10, -10, -10, -10, -10, -10, -10, -10, -10, -10, -10, -10, -10, -10, -10, -10, -10, -10, 79.458336, 78.849998, 78.5, 77.9375, 77.020828, 76.464287, 76.125, 75.714287, 74.404762, 73.785721, 73.142853, 72.5, 70.979172, 70.142853, 69.517853, 69.0625, 68.544647, 68.03125, 67.227676, 66.513397, 66.017853, 65.553574, 64.833336, 64.125, 63.285713, 62.660713, 62.125, 61.473213, 60.535713, 59.261906, 58.6875, 58.169643, 57.508926, 56.94643, 56.6875, 56.5, 56.5625, 56.92857, 56.957146, 57.17347, 57.163269, 56.904762, 56.806122, 56.714287, 56.785713, 57, 57.214287, 57.42857, 57.607143, 57.642857, 57.67857, 57.642857, 57.57143, 57.178574, 56.974998, 57.357143, 57.42857, 57.57143, 57.408165, 57.375, 57.291668, 57.125, 56.92857, 56.6875, 56.75, 56.8125, 56.875, 56.9375, 56.75, 56.857143, 56.785713, 56.82143, 56.92857, 56.875, 57, 57, 56.9375, 56.875, 57.107143, 57.142857, 57.214287, 57.32143, 57.25, 57.17857, 57.107143, 56.92857, 56.857143, 56.785713, 56.857143, 57, 57.107143, 57.045918, 56.520832, 56.25, 56.285713, 56.958332, 56.833332, 56.604168, 56.6875, 56.645832, 56.737499, 56.794643, 57, 57.136902, 56.892857, 56.857143, 56.6875, 56.625, 56.598213, 56.663265, 56.761906, 56.857143, 56.6875, 56.875, 57, 57.1875, 57.241074, 57.049999, 56.982147, 56.732143, 56.8125, 56.8125, 57, 57.375, 57.291668, 57.267857, 57.398808, 57.375, 56.770832, 56.523808, 57.166664, 57.464287, 57.642857, 57.607143, 57.714287, 57.57143, 57.1875, 57.0625, 57, 57, 57.125, 57.1875, 57.1875, 57.125, 57.125, 57.392857, 57.285713, 57.25, 57.107143, 56.892857, 56.892857, 56.892857, 57.07143, 57.25, 57.0625, 57.0625, 57, 57.214287, 57.285713, 57.392857, 57.392857, 57.392857, 57.32143, 57.125, 57.1875, 56.92857, 57, 57.07143, 57.40625, 57.46875, 57.46875, 57.34375, 57.205357, 56.976192, 56.959187, 57.202381, 57.226192, 57.153057, 57, 56.6875, 56.75, 56.875, 57.285713, 57.515308, 57.75, 57.708332, 57.375, 57.083332, 56.714287, 56.5, 56.794643, 57, 57.1875, 57.1875, 57.0625, 56.9375, 56.875, 57.07653, 57.107143, 57.214287, 57, 56.973213, 56.904762, 57.220234, 57.398808, 57.372448, 57.285713, 57.214287, 56.9375, 56.8125, 56.75, 56.6875, 56.75, 56.875, 57.107143, 57.214287, 57.375, 57.291668, 57.327381, 57.476192, 57.613094, 57.607143, 57.049107, 57.03125, 56.9375, 57.035713, 57.291668, 57.07143, 56.964287, 56.892857, 56.625, 56.5625, 56.5625, 56.285713, 56.25, 56.2449, 56.4375, 56.714287, 56.5, 56.625, 56.74107, 57.095242, 57.112244, 57.183674, 57.190472, 56.991074, 57.071426, 57.32143, 57.25, 56.955357, 56.9375, 56.9375, 57.163265, 57.551022, 57.523808, 57.104168, 57.071426, 57, 57.125, 57.25, 57.5, 57.3125, 57.1875, 57.42857, 57.464287, 57.397957, 57.198978, 57.163265, 57.0625, 56.989796, 57.17857, 57.25, 57.5625, 57.785713, 57.642857, 57.642857, 57.642857, 57.57143, 57.607143, 57.535713, 57.464287, 57.464287, 57.464287, 57.5, 57.57143, 57.642857, 57.760201, 57.94286, 57.724487, 57.617344, 57.5, 57.5, 57.5, 57.3125, 57.3125, 57.339287, 57.410713, 57.375, 57.392857, 57.294643, 57.309528, 57.295918, 57.25, 57.32143, 57.32143, 57.32143, 57.0625, 56.785713, 56.964287, 57.285713, 57.448978, 57.413265, 57.459187, 57.816326, 57.943878, 57.833332, 58.061226, 57.82143, 57.839287, -10, -10, -10, -10, -10, -10, -10, -10, -10, -10, -10, -10, -10, -10, -10, -10, -10, -10, -10, -10, -10, -10, -10, -10, -10, -10, -10, -10, -10, -10, -10, -10, -10, -10, -10, -10, -10, -10, -10, -10, -10, -10, -10, -10, -10, -10, -10, -10, -10, -10, -10, -10, -10, -10, -10, -10, -10, 79.458336, 78.849998, 78.428574, 77.758926, 76.997025, 76.392853, 76, 75.535721, 74.300598, 73.535721, 72.848213, 72.303574, 71.104172, 70.244049, 69.732147, 69.25, 68.741074, 67.989586, 67.165176, 66.495529, 66.017853, 65.5625, 65.0625, 64.267853, 63.35714, 62.67857, 62.125, 61.473213, 60.607143, 59.440475, 58.848213, 58.375, 57.9375, 57.517857, 57.375, 57.3125, 57.4375, 57.6875, 57.8125, 57.9375, 57.928574, 57.666668, 57.642857, 57.357143, 57.464287, 58, 58.1875, 58.375, 58.714287, 58.714287, 58.714287, 58.4375, 58.375, 58.241074, 58.257141, 58.464287, 58.464287, 58.5, 58.346943, 58.142857, 58.07143, 57.892857, 57.92857, 57.92857, 57.8125, 57.642857, 57.714287, 58.0625, 57.9375, 58.035713, 58, 58, 58.07143, 57.642857, 57.714287, 57.9375, 57.875, 57.8125, 58, 58.07143, 58.142857, 58, 57.875, 57.8125, 57.75, 57.5625, 57.5, 57.4375, 57.67857, 57.6875, 57.8125, 57.790176, 57.489582, 57.958332, 58.125, 58.166664, 58.023808, 57.761906, 57.857143, 57.880951, 57.985714, 58.158165, 57.75, 58.224487, 57.57143, 57.5, 57.741074, 57.549999, 57.714287, 57.92857, 58.023811, 58.07143, 58.07143, 58.107143, 58.17857, 58.285713, 58.116074, 58.049999, 58.306126, 58.122448, 58.142857, 58.035713, 58.07143, 58.07143, 58.035713, 58.051022, 58.163265, 58.214287, 58.059521, 58.430553, 58.309521, 58.464287, 58.3125, 58.392857, 58.464287, 58.42857, 58.32143, 58.25, 58.285713, 58.285713, 58.42857, 58.464287, 58.5, 57.92857, 57.92857, 58.57143, 58.387756, 58.125, 57.950893, 57.572918, 57.549107, 57.59375, 57.919643, 58.125, 58.32143, 58.387756, 58.392857, 58.224487, 58.295918, 58.32143, 58.357143, 58.1875, 58.1875, 58.1875, 58.392857, 58.625, 58.666668, 58.666668, 58.5, 58.57143, 58.375, 58.241074, 58.005356, 58.640873, 58.767857, 58.904766, 58.333336, 57.946426, 57.642857, 57.4375, 57.4375, 57.6875, 58.183674, 58.479591, 58.57143, 58.464287, 58.25, 58.07143, 57.92857, 57.82143, 57.732143, 57.875, 58, 58.0625, 57.75, 57.67857, 57.9375, 57.910713, 58.107143, 58.107143, 57.8125, 57.794643, 57.952385, 58.081631, 58.32143, 58.489799, 58.357143, 58.285713, 58.214287, 58.107143, 58.17857, 58.035713, 57.8125, 57.642857, 57.714287, 58.270409, 58.224487, 58.107143, 58.209187, 58.336735, 58.418365, 58.377552, 58.073978, 57.84375, 57.8125, 58.142857, 58.214287, 57.875, 57.75, 57.6875, 57.625, 57.785713, 57.857143, 58.041668, 58.208332, 58.238098, 57.857143, 57.666668, 57.616074, 57.771427, 57.8125, 57.857143, 58, 58.07143, 57.892857, 57.955357, 58.081631, 58.25, 58.25, 58.198978, 57.75, 57.734692, 57.973213, 58.3125, 58.208332, 58.190479, 57.883926, 57.75, 57.875, 58, 58.285713, 58.285713, 58.214287, 58.32143, 58.25, 58.285713, 58.142857, 58.080357, 58.357143, 58.767857, 58.958332, 59, 58.714287, 58.67857, 58.57143, 58.57143, 58.642857, 58.607143, 58.4375, 58.3125, 58.392857, 58.42857, 58.42857, 58.57143, 58.67857, 58.714287, 58.795918, 58.871429, 58.383926, 58.321426
-10, -10, -10, -10, -10, -10, -10, -10, -10, -10, -10, -10, -10, -10, -10, -10, -10, -10, -10, -10, -10, -10, -10, -10, -10, -10, -10, -10, -10, -10, -10, -10, 79.5, 79, 78.315475, 77.642853, 76.872025, 76.3125, 75.758926, 75.25, 74.217262, 73.419647, 72.75, 72.321426, 71.520836, 70.559525, 69.982147, 69.4375, 68.866074, 67.90625, 67.102676, 66.549103, 66.125, 65.5625, 65.017853, 64.205353, 63.348213, 62.67857, 62.125, 61.473213, 60.642857, 59.815475, 59.303574, 58.9375, 58.5625, 58.42857, 58.392857, 58.392857, 58.607143, 58.857143, 58.92857, 59, 58.918369, 58.619049, 58.663265, 58.916668, 59.041668, 59.107143, 59.214287, 59.392857, 59.535713, 59.535713, 59.535713, 59.392857, 59.357143, 59.316326, 59.200001, 59.1875, 59.1875, 59.25, 59.1875, 58.857143, 58.785713, 58.642857, 58.9375, 59.17857, 59.17857, 59.458332, 59.458332, 59.32143, 59.357143, 59.214287, 59.142857, 59.035713, 59, 59.333332, 59.333332, 59.107143, 59, 58.92857, 58.75, 58.6875, 58.6875, 58.6875, 58.5625, 58.669643, 58.625, 58.214287, 58.375, 58.041668, 58.145832, 58.479168, 58.6875, 58.727676, 58.726192, 58.892857, 59.0051, 59.078236, 58.976192, 58.738094, 58.918369, 59.023808, 59.164284, 59.372448, 59.583332, 59.392857, 59.416668, 59.375, 59.025513, 58.842857, 59.132656, 59.204082, 59.285713, 59.357143, 59.357143, 59.32143, 59.357143, 59.357143, 59.275513, 59.092857, 59.204082, 59.122448, 59.17857, 59.142857, 59, 58.785713, 58.785713, 58.785713, 58.857143, 59.125, 59.292519, 59.59864, 59.59864, 59.17857, 59.17857, 59.07143, 59.142857, 59.107143, 59.25, 59.42857, 59.5, 59.42857, 59.535713, 59.535713, 59.535713, 59.833332, 59.75, 59.5, 59.280613, 59.142857, 58.943878, 58.416668, 58.392857, 58.5, 59.015308, 59.17857, 59.32143, 59.4949, 59.647957, 59.258926, 59.321426, 59.25, 59.25, 59.25, 59.464287, 59.5, 59.535713, 59.57143, 59.57143, 59.5, 59.535713, 59.57143, 59.535713, 59.241074, 58.996429, 59.335033, 59.443882, 59.561226, 59.261906, 58.883926, 58.341835, 58.17857, 58.214287, 58.5, 59.098213, 59.357143, 59.4375, 59.142857, 59.25, 59.285713, 59.035713, 58.816326, 58.82143, 58.723213, 58.875, 58.9375, 59.291668, 59.333332, 59.107143, 59.112244, 58.875, 58.8125, 58.625, 58.651787, 58.785713, 58.875, 59.125, 59.125, 59.25, 59.285713, 59.25, 59.214287, 59.214287, 59, 59.035713, 59.416668, 59.541668, 59.205357, 59.196426, 59.0625, 59.151787, 59.294643, 59.169643, 58.854168, 58.589287, 58.607143, 58.857143, 59.035713, 58.9375, 58.8125, 58.6875, 58.82143, 58.785713, 58.82143, 58.92857, 58.964287, 59.17857, 59.275513, 59.107143, 59.333332, 59.010204, 59, 59.117348, 59.583332, 59.708332, 59.791668, 59.666668, 59.270409, 59.008926, 59.125, 59.125, 59.295921, 59.583332, 59.589283, 59.316326, 59.375, 59.270832, 59.104168, 58.946426, 58.5, 58.642857, 58.991074, 58.854168, 58.895832, 58.857143, 59.051022, 59.357143, 59.545918, 59.382656, 59.285713, 59.392857, 59.622448, 59.82143, 59.857143, 59.75, 59.5, 59.375, 59.3125, 59.375, 59.5, 59.57143, 59.535713, 59.25, 59.375, 59.142857, 59.5625, 59.785713, 59.591835, 59.383926, 59.387501, 59.196426, 59.196426, 59.1875, 59.25, 59.464287, 59.5, 59.42857, 59.459187, 59.540813, 59.357143, 59.234692, 59.142857, 58.9375, 59, 59.0625, 59.083332, 58.854168, 58.883926, 59.229591, 59.285713, 59.464287, 59.469387, 59.270409, 59.306122, 59.357143, 59.551022, 59.714287, 59.857143, 59.846943, 59.785713, 59.809521, -10, -10, -10, -10, -10, -10, -10, -10, -10, -10, -10, -10, -10, -10, -10, -10, -10, -10, -10, -10, -10, -10, -10, -10, -10, -10, -10, -10, -10, -10, -10, -10, -10, -10, -10, -10, -10, -10, -10, -10, -10, -10, -10, -10, -10, -10, -10, -10, -10, -10, -10, -10, -10, -10, -10, -10, -10, 79.375, 78.650002, 78.029762, 77.392853, 76.747025, 76.241074, 75.467262, 74.928574, 74.196426, 73.491074, 72.928574, 72.416664, 71.883926, 70.988098, 70.273811, 69.625, 68.84523, 67.84375, 67.15625, 66.65625, 66.1875, 65.520836, 64.726189, 63.892853, 63.080353, 62.49107, 62.0625, 61.517857, 60.767857, 60.357143, 60, 59.875, 59.357143, 59.416668, 59.375, 59.333332, 59.75, 59.892857, 59.75, 59.875, 59.866074, 59.880951, 59.678574, 59.75, 60.107143, 59.9375, 59.9375, 60, 60.15625, 60.21875, 60.28125, 60.21875, 60.1875, 60.1875, 60.125, 60.125, 60.0625, 60, 60.107143, 60.25, 60.208332, 60.166668, 60.07143, 60.214287, 60.285713, 60.42857, 60.5, 60.535713, 60.607143, 60.464287, 60.32143, 60.142857, 60, 60.07143, 60.07143, 60.07143, 60, 59.892857, 59.75, 59.6875, 59.392857, 59.357143, 59.285713, 59.979591, 59.92857, 60, 59.57143, 58.761906, 58.880951, 59.416668, 59.5625, 59.785713, 59.780613, 60.122448, 60.058037, 59.7449, 59.642857, 59.5, 59.919643, 59.958332, 60.242859, 60.346935, 60.42857, 60.464287, 60.32143, 60.32143, 60.239799, 60.092857, 60.418369, 60.454082, 60.5, 60.5, 60.42857, 60.285713, 60.214287, 60.107143, 59.866074, 60.028572, 60.035713, 59.982143, 60, 60.107143, 60.035713, 60.208332, 60.208332, 60.208332, 60.208332, 60.07143, 60.280613, 60.622448, 60.658165, 60.958332, 60.916668, 60.791668, 60.833332, 60.791668, 60.535713, 60.57143, 60.57143, 60.5, 60.464287, 60.392857, 60.42857, 60.464287, 60.392857, 60.285713, 59.964287, 59.9375, 59.857143, 59.555557, 59.523808, 60, 60.229591, 60.125, 60.25, 60.401787, 60.7551, 60.510201, 60.540813, 60.5051, 60.5, 60.607143, 60.607143, 60.642857, 60.67857, 60.714287, 60.714287, 60.4375, 60.4375, 60.4375, 60.607143, 60.489799, 60.200005, 60.136906, 60.169647, 60.241074, 59.979168, 59.969387, 60.011902, 59.958332, 60.125, 60.333332, 60.32653, 60.392857, 60.357143, 60.416668, 60.25, 60.285713, 60.17857, 59.530613, 59.75, 60.040813, 60.07143, 60.07143, 60.107143, 60.25, 60.214287, 60.234692, 60.107143, 59.8125, 59.42857, 59.459187, 59.910713, 59.875, 59.9375, 59.839287, 59.875, 60.265308, 60.357143, 60.357143, 60.0625, 59.8125, 60, 60.142857, 60.214287, 60.198978, 60.224487, 60.17857, 60.0625, 60.0625, 59.875, 59.541668, 59.446426, 59.544643, 59.6875, 60.142857, 60.142857, 60.07143, 59.92857, 59.857143, 59.92857, 60, 59.9375, 59.82143, 60.3125, 60.602043, 60.42857, 60.200001, 60.25, 60.204082, 60.295921, 60.42857, 60.42857, 60.42857, 60.42857, 60.270409, 60.285713, 60.285713, 60.357143, 60.392857, 60.42857, 60.469387, 60.270409, 60.377552, 60.265308, 60.102043, 60.107143, 60.083332, 60.208332, 59.989799, 59.666668, 59.833332, 60.583332, 60.994049, 61.172619, 60.795918, 60.668369, 60.291668, 60.3125, 60.482143, 60.5625, 60.5, 60.375, 60.1875, 60.0625, 60, 60.0625, 60.125, 60.464287, 60.535713, 60.535713, 60.642857, 60.916668, 60.785713, 60.714287, 60.330357, 60.25, 60.125, 60.0625, 60.214287
-10, -10, -10, -10, -10, -10, -10, -10, -10, -10, -10, -10, -10, -10, -10, -10, -10, -10, -10, -10, -10, -10, -10, -10, -10, -10, -10, -10, -10, -10, -10, -10, 79.25, 78.650002, 78.065475, 77.392853, 77.008926, 76.3125, 75.386902, 74.714279, 74.125, 73.508926, 73.035713, 72.541664, 72.133926, 71.273811, 70.440475, 69.8125, 68.904755, 67.875, 67.25, 66.75, 66.1875, 65.404762, 64.556549, 63.821426, 63.071426, 62.49107, 62.0625, 61.625, 61.267857, 61, 61, 60.964287, 61.125, 61.083332, 61, 60.833332, 60.714287, 60.785713, 60.785713, 60.92857, 61, 61.07143, 61.458332, 61.583332, 61.32143, 61.125, 61.0625, 60.785713, 61.15625, 61.21875, 61.28125, 61.464287, 61.42857, 61.357143, 61.25, 61.17857, 61.142857, 61.107143, 60.875, 61.07143, 61, 61, 60.8125, 60.9375, 61.0625, 61.1875, 61.42857, 61.5, 61.5, 61.464287, 61.32143, 61, 60.875, 60.875, 60.9375, 60.875, 60.875, 60.8125, 61.07143, 61, 61.166668, 61.166668, 61.083332, 61.015308, 60.964287, 60.857143, 60.642857, 60.527782, 60.638885, 60.624149, 60.714287, 60.709824, 60.73661, 61.075893, 61.120537, 61.434525, 61.333332, 61.291668, 61.142857, 61.0625, 61.1875, 61.25, 61.3125, 61.25, 61.125, 61.125, 61.316326, 61.314289, 61.530613, 61.459187, 61.392857, 61.32143, 61.0625, 60.9375, 60.875, 60.75, 60.6875, 60.75, 60.857143, 60.875, 60.9375, 60.9375, 60.9375, 61, 61.214287, 61.214287, 61, 60.714287, 61.116074, 61.419643, 61.658165, 61.857143, 61.82143, 61.642857, 61.642857, 61.607143, 61.57143, 61.67857, 61.4375, 61.4375, 61.142857, 61.107143, 61.214287, 61.25, 61.142857, 60.964287, 61.089287, 61, 61.132656, 61.194447, 61.17857, 61.17857, 61.346943, 61.464287, 61.535713, 61.622448, 61.683674, 61.540813, 61.57143, 61.57653, 61.642857, 61.75, 61.642857, 61.57143, 61.57143, 61.5, 61.5, 61.42857, 61.42857, 61.5, 61.642857, 61.67347, 61.446938, 61.116074, 60.991074, 61, 60.9375, 60.8125, 61.010201, 60.943878, 60.964287, 61.17857, 61.357143, 61.464287, 61.464287, 61.285713, 61.32143, 61.357143, 61.285713, 61.559525, 61.541668, 61.219387, 61.17857, 60.875, 60.9375, 61.0625, 61, 61.214287, 61.035713, 61, 61.208332, 61.226192, 61.112244, 61.035713, 60.875, 60.839287, 60.714287, 61.169643, 61.464287, 61.464287, 61.1875, 61, 60.714287, 60.857143, 60.92857, 61.080357, 61.071426, 61.285713, 61.17857, 61.17857, 60.892857, 60.354168, 60.510201, 60.729591, 61, 61.17857, 61.25, 61.142857, 60.964287, 60.892857, 60.892857, 61, 61.107143, 61.541668, 61.535713, 61.607143, 61.607143, 61.112499, 61.32653, 61.318367, 61.336735, 61.3125, 61.303574, 61.125, 61.125, 60.892857, 61.17857, 61.25, 61.285713, 61.392857, 61.3125, 61.348213, 61.205357, 61.205357, 61.301022, 60.901787, 60.875, 60.75, 61.142857, 61.132656, 60.976192, 60.972786, 61.377552, 61.709187, 61.969387, 61.903057, 61.775513, 61.916668, 61.57143, 61.375, 61.375, 61.3125, 61.25, 60.857143, 60.785713, 60.714287, 61, 61.0625, 61.125, 61.32143, 61.357143, 61.42857, 61.5, 61.535713, 61.3125, 61.205357, 61.1875, 61.32143, 61.357143, 61.285713, 61.285713, 61.125, 61.42857, 61.833332, 62, 62.083332, 62.083332, 61.958332, 61.833332, 61.708332, 61.583332, 61.392857, 61.5, 61.523808, 61.333336, 61.295918, 61.301022, 61.0625, 61.125, 61.1875, 61.125, 61.5, 61.5, 61.5, 61.42857, 61.57143, 61.642857, 61.5625, 61.583332, -10, -10, -10, -10, -10, -10, -10, -10, -10, -10, -10, -10, -10, -10, -10, -10, -10, -10, -10, -10, -10, -10, -10, -10, -10, -10, -10, -10, -10, -10, -10, -10, -10, -10, -10, -10, -10, -10, -10, -10, -10, -10, -10, -10, -10, -10, -10, -10, -10, -10, -10, -10, -10, -10, -10, -10, -10, 78.875, 78.400002, 77.994049, 77.508926, 77.178574, 76.383926, 75.40477, 74.714279, 74.125, 73.580353, 73.14286, 72.541664, 72.133926, 71.440483, 70.583328, 69.946426, 68.791664, 67.916664, 67.3125, 66.767853, 66.125, 65.279762, 64.386902, 63.75, 63.125, 62.660713, 62.3125, 62.0625, 61.9375, 61.875, 61.875, 61.916668, 61.958332, 61.916668, 62.07143, 61.857143, 61.5625, 61.5625, 61.625, 61.8125, 62.214287, 62.285713, 62.357143, 62.42857, 62.32143, 62.25, 62.17857, 62.333332, 62.267857, 62.410713, 62.55357, 62.517857, 62.464287, 62.392857, 62.32143, 62.32143, 62.32143, 62.285713, 62, 62, 61.9375, 61.9375, 61.75, 61.806122, 62.089287, 62.1875, 62.125, 62.25, 62.25, 62.25, 62.42857, 62.32143, 62.214287, 62.107143, 62.107143, 61.8125, 62, 62.035713, 62.17857, 62.17857, 62.214287, 62.214287, 62.17857, 61.765308, 61.9375, 61.8125, 61.785713, 61.523811, 61.690472, 61.850342, 61.92857, 62.168369, 62.091839, 62.301022, 62.224487, 62.122448, 62.07143, 62.035713, 62.07143, 62.107143, 62.142857, 62.25, 62.1875, 62.1875, 62.053574, 61.924999, 62.346943, 62.336735, 62.464287, 62.125, 62.0625, 62, 61.9375, 61.875, 61.75, 61.6875, 61.625, 61.625, 61.836735, 61.816326, 62.086735, 62.122448, 62.17857, 62.5, 62.0625, 62.125, 62.666668, 62.625, 62.367348, 62.419643, 62.419643, 62.625, 62.6875, 62.5625, 62.5625, 62.5, 62.4375, 62.714287, 62.642857, 62.67857, 62.875, 62.916668, 63, 62.916668, 62.791668, 62.666668, 62.392857, 62.357143, 62.357143, 62.285713, 62.214287, 62.25, 62.25, 62.32143, 62.42857, 62.535713, 62.410713, 62.375, 62.339287, 62.348213, 62.57143, 62.714287, 62.5, 62.4375, 62.4375, 62.107143, 62.25, 62.15625, 62.125, 62.1875, 62.607143, 62.67857, 62.602043, 62.42857, 62.214287, 62.142857, 62.107143, 62.142857, 62, 61.919643, 61.875, 61.9375, 62.107143, 62.1875, 62.357143, 62.0625, 62, 62.17857, 62.17857, 62.265308, 62.285713, 62.234692, 62.142857, 61.8125, 61.8125, 61.875, 61.8125, 61.875, 61.75, 62.07143, 62.17857, 62.336735, 62.190475, 62.07143, 62.154762, 61.969387, 62.208332, 62.193878, 62.285713, 62.357143, 62.32143, 62.285713, 62.625, 62.666668, 62.708332, 62.25, 62.1875, 62.32143, 62.214287, 62.214287, 62.07143, 61.809528, 61.7551, 61.846943, 61.964287, 62.07143, 62.142857, 62.07143, 61.92857, 61.857143, 61.857143, 62, 62.142857, 62.464287, 62.642857, 62.67857, 62.607143, 62.200001, 62.008926, 62.066071, 62.080357, 62.25, 62.178574, 61.714287, 61.785713, 61.714287, 61.857143, 62.1875, 62.1875, 62.25, 62.392857, 62.1875, 62.285713, 62.0625, 61.982143, 61.839287, 61.875, 61.875, 62.0625, 62.316326, 62.309528, 62.28231, 62.330357, 62.589287, 62.785713, 62.696426, 62.816326, 62.785713, 62.642857, 62.607143, 62.57143, 62.5, 62.5, 62.666668, 62.625, 62.583332, 62.285713, 62.285713, 62.125, 61.92857, 62, 62.07143, 62.142857, 62.17857, 62.348213, 62.098213, 62.260201, 62.214287, 62.32143, 62.285713
-10, -10, -10, -10, -10, -10, -10, -10, -10, -10, -10, -10, -10, -10, -10, -10, -10, -10, -10, -10, -10, -10, -10, -10, -10, -10, -10, -10, -10, -10, -10, -10, 78.5, 78.150002, 78.035713, 77.625, 77.303574, 76.464287, 75.583328, 74.946426, 74.375, 73.830353, 73.25, 72.488091, 71.955353, 71.375, 70.645828, 70.008926, 68.854164, 68.071426, 67.383926, 66.714287, 66.017853, 65.217262, 64.369049, 63.8125, 63.34375, 63.111607, 62.96875, 62.90625, 62.9375, 63.214287, 63.285713, 63.625, 63.666668, 63.583332, 63.17857, 63, 62.892857, 62.6875, 63.035713, 63.214287, 63.392857, 63.392857, 63.25, 63.3125, 63.21875, 63.21875, 63.42857, 63.392857, 63.464287, 63.57143, 63.67857, 63.4375, 63.375, 63.3125, 63.25, 63.464287, 63.42857, 63.32143, 63.214287, 63.07143, 63, 63.07143, 63.416668, 63.422619, 63.2449, 63.25, 63, 63.1875, 63.1875, 63.3125, 63.535713, 63.42857, 63.32143, 63.142857, 63.07143, 62.92857, 62.92857, 63.07143, 63.17857, 63.214287, 63.25, 63, 62.9375, 63.375, 63.142857, 63.015308, 62.690479, 62.591835, 62.714287, 62.82653, 63, 63.239799, 63.183674, 63.275509, 62.991074, 63, 63, 63, 62.9375, 62.9375, 62.9375, 63.25, 63.285713, 63.25, 62.928574, 62.799999, 62.991074, 62.982143, 63.125, 63.0625, 63, 62.875, 62.75, 62.82143, 62.714287, 62.75, 62.75, 62.785713, 62.669643, 62.714287, 62.919643, 63.158165, 63.142857, 63.214287, 63.142857, 63.214287, 63.357143, 63.285713, 63.209187, 63.285713, 63.25, 63.1875, 63.42857, 63.42857, 63.5, 63.57143, 63.642857, 63.714287, 63.607143, 63.67857, 63.714287, 63.75, 63.892857, 63.785713, 63.714287, 63.642857, 63.607143, 63.57143, 63.464287, 63.125, 63, 62.9375, 63, 63.0625, 63.125, 63.1875, 63.1875, 63.392857, 63.214287, 63.348213, 63.375, 63.5, 63.714287, 63.642857, 63.642857, 63.791668, 63.25, 63.28125, 63, 63.357143, 63.354164, 63.591835, 63.57143, 63.57143, 63.464287, 63.392857, 63.32143, 63.285713, 63.214287, 63.122448, 62.964287, 62.875, 63.107143, 63.1875, 63.125, 63.17857, 62.8125, 62.875, 63, 63.125, 63.125, 63, 62.875, 63.035713, 63.035713, 62.8125, 62.8125, 62.875, 62.8125, 62.9375, 63, 63.285713, 63.708332, 63.726192, 63.369049, 63.275509, 63, 62.836735, 62.92857, 63.25, 63.42857, 63.464287, 63.57143, 63.57143, 63.642857, 63.5, 63.32143, 63.214287, 63.07143, 63.07143, 63.107143, 63, 62.92857, 63.035713, 62.875, 63, 63.0625, 62.9375, 62.75, 62.625, 62.625, 62.75, 62.9375, 63.25, 63.375, 63.375, 63.1875, 63.059185, 62.973213, 63.044643, 63.125, 63.357143, 63.311226, 63.166668, 63.291668, 63.333332, 63.416668, 63.32143, 63.32143, 63.392857, 63.42857, 63.357143, 63.25, 62.9375, 62.857143, 63.051022, 63.142857, 63.107143, 63.214287, 63.285713, 63.32143, 63.234692, 63.270409, 63.357143, 63.375, 63.5625, 63.625, 63.625, 63.714287, 63.67857, 63.642857, 63.535713, 63.535713, 63.5, 63.5, 63.57143, 63.5, 63.392857, 63.285713, 63.458332, 63.5, 63.583332, 63.666668, 63.75, 63.5051, 63.142857, 63.008926, 62.9375, 63.035713, 63.142857, 63.214287, 63.285713, 63.42857, 63.5, 63.625, 63.625, 63.625, 63.5, 63.5, 63.4375, 63.3125, 63.375, 63.375, 63.375, 63.4375, 63.607143, 63.57143, 63.607143, 63.607143, 63.57143, 63.535713, 63.25, 63.1875, 63.25, 63.25, 63.375, 63.714287, 63.7551, 63.809528, -10, -10, -10, -10, -10, -10, -10, -10, -10, -10, -10, -10, -10, -10, -10, -10, -10, -10, -10, -10, -10, -10, -10, -10, -10, -10, -10, -10, -10, -10, -10, -10, -10, -10, -10, -10, -10, -10, -10, -10, -10, -10, -10, -10, -10, -10, -10, -10, -10, -10, -10, -10, -10, -10, -10, -10, -10, 78.25, 78.25, 78.116074, 77.75, 77.303574, 76.410713, 75.75, 75.142853, 74.5625, 73.955353, 73.321426, 72.404762, 71.741074, 71.089287, 70.479164, 69.883926, 68.9375, 67.988091, 67.330353, 66.651787, 66.017853, 65.276787, 64.723213, 64.34375, 64.0625, 63.892857, 64.035713, 64.035713, 64.071426, 64.14286, 64.285713, 64.39286, 64.39286, 64.39286, 64.25, 64.178574, 64.178574, 64.10714, 64.178574, 64.214287, 64.25, 64.214287, 64.178574, 64.0625, 64.09375, 64.39286, 64.464287, 64.535713, 64.571426, 64.64286, 64.714287, 64.64286, 64.60714, 64.571426, 64.464287, 64.464287, 64.35714, 64.214287, 64.14286, 64.035713, 64, 64.071426, 64.285713, 64.32653, 64.352043, 64.39286, 64.25, 64.428574, 64.428574, 64.464287, 64.535713, 64.464287, 64.428574, 64.321426, 63.9375, 63.8125, 63.75, 63.875, 63.9375, 63.875, 63.9375, 63.875, 64.14286, 64.285713, 64.214287, 64.051018, 63.541668, 63.455357, 63.5625, 63.723213, 64.071426, 64.053574, 64.053574, 64.0625, 63.9375, 64.071426, 64.10714, 64.10714, 64.14286, 64.0625, 64.0625, 64.0625, 64.0625, 64, 63.928574, 63.55714, 63.775513, 63.765308, 64.0625, 64.14286, 64.035713, 63.92857, 63.92857, 63.857143, 63.785713, 63.857143, 63.785713, 63.867344, 64.01429, 63.816326, 64.015305, 63.979591, 63.8125, 64, 64, 64.125, 64.3125, 64, 64.089287, 64.0625, 63.9375, 63.9375, 64, 64, 64.125, 64.464287, 64.60714, 64.714287, 64.4375, 64.5, 64.5, 64.5, 64.5625, 64.4375, 64.375, 64.375, 64.571426, 64.60714, 64.5, 64.25, 64.035713, 63.6875, 63.75, 63.8125, 63.875, 64, 64, 64.0625, 64.25, 64.25, 64.285713, 64.428574, 64.60714, 64.64286, 64.714287, 64.678574, 64.535713, 64.571426, 64.791664, 64.622452, 64.354164, 64.424103, 64.4375, 64.4375, 64.5, 64.39286, 64.285713, 64.214287, 64.14286, 64.061226, 63.92857, 63.964287, 64.132652, 64.178574, 63.9375, 63.75, 63.625, 63.6875, 63.848213, 64, 64.0625, 64, 64, 64.178574, 64.10714, 63.892857, 63.82143, 63.82143, 63.785713, 63.964287, 63.964287, 64.10714, 64.321426, 64.443878, 64.404762, 64.331627, 64.5, 64.5, 64.416664, 64.35714, 64.25, 64.25, 64.375, 64.3125, 64.5, 64.39286, 64, 63.875, 63.8125, 63.875, 64.25, 64.214287, 64.071426, 64.035713, 63.92857, 64.071426, 64.178574, 64.14286, 64.10714, 63.75, 63.857143, 63.6875, 63.964287, 64.14286, 64.0625, 64.09375, 64, 63.901787, 63.982143, 64.311226, 64.346939, 64.050003, 64.169647, 64.122452, 64.214287, 64.178574, 64.14286, 64.25, 64.219383, 64.17347, 64.25, 64.10714, 63.9375, 63.8125, 64.010201, 64.228569, 64.188774, 64.188774, 64.14286, 64, 64.0625, 64.01786, 64.08036, 64.1875, 64.3125, 64.375, 64.571426, 64.571426, 64.571426, 64.571426, 64.571426, 64.25, 64.25, 64.3125, 64.375, 64.714287, 64.678574, 64.571426, 64.39286, 64.285713, 64.285713, 64.35714, 64.428574, 64.571426, 64.57653, 64.377548, 64.071426, 63.714287, 64.098213, 63.785713
-10, -10, -10, -10, -10, -10, -10, -10, -10, -10, -10, -10, -10, -10, -10, -10, -10, -10, -10, -10, -10, -10, -10, -10, -10, -10, -10, -10, -10, -10, -10, -10, 78, 78, 77.875, 77.625, 77.1875, 76.526787, 76.017853, 75.5, 74.883926, 74.122025, 73.5, 72.351189, 71.60714, 70.910713, 70.4375, 69.883926, 69.083336, 68.130951, 67.455353, 66.714287, 66.098213, 65.455353, 65.017853, 64.78125, 64.6875, 64.964287, 65, 65.10714, 64.875, 65, 65.1875, 65.28125, 65.34375, 65.28125, 65.09375, 65.285713, 65.25, 65.214287, 65.25, 64.9375, 64.9375, 64.9375, 64.9375, 65, 65.03125, 65.339287, 65.339287, 65.410713, 65.5, 65.535713, 65.571426, 65.464287, 65.464287, 65.535713, 65.535713, 65.3125, 65.125, 65, 64.9375, 64.9375, 64.9375, 64.9375, 65.0625, 65.035713, 65.089287, 65.35714, 65.35714, 65.535713, 65.571426, 65.34375, 65.34375, 65.21875, 65.1875, 65.0625, 64.875, 65, 64.821426, 64.964287, 64.8125, 64.75, 64.875, 64.8125, 65.035713, 65, 65, 64.919647, 64.940475, 64.948982, 64.89286, 65, 64.8125, 64.75, 64.75, 64.85714, 64.89286, 65.071426, 65.14286, 65.214287, 65.285713, 65.35714, 65.35714, 65.321426, 65.35714, 65.0625, 65.17347, 65.366669, 65.452385, 65.488098, 65.285713, 65.10714, 64.841835, 64.5, 64.678574, 64.75, 64.908165, 65.035713, 64.5, 65.117348, 65.300003, 65.051018, 64.919647, 64.586739, 64.535713, 64.9375, 65.214287, 65.321426, 65.428574, 65.666664, 65.321426, 65.0625, 64.9375, 64.8125, 64.875, 64.9375, 65.125, 65.3125, 65.4375, 65.714287, 65.571426, 65.5, 65.25, 65.1875, 65.25, 65, 65, 65.25, 65.3125, 65.375, 65.25, 65.0625, 64.875, 64.598213, 64.663261, 64.581627, 64.446426, 64.833336, 64.991074, 65.125, 65.125, 64.85714, 65.0625, 65.125, 65.3125, 65.3125, 65.375, 65.375, 65.464287, 65.51786, 65.571426, 65.551018, 65.369041, 65.431122, 65.5, 65.60714, 65.571426, 65.5, 65.1875, 64.85714, 64.785713, 64.714287, 64.875, 65.071426, 64.875, 64.8125, 64.6875, 64.5625, 64.4375, 64.5, 64.897957, 65, 65.071426, 65.035713, 65.178574, 65.178574, 65.10714, 65, 64.6875, 64.6875, 64.464287, 64.8125, 64.8125, 65, 65.1875, 65.294647, 65.166672, 65.255104, 65.14286, 65.14286, 65.071426, 65.178574, 65.214287, 65, 65.125, 65.0625, 65.125, 65.125, 65, 64.64286, 64.875, 65.071426, 65.25, 65.25, 65.214287, 65.25, 64.833336, 65.285713, 65.35714, 65.35714, 65.35714, 65.214287, 65.061226, 64.821426, 64.6875, 64.75, 64.875, 64.96875, 64.875, 65.030617, 65.331627, 65.612251, 65.357147, 64.944901, 65.241074, 65.107147, 65.125, 64.964287, 64.89286, 65.1875, 65.125, 65.026787, 65.0625, 64.714287, 64.64286, 64.833336, 65.224487, 65.442856, 65.403061, 65.133926, 64.785713, 64.785713, 65.0625, 65.125, 65.125, 65.35714, 65.39286, 65.21875, 65.28125, 65.28125, 65.25, 65.25, 65.25, 65.1875, 65.25, 65.3125, 65.375, 65.64286, 65.571426, 65.5, 65.1875, 65.1875, 65.25, 65.3125, 65.375, 65.5, 65.473213, 65.438774, 65.255104, 65.333336, 65.219383, 65.5, 65.464287, 65.25, 65.339287, 65.64286, 65.330353, 65.64286, 65.5, 65.5, 65.535713, 65.535713, 65.5, 65.571426, 65.571426, 65.571426, 65.60714, 65.535713, 65.535713, 65.3125, 65.3125, 65.3125, 65.3125, 65.535713, 65.535713, 65.60714, 65.64286, 65.647957, 65.392853, 65.385712, -10, -10, -10, -10, -10, -10, -10, -10, -10, -10, -10, -10, -10, -10, -10, -10, -10, -10, -10, -10, -10, -10, -10, -10, -10, -10, -10, -10, -10, -10, -10, -10, -10, -10, -10, -10, -10, -10, -10, -10, -10, -10, -10, -10, -10, -10, -10, -10, -10, -10, -10, -10, -10, -10, -10, -10, -10, -10, 78, 78, 77.8125, 77.5, 77.017853, 76.517853, 76.0625, 75.5625, 74.964287, 74.229164, 73.5625, 72.297615, 71.5, 70.785713, 70.25, 69.705353, 69.125, 68.255951, 67.642853, 66.946426, 66.348213, 65.830353, 65.625, 65.566963, 65.625, 65.8125, 65.8125, 65.90625, 65.875, 65.875, 66.0625, 66.09375, 66.321426, 66.35714, 66.178574, 66.214287, 66, 65.9375, 66, 65.875, 65.8125, 65.8125, 65.8125, 66.035713, 66.10714, 66, 66.0625, 66.1875, 66.3125, 66.375, 66.3125, 66.1875, 66.1875, 66.1875, 66.1875, 66.125, 65.9375, 66.071426, 66.14286, 66.25, 66.25, 66.214287, 66, 65.9375, 66.0625, 66.39286, 66.464287, 66.64286, 66.64286, 66.535713, 66.21875, 66.09375, 66.18367, 65.994896, 66, 66.051018, 66, 66.178574, 66.178574, 66.10714, 66.10714, 66, 66, 65.8125, 65.9375, 66.132652, 66.095238, 66.153061, 66, 66.10714, 65.8125, 65.39286, 65.464287, 65.428574, 65.6875, 65.875, 66, 66.125, 66.571426, 66.612244, 66.448982, 66.295914, 66.214287, 66.10714, 66.14286, 66.214287, 66.214287, 66.285713, 66.178574, 65.8125, 65.642853, 65.321426, 65.377548, 65.464287, 66.265305, 66.285713, 66.416664, 66.224487, 66.26429, 65.85714, 65.877548, 66.125, 66.083336, 66.10714, 66.10714, 66.25, 66.39286, 66.428574, 66.35714, 66.285713, 66.14286, 66, 66, 66.035713, 66.214287, 66.464287, 66.571426, 66.64286, 66.535713, 66.169647, 66.050003, 66.116074, 66.178574, 66.666664, 66.666664, 66.25, 66.3125, 66.375, 66.1875, 66.214287, 66.035713, 65.82653, 65.580353, 65.260201, 65.331627, 65.986115, 66.43367, 66.333328, 66.260201, 66.428566, 66.1875, 66.1875, 66.25, 66.125, 66.1875, 66.1875, 66.1875, 66.3125, 66.375, 66.357147, 66.166664, 66.142853, 66.285713, 66.321426, 66.285713, 66.285713, 66.35714, 66.458336, 66.416664, 66.333336, 66, 65.875, 65.848213, 65.642853, 65.541664, 65.583336, 65.616074, 65.428574, 65.612244, 65.9375, 65.9375, 65.875, 66.178574, 65.9375, 65.8125, 65.85714, 65.785713, 65.785713, 66.125, 65.928574, 65.89286, 65.964287, 66.071426, 66.25, 66.125, 66.0625, 66, 66, 66, 65.85714, 65.85714, 65.991074, 65.862503, 65.928574, 65.919647, 65.9375, 66.071426, 66.291664, 66.14286, 66.14286, 66.25, 66.178574, 66.178574, 66.285713, 66.5, 66.464287, 66.464287, 66.428574, 66.464287, 66.35714, 66.275513, 65.75, 65.5, 65.5, 65.571426, 65.90625, 66.071426, 66.051018, 66.306129, 66.617348, 66.898811, 66.854767, 66.525513, 66.408165, 66.39286, 66.708336, 66.666664, 66.428574, 66.35714, 66.244896, 66.25, 66.416664, 66.333336, 66.333336, 66.224487, 66.407143, 66.295914, 66.188774, 66.25, 66.208336, 66.14286, 66.285713, 66.285713, 66.39286, 66.15625, 66.15625, 66.21875, 66.21875, 66.1875, 66.1875, 66.25, 66.39286, 66.464287, 66.535713, 66.60714, 66.4375, 66.375, 66.3125, 66.428574, 66.428574, 66.5, 66.535713, 66.571426, 66.64286, 66.64286, 66.535713, 66.464287, 66.428574, 66.448982, 66.5
-10, -10, -10, -10, -10, -10, -10, -10, -10, -10, -10, -10, -10, -10, -10, -10, -10, -10, -10, -10, -10, -10, -10, -10, -10, -10, -10, -10, -10, -10, -10, -10, 78, 78, 77.8125, 77.491074, 76.872025, 76.375, 75.9375, 75.4375, 74.839287, 74.166664, 73.616074, 72.476189, 71.741074, 70.964279, 70.258926, 69.660713, 69.125, 68.372025, 67.946426, 67.4375, 67.017853, 66.616074, 66.5, 66.905617, 66.700897, 67.125, 66.84375, 67.10714, 67.14286, 66.833336, 67.321426, 67.09375, 67.15625, 67.21875, 67.09375, 67.125, 67.0625, 66.875, 66.875, 66.964287, 67, 67.071426, 66.928574, 66.806122, 66.5625, 66.5625, 66.6875, 66.9375, 67.1875, 67.5, 67.3125, 67.1875, 67.1875, 67.1875, 67.1875, 67.125, 67.25, 67.285713, 67.35714, 67.5, 67.5, 67.35714, 67.25, 67.14286, 67.25, 67.25, 67.375, 67.64286, 67.553574, 67.375, 67.03125, 67.03125, 67.035713, 66.67347, 67, 67.044647, 67.178574, 67.25, 67.25, 67.214287, 67.25, 67.214287, 66.9375, 66.875, 67.071426, 67.035713, 67.178574, 67.321426, 67.25, 67.35714, 67.25, 67.375, 67.333336, 67.166664, 66.75, 66.875, 67.14286, 67.35714, 67.535713, 67.469383, 67.142853, 66.946426, 66.875, 66.8125, 66.9375, 67.0625, 67.125, 67.25, 67.0625, 66.8125, 66.841835, 67.125, 67.380951, 67.583336, 67.443878, 67.39286, 67.35714, 67.32653, 67.137497, 66.5, 66.484695, 67.035713, 67.035713, 67.178574, 67, 67.125, 67.1875, 67.1875, 67.125, 67.285713, 67.178574, 67.14286, 67.071426, 67.14286, 67.321426, 67.5, 67.60714, 67.4375, 67.375, 67.232147, 67.112503, 67.418373, 67.454086, 67.571426, 67.5, 67.39286, 67.35714, 67.39286, 67.321426, 67.285713, 67.25, 67.040817, 66.877548, 67.047615, 67.214287, 67.597221, 67.57653, 67.583328, 67.220238, 67.178566, 67.64286, 67.535713, 67.5, 67.0625, 67.125, 67.125, 67.125, 67.3125, 67.3125, 67.3125, 67.3125, 67.25, 67.125, 66.89286, 66.821426, 67.0625, 67.464287, 67.35714, 67.35714, 67.285713, 67.14286, 67.14286, 66.969383, 66.517853, 66.479164, 66.952385, 67.132652, 67.458336, 67.523811, 67.285713, 67.0625, 67, 67, 66.875, 66.6875, 66.625, 66.821426, 66.821426, 67.035713, 67, 67.071426, 67.14286, 67.14286, 67.178574, 67.071426, 67.071426, 67.071426, 67.14286, 67.25, 67.583336, 67.625, 67.204086, 66.800003, 67.025513, 66.908165, 67.071426, 67.14286, 67.285713, 67.39286, 67.35714, 67.25, 67.160713, 67.017853, 67.260201, 67.214287, 67.321426, 67.285713, 67.0625, 67.125, 67.0625, 67.204086, 67.208336, 67.25, 67.291664, 67.416664, 67.303574, 67.25, 66.9375, 67.026787, 67.200897, 67.520409, 67.518372, 67.459183, 67.489799, 67.428574, 67.60714, 67.571426, 67.464287, 67.408157, 67.336739, 67.285713, 67.25, 67.214287, 67.14286, 66.946426, 67.074997, 66.946426, 66.883926, 67.071426, 67.14286, 67.321426, 67.428574, 67.125, 67.205353, 67.28125, 67.428574, 67.535713, 67.464287, 67.428574, 67.5, 67.64286, 67.678574, 67.75, 67.64286, 67.60714, 67.571426, 67.5, 67.5, 67.39286, 67.428574, 67.5, 67.64286, 67.714287, 67.75, 67.75, 67.60714, 67.571426, 67.571426, 67.571426, 67.64286, 67.785713, 67.75, 67.765305, 67.785713, 67.581627, 67.64286, 67.464287, 67.1875, 67.1875, 67.1875, 67.25, 67.3125, 67.571426, 67.3125, 67.3125, 67.285713, 67.25, 67.622452, 67.571426, 67.714287, 67.64286, 67.678574, 67.714287, 67.714287, 67.625, 67.723213, 67.595238, 67.85714, -10, -10, -10, -10, -10, -10, -10, -10, -10, -10, -10, -10, -10, -10, -10, -10, -10, -10, -10, -10, -10, -10, -10, -10, -10, -10, -10, -10, -10, -10, -10, -10, -10, -10, -10, -10, -10, -10, -10, -10, -10, -10, -10, -10, -10, -10, -10, -10, -10, -10, -10, -10, -10, -10, -10, -10, -10, -10, 78.125, 78.050003, 77.767853, 77.366074, 76.747025, 76.25, 75.8125, 75.375, 74.767853, 73.875, 73.294647, 72.455353, 71.8125, 70.988091, 70.330353, 69.723213, 69.25, 68.705353, 68.125, 67.857147, 67.755356, 67.588432, 67.564285, 67.841843, 67.790817, 68.14286, 68.14286, 68.25, 68.464287, 68.630951, 68.42347, 68.535713, 68.540817, 68.535713, 68.306122, 68.214287, 68.035713, 67.89286, 68.035713, 68, 68.071426, 68.10714, 67.75, 67.705353, 67.39286, 67.35714, 67.428574, 67.64286, 68.35714, 68.428574, 68.35714, 68.178574, 68.178574, 68.214287, 68.321426, 68.321426, 68.285713, 68.285713, 68.35714, 68.535713, 68.535713, 68.428574, 68.25, 68.153061, 68.39286, 68.5, 68.678574, 68.375, 68.25, 68.0625, 67.946426, 68.452385, 68.448982, 68.684525, 68.464287, 68.372452, 68.35714, 68.39286, 68.39286, 68.464287, 68.464287, 68.35714, 68.071426, 67.887756, 67.89286, 67.6875, 67.875, 68, 68.178574, 68.35714, 68.428574, 68.428574, 68.285713, 68.071426, 67.964287, 67.964287, 68.10714, 68.285713, 68.1875, 68.098213, 67.955353, 67.821426, 67.8125, 67.8125, 67.9375, 68.285713, 68.35714, 68.39286, 68.178574, 67.964287, 67.867348, 68.035713, 68.290817, 68.535713, 68.632652, 68.3125, 68.25, 68.125, 68, 68.208336, 68.178566, 67.90625, 67.90625, 68.03125, 68.25, 68.321426, 68.1875, 68.125, 68.0625, 68.0625, 68, 68.285713, 68.0625, 68.35714, 68.464287, 68.3125, 68.571426, 68.571426, 68.535713, 68.479591, 68.414284, 68.489799, 68.454086, 68.571426, 68.3125, 68.25, 68.25, 68.25, 68.428574, 68.428574, 68.428574, 68.306122, 68.224487, 68.18367, 68.32653, 68.619049, 68.724495, 68.690475, 68.880951, 68.880951, 68.821426, 68.714287, 68.64286, 68.39286, 68.321426, 68.25, 68.178574, 68.39286, 68.464287, 68.535713, 68.60714, 68.5, 68.25, 68.178574, 68.178574, 68.0625, 68.428574, 68.25, 68.25, 68.125, 68.178574, 68.214287, 68.07653, 67.877548, 67.904762, 68.095238, 68.204086, 68.285713, 68.285713, 68.25, 68.214287, 68.214287, 68.178574, 68.14286, 67.5, 67.875, 67.875, 67.875, 68.0625, 68.14286, 68.214287, 68.178574, 67.875, 67.767853, 67.642853, 68.059525, 68.204086, 68.35714, 68.428574, 68.5, 68.5, 68.275513, 67.98571, 67.989799, 67.776787, 67.919647, 68, 68.0625, 68.321426, 68.35714, 68.5, 68.469383, 68.142853, 68.196426, 68.125, 68.125, 68, 67.9375, 68, 68, 67.991074, 68.071426, 68.071426, 68.10714, 68.214287, 68.321426, 68.285713, 68.14286, 67.964287, 68.044647, 68.178574, 68.241074, 68.125, 68.25, 68.125, 68.3125, 68.3125, 68.125, 68.151787, 68.1875, 68.125, 68.125, 68, 67.875, 67.875, 67.875, 67.875, 67.8125, 67.8125, 67.875, 68.0625, 68.1875, 68.125, 68.448982, 68.553574, 68.48214, 68.51786, 68.375, 68.285713, 68.428574, 68.64286, 68.75, 68.85714, 68.714287, 68.4375, 68.535713, 68.428574, 68.35714, 68.214287, 68.0625, 68.1875, 68.571426, 68.714287, 68.785713, 68.785713, 68.678574, 68.64286, 68.64286, 68.64286, 68.60714
-10, -10, -10, -10, -10, -10, -10, -10, -10, -10, -10, -10, -10, -10, -10, -10, -10, -10, -10, -10, -10, -10, -10, -10, -10, -10, -10, -10, -10, -10, -10, -10, 78.166664, 77.925003, 77.663689, 77.241074, 76.559525, 76.0625, 75.5625, 75.25, 74.696426, 73.791672, 73.151787, 72.446426, 71.776779, 70.988091, 70.330353, 69.785713, 69.4375, 69.0625, 68.464287, 68.408165, 69.128571, 68.356285, 68.367859, 68.645409, 68.55867, 69.125, 69.39286, 69.464287, 69.678574, 69.612244, 69.56633, 69.678574, 69.647957, 69.64286, 69.413261, 69.25, 68.875, 69, 69.178574, 69.178574, 69.178574, 69.10714, 68.928574, 68.877548, 69.125, 69.208336, 69.208336, 69.333336, 69.321426, 69.3125, 69.035713, 68.89286, 68.89286, 69.39286, 69.464287, 69.464287, 69.464287, 69.1875, 69.25, 69.3125, 69.25, 69.125, 69, 69.008926, 69.464287, 69.60714, 69.678574, 69.25, 69.0625, 68.875, 68.883926, 69.523811, 69.571426, 69.551018, 69.464287, 69.275513, 69.25, 69.0625, 69.125, 69.428574, 69.535713, 69.571426, 69.321426, 68.839287, 68.75, 68.6875, 68.75, 68.8125, 69.178574, 69.285713, 69.39286, 69.464287, 69.321426, 69.214287, 69.178574, 68.64286, 69.0625, 69.1875, 69.1875, 69.098213, 68.892853, 68.696426, 69, 69.071426, 69.25, 69.464287, 69.535713, 69.464287, 69.214287, 69, 68.75, 69, 69.223213, 69.375, 69.3125, 69.285713, 69.25, 69.14286, 69.071426, 69, 68.974487, 69.035713, 69.10714, 69.285713, 69.35714, 69.39286, 69.35714, 69.14286, 69, 69, 69, 69.14286, 69.14286, 69.285713, 69.428574, 69.464287, 69.60714, 69.535713, 69.464287, 69.418373, 69.385719, 69.459183, 69.241074, 69.375, 69.3125, 69.3125, 69.5, 69.5, 69.535713, 69.571426, 69.60714, 69.464287, 69.428574, 69.39286, 69.3125, 69.5, 69.544647, 69.738091, 69.755104, 69.68367, 69.714287, 69.571426, 69.428574, 69.35714, 69.35714, 69.321426, 69.03125, 69.21875, 69.28125, 69.60714, 69.75, 69.64286, 69.35714, 69.178574, 69.178574, 69.214287, 69.428574, 69.5, 69.5, 69.39286, 69.428574, 69.464287, 69.377548, 69.295914, 69.238091, 69.083336, 68.918373, 69, 69, 69.21875, 69.1875, 69.428574, 69.39286, 69.285713, 69.416664, 69.178574, 69.10714, 69.10714, 69.14286, 69.14286, 69.214287, 69.214287, 68.8125, 68.642853, 68.580353, 68.833336, 69.275513, 69.5, 69.535713, 69.375, 69.375, 69.178574, 69.242859, 68.704086, 69.112244, 68.919647, 69.10714, 69.035713, 69, 69.285713, 69.428574, 69.505104, 69.270409, 69.224487, 69.10714, 68.875, 68.75, 68.75, 69.14286, 69.336739, 69.133926, 68.895836, 68.8125, 68.8125, 68.9375, 69, 69.14286, 69.035713, 69.035713, 68.8125, 68.875, 68.9375, 68.875, 68.9375, 68.875, 68.9375, 69, 68.875, 68.9375, 69, 68.9375, 69.071426, 68.964287, 68.625, 68.625, 68.6875, 68.75, 69, 69, 69, 69.178574, 69.285713, 69.285713, 69.413261, 69.464287, 69.39286, 69.25, 69.1875, 68.928574, 69.3125, 69.5, 69.5625, 69.85714, 69.714287, 69.64286, 69.3125, 69.1875, 69.0625, 68.9375, 69, 69.125, 69.375, 69.5, 69.785713, 69.785713, 69.714287, 69.714287, 69.714287, 69.714287, 69.4375, 69.4375, 69.4375, 69.4375, 69.5, 69.64286, 69.64286, 69.60714, 69.5, 69.464287, 69.464287, 69.5, 69.535713, 69.571426, 69.464287, 69.428574, 69.397957, 69.35714, 69.586739, 69.571426, 69.714287, 69.714287, 69.714287, 69.714287, 69.714287, 69.785713, 69.553574, 69.416664, -10, -10, -10, -10, -10, -10, -10, -10, -10, -10, -10, -10, -10, -10, -10, -10, -10, -10, -10, -10, -10, -10, -10, -10, -10, -10, -10, -10, -10, -10, -10, -10, -10, -10, -10, -10, -10, -10, -10, -10, -10, -10, -10, -10, -10, -10, -10, -10, -10, -10, -10, -10, -10, -10, -10, -10, -10, -10, -10, -10, 77.900002, 77.726189, 77.328568, 76.583328, 76, 75.5625, 75.294647, 74.696426, 73.791672, 73.005951, 72.375, 71.758926, 71.050591, 70.455353, 70.080353, 69.875, 69.625, 69.64286, 69.946434, 70.164284, 70.426582, 70.474998, 70.696434, 70.48214, 70.42347, 70.658165, 70.811226, 70.75, 70.714287, 70.619049, 71, 70.897957, 70.785713, 70.330353, 70.1875, 70.0625, 70.214287, 70.35714, 70.35714, 70.125, 70.0625, 70.178574, 70.224487, 70.25, 70.321426, 70.285713, 70.285713, 70.35714, 70.464287, 70.708336, 70.75, 70.75, 70.5, 70.571426, 70.5, 70.428574, 70.285713, 70.214287, 70.125, 70.1875, 69.918373, 69.785713, 70.095238, 70.64286, 70.678574, 70.4375, 70.125, 69.875, 69.964287, 70.117348, 70.595238, 70.729591, 70.5, 70.375, 69.928574, 69.85714, 69.785713, 70.125, 70.428574, 70.464287, 70.5, 70.321426, 70.17347, 70.10714, 70, 69.964287, 69.75, 69.875, 69.9375, 70, 70.0625, 70, 70.214287, 70.214287, 70.416664, 70.214287, 70.25, 70.214287, 70.25, 70.178574, 70, 70.071426, 70.14286, 70.321426, 70.5, 70.535713, 70.1875, 69.9375, 69.8125, 69.8125, 70.214287, 70.1875, 70.25, 70.125, 69.9375, 69.875, 69.875, 69.875, 69.875, 69.90625, 69.90625, 70.25, 70.39286, 70.39286, 70.39286, 70.285713, 70.178574, 69.8125, 69.75, 69.8125, 69.9375, 70, 70.125, 70.1875, 70.321426, 70.428574, 70.3125, 70.3125, 70.205353, 70.205353, 70.1875, 70.25, 70.571426, 70.535713, 70.571426, 70.60714, 70.535713, 70.5, 70.464287, 70.5, 70.464287, 70.5, 70.535713, 70.535713, 70.571426, 70.571426, 70.46875, 70.53125, 70.53125, 70.5, 70.375, 70, 70.25, 70.25, 70.21875, 70.15625, 70.28125, 70.28125, 70.375, 70.5, 70.64286, 70.535713, 70.1875, 70.1875, 70.125, 70.25, 70.535713, 70.535713, 70.535713, 70.60714, 70.60714, 70.5, 70.428574, 70.35714, 70.321426, 70.583336, 70.666664, 70.666664, 70.464287, 70.5, 70.535713, 70.571426, 70.5, 70.428574, 70.39286, 70.25, 70.25, 70.0625, 70.0625, 70.1875, 70.1875, 70.214287, 69.984695, 69.948982, 70.202385, 70.418373, 70.535713, 70.25, 70.25, 70.25, 70.39286, 70.35714, 70.375, 70.122452, 70.086739, 69.9375, 69.90625, 70.03125, 70.03125, 70.09375, 70.160713, 70.017853, 70.008926, 70.214287, 69.833336, 70, 70.071426, 70.285713, 70.479591, 70.510201, 70.166672, 69.5, 69.535713, 69.678574, 69.821426, 69.821426, 69.714287, 70.25, 70.214287, 70.214287, 70.214287, 69.571426, 69.60714, 69.535713, 69.60714, 69.857147, 69.625, 69.75, 69.785713, 69.8125, 69.875, 69.8125, 69.75, 69.5, 70.10714, 70.10714, 70.10714, 70.035713, 70, 70, 70.125, 70.428574, 70.267853, 70.3125, 70.25, 70.25, 70.1875, 70.666664, 70.410713, 70.625, 70.669647, 70.517853, 70.510201, 70.39286, 70.321426, 70.0625, 70, 69.9375, 70.214287, 70.35714, 70.571426, 70.5, 70.5625, 70.5, 70.571426, 70.571426, 70.571426, 70.64286, 70.64286
-10, -10, -10, -10, -10, -10, -10, -10, -10, -10, -10, -10, -10, -10, -10, -10, -10, -10, -10, -10, -10, -10, -10, -10, -10, -10, -10, -10, -10, -10, -10, -10, -10, -10, 77.601189, 77.316666, 76.773811, 76.083336, 75.544647, 75.1875, 74.633926, 73.729172, 72.943451, 72.267853, 71.696426, 71.166664, 70.883926, 70.723213, 70.5625, 70.330353, 70.428574, 70.561226, 70.957146, 71.130951, 71.335716, 71.494896, 71.42347, 71.56633, 71.765305, 71.882652, 72.208336, 72.190475, 72.14286, 71.964287, 71.806122, 71.64286, 71.367348, 71.178574, 71.14286, 71.14286, 71.25, 71.25, 71.178574, 71.10714, 71.10714, 71.214287, 71.321426, 71.35714, 71.285713, 71.0625, 71.25, 71.428574, 71.535713, 71.64286, 71.64286, 71.60714, 71.64286, 71.571426, 71.5, 71.39286, 70.785713, 71.125, 71.428574, 71.76786, 71.75, 71.797615, 71.714287, 71.64286, 71.3125, 71, 70.8125, 71.035713, 71.18367, 71.395836, 71.482147, 71.4375, 71.3125, 71.458336, 71.375, 71.386902, 71.559525, 71.419647, 71.375, 71.205353, 71.25, 71.122452, 71.10714, 71.035713, 70.928574, 70.85714, 70.75, 70.75, 70.8125, 70.9375, 70.9375, 71.285713, 71.39286, 71.306122, 71.050003, 71.188774, 71.10714, 71.25, 71.214287, 71.14286, 71.25, 71.0625, 71.125, 71.25, 71.25, 71.125, 70.714287, 71.178574, 71.214287, 71.39286, 71.5, 71.464287, 71.1875, 71.0625, 70.714287, 71, 71.178574, 71.071426, 71.089287, 71.125, 71.26786, 71.446426, 71.25, 71.25, 71.1875, 71.1875, 71.285713, 70.678574, 71.214287, 70.9375, 71, 70.9375, 70.964287, 71.044647, 71.178574, 71.535713, 71.464287, 71.142853, 71.142853, 71.125, 71.5, 71.64286, 71.571426, 71.535713, 71.5, 71.25, 71.3125, 71.132652, 71.14286, 71.14286, 71.4375, 71.64286, 71.64286, 71.366074, 71.206253, 71.334824, 71.334824, 71.40625, 71.571426, 71.5, 71.666664, 71.5, 71.535713, 71.535713, 71.428574, 71.428574, 71.39286, 71.535713, 71.328568, 71.508926, 71.60714, 71.428574, 71.5, 71.428574, 71.377548, 71.484695, 71.464287, 71.571426, 71.714287, 71.714287, 71.64286, 71.5, 71.35714, 71.25, 71.285713, 71.428574, 71.5, 71.589287, 71.60714, 71.64286, 71.60714, 71.48214, 71.25, 71.1875, 71.0625, 71.125, 71.125, 71.25, 71.321426, 71.285713, 71.214287, 71.081627, 71.081627, 71.190475, 71.244896, 71.1875, 71.125, 71.25, 71.285713, 71.377548, 71.413261, 71.285713, 71.044647, 71.044647, 71.285713, 71.214287, 71.285713, 71.03125, 71.03125, 71.0625, 71, 71.0625, 71.25, 71.5, 71.321426, 71.464287, 71.622452, 71.59864, 71.602043, 71.273811, 71.333336, 71.375, 71.333336, 71.375, 71.5, 71.5, 71.428574, 71.464287, 71.39286, 71.39286, 71.458336, 71.375, 71.333336, 71.25, 70.943878, 70.714287, 70.821426, 70.660713, 70.75, 71.071426, 71.10714, 71.214287, 71.5, 71.35714, 71.285713, 71.31633, 71.32653, 71.14286, 71.198982, 71.214287, 71.321426, 71.428574, 71.428574, 71.464287, 71.35714, 71.39286, 71.5, 71.57653, 71.785713, 71.801018, 71.392853, 71.321426, 71, 71.1875, 71.35714, 71.321426, 71.35714, 71.428574, 71.535713, 71.64286, 71.678574, 71.714287, 71.4375, 71.375, 71.375, 71.375, 71.4375, 71.678574, 71.64286, 71.571426, 71.571426, 71.60714, 71.4375, 71.714287, 71.714287, 71.714287, 71.375, 71.401787, 71.765305, 71.765305, 71.785713, 71.916664, 71.791664, 71.75, 71.75, 71.5, 71.571426, 71.64286, 71.714287, 71.785713, 71.85714, 71.964287, 72.333336, 72.410713, 72.499992, -10, -10, -10, -10, -10, -10, -10, -10, -10, -10, -10, -10, -10, -10, -10, -10, -10, -10, -10, -10, -10, -10, -10, -10, -10, -10, -10, -10, -10, -10, -10, -10, -10, -10, -10, -10, -10, -10, -10, -10, -10, -10, -10, -10, -10, -10, -10, -10, -10, -10, -10, -10, -10, -10, -10, -10, -10, -10, -10, -10, -10, 77.645836, 77.525002, 77.117561, 76.476196, 75.669647, 75.232147, 74.642853, 73.958336, 73.157738, 72.517853, 72.017853, 71.75, 71.625, 71.660713, 71.785713, 71.401787, 71.083336, 71.104164, 71.520836, 71.834824, 72.15625, 72.34375, 72.34375, 72.67347, 72.836739, 72.918373, 72.928574, 72.85714, 72.785713, 72.64286, 72.3125, 72.25, 72.125, 72.0625, 71.85714, 71.85714, 72.125, 72, 71.875, 71.919647, 71.919647, 72, 72.0625, 72.0625, 72.321426, 72.321426, 72.125, 72.3125, 72.4375, 72.5625, 72.5, 72.571426, 72.571426, 72.5, 72.5, 72.5, 72.666664, 72.464287, 72.571426, 72.729591, 72.75, 72.785713, 72.678574, 72.3125, 72.0625, 71.875, 71.964287, 72.035713, 72.214287, 72.39286, 72.464287, 72.428574, 72.39286, 72.285713, 72.285713, 72.367348, 72.702385, 72.693878, 72.60714, 72.267853, 72.1875, 72.0625, 72, 71.9375, 71.8125, 71.8125, 71.9375, 72.10714, 72.10714, 72.178574, 72.25, 72.35714, 72.464287, 72.205353, 71.949997, 72.133926, 71.991074, 71.9375, 71.9375, 72, 72.10714, 72.10714, 71.875, 71.9375, 71.9375, 72.035713, 72.25, 72.10714, 72.25, 72.428574, 72.571426, 72.5, 72.39286, 72.214287, 72.291664, 72.178574, 72.10714, 72.10714, 72.10714, 72.178574, 72.285713, 72.321426, 72.321426, 72.25, 72.214287, 72.39286, 72.428574, 72.625, 72.428574, 72.285713, 72.285713, 71.64286, 71.67347, 72.107147, 72.209824, 72.5, 72.39286, 72.234695, 72.270409, 72.35714, 72.60714, 72.714287, 72.4375, 72.3125, 72.25, 72.1875, 72.25, 72.851189, 72.875, 72.875, 72.678574, 72.678574, 72.678574, 72.366074, 72.206253, 72.334824, 72.334824, 72.64286, 72.64286, 72.60714, 72.571426, 72.60714, 72.64286, 72.660713, 72.589287, 72.589287, 72.51786, 72.60714, 73.058334, 72.724487, 72.678574, 72.571426, 72.64286, 72.571426, 72.205353, 72.205353, 72.1875, 72.3125, 72.4375, 72.4375, 72.3125, 72.125, 72.0625, 72, 72.0625, 72.25, 72.3125, 72.64286, 72.714287, 72.714287, 72.4375, 72.25, 72.125, 72.214287, 72.10714, 72.178574, 72.285713, 72.321426, 72.39286, 72.1875, 71.964287, 72.166664, 72.39286, 72.270409, 71.9375, 72, 72.0625, 72.464287, 72.57653, 72.267853, 72.267853, 72.125, 72.178574, 72.14286, 72.178574, 72.25, 72.285713, 72.214287, 72.14286, 72, 71.964287, 72.035713, 72.10714, 72.285713, 72.428574, 72.60714, 72.729591, 72.461304, 72.464287, 72.476189, 72.35714, 72.39286, 72.428574, 72.469383, 72.5, 72.377548, 72.464287, 72.428574, 72.35714, 72.35714, 72.285713, 72.25, 72.321426, 72.321426, 72.122452, 71.785713, 71.663261, 71.540817, 71.64286, 71.928574, 72.112244, 72.35714, 72.5, 72.535713, 72.5, 72.494896, 72.505104, 72.285713, 72.234695, 71.9375, 71.9375, 72.214287, 72.321426, 72.464287, 72.35714, 72.39286, 72.25, 72.223213, 72.64286, 72.693878, 72.520409, 72.510201, 72.666664, 72.39286, 72.428574, 72.464287, 72.535713, 72.64286, 72.60714, 72.571426, 72.571426, 72.571426, 72.571426, 72.571426, 72.571426, 72.5, 72.571426, 72.64286
-10, -10, -10, -10, -10, -10, -10, -10, -10, -10, -10, -10, -10, -10, -10, -10, -10, -10, -10, -10, -10, -10, -10, -10, -10, -10, -10, -10, -10, -10, -10, -10, -10, -10, 77.729164, 77.650002, 77.242561, 76.601196, 75.794647, 75.232147, 74.642853, 74.125, 73.372025, 72.91964, 72.625, 72.321426, 72.627548, 72.790817, 72.943878, 72.852043, 71.880959, 71.797615, 72.095238, 72.616074, 72.9375, 73.1875, 73.535713, 73.693886, 73.607147, 73.741074, 73.8125, 73.5, 73.428574, 73.25, 73.071426, 73.25, 73.125, 73.0625, 73.416664, 73.333336, 72.9375, 72.875, 72.875, 72.982147, 72.982147, 72.9375, 73, 73.0625, 73.1875, 73.464287, 73.535713, 73.60714, 73.678574, 73.785713, 73.4375, 73.375, 73.3125, 73.25, 73.5, 73.535713, 73.5, 73.464287, 73.464287, 73.419647, 73.5, 73.5625, 73.4375, 73.25, 73.0625, 72.9375, 73.178574, 73.178574, 73.214287, 73.0625, 73.0625, 73.125, 73.125, 73.0625, 73.0625, 73.224487, 73.595238, 73.586739, 73.5, 73.306114, 73.214287, 73.178574, 73.0625, 73.0625, 73.214287, 73.25, 73.35714, 73.35714, 73.35714, 73.428574, 73.39286, 73.428574, 73.5, 73.377548, 73.192856, 73.331627, 73.132652, 72.8125, 72.8125, 72.723213, 72.642853, 72.666664, 72.770836, 72.866074, 72.60714, 72.75, 72.959183, 72.75, 72.9375, 73.1875, 73.3125, 73.535713, 73.5, 73.321426, 73.14286, 73.06633, 72.8125, 73.158165, 73, 73.35714, 73.1875, 73.1875, 73.1875, 72.85714, 73.39286, 73.5, 73.5, 73.464287, 73.35714, 73.285713, 73.321426, 73.416664, 73.39286, 73.301025, 73.346939, 73.28125, 73.28125, 73.174103, 73.205353, 73.5, 73.60714, 73.571426, 73.5, 73.1875, 73.1875, 73.321426, 73.35714, 73.586739, 73.60714, 73.64286, 73.678574, 73.64286, 73.64286, 73.596939, 73.432144, 73.507652, 73.436226, 73.553574, 73.571426, 73.571426, 73.64286, 73.64286, 73.571426, 73.64286, 73.571426, 73.5, 73.464287, 73.535713, 73.692856, 73.545914, 73.5, 73.35714, 73.5, 73.535713, 73.413261, 73.205353, 73.1875, 73.3125, 73.375, 73.375, 73.25, 72.785713, 73, 72.875, 72.875, 73.0625, 73.125, 73.25, 73.5, 73.428574, 73.35714, 73.125, 73.0625, 73.0625, 73, 73, 73.0625, 73.178574, 73.0625, 73.285713, 73.625, 73.708336, 73.428574, 73.080353, 72.875, 72.8125, 73.071426, 73.285713, 73.397957, 73.341835, 73.341835, 73.214287, 73.178574, 72.875, 72.9375, 73.09375, 73.15625, 73.15625, 73.375, 73.132652, 72.6875, 72.8125, 72.919647, 73.1875, 73.375, 73.75, 73.729599, 73.440475, 73.377548, 73.285713, 73.125, 73.25, 73.3125, 73.410713, 73.4375, 73.392853, 73.4375, 73.10714, 73.25, 73.125, 73.0625, 73.0625, 73.39286, 73.464287, 73.346939, 73.071426, 72.377548, 72.219383, 72.285713, 72.8125, 72.910713, 73.125, 73.25, 73.1875, 73.39286, 73.387756, 73.43367, 73.321426, 73.234688, 73, 72.785713, 72.85714, 73.25, 73.375, 73.25, 73.25, 73.25, 73.160713, 73.375, 73.419647, 73.510201, 73.612244, 73.571426, 73.535713, 73.571426, 73.60714, 73.4375, 73.714287, 73.4375, 73.375, 73.375, 73.375, 73.60714, 73.64286, 73.64286, 73.571426, 73.60714, 73.4375, 73.4375, 73.60714, 73.3125, 73.3125, 73.3125, 73.4375, 73.785713, 73.755104, 73.556114, 73.571426, 73.482147, 73.544647, 73.625, 73.5625, 73.4375, 73.4375, 73.4375, 73.375, 73.571426, 73.571426, 73.571426, 73.5, 73.5625, 73.65625, 73.8125, 74, 74.3125, 74.333336, -10, -10, -10, -10, -10, -10, -10, -10, -10, -10, -10, -10, -10, -10, -10, -10, -10, -10, -10, -10, -10, -10, -10, -10, -10, -10, -10, -10, -10, -10, -10, -10, -10, -10, -10, -10, -10, -10, -10, -10, -10, -10, -10, -10, -10, -10, -10, -10, -10, -10, -10, -10, -10, -10, -10, -10, -10, -10, -10, 78.166672, 77.729164, 77.625, 77.325897, 76.726196, 75.919647, 75.3125, 74.875, 74.375, 73.892853, 73.60714, 73.551025, 73.058929, 73.383926, 73.526787, 74.051025, 74.091835, 74.097221, 73.986107, 73.972221, 73.882652, 74.10714, 74.35714, 74.535713, 74.64286, 74.64286, 74.714287, 74.785713, 74.916664, 74.875, 74.75, 74.625, 74.428574, 74.39286, 74.285713, 74.214287, 74.071426, 74, 73.928574, 73.928574, 74.051025, 74.051025, 74.035713, 74.071426, 74.14286, 74.214287, 74.39286, 74.535713, 74.64286, 74.75, 74.714287, 74.5, 74.448975, 74.395836, 74.419647, 74.5, 74.5, 74.4375, 74.375, 74.3125, 74.3125, 74.375, 74.4375, 74.3125, 74.39286, 74.214287, 74.10714, 74.25, 74.214287, 74.285713, 74.125, 73.785713, 74.125, 74.0625, 73.9375, 74.10714, 73.821426, 74.145836, 74.232147, 74.3125, 74.205353, 74.352043, 74.35714, 74.285713, 74.35714, 74.285713, 74.35714, 74.464287, 74.464287, 74.464287, 74.428574, 74.35714, 74.39286, 74.3125, 74.438774, 74.328568, 74.32653, 74.061226, 73.821426, 73.821426, 73.660713, 73.705353, 73.511902, 73.895836, 74.204086, 74.458336, 73.875, 73.839287, 73.8125, 73.9375, 74.125, 74.1875, 74.1875, 74.1875, 74.0625, 74.017853, 73.806129, 73.761909, 74.023804, 74.234688, 74.285713, 74.285713, 74.25, 74.214287, 74.416664, 74.35714, 74.3125, 74.375, 74.375, 74.1875, 74.0625, 74.25, 74.178574, 74.265312, 74.346939, 74.147324, 74.15625, 74.285713, 74.285713, 74.321426, 74.428574, 74.28125, 74.21875, 74.15625, 74.285713, 74.321426, 74.39286, 74.25, 74.482147, 74.5, 74.5, 74.5, 74.4375, 74.4375, 74.67347, 74.528572, 74.387756, 74.017853, 74.0625, 74.125, 74.25, 74.375, 74.4375, 74.375, 74.4375, 74.60714, 74.3125, 74.3125, 74.375, 74.512497, 74.383926, 74.3125, 73.928574, 74.3125, 74.375, 74.510201, 74.438774, 74.35714, 74.321426, 74.285713, 74.285713, 74.214287, 74.291664, 74.071426, 73.964287, 73.89286, 73.8125, 73.875, 74, 74.0625, 74, 73.9375, 73.875, 74.153061, 74.35714, 74.285713, 74.089287, 74.125, 73.846939, 73.846939, 74.39286, 74.535713, 74.535713, 74.535713, 74.270401, 74.071426, 73.8125, 73.9375, 73.928574, 74.040817, 74.205353, 74.205353, 74.35714, 74.0625, 73.9375, 73.875, 73.9375, 74, 74.285713, 74.285713, 73.991074, 73.75, 73.8125, 73.857147, 74.178574, 74.25, 74.375, 74.419647, 74.229164, 73.984688, 73.89286, 73.89286, 74.5, 74.535713, 74.719383, 74.714287, 74.698975, 74.64286, 74.625, 74.321426, 73.9375, 73.875, 74, 74.0625, 74.35714, 74.39286, 74.214287, 74.345238, 74.208336, 74.083336, 73.928574, 73.785713, 73.9375, 74.0625, 74.0625, 74.125, 74.151787, 74.160713, 74, 73.892853, 74.035713, 74.208336, 74.25, 74.178574, 74.35714, 74.39286, 74.464287, 74.464287, 74.321426, 74.25, 74.3125, 74.375, 74.714287, 74.64286, 74.5, 74.5, 74.5, 74.571426, 74.714287, 74.64286, 74.571426, 74.571426, 74.571426, 74.571426, 74.64286, 74.64286, 74.5, 74.571426, 74.571426
-10, -10, -10, -10, -10, -10, -10, -10, -10, -10, -10, -10, -10, -10, -10, -10, -10, -10, -10, -10, -10, -10, -10, -10, -10, -10, -10, -10, -10, -10, -10, -10, 78.5, 78.222221, 77.916664, 77.645836, 77.34375, 76.892853, 76.1875, 75.669647, 75.0625, 74.6875, 74.267853, 74.276787, 74.232147, 74.058929, 74.383926, 74.491074, 74.794647, 75.112244, 75.119057, 75.09523, 75.119057, 75.244896, 75.321426, 75.428574, 75.5, 75.34375, 75.34375, 75.46875, 75.75, 75.64286, 75.60714, 75.428574, 75.35714, 75.39286, 75.285713, 75.178574, 74.875, 74.6875, 74.625, 74.75, 74.85714, 74.857147, 74.919647, 74.96875, 74.96875, 75.058037, 74.954086, 75.132652, 75.285713, 75.5625, 75.785713, 75.5, 75.3125, 75.520401, 75.666672, 75.622452, 75.60714, 75.5, 75.428574, 75.428574, 75.428574, 75.5, 75.571426, 75.571426, 75.39286, 75.285713, 75.178574, 75.178574, 75.464287, 75.464287, 75.5, 75.428574, 75.416664, 75.285713, 75.214287, 75.14286, 75, 74.9375, 75, 75.125, 75.25, 75.5, 75.214287, 75.39286, 75.285713, 75.204086, 74.985718, 74.991074, 75.053574, 75.125, 75.0625, 75.026787, 75.107147, 75.178574, 75.535713, 75.464287, 75.1875, 75.125, 74.866074, 74.85714, 74.785713, 74.719383, 74.663261, 74.944443, 75.059525, 75.239799, 75.321426, 75.25, 75.14286, 74.948975, 74.974487, 75.14286, 75.0625, 75.0625, 75.0625, 74.8125, 74.943871, 75.470238, 75.515877, 75.348633, 75.413261, 75.1875, 75.1875, 75.311226, 74.729164, 74.867348, 74.964287, 75.071426, 75.178574, 75.214287, 74.9375, 75, 75.0625, 75.1875, 75.3125, 75.25, 75.21875, 75.191963, 75.15625, 74.928574, 75.1875, 75.28125, 75.28125, 75.21875, 75.15625, 75.125, 75.1875, 75.464287, 75.535713, 75.571426, 75.5, 75.428574, 75.520401, 75.738098, 75.738098, 75.714287, 75.4375, 75.25, 74.852043, 74.821426, 74.89286, 75.25, 75.375, 75.64286, 75.5, 75.571426, 75.571426, 75.428574, 75.428574, 75.428574, 75.285713, 75.285713, 75.35714, 75.5, 75.428574, 75.5, 75.464287, 75.428574, 75.285713, 75, 74.9375, 74.875, 74.8125, 75, 74.6875, 74.625, 74.625, 74.794647, 74.875, 74.714287, 74.991074, 74.75, 74.75, 74.75, 74.946426, 75.464287, 75.464287, 75.42347, 75.428574, 75.76786, 75.76786, 75.5, 75.375, 75.3125, 75.428574, 75.153061, 75.117348, 75.25, 75.285713, 75.708336, 75.666664, 75.5, 75.535713, 75.5, 75.39286, 75.214287, 75.14286, 74.64286, 74.714287, 75.39286, 75.321426, 75.204086, 74.928574, 74.928574, 75.051025, 75.178574, 75.125, 75.1875, 75.1875, 75.1875, 75.625, 75.666664, 75.75, 75.60714, 75.64286, 75.806114, 75.785713, 75.795914, 75.714287, 75.464287, 75.321426, 75.035713, 74.89286, 75, 74.9375, 75.0625, 75.125, 75.25, 75.153061, 75.035713, 74.89286, 74.964287, 74.723213, 74.8125, 74.9375, 74.9375, 75.125, 75.294647, 74.928574, 74.821426, 74.892853, 74.8125, 75.071426, 75.14286, 75, 75.1875, 75.5, 75.571426, 75.60714, 75.428574, 75.39286, 75.428574, 75.464287, 75.64286, 75.375, 75.1875, 75.125, 75.125, 75.464287, 75.64286, 75.678574, 75.64286, 75.64286, 75.64286, 75.60714, 75.4375, 75.4375, 75.25, 75.464287, 75.39286, 75.39286, 75.535713, 75.5, 75.571426, 75.571426, 75.375, 75.5625, 75.82653, 75.734688, 75.734688, 75.571426, 75.267853, 75.25, 75.196426, 75.64286, 75.64286, 75.714287, 75.60714, 75.571426, 75.571426, 75.571426, 75.64286, 75.64286, 75.64286, 75.714287, 75.785713, 75.940483, -10, -10, -10, -10, -10, -10, -10, -10, -10, -10, -10, -10, -10, -10, -10, -10, -10, -10, -10, -10, -10, -10, -10, -10, -10, -10, -10, -10, -10, -10, -10, -10, -10, -10, -10, -10, -10, -10, -10, -10, -10, -10, -10, -10, -10, -10, -10, -10, -10, -10, -10, -10, -10, -10, -10, -10, -10, -10, -10, 78.5, 78.166672, 77.979164, 77.625, 77.25, 76.8125, 76.4375, 76.133926, 75.571426, 75.285713, 75.035713, 75.102043, 75.122452, 75.197617, 75.5, 75.811226, 75.794647, 75.875, 76, 76, 76.214287, 76.35714, 76.428574, 76.535713, 76.34375, 76.34375, 76.34375, 76.46875, 76.5625, 76.5625, 76.5625, 76.214287, 76.14286, 76.10714, 75.964287, 76, 75.75, 75.5, 75.4375, 75.5625, 75.75, 75.9375, 76.214287, 76.285713, 76.285713, 76.352043, 76.788689, 76.851189, 76.958336, 76.678574, 76.4375, 76.3125, 76.285713, 76.306114, 76.559525, 76.586739, 76.375, 76.3125, 76.25, 76.571426, 76.60714, 76.60714, 76.520401, 76.39286, 76, 76.008926, 76.125, 76.125, 76.64286, 76.535713, 76.5, 76.39286, 76.14286, 76.178574, 76.178574, 76.178574, 76.25, 76.214287, 76.178574, 76.25, 76.39286, 76.39286, 76.280617, 76.377548, 76.1875, 75.846939, 75.664291, 75.739799, 75.928574, 75.9375, 75.8125, 75.776787, 75.857147, 75.991074, 76.321426, 76.25, 76, 75.9375, 75.8125, 76.035713, 75.5, 75.469383, 75.678566, 75.736107, 75.958336, 76.116074, 76.1875, 76.464287, 76.377548, 76.198975, 76.153061, 76, 76.35714, 76.125, 76.0625, 75.8125, 75.73214, 76.224487, 76.370743, 76.394554, 76.484688, 76.5, 76.5, 76.241074, 75.619041, 75.581627, 75.64286, 75.714287, 75.785713, 76, 76.17347, 76.25, 76.081627, 76.306114, 76.428574, 76.428574, 76.5, 76.505104, 76.5, 76.791664, 76.5, 76.464287, 76.39286, 76.35714, 76.285713, 76.39286, 76.464287, 76.535713, 76.64286, 76.64286, 76.571426, 76.428574, 76.267853, 76.702385, 76.702385, 76.714287, 76.64286, 76.464287, 76.64286, 76.625, 76.666664, 76.5, 76.535713, 76.535713, 76.35714, 76.321426, 76.39286, 76.428574, 76.5, 76.459183, 76.321426, 76.178574, 76.25, 76.14286, 76.25, 76.35714, 76.1875, 76.1875, 76.125, 76.0625, 76, 75.9375, 75.84375, 75.75, 75.5, 75.375, 75.40625, 75.801025, 76.086739, 76.458336, 76.311226, 75.690475, 75.959183, 75.5, 76.224487, 76.60714, 76.60714, 76.602043, 76.535713, 76.622452, 76.622452, 76.535713, 76.64286, 76.285713, 76.142853, 75.955353, 76.188774, 76.428574, 76.5, 76.64286, 76.571426, 76.535713, 76.571426, 76.571426, 76.5, 76.464287, 76.321426, 76.5, 76.541664, 76.35714, 76.125, 76.053574, 76.071426, 75.8125, 75.919647, 76, 76.125, 76.125, 76.0625, 76.214287, 76.321426, 76.428574, 76.60714, 76.714287, 76.60714, 76.64286, 76.571426, 76.4375, 76.4375, 76.3125, 76.1875, 75.875, 75.6875, 75.75, 75.875, 75.9375, 76.0625, 76.0625, 76.0625, 76.0625, 75.714287, 75.9375, 76.10714, 76.10714, 76.178574, 76.285713, 76.39286, 76.586739, 76.75, 76.666664, 76.234688, 76, 76.0625, 76.125, 76.1875, 76.428574, 76.5, 76.571426, 76.64286, 76.60714, 76.3125, 76.3125, 76.3125, 76.4375, 76.3125, 76.1875, 76.125, 76.125, 76.3125, 76.375, 76.571426, 76.5, 76.5, 76.571426, 76.571426, 76.64286, 76.64286, 76.3125, 76.3125, 76.035713
-10, -10, -10, -10, -10, -10, -10, -10, -10, -10, -10, -10, -10, -10, -10, -10, -10, -10, -10, -10, -10, -10, -10, -10, -10, -10, -10, -10, -10, -10, -10, -10, -10, 78.291672, 78.145836, 77.75, 77.4375, 77.125, 76.9375, 76.883926, 77.333336, 77.333336, 77.333336, 77.333336, 77.238098, 77.158333, 77.202385, 76.959183, 77.035713, 76.875, 76.714287, 76.785713, 77.125, 77.428574, 77.428574, 77.464287, 77.428574, 77.5, 77.64286, 77.785713, 77.785713, 77.785713, 77.714287, 77.875, 77.875, 77.791664, 77.75, 77.25, 77, 76.841835, 76.637497, 76.760201, 76.903061, 77.035713, 77.10714, 77.196426, 77.26786, 77.369896, 77.568886, 77.586739, 77.571426, 77.464287, 77.25, 77.1875, 76.85714, 76.877548, 77.395836, 77.419647, 77.4375, 77.375, 77.5, 77.64286, 77.714287, 77.64286, 77.267853, 77.125, 77, 76.85714, 77.571426, 77.535713, 77.67347, 77.571426, 77.3125, 77.25, 76.9375, 76.803574, 76.78125, 76.964287, 77.214287, 77.35714, 77.35714, 77.464287, 77.3125, 77.3125, 77.214287, 77.267853, 77.464287, 77.577385, 77.450005, 77.285713, 76.989799, 76.8125, 76.75, 76.459183, 76.857147, 76.991074, 77.125, 77.0625, 76.714287, 77.25, 77.214287, 77.285713, 77.5, 77.5, 77.541664, 77.5, 77.0625, 77.0625, 77.0625, 77.321426, 77.397957, 77.234688, 77.224487, 77.285713, 77.428574, 77.464287, 77.39286, 77.178574, 76.91964, 77.151787, 77.261902, 77.229164, 77.510201, 77.60714, 77.535713, 77.454086, 77.361107, 77.339287, 77.458336, 77.541664, 77.625, 77.1875, 77.352043, 77.428574, 77.260201, 77.484688, 77.5, 77.428574, 77.5, 77.505104, 77.535713, 77.60714, 77.464287, 77.339287, 77.303574, 77.375, 77.375, 77.535713, 77.571426, 77.535713, 77.571426, 77.428574, 77.285713, 77, 77.017853, 77.270836, 77.333336, 77.571426, 77.60714, 77.60714, 77.622452, 77.60714, 77.64286, 77.64286, 77.60714, 77.375, 77.25, 76.928574, 77.25, 77.3125, 77.571426, 77.339287, 77.1875, 77, 77.0625, 77, 77.125, 77.25, 77.25, 77.1875, 77.35714, 77.321426, 77.214287, 77.14286, 77.035713, 76.928574, 76.214287, 76.10714, 76.178574, 76.669647, 77.122452, 77.214287, 77.275513, 77.214287, 76.836739, 77.25, 77.153061, 77.5, 77.60714, 77.622452, 77.4375, 77.544647, 77.544647, 77.4375, 77.714287, 77.57653, 77.142853, 76.955353, 76.946426, 77.321426, 77.39286, 77.5, 77.428574, 77.25, 77.375, 77.473213, 77.60714, 77.602043, 77.464287, 77.35714, 77.35714, 77.321426, 77.147957, 77.030617, 77, 76.85714, 77, 77.10714, 77.25, 77.321426, 77.35714, 77.125, 77.25, 77.375, 77.5, 77.5625, 77.4375, 77.5, 77.178574, 77.375, 77.267853, 77.285713, 77.214287, 77.10714, 77.035713, 76.875, 77.10714, 77.035713, 77, 77, 76.875, 77.178574, 77.5, 77.321426, 77.35714, 77.35714, 77.321426, 77.35714, 77.35714, 77.551025, 77.535713, 77.428574, 77.234688, 77.14286, 77.214287, 77.35714, 77.428574, 77.39286, 77.35714, 77.39286, 77.3125, 77.571426, 77.571426, 77.571426, 77.571426, 77.64286, 77.535713, 77.428574, 77.285713, 77.214287, 77.39286, 77.25, 77.25, 77.25, 77.25, 77.3125, 77.60714, 77.678574, 77.678574, 77.571426, 77.535713, 77.75, 77.75, 77.64286, 77.678574, 77.678574, 77.714287, 77.714287, 77.75, 77.785713, 77.625, 77.625, 77.5, 77.581627, 77.535713, 77.540817, 77.714287, 77.714287, 77.5625, 77.714287, 77.5, 77.4375, 77.10714, 77.10714, 77.375, 77.375, 77.4375, 77.4375, 77.416672, -10, -10, -10, -10, -10, -10, -10, -10, -10, -10, -10, -10, -10, -10, -10, -10, -10, -10, -10, -10, -10, -10, -10, -10, -10, -10, -10, -10, -10, -10, -10, -10, -10, -10, -10, -10, -10, -10, -10, -10, -10, -10, -10, -10, -10, -10, -10, -10, -10, -10, -10, -10, -10, -10, -10, -10, -10, -10, -10, -10, 78.277779, 78.395836, 78.166664, 78.03125, 77.84375, 77.71875, 77.938774, 78, 78.071426, 78.178574, 78.25, 78.14286, 78.06633, 78.071426, 78.204086, 78.32653, 78.285713, 78.494049, 78.5, 78.321426, 78.25, 78.3125, 78.419647, 78.10714, 78.73214, 78.803574, 78.839287, 78.821426, 78.85714, 78.785713, 78.75, 78.75, 78.678574, 78.64286, 78.428574, 78.25, 78.163261, 78.157143, 78.010201, 78.045914, 77.875, 77.9375, 78.0625, 78.1875, 78.276787, 78.419647, 78.357147, 78.25, 78.125, 78.125, 78.1875, 78.666664, 78.666664, 78.5, 78.464287, 78.5, 78.535713, 78.535713, 78.714287, 78.678574, 78.3125, 78.080353, 77.9375, 78.14286, 78.648811, 78.75, 78.714287, 78.464287, 78.3125, 78.1875, 78, 77.758926, 77.489799, 77.535713, 77.64286, 78.15625, 78.3125, 78.60714, 78.714287, 78.714287, 78.64286, 78.464287, 78.377548, 78.39286, 78.244896, 78.171432, 78.030617, 77.959183, 77.928574, 77.964287, 78.309525, 78.204086, 78.244896, 78.0625, 78.10714, 78.25, 78.214287, 78.25, 78.39286, 78.5, 78.464287, 78.535713, 78.464287, 78.285713, 78.178574, 77.875, 77.9375, 78.098213, 78.017853, 78.32653, 78.464287, 78.5, 78.5, 78.35714, 78.14286, 78.122452, 78.030617, 78.061226, 78.0625, 78.0625, 78.428574, 78.1875, 78.387756, 78.238091, 78.18367, 78.25, 78.285713, 78.39286, 78.428574, 78.459183, 78.464287, 78.224487, 78.306114, 78.125, 78.133926, 78.375, 78.410713, 78.5, 78.5, 78.375, 78.25, 78.21875, 78.21875, 78.35714, 78.428574, 78.39286, 78.39286, 78.25, 78.1875, 77.85714, 77.714287, 77.770401, 78.095238, 78.156456, 78.375, 78.5, 78.714287, 78.526787, 78.5625, 78.5, 78.714287, 78.64286, 78.571426, 78.464287, 78.625, 78.464287, 78.571426, 78.64286, 78.530617, 78.321426, 78.10714, 78.14286, 78.14286, 78.25, 78.39286, 78.428574, 78.428574, 78.535713, 78.535713, 78.464287, 78.428574, 78.321426, 78.214287, 78.375, 78.25, 78.145836, 77.989799, 77.982147, 78.0625, 78.178574, 78.047615, 77.551025, 78.35714, 78.026787, 78.112503, 78.366074, 78.366074, 78.571426, 78.5, 78.428574, 78.35714, 78.535713, 78.438774, 78.005104, 77.81633, 77.580353, 77.887497, 77.892853, 78.125, 78.107147, 78.1875, 78.375, 78.68367, 78.64286, 78.401787, 78.3125, 78.25, 78.25, 78.1875, 77.973213, 77.745537, 77.59375, 77.491074, 77.758926, 77.919647, 78.0625, 78.25, 78.214287, 78.14286, 78.214287, 78.321426, 78.428574, 78.5, 78.428574, 78.5, 78.708336, 78.5, 78.205353, 78.0625, 78, 78.178574, 78.214287, 78.285713, 78.321426, 78.178574, 77.8125, 77.75, 77.928574, 78.071426, 78.214287, 78.25, 78.35714, 78.428574, 78.35714, 78.35714, 78.125, 78.294647, 78.375, 78.3125, 78.080353, 78.178574, 78.178574, 78.35714, 78.464287, 78.1875, 78.125, 78.142853, 78.3125, 78.60714, 78.64286, 78.571426, 78.571426, 78.60714, 78.535713, 78.5, 78.39286, 78.321426, 78.5, 78.25, 78.25, 78.25, 78.25, 78.3125, 78.64286, 78.714287, 78.714287, 78.678574, 78.64286, 78.678574
-10, -10, -10, -10, -10, -10, -10, -10, -10, -10, -10, -10, -10, -10, -10, -10, -10, -10, -10, -10, -10, -10, -10, -10, -10, -10, -10, -10, -10, -10, -10, -10, -10, -10, 78.44445, 78.854164, 78.739586, 78.928574, 78.943886, 78.517853, 78.625, 78.6875, 78.919647, 79, 78.9375, 78.839287, 78.875, 79.053574, 79.469383, 79.535713, 79.530617, 79.5, 79.464287, 79.5, 79.535713, 79.765312, 80, 79.785713, 79.734688, 79.714287, 79.714287, 79.625, 79.625, 79.625, 79.625, 79.625, 79.625, 79.678574, 79.571426, 79.484688, 79.514282, 79.331627, 79.295914, 79.0625, 79.0625, 79.321426, 79.464287, 79.464287, 79.1875, 79.125, 79, 79, 79.35714, 79.464287, 79.571426, 79.571426, 79.60714, 79.571426, 79.60714, 79.4375, 79.4375, 79.5625, 79.4375, 79.1875, 78.955353, 79.10714, 79.285713, 79.663261, 79.785713, 79.714287, 79.401787, 79.1875, 79.125, 78.714287, 79.153061, 79.452385, 79.395836, 79.4375, 79.214287, 79.35714, 79.535713, 79.714287, 79.785713, 79.75, 79.60714, 79.205353, 79.1875, 79.0625, 79, 78.8125, 78.75, 78.6875, 79, 79.214287, 79.214287, 79.214287, 79.214287, 79.14286, 79.214287, 79.321426, 79.0625, 79.1875, 79.25, 79.25, 79.571426, 79.464287, 79.285713, 79.14286, 78.75, 78.6875, 78.875, 78.9375, 79.25, 79.39286, 79.125, 79.125, 79.0625, 79, 79.25, 79.18367, 78.901787, 78.9375, 78.9375, 79.0625, 78.9375, 79, 79, 79, 79.125, 79.125, 79.1875, 79.464287, 79.276787, 79.3125, 79.071426, 79.080353, 79, 79.071426, 79.571426, 79.571426, 79.714287, 79.64286, 79.571426, 79.464287, 79.446426, 79.446426, 79.15625, 79.21875, 79.1875, 79.1875, 79.1875, 79.0625, 79.458336, 79.416664, 79.583336, 79.791664, 79.89286, 79.64286, 79.785713, 79.785713, 79.464287, 79.714287, 79.375, 79.64286, 79.60714, 79.571426, 79.60714, 79.571426, 79.60714, 79.678574, 79.64286, 79.276787, 79.125, 79.178574, 79.25, 79.35714, 79.35714, 79.464287, 79.428574, 79.35714, 79.464287, 79.39286, 79.321426, 79.321426, 79.26786, 79.214287, 79.214287, 79.10714, 79.053574, 79.10714, 79.204086, 79.0625, 79.1875, 79.32653, 79.321434, 79.214287, 78.964287, 79.050003, 79.303574, 79.366074, 79.60714, 79.3125, 79.1875, 79.0625, 79.1875, 79.071426, 78.723213, 78.651779, 78.367348, 78.824997, 78.591835, 79.0625, 79.044647, 79.25, 79.464287, 79.57653, 79.571426, 79.308037, 79.35714, 79.214287, 79.178574, 79.14286, 78.969383, 78.620537, 78.53125, 78.491074, 78.696426, 78.857147, 79.14286, 78.9375, 78.9375, 78.8125, 79.10714, 78.9375, 79, 79.0625, 79, 79.35714, 79.464287, 79.535713, 79.448975, 79.0625, 79, 79.071426, 79.10714, 79.214287, 79.25, 79.25, 79.10714, 78.8125, 78.830353, 78.833336, 78.989799, 78.964287, 79.142853, 79.125, 79.0625, 79.125, 79.125, 79.1875, 79.25, 79.25, 79.1875, 79.125, 78.85714, 79.25, 79.25, 79.125, 79.0625, 79.080353, 79.535713, 79.64286, 79.714287, 79.4375, 79.375, 79.375, 79.535713, 79.535713, 79.535713, 79.464287, 79.571426, 79.535713, 79.5, 79.535713, 79.535713, 79.571426, 79.678574, 79.714287, 79.714287, 79.64286, 79.571426, 79.4375, 79.4375, 79.5, 79.5625, 79.64286, 79.64286, 79.64286, 79.375, 79.4375, 79.4375, 79.4375, 79.5, 79.714287, 79.714287, 79.375, 79.375, 79.375, 79.64286, 79.785713, 79.821426, 79.785713, 79.60714, 79.637756, 79.765312, 79.729599, 79.714287, 79.666672, -10, -10, -10, -10, -10, -10, -10, -10, -10, -10, -10, -10, -10, -10, -10, -10, -10, -10, -10, -10, -10, -10, -10, -10, -10, -10, -10, -10, -10, -10, -10, -10, -10, -10, -10, -10, -10, -10, -10, -10, -10, -10, -10, -10, -10, -10, -10, -10, -10, -10, -10, -10, -10, -10, -10, -10, -10, -10, -10, -10, -10, -10, -10, 79.46666, 80.166672, 80.214287, 80.229599, 79.367348, 79.285713, 79.31633, 79.607147, 79.75, 79.625, 79.589287, 79.821426, 80.168373, 80.469383, 80.60714, 80.67347, 80.64286, 80.571426, 80.678574, 80.714287, 80.979599, 81.071426, 81.035713, 80.413261, 80.35714, 80.5625, 80.5625, 80.5, 80.64286, 80.64286, 80.714287, 80.714287, 80.60714, 80.5, 80.438774, 80.542854, 80.397957, 80.32653, 80.214287, 80.214287, 80.35714, 80.535713, 80.571426, 80.5, 80.428574, 80.321426, 80.321426, 80.35714, 80.39286, 80.428574, 80.428574, 80.5, 80.5, 80.571426, 80.64286, 80.64286, 80.64286, 80.25, 80.0625, 80.14286, 80.285713, 80.535713, 80.607147, 80.625, 80.5625, 80.375, 80.42347, 80.464287, 80.541664, 80.403061, 80.530617, 80.446426, 80.446426, 80.375, 80.125, 80.25, 80.375, 80.64286, 80.714287, 80.571426, 80.1875, 80, 79.8125, 79.75, 79.75, 79.8125, 79.8125, 79.875, 80, 80, 80.0625, 80.125, 80.125, 80.1875, 80.25, 80.1875, 80.25, 80.25, 80.25, 80.375, 80.25, 80.0625, 79.8125, 79.5625, 79.64286, 79.821426, 79.964287, 79.8125, 79.9375, 79.8125, 79.875, 80.0625, 80.232147, 80, 80.43367, 80.239799, 80, 79.9375, 80.0625, 79.64286, 79.714287, 79.714287, 79.714287, 80.125, 80.053574, 79.854164, 79.955353, 80, 80.169647, 80.1875, 80.1875, 80.39286, 80.510201, 80.765312, 80.64286, 80.75, 80.60714, 80.64286, 80.60714, 80.60714, 80.571426, 80.464287, 80.25, 80.1875, 80.321426, 80.285713, 80.214287, 80.25, 80.25, 80.39286, 80.571426, 80.658165, 80.714287, 80.89286, 80.85714, 80.744896, 80.64286, 80.3125, 80.375, 80.375, 80.4375, 80.714287, 80.714287, 80.714287, 80.64286, 80.375, 80.1875, 80.0625, 80.285713, 80.35714, 80.571426, 80.535713, 80.375, 80.375, 80.071426, 80.178574, 80.102043, 80.104164, 79.9375, 79.8125, 79.8125, 79.9375, 79.973213, 80, 80.285713, 80.321426, 80.35714, 80.35714, 80.285713, 80.081627, 79.875, 80.010208, 79.985718, 80.239799, 80.311226, 80.35714, 80.285713, 80, 79.875, 79.875, 79.785713, 79.642853, 79.571426, 80.005951, 79.942856, 80.095238, 80.14286, 80.122452, 80.178574, 80.125, 80.223213, 80.28125, 80.245537, 80.15625, 79.96875, 79.875, 79.875, 79.696426, 79.688774, 79.60714, 79.596939, 79.938774, 80.158165, 80.0625, 80.0625, 80.0625, 79.9375, 79.9375, 79.875, 79.875, 79.9375, 80, 80.25, 80.375, 80.4375, 80.581627, 80.464287, 80.39286, 79.75, 79.821426, 79.89286, 80.15625, 80.428574, 80.321426, 80.285713, 80.270401, 80.777779, 80.851189, 80.75, 80.142853, 80.125, 80.0625, 80.214287, 80.25, 80.321426, 80.39286, 80.464287, 80.464287, 80.321426, 80.416664, 80.25, 80.25, 80.285713, 80.321426, 80.341835, 80.5, 80.464287, 80.5, 80.5, 80.3125, 80.3125, 80.25, 80.25, 80.464287, 80.5, 80.64286, 80.64286, 80.64286, 80.678574, 80.678574, 80.678574, 80.714287, 80.64286, 80.571426, 80.25, 80.1875, 80.25
-10, -10, -10, -10, -10, -10, -10, -10, -10, -10, -10, -10, -10, -10, -10, -10, -10, -10, -10, -10, -10, -10, -10, -10, -10, -10, -10, -10, -10, -10, -10, -10, -10, -10, -10, -10, 80.808334, 80.875, 81.461739, 81.380951, 81.208336, 81.029762, 80.622452, 80.5, 80.4375, 80.765312, 80.928574, 81.053574, 81.348213, 81.375, 81.551025, 81.535713, 81.5, 81.678574, 81.85714, 82.061226, 82.14286, 82.071426, 82.053566, 81.833336, 81.5, 81.5, 81.375, 81.4375, 81.330353, 81.321426, 81.25, 81.1875, 81.1875, 81.1875, 81.25, 81.1875, 81.285713, 80.9375, 80.9375, 81.125, 81.3125, 81.571426, 81.60714, 81.571426, 81.535713, 81.535713, 81.5, 81.25, 81.1875, 81.1875, 81.25, 81.25, 81.678574, 81.75, 81.678574, 81.330353, 81.0625, 81.071426, 81.10714, 81.39286, 81.765312, 81.89286, 81.85714, 81.785713, 81.647957, 81.530617, 81.60714, 81.5, 81.612244, 81.714287, 81.571426, 81.375, 81.428574, 81.1875, 81.3125, 81.3125, 81.375, 81.4375, 81.3125, 81.35714, 81.10714, 80.85714, 80.785713, 80.85714, 80.928574, 81, 81.035713, 80.9375, 81.0625, 81.125, 81.428574, 81.39286, 81.428574, 81.464287, 81.39286, 81.5, 81.464287, 81.464287, 81.571426, 81.25, 81.125, 80.678574, 80.464287, 80.39286, 80.535713, 80.64286, 80.64286, 80.714287, 80.571426, 80.571426, 81.321426, 81.551025, 81.791664, 81.591835, 81.438774, 81.35714, 81.321426, 81.35714, 81.5, 81.541664, 81.541664, 81.458336, 81.25, 81.168373, 80.511902, 80.663261, 80.892853, 81.0625, 81.321426, 81.428574, 81.571426, 81.68367, 81.836739, 81.714287, 81.5625, 81.4375, 81.714287, 81.714287, 81.714287, 81.60714, 81.5, 81.464287, 81.428574, 81.464287, 81.428574, 81.1875, 81.3125, 81.285713, 81.267853, 81.321426, 81.294647, 81.571426, 81.75, 81.785713, 81.765312, 81.4375, 81.535713, 81.375, 81.375, 81.64286, 81.714287, 81.714287, 81.714287, 81.4375, 81.375, 81.1875, 81.35714, 81.428574, 81.5, 81.678574, 81.60714, 81.60714, 81.60714, 81.833336, 81.958336, 81.904762, 81.166664, 80.714287, 80.571426, 80.535713, 80.8125, 80.848213, 80.875, 81.14286, 81.285713, 81.35714, 81.39286, 81.1875, 81.0625, 81.0625, 80.704086, 80.628578, 80.846939, 80.918373, 80.928574, 81.0625, 80.9375, 81.071426, 80.8125, 80.469383, 80.938774, 80.897957, 80.897957, 80.971428, 80.938774, 81.10714, 80.919647, 81, 81.125, 81.125, 81.09375, 81.17347, 81.071426, 80.78125, 80.75, 80.8125, 80.785713, 80.620537, 80.875, 80.887756, 81.112244, 81.346939, 81.428574, 81.39286, 81.35714, 81.214287, 81.10714, 80.964287, 80.964287, 81.035713, 81.10714, 81.285713, 81.39286, 81.5, 81.60714, 81.64286, 81.571426, 81.666664, 81.666664, 81.5625, 81.39286, 81.5, 81.464287, 81.535713, 81.520401, 81.666672, 81.693886, 81.571426, 81.341835, 81.35714, 81.285713, 81.285713, 81.35714, 81.428574, 81.3125, 81.60714, 81.64286, 81.535713, 81.428574, 81.166664, 81.160713, 81.387756, 81.428574, 81.295914, 81.1875, 81.125, 81.1875, 81.25, 81.464287, 81.464287, 81.125, 81.125, 81.25, 81.535713, 81.714287, 81.714287, 81.714287, 81.714287, 81.714287, 81.714287, 81.714287, 81.4375, 81.375, 81.25, 81.1875, 81.25, 81.3125, 81.64286, 81.714287, 81.64286, 81.64286, 81.64286, 81.60714, 81.64286, 81.64286, 81.64286, 81.60714, 81.375, 81.375, 81.1875, 81.464287, 81.535713, 81.571426, 81.5625, 81.5, 81.4375, 81.5, 81.530617, 81.765312, 81.765312, 81.785713, 81.714287, -10, -10, -10, -10, -10, -10, -10, -10, -10, -10, -10, -10, -10, -10, -10, -10, -10, -10, -10, -10, -10, -10, -10, -10, -10, -10, -10, -10, -10, -10, -10, -10, -10, -10, -10, -10, -10, -10, -10, -10, -10, -10, -10, -10, -10, -10, -10, -10, -10, -10, -10, -10, -10, -10, -10, -10, -10, -10, -10, -10, -10, -10, -10, -10, -10, -10, 82.085716, 82.18367, 82.071426, 81.989799, 81.846939, 81.89286, 81.583336, 82.071426, 82.25, 82.397957, 82.494896, 82.375, 82.375, 82.214287, 82.214287, 82.625, 82.928574, 83.035713, 83.178574, 83.14286, 83.010201, 82.785713, 82.64286, 82.375, 82.5, 82.85714, 82.198975, 82.188774, 82.071426, 81.964287, 82.125, 82.125, 82.1875, 82.1875, 81.964287, 81.85714, 81.89286, 82.035713, 82.375, 82.484688, 82.5, 82.428574, 82.428574, 82.39286, 82.35714, 82.35714, 82.125, 82.1875, 82.25, 82.3125, 82.714287, 82.714287, 82.571426, 82.205353, 82, 81.875, 82, 82.5, 82.801025, 82.928574, 82.89286, 82.821426, 82.719383, 82.637756, 82.714287, 82.714287, 82.785713, 82.785713, 82.678574, 82.64286, 82.60714, 82.464287, 82.459183, 82.321426, 82.1875, 82.3125, 82.3125, 82.464287, 82.285713, 82.10714, 81.75, 81.833336, 82.14286, 82.14286, 82.071426, 82.035713, 82.10714, 82.25, 82.428574, 82.5, 82.60714, 82.535713, 82.428574, 82.428574, 82.39286, 82.464287, 82.571426, 82.535713, 82.464287, 82.625, 82.541664, 82.541664, 82.5, 82.375, 82.333336, 82.214287, 82.077385, 82.166664, 82.178574, 82.551025, 82.64286, 82.678574, 82.56633, 82.5, 82.5, 82.535713, 82.571426, 82.571426, 82.571426, 82.428574, 82.321426, 82.239799, 82.236107, 82.428566, 82.163261, 82.1875, 82.25, 82.60714, 82.75, 82.821426, 82.765312, 82.571426, 82.571426, 82.5, 82.64286, 82.714287, 82.714287, 82.4375, 82.60714, 82.535713, 82.464287, 82.39286, 82.25, 82.285713, 82.428574, 82.469383, 82.205353, 82.196426, 81.928574, 82.375, 82.5, 82.5625, 82.785713, 82.64286, 82.678574, 82.75, 82.821426, 82.89286, 82.785713, 82.67347, 82.64286, 82.571426, 82.535713, 82.35714, 82.285713, 82.35714, 82.464287, 82.64286, 82.678574, 82.678574, 82.714287, 82.75, 82.821426, 82.775513, 82.476189, 82.5, 82.333336, 82.285713, 82.112244, 82.112244, 81.64286, 81.862503, 82.116074, 82.107147, 82.125, 82.214287, 82.035713, 82.071426, 82.208336, 82.25, 82.291664, 82.333336, 82.416664, 82.0625, 82.25, 82.285713, 82.25, 82.416664, 82.14286, 81.964287, 81.65625, 81.65625, 81.65625, 81.84375, 81.9375, 82.14286, 82.214287, 82.214287, 81.96875, 81.995537, 81.897324, 81.643753, 81.989799, 81.979599, 82.112244, 82.030617, 82.14286, 82.214287, 82.35714, 82.535713, 82.60714, 82.535713, 82.464287, 82.285713, 82.071426, 82, 82, 82.071426, 82.214287, 82.321426, 82.428574, 82.3125, 82.4375, 82.678574, 82.571426, 82.428574, 82.321426, 82.26786, 82.303574, 82.375, 82.446426, 82.571426, 82.653061, 82.520836, 82.482147, 82.3125, 82.295914, 82.39286, 82.39286, 82.428574, 82.464287, 82.3125, 82.5, 82.5, 82.5, 82.35714, 82.35714, 82.625, 82.362244, 82.352043, 82.321426, 82, 82.0625, 82.0625, 82.1875, 82.25, 82.39286, 82.321426, 81.9375, 81.9375, 82.0625, 82.125, 82.428574, 82.5, 82.571426, 82.64286, 82.714287, 82.714287, 82.714287, 82.64286, 82.571426, 82.464287, 82.428574, 82.5
-10, -10, -10, -10, -10, -10, -10, -10, -10, -10, -10, -10, -10, -10, -10, -10, -10, -10, -10, -10, -10, -10, -10, -10, -10, -10, -10, -10, -10, -10, -10, -10, -10, -10, -10, -10, -10, -10, -10, 82.666664, 82.583336, 82.866074, 83.023811, 83, 83.208336, 83.214287, 83.428574, 83.658165, 83.709183, 83.714287, 83.60714, 83.916664, 83.916664, 83.821426, 83.89286, 83.75, 83.875, 83.8125, 83.75, 83.5625, 83.60714, 83.64286, 83.75, 83.89286, 83.970238, 83.922615, 83.708336, 83.619049, 83.362244, 83.39286, 83.428574, 83.35714, 83.625, 83.625, 83.791664, 83.875, 83.535713, 83.205353, 83.25, 83.1875, 83.071426, 83.035713, 82.964287, 83.535713, 83.428574, 83.5, 83.535713, 83.571426, 83.75, 83.4375, 83.25, 83.017853, 83, 83, 83.214287, 83.3125, 83.607147, 83.6875, 83.6875, 83.625, 83.535713, 83.693886, 83.714287, 83.75, 83.785713, 83.785713, 83.714287, 83.714287, 83.64286, 83.535713, 83.459183, 83.25, 83.25, 83.285713, 83.35714, 83.428574, 83.39286, 83.35714, 83.541664, 83.583336, 83.25, 83.0625, 83, 82.875, 83, 83.0625, 83.1875, 83.3125, 83.571426, 83.375, 83.3125, 83.3125, 83.3125, 83.375, 83.375, 83.535713, 83.428574, 83.35714, 83.39286, 83.464287, 83.464287, 83.428574, 83.39286, 83.290817, 82.910713, 83.214287, 83, 83.232147, 83.25, 83.25, 83.214287, 83.39286, 83.464287, 83.3125, 83.5, 83.571426, 83.571426, 83.25, 83.125, 83.053574, 83.166664, 83.295914, 83.270401, 83.295914, 83.321426, 83.5, 83.5, 83.625, 83.544647, 83.375, 83.375, 83.3125, 83.4375, 83.714287, 83.714287, 83.571426, 83.571426, 83.3125, 83.25, 83.25, 82.89286, 82.964287, 83.64286, 83.68367, 83.520401, 83.438774, 83.583336, 83.5, 83.4375, 83.5, 83.5625, 83.678574, 83.75, 83.821426, 83.89286, 83.928574, 83.785713, 83.401787, 83.375, 83.535713, 83.535713, 83.5, 83.1875, 83.035713, 83.375, 83.4375, 83.591835, 83.5, 83.375, 83.5, 83.625, 83.678574, 83.666664, 83.571426, 83.35714, 83.31633, 83.362244, 83.306114, 83.583336, 82.987503, 83.178574, 83.107147, 83.1875, 83.125, 82.714287, 82.785713, 83.214287, 83.214287, 83.214287, 83.14286, 83.214287, 83.14286, 83.14286, 83.285713, 83.35714, 83.428574, 83.39286, 82.64286, 82.464287, 82.39286, 82.303574, 82.75, 83.071426, 83.071426, 83.178574, 83.25, 83.14286, 83.137756, 82.928574, 82.737503, 83.096939, 83.025513, 82.92041, 82.969398, 83.061226, 83.214287, 83.35714, 83.464287, 83.5, 83.25, 83.125, 83, 82.875, 83.10714, 83.178574, 83.0625, 83.1875, 83.25, 83.25, 83.5, 83.571426, 83.4375, 83.375, 83.25, 83.1875, 83.125, 83.1875, 83.1875, 83.1875, 83.3125, 83.375, 83.375, 83.375, 83.25, 83.1875, 83.3125, 83.464287, 83.428574, 83.35714, 83.285713, 83.35714, 83.1875, 83.1875, 83.125, 83.125, 83.464287, 83.57653, 83.530617, 82.964287, 82.821426, 83.285713, 83.321426, 83.464287, 83.428574, 83.1875, 83.125, 82.9375, 82.75, 82.821426, 82.928574, 83.10714, 83.14286, 83.4375, 83.401787, 83.64286, 83.64286, 83.714287, 83.678574, 83.64286, 83.60714, 83.60714, 83.64286, 83.678574, 83.714287, 83.714287, 83.714287, 83.714287, 83.714287, 83.714287, 83.64286, 83.375, 83.375, 83.535713, 83.5, 83.5, 83.35714, 83.125, 83.25, 83.3125, 83.4375, 83.64286, 83.571426, 83.571426, 83.571426, 83.64286, 83.64286, 83.64286, 83.619041, -10, -10, -10, -10, -10, -10, -10, -10, -10, -10, -10, -10, -10, -10, -10, -10, -10, -10, -10, -10, -10, -10, -10, -10, -10, -10, -10, -10, -10, -10, -10, -10, -10, -10, -10, -10, -10, -10, -10, -10, -10, -10, -10, -10, -10, -10, -10, -10, -10, -10, -10, -10, -10, -10, -10, -10, -10, -10, -10, -10, -10, -10, -10, -10, -10, -10, -10, -10, -10, 83.25, 83.583336, 83.599998, 84.214287, 84.273811, 84.5, 84.658165, 84.709183, 84.714287, 84.535713, 84.571426, 84.571426, 84.678574, 84.5, 84.5625, 84.625, 84.5625, 84.5625, 84.678574, 84.64286, 84.64286, 84.678574, 84.714287, 84.581627, 84.612244, 84.5, 84.530617, 84.57653, 84.571426, 84.5, 84.428574, 84.535713, 84.571426, 84.785713, 84.75, 84.5, 84.017853, 84.008926, 84.208336, 84.809525, 84.916664, 84.875, 84.64286, 84.60714, 84.678574, 84.678574, 84.678574, 84.5625, 84.4375, 84.25, 84.080353, 83.64286, 84.14286, 84.321426, 84.464287, 84.482147, 84.625, 84.625, 84.5625, 84.64286, 84.571426, 84.5, 84.571426, 84.64286, 84.714287, 84.75, 84.75, 84.678574, 84.60714, 84.339287, 84.1875, 84.116074, 84.037498, 84.25, 84.3125, 84.64286, 84.60714, 84.571426, 84.571426, 84.428574, 84.39286, 84.35714, 84.0625, 84.125, 84.125, 84.1875, 84.464287, 84.535713, 84.464287, 84.39286, 84.35714, 84.428574, 84.571426, 84.375, 84.375, 84.3125, 84.071426, 84.375, 84.4375, 84.4375, 84.5, 84.428574, 84.255104, 84.39286, 84.0625, 84, 84.0625, 83.9375, 83.901787, 84, 84.107147, 84.25, 84.3125, 84.3125, 84.375, 84.375, 84.25, 84.428574, 84.428574, 84.25, 84.375, 84.267853, 84.142853, 84.0625, 84.125, 84.1875, 84.5, 84.5, 84.5, 84.571426, 84.571426, 84.571426, 84.571426, 84.5, 84.321426, 84.321426, 84.25, 84.260201, 84.5, 84.75, 84.875, 84.678574, 84.734695, 84.653061, 84.540817, 84.5, 84.535713, 84.571426, 84.678574, 84.714287, 84.714287, 84.785713, 84.85714, 84.928574, 84.928574, 84.785713, 84.401787, 84.375, 84.3125, 84.25, 84.428574, 84.35714, 84.708336, 84.64286, 84.64286, 84.392853, 84.25, 84.25, 84.3125, 84.375, 84.714287, 84.64286, 84.571426, 84.25, 84.352043, 84.397957, 84.321426, 84.285713, 84.128578, 84.382652, 84.372452, 84.5, 84.464287, 84.541664, 84.5, 84.0625, 84.0625, 84.125, 84.125, 84.25, 83.89286, 83.89286, 84.035713, 84.25, 84.3125, 84.535713, 84.726189, 84.645836, 84.604164, 84.395836, 84.14286, 84.214287, 83.90625, 84, 84, 84.035713, 84.132645, 84.254082, 83.960205, 84.224487, 84.096939, 83.578568, 83.704086, 83.775513, 83.928574, 84.25, 84.3125, 84.3125, 84.1875, 84.0625, 84, 83.9375, 84.285713, 84.35714, 84.428574, 84.5, 84.5, 84.5, 84.571426, 84.60714, 84.375, 84.3125, 84.125, 84.0625, 84, 84.178574, 84.25, 84.0625, 84.1875, 84.3125, 84.535713, 84.535713, 84.464287, 84.39286, 84.428574, 84.321426, 84.0625, 84, 83.9375, 84, 84, 84, 84.0625, 84.1875, 84.4375, 84.734695, 84.693871, 84.833336, 84.583336, 84.39286, 84.464287, 84.571426, 84.535713, 84.464287, 84.39286, 84.285713, 84.666664, 84.708336, 84.791664, 84.916664, 84.875, 84.64286, 84.464287, 84.5, 84.5, 84.785713, 84.714287, 84.64286, 84.64286, 84.64286, 84.64286
