-10, -10, -10, -10, -10, 60.979168, 61.104168, 61.125, 61.392857, 61.392857, 61.1875, 61.0625, 61.0625, 60.9375, 60.9375, 61.0625, 61.1875, 61.25, 61.169643, 61, 60.875, 60.875, 61, 61.214287, 61.03125, 60.90625, 60.964287, 61.125, 61.291668, 61.5, 61.5, 61.392857, 61.357143, 61.285713, 61.32143, 61.25, 61.107143, 61.07143, 60.964287, 60.92857, 60.666668, 60.75, 60.833332, 60.916668, 61.392857, 61.5, 61.25, 61.25, 61.0625, 60.8125, 60.8125, 61.035713, 61.142857, 61.0625, 61.0625, 61.125, 61.125, 61.125, 61.125, 61.125, 60.9375, 61, 60.964287, 60.857143, 60.75, 60.8125, 60.75, 60.75, 60.92857, 61.153057, 61.535713, 61.3125, 61.267857, 61.1875, 60.785713, 61.0625, 61, 60.767857, 60.75, 60.75, 60.785713, 60.875, 61.107143, 61.07143, 61.07143, 61.07143, 61.096943, 60.729168, 60.892857, 60.82143, 61.223213, 61.035713, 61.035713, 61.035713, 61.375, 61.375, 61.3125, 61.1875, 61, 60.875, 61.035713, 61, 61, 61.107143, 61.214287, 61.285713, 61.357143, 61.125, 61.1875, 61.3125, 61.375, 61.57143, 61.3125, 61.1875, 61.1875, 61.1875, 61.32143, 61.392857, 61.1875, 61.1875, 61.25, 61.25, 61.25, 61.1875, 61.1875, 60.82143, 60.82143, 60.82143, 61.392857, 61.392857, 61.32143, 61.357143, 61.541668, 61.541668, 61.392857, 61.1875, 61.1875, 61.25, 61.464287, 61.469387, 61.5625, 61.520832, 61.30357, 61.09375, 61.0625, 61, 60.9375, 61.0625, 61.053574, 61.07143, 61.198978, 61.163265, 61.25, 61.464287, 61.357143, 61.42857, 61.357143, 61.25, 61.107143, 60.964287, 60.625, 60.625, 60.625, 60.6875, 60.75, 60.6875, 60.964287, 61.030613, 61.112244, 61.07143, 61.091835, 61.2551, 61.42857, 61.392857, 61.295918, 61.291668, 61, 61.07143, 61.122448, 61.035713, 61.214287, 61.5, 61.1875, 61.5, 61.5, 61.464287, 61.464287, 61.625, 61.42857, 61.5, 61.32143, 61.142857, 61.07143, 61.035713, 61.357143, 61.714287, 62.052082, 62.5, 63.118301, 63.929314, 65.052086, 65.953873, 66.625, 67.15625, 67.5625, 67.9375, 68.3125, 68.75, 69.303574, 69.794647, 70.25, 70.821426, 71.773811, 72.690475, 73.223221, 73.75, 74.232147, 74.669647, 75.125, 75.833336, 76.431549, 76.678574, 76.901787, 77.169647, 77.357147, 77.6875, 77.9375, 78.1875, 78.5, 78.785713, 79, 79.214287, 79.544647, 79.821426, 80.333336, 80.775002, 81.464287, 81.803566, 82.31945, 82.709824, 83.193748, 83.797623, 84.125, 84.642853, 85.398811, 85.602676, 85.5, 85.160713, 85, 84.875, 85, -10, -10, -10, -10, -10, -10, -10, -10, 96.0625, 96.633331, 97.396828, 97.875, 98.491661, 98.880951, 99.636909, 99.919647, 100.25, 100.5, 101.04465, 101.60715, 101.86735, 102.61607, 103.16666, 103.65179, 104.23959, 104.5759, 105.0759, 105.46875, 106.19791, 106.80804, 107.29316, 107.58125, 107.85715, 107.75595, 107.875, 107.99107, 108.10715, 108.1875, 108.375, 108.40625, 108.5, 108.69643, 109.3125, 109.62054, 110.07143, 110.1808, 110.17188, 110.35938, 110.51562, 110.78125, 110.9375, 111, 111.1875, 111.8125, 112.30357, 112.73215, 112.71875, 112.8875, 113.125, 113.71429, 114.375, 114.75, 115.125, 115.6875, 116.27679, 116.71875, 117.16965, 117.39583, -10, -10, -10, -10, -10, -10, -10, -10, -10, -10, -10, -10, -10, -10, -10, -10, -10, -10, -10, -10, -10, -10, -10, -10, -10, -10, -10, -10, -10, -10, -10, -10, -10, -10, -10, -10, -10, -10, -10, -10, -10, -10, -10, -10, -10, -10, -10, -10, -10, -10, -10, -10, -10, -10, -10, -10, -10, -10, -10, -10, -10, -10, 61.388889, 61.472225, 61.875, 62, 62.0625, 62.125, 62.125, 62.125, 62, 62.25, 62.32143, 62.42857, 62.5, 62.169643, 61.714287, 61.642857, 61.607143, 61.9375, 62.142857, 62.035713, 61.964287, 61.92857, 62, 62.214287, 62.42857, 62.42857, 62.357143, 62.0625, 62, 62.0625, 62.25, 62.142857, 62.142857, 62.07143, 62.142857, 62.5, 62.541668, 62.583332, 62.625, 62.42857, 62.42857, 62.125, 61.9375, 61.75, 61.616074, 61.854168, 61.928574, 61.955357, 62, 62.214287, 62.32143, 62.357143, 62.285713, 62.142857, 61.964287, 61.785713, 61.5, 61.5625, 61.5625, 61.71875, 61.8125, 61.8125, 61.57143, 61.833332, 62.071426, 62.375, 62.464287, 62.367344, 62.214287, 62.291668, 62.142857, 61.9375, 61.413265, 61.357143, 61.5625, 61.598213, 61.75, 61.8125, 61.875, 61.9375, 62, 61.991074, 61.729168, 61.830357, 62.333332, 62.362244, 62.791668, 62.708332, 62.708332, 62.5, 62.42857, 62.25, 62.125, 62.0625, 61.714287, 61.714287, 61.714287, 61.714287, 61.785713, 62.125, 62.1875, 62.464287, 62.464287, 62.42857, 62.42857, 62.1875, 62.1875, 62.1875, 62.125, 62.42857, 62.464287, 62.464287, 62.5, 62.392857, 62.1875, 62.1875, 62.1875, 62.1875, 62.125, 62.357143, 62.583332, 62.583332, 62.583332, 62.357143, 62.392857, 62.42857, 62.464287, 62.42857, 62.357143, 62.32143, 62.285713, 62.17857, 62.17857, 62.285713, 62.362244, 62.214287, 62.107143, 61.830357, 61.958332, 61.991074, 61.714287, 61.642857, 61.785713, 62.0625, 61.9375, 62.234692, 62.214287, 62.285713, 62.464287, 62.32143, 62.357143, 62.392857, 62.32143, 62.17857, 62.035713, 61.705357, 61.762501, 61.705357, 61.5, 62.035713, 62.142857, 62.214287, 62.316326, 62.397957, 62.357143, 62.341835, 62.357143, 62.357143, 62.285713, 62.17857, 62.142857, 61.875, 62, 62.275513, 62.142857, 62.214287, 62.25, 62.357143, 62.464287, 62.464287, 62.464287, 62.464287, 62.5, 62.589287, 62.517857, 62.30357, 62.089287, 61.78125, 61.75, 62, 62.25, 62.46875, 62.8125, 63.180801, 64.072174, 65.226189, 66.141373, 66.84375, 67.4375, 67.991074, 68.482147, 68.875, 69.3125, 69.8125, 70.294647, 70.6875, 71.258926, 72.148811, 72.85714, 73.419647, 73.9375, 74.450897, 74.84375, 75.40625, 76.177086, 76.806549, 77.116074, 77.401787, 77.714287, 77.919647, 78.1875, 78.375, 78.5625, 78.892853, 79.33036, 79.553574, 79.901787, 80.294647, 80.616074, 81.071426, 81.625, 81.848213, 82.165176, 82.552086, 82.834824, 83.28125, 83.714287, 83.875, 84.276787, 85.125, 85.508926, 85.566963, 85.267853, 85.102676, 84.875, 84.9375, 84.833328, 85, -10, -10, -10, -10, -10, -10, 96, -10, -10, 97.833336, 98.405556, 98.698418, 99.599213, 99.669647, 100.02084, 100.1875, 100.61607, 101.125, 101.50893, 102.11607, 102.69791, 103.18304, 103.625, 104.0625, 104.6384, 105.09375, 105.65625, 106.30804, 107.15625, 107.6384, 107.74107, 107.54166, 107.5625, 107.74107, 108.10715, 108.1875, 108.4375, 108.34375, 108.375, 108.51785, 109.0625, 109.37054, 109.91072, 110.18973, 110.20312, 110.39062, 110.48438, 110.65625, 110.75, 110.8125, 110.9375, 111.5625, 111.99107, 112.41071, 112.5, 112.7625, 113.25, 113.80953, 114.375, 114.77084, 115.1875, 115.625, 116.16965, 116.59375, 116.98215, 117.29166, 117.33334, -10, -10, -10, -10, -10, -10, -10, -10, -10, -10, -10, -10, -10, -10, -10, -10, -10, -10
-10, -10, -10, -10, -10, -10, -10, 62.25, 62.625, 62.729168, 63.07143, 63.25, 63.392857, 63.392857, 63.42857, 63.464287, 63.535713, 63.607143, 63.479591, 63.458332, 63.333332, 63.273808, 63.285713, 63.09375, 62.785713, 62.90625, 62.90625, 63, 63.125, 63.3125, 63.1875, 63, 62.875, 62.8125, 62.9375, 63, 63, 63.285713, 63.25, 63.285713, 63.357143, 63.285713, 63.285713, 63.285713, 63.25, 63.214287, 62.875, 62.75, 62.357143, 62.311226, 63.190479, 63.239799, 63.234692, 63.285713, 63.357143, 63.5, 63.57143, 63.5, 62.857143, 62.642857, 62.464287, 62.357143, 62.32143, 62.32143, 62.892857, 62.92857, 63, 63.208332, 63.333332, 63.32143, 63.42857, 63.392857, 63.285713, 63.17857, 63.214287, 63.285713, 63.285713, 63.345242, 63.25, 62.92857, 62.897957, 62.75, 62.8125, 62.9375, 63.125, 63.125, 63.17347, 62.952381, 62.938778, 63.035713, 63.234692, 63.392857, 63.392857, 63.535713, 63.693878, 63.333332, 63.642857, 63.392857, 63.32143, 63.375, 63.291668, 63.291668, 63.166668, 63.291668, 63.285713, 63.42857, 63.5, 63.392857, 63.127552, 63.07143, 62.8125, 62.9375, 63.0625, 63.357143, 63.5, 63.5, 63.392857, 63.392857, 63.357143, 63.392857, 63.392857, 63.357143, 63.357143, 63.285713, 63.464287, 63.5, 63.5, 63.5, 63.464287, 63.42857, 63.392857, 63.1875, 63.125, 63.125, 63.125, 63.125, 62.785713, 62.785713, 62.92857, 63.040813, 62.92857, 62.785713, 62.663265, 63.020832, 63.204082, 63.416668, 63.291668, 63.291668, 63.035713, 62.964287, 62.955357, 63.03125, 63.15625, 63.34375, 63.15625, 63.1875, 63.25, 63.125, 63.285713, 63.17857, 63.091835, 63.228573, 63.163265, 63.416668, 63.142857, 63.214287, 63.25, 63.42347, 63.57653, 63.5, 63.377552, 63.25, 63, 62.875, 62.839287, 62.910713, 62.8125, 63.214287, 63.285713, 63.32143, 63.1875, 63.1875, 63.1875, 63.1875, 63.125, 63.1875, 63.25, 63.375, 63.642857, 63.28125, 63.09375, 62.90625, 62.84375, 62.57143, 62.714287, 62.857143, 63.1875, 63.375, 63.633926, 64.369049, 65.404762, 66.441963, 67.147324, 67.71875, 68.303574, 68.901787, 69.3125, 69.8125, 70.3125, 70.794647, 71.1875, 71.696426, 72.407738, 73.0625, 73.607147, 74.178574, 74.700897, 75.09375, 75.71875, 76.480659, 76.910721, 77.258926, 77.735123, 78.214287, 78.482147, 78.75, 78.9375, 79.125, 79.580353, 80.125, 80.366074, 80.714287, 80.982147, 81.303574, 81.696426, 82.0625, 82.25, 82.508926, 82.895836, 83.241074, 83.5625, 83.857147, 83.9375, 84.276787, 85.125, 85.616074, 85.848213, 85.736603, 85.696426, 85.285713, 85.255104, 85.347221, -10, -10, -10, -10, -10, -10, -10, 96, -10, -10, -10, -10, -10, -10, 99.476196, 99.861115, 99.14286, 99.479599, 99.714287, 100.0102, 101.74107, 102.26041, 102.68304, 103.03125, 103.47768, 104.10715, 104.5759, 105.47916, 106.17857, 107.125, 107.54465, 107.55357, 107.25595, 107.25, 107.49107, 107.98215, 108.1875, 108.5, 108.40625, 108.4375, 108.45535, 108.77084, 109.0759, 109.67857, 110.16295, 110.20312, 110.39062, 110.35938, 110.40625, 110.375, 110.375, 110.5, 111.1875, 111.66072, 112.0625, 112.25, 112.63393, 113.27084, 113.78572, 114.3125, 114.75, 115.29465, 115.6875, 116.23215, 116.5625, 116.8125, 117.15625, 117.34723, -10, -10, -10, -10, -10, -10, -10, -10, -10, -10, -10, -10, -10, -10, -10, -10, -10, -10, -10, -10, -10, -10, -10, -10, -10, -10, -10, -10, -10, -10, -10, -10, -10, -10, -10, -10, -10, -10, -10, -10, -10, -10, -10, -10, -10, -10, -10, -10, -10, -10, -10, -10, -10, -10, -10, -10, -10, -10, -10, -10, -10, -10, -10, -10, 62.833332, 63.476192, 63.916664, 64.285713, 64.35714, 64.39286, 64.464287, 64.535713, 64.64286, 64.678574, 64.632652, 64.5, 64.428574, 64.341835, 64.39286, 64.26786, 64.395836, 64.053574, 64.125, 64.285713, 64.1875, 64.25, 64.0625, 63.8125, 63.625, 63.857143, 63.8125, 64.10714, 64.178574, 64.214287, 64.214287, 64.125, 64.25, 64.1875, 64.125, 64.0625, 64, 63.9375, 63.875, 63.8125, 64.125, 64.321434, 64.517014, 64.489799, 64.448982, 64.321426, 64.285713, 64.39286, 64.5, 64.428574, 64.458336, 64.25, 64.104164, 64.041664, 64.083336, 64.208336, 64.035713, 64.071426, 64.071426, 64.071426, 64.214287, 64.39286, 64.428574, 64.125, 64, 63.9375, 64.0625, 64.321426, 64.39286, 64.224495, 64.071426, 64.035713, 64.020409, 64.10714, 64.10714, 64.214287, 64.35714, 64.285713, 64.214287, 64.035713, 63.8125, 63.875, 64, 64.125, 64.125, 64.3125, 64.658165, 64.833336, 64.60714, 64.35714, 64.25, 64.14286, 64.071426, 64.14286, 64.14286, 64.285713, 64.464287, 64.5, 64.464287, 64.125, 63.830357, 63.8125, 63.5, 63.875, 64.35714, 64.5, 64.60714, 64.375, 64.25, 64.1875, 64.125, 64.321426, 64.321426, 64.35714, 64.428574, 64.35714, 64.428574, 64.25, 64.25, 64.3125, 64.5, 64.3125, 64.3125, 63.964287, 63.892857, 64.125, 64.0625, 64.0625, 64.416664, 64.5, 64.583336, 64.666664, 64.5, 64.333336, 64.220238, 64.095238, 64.168373, 64.178574, 64.178574, 64.214287, 63.9375, 63.642857, 64, 64.14286, 64.178574, 64.285713, 64.214287, 64.0625, 64.125, 64, 64.14286, 64.10714, 64.163261, 64.371429, 64.377548, 64.5, 64.321426, 64.0625, 64, 64.089287, 64.223213, 64.39286, 64.08036, 63.9375, 63.8125, 63.625, 63.651787, 63.785713, 64.071426, 64.39286, 64.428574, 64.464287, 64.5, 64.25, 64.25, 64.1875, 63.857143, 64.1875, 64.25, 64.3125, 64.3125, 64.09375, 63.90625, 63.982143, 63.94643, 64.166664, 64.208336, 64.333336, 64.178574, 64.1875, 64.446426, 65.011909, 65.642853, 66.739586, 67.325897, 67.90625, 68.553574, 69.26786, 69.794647, 70.25, 70.75, 71.232147, 71.625, 72.133926, 72.729164, 73.321426, 73.785713, 74.383926, 74.995537, 75.46875, 76.09375, 76.647324, 77.107147, 77.508926, 78.110123, 78.714287, 79.044647, 79.375, 79.625, 79.75, 80.205353, 80.714287, 81.132652, 81.479591, 81.544647, 81.803574, 82.196426, 82.5, 82.6875, 83.008926, 83.502975, 83.866074, 84.125, 84.25, 84.3125, 84.589287, 85.437508, 85.991074, 86.285713, 86.272324, 86.403061, 86.625, 86.636902, 86.06041, -10, -10, -10, -10, 94.5, 95.050003, 95.357147, 95.875, -10, -10, -10, -10, -10, -10, -10, -10, 95.916664, 96.071434, 96.208336, 96.422615, 100.71429, 100.92857, 101.39286, 102.20238, 102.60268, 103.35715, 103.73215, 104.91496, 105.75, 106.66666, 107.23215, 107.24107, 107.00595, 107, 107.24107, 107.79465, 108.0625, 108.4375, 108.375, 108.375, 108.45535, 108.83334, 109.14286, 109.67857, 110.17857, 110.0491, 110.28125, 110.15625, 110.25, 110.21875, 110.34375, 110.5134, 111.05209, 111.56697, 111.96875, 112.25, 112.64285, 113.41667, 113.85715, 114.375, 114.75, 115.29465, 115.625, 116.125, 116.5, 116.75, 117.15625, 117.32292, 117.8125, 118.18333, -10, -10, -10, -10, -10, -10, -10, -10, -10, -10, -10, -10, -10, -10, -10, -10
-10, -10, -10, -10, -10, -10, -10, -10, -10, 64.729172, 65.119041, 65.104164, 65.25, 65.10714, 65.4375, 65.5, 65.714287, 65.714287, 65.714287, 65.64286, 65.5, 65.484695, 65.5, 65.39286, 65.35714, 65.14286, 65.14286, 65.178574, 65.214287, 65.260201, 65.125, 64.9375, 64.535713, 65.035713, 65.14286, 65.14286, 65.071426, 64.839287, 64.8125, 64.875, 65, 65, 64.9375, 64.9375, 64.875, 64.8125, 65.10714, 65.178574, 65.214287, 65.346939, 65.564629, 65.459183, 65.367348, 65.214287, 64.9375, 65, 65.0625, 65.285713, 65.214287, 65.071426, 65.053574, 65.035713, 65.14286, 65.321426, 65.303574, 65.285713, 65.0625, 65.0625, 65.1875, 65.25, 65.125, 64.901787, 64.6875, 64.89286, 65.10714, 65.214287, 65.1875, 65.125, 65, 65.178574, 65.071426, 65.14286, 65.14286, 65.25, 65.35714, 65, 64.875, 64.714287, 64.794647, 64.794647, 64.9375, 64.9375, 64.875, 65.0625, 65.408165, 65.5, 65.3125, 65.1875, 64.928574, 64.85714, 64.785713, 65.125, 65.0625, 65.125, 65.35714, 65.125, 65.0625, 64.875, 64.580353, 64.625, 65.125, 65.178574, 65.428574, 65.464287, 65.5, 65.35714, 65.35714, 65.1875, 65.125, 65.1875, 65.1875, 65.25, 65.464287, 65.35714, 65.35714, 65.0625, 65.125, 65.5, 65.571426, 65.571426, 65.60714, 65.75, 65.708336, 65.35714, 65.178574, 65.10714, 65.071426, 65.214287, 65.285713, 65.35714, 65.25, 65.14286, 65.081627, 64.895828, 64.991074, 64.9375, 65, 65, 65.178574, 65.5, 65.285713, 65.339287, 65.03125, 65.09375, 65.303574, 65.25, 65.285713, 64.96875, 64.96875, 64.9375, 65.10714, 65.360718, 65.581627, 65.64286, 65.321426, 65, 64.8125, 64.8125, 64.9375, 65.107147, 65.125, 65, 64.875, 64.6875, 64.959183, 65.219383, 65.285713, 65.535713, 65.535713, 65.571426, 65.60714, 65.464287, 65.35714, 65.214287, 65.333336, 65.285713, 65.428574, 65.464287, 65.1875, 64.9375, 64.75, 64.75, 65, 65.071426, 65.071426, 65.071426, 65.071426, 65.25, 65.464287, 65.616074, 66.205353, 67.09375, 67.683044, 68.28125, 68.928574, 69.64286, 70.232147, 70.732147, 71.21875, 71.763397, 72.258926, 72.71875, 73.0625, 73.5625, 73.973213, 74.571426, 75.245537, 75.71875, 76.28125, 76.71875, 77.125, 77.633926, 78.270836, 78.857147, 79.375, 79.794647, 80.125, 80.3125, 80.705353, 81.214287, 81.491074, 81.875, 82.0625, 82.3125, 82.633926, 82.9375, 83.125, 83.4375, 83.794647, 84.125, 84.4375, 84.625, 84.75, 85.080353, 85.729172, 86.25, 86.660713, 86.772324, 86.946426, 87.39286, 87.474487, 87.402382, -10, -10, -10, 93.277779, 94.111115, 94.700005, 94.904762, 95.404762, 94.64444, -10, -10, -10, -10, -10, -10, -10, 94.785713, 94.85714, 94.928574, 95.10714, 96.875, 97.104164, 97.6875, 99.84166, 100.8244, 101.5, 103.07143, 103.82738, 105.39285, 106.25, 106.66965, 106.91965, 106.90179, 106.9375, 107.0625, 107.4375, 107.75, 108.125, 108.125, 108.25, 108.39285, 108.87798, 109.14286, 109.5, 109.85715, 109.7366, 110.03125, 109.96875, 110.125, 110.125, 110.3125, 110.5625, 111, 111.54465, 111.9375, 112.25, 112.58035, 113.29167, 113.60715, 114.10715, 114.66666, 115.24107, 115.625, 116.0625, 116.5, 116.8125, 117.21875, 117.42709, 117.95834, 118.23334, -10, -10, -10, -10, -10, -10, -10, -10, -10, -10, -10, -10, -10, -10, -10, -10, -10, -10, -10, -10, -10, -10, -10, -10, -10, -10, -10, -10, -10, -10, -10, -10, -10, -10, -10, -10, -10, -10, -10, -10, -10, -10, -10, -10, -10, -10, -10, -10, -10, -10, -10, -10, -10, -10, -10, -10, -10, -10, -10, -10, -10, -10, -10, -10, 65.666664, 66.261902, 66.369041, 66.708336, 66.64286, 66.714287, 66.714287, 66.714287, 66.64286, 66.535713, 66.428574, 66.438774, 66.25, 66.1875, 66.125, 65.875, 65.875, 65.875, 65.875, 65.946426, 66.321426, 66.285713, 66.5, 66.14286, 66.14286, 66.035713, 65.75, 65.714287, 65.6875, 65.75, 65.8125, 66.071426, 66.071426, 66.071426, 66.071426, 66.071426, 66.14286, 66.178574, 66.214287, 66.280617, 66.160713, 66.0625, 66.0625, 65.9375, 65.875, 65.875, 65.875, 65.9375, 66, 66, 66.0625, 66.125, 66.39286, 66.464287, 66.35714, 66.25, 66.178574, 66.214287, 66.39286, 66.5, 66.125, 65.709183, 65.5, 65.625, 65.776787, 65.84375, 66.09375, 66.125, 66.0625, 66, 65.875, 65.875, 65.875, 66, 66.125, 65.9375, 65.8125, 65.714287, 66.051018, 66.122452, 66.285713, 66.14286, 66.035713, 66, 66.107147, 66.1875, 66.1875, 66, 66.291664, 66.333336, 66.375, 66.25, 66.214287, 66.178574, 66, 66, 66, 65.571426, 65.595238, 66.071426, 66.14286, 66.35714, 66.5, 66.25, 66.3125, 66.125, 66.39286, 66.321426, 66.214287, 66.25, 66.25, 66.39286, 66.464287, 66.25, 66.25, 66.1875, 66.25, 66.5, 66.571426, 66.535713, 66.571426, 66.60714, 66.571426, 66.535713, 66.35714, 66.0625, 65.785713, 66.1875, 66.1875, 66.25, 66.125, 66, 65.9375, 65.8125, 65.8125, 65.6875, 65.8125, 66.10714, 66.214287, 66.35714, 66.25, 66.214287, 66.10714, 66.0625, 66.321426, 66.15625, 66.21875, 66.25, 65.96875, 65.9375, 66.280617, 66.540817, 66.64286, 66.678574, 66.428574, 66.178574, 65.6875, 65.625, 65.6875, 65.919647, 66.214287, 66.25, 66.214287, 66.035713, 66.051018, 66.163261, 66.285713, 66.5, 66.571426, 66.60714, 66.571426, 66.321426, 66.071426, 65.964287, 65.928574, 66.10714, 66.285713, 66.25, 65.9375, 65.8125, 65.6875, 65.75, 65.8125, 65.875, 65.9375, 66, 65.785713, 66.125, 66.1875, 66.3125, 66.6875, 67.5625, 68.089294, 68.625, 69.1875, 69.89286, 70.544647, 71.252975, 71.709824, 72.21875, 72.696426, 73.15625, 73.5625, 74.0625, 74.473213, 75.008926, 75.651787, 76.0625, 76.5625, 77, 77.4375, 77.946426, 78.583336, 79.125, 79.6875, 80.169647, 80.5, 80.8125, 81.25, 81.64286, 81.9375, 82.3125, 82.544647, 82.875, 83.1875, 83.4375, 83.6875, 83.9375, 84.294647, 84.5, 84.75, 84.9375, 85.1875, 85.616074, 86.145836, 86.625, 87, 87.316963, 87.625, 88.053574, 88.303574, 88.682144, 89.875, 90.095238, 91.5, 92.633339, 93.940483, 94.525002, 94.678574, 93.805565, 93.14476, -10, -10, -10, -10, -10, -10, -10, 94, 94, 94, 94.125, 95.5, 95.714287, 96.214287, 96.944435, 97.214287, 96.400002, -10, -10, 105.28571, 105.83334, 106.3125, 106.64285, 106.83035, 107.03571, 107.0625, 107.25, 107.50893, 107.8375, 107.79166, 108.125, 108.21429, 108.60715, 108.91071, 109.22321, 109.50446, 109.51785, 109.8125, 109.8125, 110, 110, 110.125, 110.4375, 110.875, 111.41965, 111.875, 112.30357, 112.6875, 113.35417, 113.54465, 113.98215, 114.62917, 115.0119, 115.67857, 115.99107, 116.4375, 116.75, 117.15625, 117.46875, 117.96875, 118.25834, -10, -10, -10, -10, -10, -10, -10, -10, -10, -10, -10, -10, -10, -10, -10, -10
-10, -10, -10, -10, -10, -10, -10, -10, -10, -10, -10, 66.766663, 66.916664, 67.60714, 67.714287, 67.75, 67.714287, 67.714287, 67.4375, 67.375, 67.3125, 67.3125, 67.25, 67.428574, 67.321426, 66.64286, 66.64286, 66.875, 66.9375, 66.946426, 67.35714, 67.39286, 67.35714, 67.178574, 66.875, 66.75, 66.6875, 66.651787, 66.625, 66.75, 66.875, 66.9375, 67.14286, 67.25, 67.25, 67.178574, 67, 67, 67, 67.026787, 67.035713, 66.875, 66.8125, 66.75, 66.964287, 66.964287, 66.75, 66.8125, 66.875, 67.178574, 67.285713, 67.285713, 67.321426, 67.285713, 67.14286, 66.875, 67.035713, 67.10714, 67.285713, 67.321426, 67.25, 67.476189, 67.416664, 66.5, 66.602043, 66.60714, 67.03125, 67.25, 67.14286, 67.035713, 66.75, 66.75, 66.75, 66.875, 67, 67.14286, 67.061226, 66.852043, 67.015305, 67.086739, 67.39286, 67.321426, 67.321426, 67.35714, 66.75, 66.821426, 67.0625, 66.714287, 67, 67.35714, 67.35714, 67.321426, 67.214287, 66.9375, 67, 66.9375, 67.214287, 67.458336, 67.416664, 67.39286, 67.428574, 67.535713, 67.375, 67.3125, 67.571426, 67.25, 67.25, 67.1875, 67.0625, 67.321426, 67.39286, 67.428574, 67.39286, 67.321426, 67.285713, 67.321426, 67.464287, 67.571426, 67.60714, 67.375, 67.4375, 67.5, 67.5, 67.64286, 67.5, 67.321426, 67.375, 67.214287, 67.178574, 67.0625, 67, 66.9375, 67.10714, 66.75, 66.75, 66.928574, 67.035713, 67.071426, 66.9375, 67.0625, 66.9375, 66.9375, 66.875, 67.178574, 67.285713, 67.25, 67.321426, 67.285713, 67.25, 67.214287, 67.352043, 67.469383, 67.464287, 67.5, 67.25, 67.071426, 66.89286, 66.785713, 66.785713, 67.015305, 67.10714, 67.178574, 67.25, 67.214287, 67.25, 66.85714, 67.1875, 67.3125, 67.375, 67.375, 67.375, 67.125, 66.64286, 66.75, 66.6875, 66.875, 67.0625, 67, 66.9375, 67.10714, 67, 67.14286, 67.071426, 67, 67, 66.964287, 67.25, 67.178574, 67.125, 67.25, 67.508926, 68.020836, 68.410721, 68.875, 69.4375, 70.214287, 70.901787, 71.627975, 72.084824, 72.59375, 73.133926, 73.674103, 74.15625, 74.65625, 75.004463, 75.392853, 75.919647, 76.375, 76.875, 77.3125, 77.8125, 78.3125, 78.857147, 79.3125, 79.875, 80.357147, 80.6875, 81, 81.383926, 81.952377, 82.321426, 82.75, 83.044647, 83.34375, 83.625, 84.071426, 84.321426, 84.40625, 84.732147, 84.84375, 85.09375, 85.401787, 86, 86.473213, 86.875, 87.1875, 87.5, 87.785713, 88, 88.428574, 88.732147, 89.050003, 89.726196, 90.85714, 91.428566, 92.520836, 93.202385, 93.958336, 94.285713, 93.629257, 93.198631, 92.5, -10, -10, -10, -10, -10, -10, 94.375, 94.285713, 94.306114, 94.354164, 94.53125, 94.65625, 95.21875, 95.738091, 95.928574, 96.095238, -10, -10, 97, 105.61111, 106.16666, 106.5238, 106.70535, 106.95238, 106.9375, 107.1875, 107.44643, 107.74821, 107.72916, 108, 108.08929, 108.48215, 108.78571, 109.14285, 109.28125, 109.33035, 109.625, 109.6875, 109.9375, 110, 110.125, 110.4375, 110.8125, 111.3125, 111.8125, 112.30357, 112.80357, 113.30655, 113.49107, 113.91965, 114.81667, 115.15476, 115.80357, 115.99107, 116.375, 116.6875, 117.125, 117.5, 118, 118.3, -10, -10, -10, -10, -10, -10, -10, -10, -10, -10, -10, -10, -10, -10, -10, -10, -10, -10, -10, -10, -10, -10, -10, -10, -10, -10, -10, -10, -10, -10, -10, -10, -10, -10, -10, -10, -10, -10, -10, -10, -10, -10, -10, -10, -10, -10, -10, -10, -10, -10, -10, -10, -10, -10, -10, -10, -10, -10, -10, -10, -10, -10, -10, -10, -10, -10, -10, 68.25, 68.3125, 68.3125, 68.428574, 68.428574, 68.35714, 68.35714, 68.39286, 68.464287, 68.535713, 68.464287, 68.321426, 68.416664, 68.375, 68.14286, 68.14286, 68.112244, 68.0625, 68.125, 68.125, 67.9375, 67.875, 67.75, 67.928574, 67.979591, 67.89286, 67.89286, 67.928574, 67.964287, 68.10714, 68.285713, 68.35714, 68.285713, 68.0625, 68, 68, 68, 68.14286, 68.035713, 68, 68, 68, 67.928574, 67.85714, 67.89286, 67.964287, 68.178574, 68.35714, 68.428574, 68.25, 67.928574, 67.785713, 67.714287, 67.892853, 67.645836, 67.758926, 67.794647, 68.10714, 68.408165, 68.586739, 68.75, 68.76786, 68.6875, 68.464287, 68.428574, 68.09375, 67.90625, 67.71875, 67.65625, 67.6875, 68.10714, 68.321426, 68.35714, 68.311226, 67.809525, 67.693878, 67.982147, 68.25, 68.428574, 68.464287, 68.535713, 68.625, 68.666664, 68.428574, 68.541664, 68.5, 68.285713, 68.125, 68.125, 68, 67.875, 68.035713, 68, 68.214287, 68.35714, 68.428574, 68.535713, 68.428574, 68.464287, 68.464287, 68.5, 68.571426, 68.39286, 68.35714, 68.321426, 68.321426, 68.25, 68.5, 68.25, 68.1875, 68.125, 68.1875, 68.571426, 68.60714, 68.520409, 68.428574, 68.35714, 68.35714, 68.428574, 68.5, 68.535713, 68.5, 68.464287, 68.35714, 68.321426, 68.25, 68.178574, 68.10714, 68.035713, 68.035713, 68.291664, 68.291664, 68, 68.10714, 68.10714, 67.9375, 67.785713, 67.714287, 68, 67.9375, 67.9375, 67.875, 67.78125, 67.84375, 67.90625, 68.283165, 68.35714, 68.276787, 68.285713, 68.1875, 68.1875, 68, 67.9375, 68.10714, 67.964287, 67.85714, 67.794647, 67.9375, 68.0625, 68.125, 68.0625, 68.25, 68.5, 68.1875, 68.3125, 68.375, 68.375, 68.571426, 68.25, 68.166664, 67.821426, 67.5625, 67.8125, 68.0625, 68.0625, 68.285713, 68.321426, 68.214287, 68.25, 68.178574, 68.178574, 68.029762, 67.988098, 68.190475, 68.198982, 68.14286, 68.25, 68.25, 68.5, 68.857147, 69.25, 69.8125, 70.473213, 71.151787, 71.940475, 72.397324, 72.96875, 73.571426, 74.084824, 74.53125, 74.96875, 75.325897, 75.75, 76.1875, 76.625, 77.1875, 77.669647, 78.1875, 78.6875, 79.169647, 79.625, 80.125, 80.544647, 80.8125, 81.133926, 81.654762, 82.327377, 82.758926, 83.1875, 83.482147, 83.78125, 84.0625, 84.375, 84.625, 84.790176, 85.208336, 85.334824, 85.59375, 85.973213, 86.770836, 87.205353, 87.625, 87.8125, 88, 88.25, 88.5, 88.928574, 89.232147, 89.5625, 89.982147, 90.821426, 91.571426, 92.145836, 92.869049, 93.645836, 93.879463, 93.394348, 92.934227, 92.791664, 93, 93, 93, 93, 93.285713, 94.452377, 94.839287, 95.416664, 95.380951, 94.791664, 94.90625, 94.90625, 95.15625, 95.25, 95.25, 95.333336, -10, -10, 96.916664, 97, 97.25, 97.523811, 105.4966, 105.80272, 105.85714, 106.20409, 107.02142, 107.31964, 107.54166, 107.875, 107.99554, 108.41965, 108.6875, 109.0625, 109.09375, 109.25, 109.51785, 109.79166, 109.96875, 110.09375, 110.09375, 110.3884, 110.98959, 111.44196, 112, 112.45982, 112.98215, 113.41071, 113.66965, 114.04465, 115.00417, 115.27976, 115.80357, 115.86607, 116.14285, 116.5, 116.98215, 117.72916, 118.20535, 118.50001, -10, -10, -10, -10, -10, -10, -10, -10, -10, -10, -10, -10, -10, -10, -10, -10
-10, -10, -10, -10, -10, -10, -10, -10, -10, -10, -10, -10, -10, 68.583336, 68.666664, 69, 69, 69, 68.928574, 69.1875, 69.5, 69.571426, 69.571426, 69.428574, 69.321426, 69.285713, 69.35714, 69.35714, 69.285713, 69.10714, 68.8125, 68.875, 68.875, 68.875, 69.035713, 69, 69, 69.071426, 69.071426, 68.875, 68.64286, 68.64286, 69, 69.285713, 69.285713, 69.214287, 69.25, 69.285713, 69.214287, 69.214287, 69.14286, 69.071426, 69.10714, 69.10714, 69.178574, 68.8125, 69, 69, 68.75, 69, 69.125, 69.25, 69.5, 69.625, 69.458336, 69.452385, 69.209183, 68.327385, 68.492348, 68.568878, 68.785713, 69.375, 69.765305, 69.785713, 69.765305, 69.696426, 69.625, 69.535713, 69.428574, 69.178574, 69, 68.89286, 68.928574, 69.178574, 69.35714, 69.428574, 69.418373, 69.416664, 69.416664, 69.178574, 69.125, 69.321426, 69.5, 69.64286, 69.678574, 69.60714, 69.464287, 69.285713, 69.14286, 69.10714, 68.875, 69.071426, 69, 69.035713, 69.035713, 68.875, 69.125, 69.1875, 69.25, 69.25, 69.0625, 69.0625, 69.125, 69.464287, 69.3125, 69.25, 69.1875, 69.285713, 69.321426, 69.321426, 69.321426, 69.214287, 69.25, 69.125, 69.428574, 69.64286, 69.571426, 69.205353, 69.0625, 69, 69.125, 69.285713, 69.375, 69.4375, 69.3125, 69.25, 69.125, 69, 69.10714, 68.875, 68.8125, 68.75, 68.75, 69.071426, 69.14286, 69.14286, 69.25, 69.285713, 69.285713, 69.583336, 69.458336, 69.14286, 69.14286, 69.035713, 68.75, 68.5, 68.571426, 68.678574, 69.169647, 69.5, 69.571426, 69.382652, 68.9375, 69, 68.982147, 69.25, 69.35714, 69.25, 69.14286, 69.178574, 69.214287, 69.321426, 69.321426, 69.214287, 69.25, 69.285713, 69.39286, 69.571426, 69.60714, 69.535713, 69.5, 69.214287, 68.928574, 68.85714, 68.785713, 68.964287, 69.14286, 69.214287, 69.35714, 69.39286, 69.321426, 69.321426, 69.25, 69.321426, 69.76786, 69.76786, 69.166664, 69.080353, 69, 69.0625, 69.125, 69.25, 69.4375, 69.6875, 70.125, 70.785713, 71.339287, 72.020836, 72.428574, 72.8125, 73.357147, 74.178574, 74.745537, 75.28125, 75.700897, 76.125, 76.5625, 77.208336, 77.8125, 78.294647, 78.75, 79.1875, 79.607147, 80, 80.375, 80.75, 81, 81.383926, 81.967262, 82.702377, 83.196426, 83.5625, 83.857147, 84.165176, 84.645836, 84.919647, 85.1875, 85.227676, 85.583336, 85.772324, 86.178574, 86.719383, 87.681969, 88.030617, 88.3125, 88.5, 88.625, 88.9375, 89.125, 89.428574, 89.732147, 90, 90.482147, 91.339287, 91.758926, 92.25, 92.660713, 93.333336, 93.629463, 93.507439, 93.284225, 93.03125, 93.309532, 93.291664, 93.208336, 93.208336, 93.5, 94.746033, 95.303574, 95.85714, 95.755104, 95.476189, 95.40625, 95.40625, 95.65625, 95.75, 95.75, 95.833336, 96.625, 96.75, 96.9375, 97.083336, 97.333336, 97.682533, 101.45635, 100.53333, 101.95834, 102.3373, 106.94523, 107.34286, 107.35416, 107.66666, 107.80804, 108.25, 108.57143, 108.90625, 109.05804, 109.45834, 109.78571, 110.10416, 110.15625, 110.21875, 110.1741, 110.56548, 111.13691, 111.53571, 112.03125, 112.45982, 113.04465, 113.53571, 113.91965, 114.3125, 115.0875, 115.33334, 115.80357, 115.80357, 115.95535, 116.1875, 116.64286, 117.70833, 118.21428, 118.60417, 118.83333, -10, -10, -10, -10, -10, -10, -10, -10, -10, -10, -10, -10, -10, -10, -10, -10, -10, -10, -10, -10, -10, -10, -10, -10, -10, -10, -10, -10, -10, -10, -10, -10, -10, -10, -10, -10, -10, -10, -10, -10, -10, -10, -10, -10, -10, -10, -10, -10, -10, -10, -10, -10, -10, -10, -10, -10, -10, -10, -10, -10, -10, -10, -10, -10, -10, -10, -10, -10, 70.333336, 70.44445, 70.5, 70.5, 70.285713, 70.285713, 70.479591, 70.366074, 70.3125, 70.1875, 70.125, 70.125, 70.25, 70, 69.875, 69.8125, 69.8125, 70.035713, 70.035713, 70, 70.071426, 70.035713, 69.875, 70.071426, 70, 70.25, 70.25, 70.14286, 70, 70, 70, 70.285713, 70.35714, 70.285713, 70.214287, 69.875, 70.035713, 70.071426, 70.035713, 70.071426, 69.928574, 70, 70, 69.75, 69.9375, 70, 70.35714, 70.464287, 70.428574, 70.321426, 70.352043, 70.352043, 70.305557, 70.339287, 70.196434, 70.291664, 70.35714, 70.658165, 70.85714, 70.928574, 70.785713, 70.60714, 70.428574, 70.285713, 70.178574, 70.10714, 70.10714, 70.214287, 70.39286, 70.5, 70.3125, 70.303574, 70.35714, 70.35714, 70.285713, 70.0625, 70.1875, 70.375, 70.5, 70.5, 70.375, 70.1875, 70.0625, 70, 70, 69.9375, 69.875, 69.8125, 70.10714, 69.9375, 70.214287, 70.39286, 70.125, 70.1875, 70.1875, 70.0625, 69.85714, 70.125, 70.25, 70.25, 70.1875, 70.39286, 70.0625, 70.0625, 70.0625, 70.0625, 70, 70, 70.25, 70.39286, 70.64286, 70.729591, 70.375, 69.958336, 69.916664, 70.107147, 70.459183, 70.571426, 70.571426, 70.25, 70.1875, 70.125, 69.714287, 69.9375, 69.875, 69.875, 69.875, 69.875, 69.9375, 69.9375, 69.875, 70.14286, 70.178574, 70.214287, 70.285713, 70.214287, 70.10714, 70.14286, 69.875, 69.8125, 70.291664, 70.291664, 70.458336, 70.443878, 70.464287, 70.535713, 70.346939, 69.875, 70.25, 70.265305, 70.428574, 70.535713, 70.464287, 70.321426, 70.25, 70.214287, 70.214287, 70.25, 70.214287, 70.125, 70.25, 70.464287, 70.535713, 70.535713, 70.464287, 70.3125, 70.1875, 69.9375, 69.8125, 69.928574, 69.75, 69.875, 70, 70.1875, 70.1875, 70.125, 70.0625, 69.9375, 70.285713, 70.515305, 70.479591, 70.333328, 70.270409, 70.285713, 70.39286, 70.1875, 70.125, 70.125, 70.25, 70.5625, 71.116074, 71.589287, 72.008926, 72.666664, 72.897957, 73.551025, 74.553574, 75.120537, 75.71875, 76.111603, 76.5625, 76.96875, 77.614586, 78.28125, 78.763397, 79.1875, 79.625, 79.982147, 80.3125, 80.6875, 81, 81.3125, 81.696426, 82.217262, 82.916664, 83.383926, 83.6875, 84, 84.352676, 84.877975, 85.169647, 85.4375, 85.540176, 85.958336, 86.209824, 86.59375, 87.098213, 88.002975, 88.410721, 88.991074, 89.232147, 89.4375, 89.75, 89.875, 90, 90.125, 90.25, 90.544647, 91.294647, 91.696426, 92.169647, 92.491074, 93.083336, 93.450897, 93.882439, 93.855652, 93.78125, 93.763397, 93.78125, 93.78125, 93.571426, 94.09375, 95.059525, 95.866074, 96.25, 96.223213, 96.041664, 96.15625, 96.303574, 96.28125, 96.392853, 96.5, 96.645836, 97.25, 97.166664, 97.151787, 97.25, 97.5, 98.011909, 100.02381, 100.16666, 100.46429, 100.77721, -10, -10, 107.41666, 107.04166, 107.26041, 107.89286, 108.22449, 108.57653, 108.58929, 109.20238, 109.57652, 109.92517, 110.07291, 110.29018, 110.3616, 110.75298, 111.38691, 111.72321, 112.15625, 112.40625, 112.9375, 113.47321, 113.98215, 114.4375, 115.1875, 115.625, 115.8125, 115.875, 115.96428, 116.39584, 116.82143, 117.83333, 118.27678, 118.64584, 118.88889, -10, -10, -10, -10, -10, -10, -10, -10, -10, -10, -10, -10, -10, -10, -10
-10, -10, -10, -10, -10, -10, -10, -10, -10, -10, -10, -10, -10, -10, -10, 70.599998, 70.733337, 71.428574, 71.428574, 71.39286, 70.85714, 71.294647, 71.366074, 71.464287, 71.285713, 71.14286, 70.875, 70.9375, 70.9375, 70.9375, 71.10714, 71.035713, 71.10714, 71.035713, 70.8125, 70.955353, 70.949997, 70.821426, 70.964287, 70.785713, 70.785713, 70.785713, 70.89286, 70.75, 70.8125, 70.9375, 71, 71, 71.102043, 70.875, 70.857147, 70.9375, 70.785713, 70.9375, 70.875, 70.928574, 70.928574, 70.928574, 70.85714, 70.964287, 70.8125, 71, 71.125, 71.1875, 71.1875, 71.276787, 71.308037, 71.333336, 71.255104, 71.061226, 71.071426, 71.0625, 71.357147, 71.5625, 71.6875, 71.5625, 71.375, 71.125, 70.96875, 71.013397, 71.257652, 71.26786, 71.285713, 71.321426, 71.285713, 71.285713, 71.285713, 71.0625, 71.125, 71.321426, 71.321426, 71.39286, 71.39286, 71.428574, 71.1875, 71.0625, 70.9375, 70.8125, 70.928574, 70.964287, 71.045914, 71.309525, 71.336739, 71.083336, 71.321426, 71.285713, 71.321426, 71.14286, 71.178574, 71.178574, 71.14286, 71.5, 71.35714, 71.39286, 71.321426, 71.214287, 71.285713, 71.214287, 71.0625, 71.125, 71.0625, 71.0625, 71.0625, 71.0625, 71.1875, 71.375, 71.693878, 71.632652, 71.202385, 70.854164, 71.301018, 71.42347, 71.5, 71.571426, 71.428574, 71.464287, 71.464287, 71.625, 71.321426, 71.285713, 71.25, 71.214287, 71.214287, 71.178574, 71.178574, 70.64286, 70.785713, 70.85714, 70.928574, 71, 70.928574, 70.785713, 71, 71.10714, 71.035713, 71.071426, 71.071426, 71.178574, 71.275513, 71.0625, 71.1875, 71.116074, 71.14286, 71.285713, 71.265305, 71.39286, 71.535713, 71.571426, 71.535713, 71.535713, 70.964287, 70.928574, 71.080353, 71.14286, 71.14286, 71.285713, 71.39286, 71.3125, 71.375, 71.3125, 71.25, 71.321426, 71.14286, 71, 70.75, 70.78125, 70.84375, 71.03125, 71.15625, 71.1875, 71.125, 70.9375, 70.964287, 71.1875, 71.241074, 71.241074, 71.104164, 71.017853, 71.25, 71.321426, 71.178574, 71.178574, 70.9375, 71, 71.1875, 71.5, 71.857147, 72.196426, 72.854164, 73.367348, 73.989799, 74.744049, 75.339287, 76, 76.428574, 76.892853, 77.450897, 78.114586, 78.78125, 79.263397, 79.6875, 80.0625, 80.3125, 80.6875, 81, 81.3125, 81.6875, 82.071426, 82.583336, 83, 83.419647, 84, 84.392853, 84.821426, 85.315475, 85.482147, 85.714287, 85.991074, 86.520836, 86.866074, 87.25, 87.705353, 88.440475, 88.803574, 89.535713, 89.848213, 90.321426, 90.571426, 90.5625, 90.6875, 90.8125, 91, 91.1875, 91.544647, 91.946426, 92.627975, 92.991074, 93.3125, 93.540176, 93.998512, 94.272324, 94.28125, 94.325897, 94.535713, 94.60714, 94.9375, 95.025513, 95.666672, 96.053574, 96.375, 96.375, 96.5625, 96.75, 96.8125, 97, 97.205353, 97.535713, 97.714287, 97.821426, 97.625, 97.6875, 97.642853, 97.854164, 98.511909, 99.136909, 99.25, 99.4375, 99.607147, -10, -10, -10, 106.40476, 106.56548, 106.6875, 106.96429, 107.1994, 107.78062, 108.05555, 108.60204, 108.95635, 110.05208, 110.3616, 110.5491, 110.94048, 111.63691, 111.91071, 112.34375, 112.53125, 113, 113.77084, 114.28572, 114.6875, 115.0625, 115.4375, 115.625, 115.75, 115.97321, 116.60417, 117.03571, 118.05208, 118.43303, 118.78125, 118.91666, 119.375, 119.70833, -10, -10, -10, -10, -10, -10, -10, -10, -10, -10, -10, -10, -10, -10, -10, -10, -10, -10, -10, -10, -10, -10, -10, -10, -10, -10, -10, -10, -10, -10, -10, -10, -10, -10, -10, -10, -10, -10, -10, -10, -10, -10, -10, -10, -10, -10, -10, -10, -10, -10, -10, -10, -10, -10, -10, -10, -10, -10, -10, -10, -10, -10, -10, -10, -10, -10, -10, -10, 72.571426, 72.571426, 72.428574, 72.5, 72.408165, 72.454086, 72.5, 72.428574, 71.821426, 71.785713, 71.775513, 72.214287, 72.25, 72.14286, 72.071426, 72.10714, 71.875, 71.8125, 72.234695, 72.26429, 72.045914, 71.8125, 71.625, 71.5625, 71.39286, 71.6875, 71.6875, 71.75, 72.10714, 72, 71.785713, 71.744896, 71.875, 72.015305, 72.10714, 72.416664, 72.14286, 71.9375, 71.75, 71.75, 71.78125, 71.71875, 71.78125, 71.71875, 71.8125, 71.875, 71.9375, 71.9375, 72.089287, 72.290176, 72.3125, 72.3125, 72.125, 71.785713, 72.125, 72.25, 72.375, 72.714287, 72.64286, 72.3125, 72.0625, 71.875, 71.982147, 72.275513, 72.39286, 72.464287, 72.1875, 71.85714, 71.85714, 71.85714, 71.785713, 72.125, 72.35714, 72.321426, 72.321426, 72.14286, 71.9375, 71.9375, 71.919647, 71.8125, 71.75, 71.928574, 72, 72.153061, 72.452385, 72.479591, 72.625, 72.321426, 72.214287, 72, 71.875, 71.9375, 72.25, 72.35714, 72.5, 72.535713, 72.5, 72.428574, 72.125, 72.1875, 72.285713, 72.214287, 72.25, 72.285713, 72.551018, 72.25, 72.25, 72.035713, 72.14286, 72.801018, 72.765305, 72.416672, 72.297615, 72.443878, 72.339287, 72.375, 72.4375, 72.535713, 72.571426, 72.60714, 72.571426, 72.5, 72.5, 72.418373, 72.214287, 72.214287, 72.14286, 72.25, 72.5, 72.625, 72.666664, 72.583336, 72.5, 72.375, 72.333336, 72.214287, 72.25, 72.25, 72, 71.9375, 71.9375, 71.9375, 71.875, 71.9375, 71.928574, 72.071426, 72.178574, 71.919647, 72, 72.125, 72.1875, 72.428574, 72.5, 72.625, 72.5, 72.017853, 71.9375, 72, 72.1875, 72.1875, 72.1875, 72.35714, 72.25, 72.214287, 72.25, 72.214287, 72.14286, 72.14286, 72.10714, 72.10714, 72.285713, 72.39286, 72.428574, 72.428574, 72.285713, 72.31633, 72.464287, 72.133926, 72.133926, 72.1875, 72.125, 72.1875, 72.25, 72.0625, 72, 71.875, 71.875, 72, 72.25, 72.5, 72.696426, 73.229164, 73.508926, 73.982147, 74.958336, 75.64286, 76.541664, 77.071426, 77.642853, 78.138397, 78.802086, 79.34375, 79.78125, 80.125, 80.4375, 80.625, 80.946426, 81.458336, 81.803574, 82.21875, 82.59375, 82.90625, 83.21875, 83.607147, 84.1875, 84.642853, 85.196426, 85.797623, 85.919647, 86.178574, 86.526787, 86.9375, 87.3125, 87.6875, 88.196426, 88.732147, 89.133926, 89.910713, 90.348213, 90.794647, 91, 91.1875, 91.25, 91.375, 91.5, 91.5625, 91.830353, 92.279762, 92.931549, 93.303574, 93.625, 93.883926, 94.342262, 94.678574, 94.75, 94.888397, 95.03125, 95.15625, 95.51786, 95.668373, 95.833336, 96.151787, 96.4375, 96.625, 96.9375, 97.1875, 97.4375, 97.6875, 97.955353, 98.125, 98.25, 98.375, 98.571426, 98.64286, 98.392853, 98.541664, 99.083336, 99.397324, 99.40625, 99.40625, 99.500008, -10, -10, -10, 106.29166, 106.41666, 106.625, 106.97768, 107.16518, 107.33673, 107.79762, 108.08163, 108.5102, 109.64583, 110.01785, 110.45535, 111.01191, 111.53572, 111.8125, 112.25, 112.5, 113, 113.78334, 114.07143, 114.5625, 114.85715, 115.3125, 115.625, 115.8125, 116.15179, 116.9375, 117.35714, 118.01041, 118.29018, 118.59375, 118.79166, 119.25, 119.58334, 120.2, -10, -10, -10, -10, -10, -10, -10, -10, -10, -10, -10, -10
-10, -10, -10, -10, -10, -10, -10, -10, -10, -10, -10, -10, -10, -10, -10, -10, -10, 73.099998, 73.5, 73.440475, 73.35714, 73.489799, 73.241074, 73.3125, 73.464287, 73.625, 73.708336, 73.601189, 73.285713, 73.25, 72.875, 72.8125, 72.8125, 72.964287, 72.928574, 73.127548, 73.192856, 73.045914, 73.035713, 72.85714, 72.416664, 73.125, 72.964287, 73.035713, 73.178574, 73.214287, 73.214287, 73.333336, 73.226189, 73.035713, 73.122452, 73.285713, 73.428574, 73.35714, 73.285713, 73.14286, 73.10714, 73.14286, 73.14286, 73.14286, 72.84375, 72.571426, 72.8125, 72.875, 72.9375, 73.0625, 73.39286, 73.428574, 73.321426, 73.14286, 73.291664, 73.10714, 73.214287, 73.321426, 73.5, 73.535713, 73.428574, 73.178574, 72.928574, 73.086739, 73.275513, 73.464287, 73.571426, 73.5, 73.666664, 73.666664, 73.666664, 73.625, 73.39286, 73.39286, 73.107147, 73, 72.991074, 72.857147, 72.875, 72.919647, 73.10714, 73.178574, 72.9375, 72.9375, 73.071426, 73.595238, 73.622452, 73.571426, 73.125, 72.9375, 72.875, 72.8125, 72.875, 73.178574, 73.25, 73.428574, 73.535713, 73.535713, 73.60714, 73.571426, 73.678574, 73.291664, 73.208336, 73.535713, 73.535713, 73.765312, 73.958336, 74, 73.916664, 73.875, 73.544647, 73.482147, 73.476196, 73.380943, 73.489799, 73.530617, 73.464287, 73.535713, 73.535713, 73.60714, 73.714287, 73.64286, 73.60714, 73.60714, 73.303574, 73.125, 73.125, 73.0625, 73.39286, 73.428574, 73.5, 73.5, 73.428574, 73.35714, 73.214287, 73.214287, 73.25, 73.285713, 73.321426, 73.0625, 72.9375, 72.9375, 72.875, 72.75, 72.8125, 72.75, 72.776787, 72.910713, 72.75, 72.776787, 72.875, 73.145836, 73.1875, 73.530617, 73.464287, 73.35714, 73.270401, 73.244896, 73.362244, 73.5, 73.464287, 73.285713, 73, 72.875, 72.875, 72.9375, 72.9375, 73.071426, 73.10714, 73.10714, 73.10714, 73.214287, 73.25, 73.35714, 73.428574, 73.321426, 73.387756, 73.464287, 73.260201, 73.331627, 73.428574, 73.35714, 73.39286, 73.428574, 73.25, 73.285713, 73.178574, 73.178574, 73.285713, 73.321426, 73.428574, 73.383926, 73.854164, 74.196426, 74.6875, 75.333336, 75.928574, 77, 77.5, 78.089287, 78.721725, 79.147324, 79.65625, 80.03125, 80.375, 80.6875, 80.883926, 81.404762, 81.949409, 82.241074, 82.65625, 82.96875, 83.28125, 83.59375, 83.919647, 84.5, 84.955353, 85.5625, 86.071426, 86.3125, 86.616074, 87.089287, 87.5625, 87.9375, 88.3125, 88.696426, 89.125, 89.446426, 90.160713, 90.651787, 91.357147, 91.46875, 91.6875, 91.6875, 91.78125, 91.96875, 92.0625, 92.330353, 92.779762, 93.369049, 93.678574, 94, 94.258926, 94.708336, 94.991074, 95.1875, 95.34375, 95.5625, 95.75, 95.875, 96.03125, 96.1875, 96.544647, 96.8125, 97.125, 97.375, 97.625, 97.875, 98.125, 98.455353, 98.625, 98.821426, 99.208336, 99.303574, 99.4375, 99.484688, 99.476189, 99.645836, 99.647324, 99.65625, 99.674103, 100.04762, 102.66666, -10, -10, 106.375, 106.54166, 106.625, 106.8125, 107.00893, 107.3125, 107.63393, 107.875, 108.25893, 109.14583, 109.67857, 110.47916, 110.92857, 111.4762, 111.75, 112.25, 112.5, 113, 113.65834, 113.90476, 114.3125, 114.54465, 115.00893, 115.52084, 115.80357, 116.27679, 117.1875, 117.67857, 118.03125, 118.28125, 118.59375, 118.91071, 119.3125, 119.60416, -10, -10, -10, -10, -10, -10, -10, -10, -10, -10, -10, -10, -10, -10, -10, -10, -10, -10, -10, -10, -10, -10, -10, -10, -10, -10, -10, -10, -10, -10, -10, -10, -10, -10, -10, -10, -10, -10, -10, -10, -10, -10, -10, -10, -10, -10, -10, -10, -10, -10, -10, -10, -10, -10, -10, -10, -10, -10, -10, -10, -10, -10, -10, -10, -10, -10, -10, -10, -10, 73.833336, 74.104164, 74.145836, 74.428574, 74.25, 74.535713, 74.571426, 74.60714, 74.64286, 74.515312, 74.285713, 73.9375, 73.75, 73.6875, 73.6875, 73.6875, 73.75, 73.955353, 74.074997, 73.946426, 74.14286, 74, 74.041664, 74.035713, 74.071426, 74.10714, 74.214287, 74.10714, 74.10714, 74.071426, 73.979599, 74.071426, 74.204086, 74.39286, 74.571426, 74.464287, 74.35714, 74.178574, 74.14286, 74.178574, 74.25, 74.321426, 74.25, 74.5, 74.214287, 74.178574, 74.214287, 74.321426, 74.21875, 74.51786, 74.48214, 74.375, 74.35714, 74, 74, 74.0625, 74.1875, 74.3125, 74.25, 74.321426, 74.14286, 73.982147, 74.178574, 74.535713, 74.714287, 74.678574, 74.64286, 74.64286, 74.5, 74.428574, 74.39286, 74.35714, 74.044647, 73.9375, 74.132652, 74.015312, 74.214287, 74.336739, 74.35714, 74.428574, 74.35714, 74.285713, 74.397957, 74.395836, 74.357147, 74.25, 73.9375, 73.75, 73.964287, 74, 74.071426, 74.10714, 73.9375, 74.0625, 74.1875, 74.464287, 74.571426, 74.678574, 74.821426, 74.958336, 74.791664, 74.571426, 74.571426, 74.765312, 74.89286, 74.928574, 74.85714, 74.785713, 74.678574, 74.375, 74.375, 74.3125, 74.60714, 74.64286, 74.571426, 74.60714, 74.60714, 74.4375, 74.714287, 74.375, 74.3125, 74.25, 74.178574, 74.0625, 74.125, 74.125, 74.1875, 74.1875, 74.1875, 74.1875, 74.1875, 74.1875, 74.125, 74.125, 74.0625, 74.214287, 74.178574, 74.14286, 74.071426, 74.071426, 74.071426, 73.928574, 73.89286, 73.696426, 73.530617, 73.910713, 73.464287, 73.459183, 73.571426, 74.345238, 74.25, 74.339287, 74.25, 74.125, 74.224487, 74.280617, 74.469383, 74.535713, 74.428574, 74.0625, 73.9375, 73.875, 73.875, 73.875, 73.9375, 73.875, 73.875, 73.84375, 73.90625, 74.03125, 74.03125, 74.125, 74.125, 74.214287, 74.151787, 74.25, 74.397957, 74.540817, 74.60714, 74.535713, 74.535713, 74.535713, 74.428574, 74.464287, 74.39286, 74.39286, 74.39286, 74.39286, 74.35714, 74.125, 74.3125, 74.5, 74.875, 75.458336, 76, 77.145836, 77.64286, 78.285713, 79.086311, 79.616074, 80.0625, 80.4375, 80.75, 81.017853, 81.366074, 81.895836, 82.386909, 82.616074, 82.96875, 83.21875, 83.59375, 83.96875, 84.357147, 85, 85.392853, 85.9375, 86.339294, 86.5625, 86.928574, 87.464287, 88, 88.5, 88.875, 89.258926, 89.625, 89.830353, 90.648811, 91.116074, 91.857147, 91.96875, 92.1875, 92.1875, 92.388397, 92.678574, 92.82653, 93.330353, 93.485123, 93.824409, 93.991074, 94.3125, 94.625, 94.982147, 95.25, 95.5, 95.625, 95.8125, 96, 96.0625, 96.25, 96.5, 96.919647, 97.294647, 97.5625, 97.8125, 98, 98.25, 98.5625, 98.875, 99, 99.196426, 99.645836, 99.991074, 100.25893, 100.36735, 100.18452, 100.21429, 100.29082, 100.28571, 100.34184, 102.13889, 103.65, 104.85715, 106.5, 106.82143, 107.0625, 107.1875, 107.25, 107.3125, 107.45535, 107.90476, 108.08035, 108.44196, 108.94791, 109.39286, 110.41666, 110.87857, -10, -10, -10, -10, -10, 113.71111, 113.87302, 114.25, 114.29465, 114.73392, 115.41667, 115.73215, 116.20535, 116.9256, 117.58333, 117.8884, 118.09375, 118.39732, 118.76071, 119.00893, 119.4375, -10, -10, -10, -10, -10, -10, -10, -10, -10, -10, -10, -10, -10
-10, -10, -10, -10, -10, -10, -10, -10, -10, -10, -10, -10, -10, -10, -10, -10, -10, -10, -10, 74.472221, 74.527779, 75.595238, 75.5, 75.729599, 75.64286, 75.5625, 75.5625, 75.419647, 75.1875, 74.714287, 74.75, 74.75, 74.75, 74.75, 74.8125, 74.875, 75.035713, 75.14286, 75.214287, 75.25, 75, 75.39286, 75.39286, 75.321426, 75.0625, 74.875, 74.875, 74.9375, 74.875, 74.9375, 75.14286, 75.285713, 75.5, 75.428574, 75.428574, 75.25, 75.178574, 74.96875, 75.26786, 75.339287, 75.303574, 75.35714, 75.285713, 75.285713, 75.285713, 75.321426, 75.35714, 75.464287, 75.5, 75.5, 75.5, 75.1875, 75.125, 75.125, 75.1875, 75.3125, 75.3125, 75.39286, 75.285713, 75.285713, 75.428574, 75.60714, 75.785713, 75.785713, 75.714287, 75.64286, 75.25, 75.1875, 75.1875, 75.1875, 75.336739, 75.25, 75.382652, 75.301025, 75.5, 75.561226, 75.5, 75.5, 75.39286, 75.25, 75.285713, 75.321426, 75.125, 75.125, 74.678574, 75.14286, 75.17347, 75.178574, 75.214287, 75.0625, 75.0625, 75.125, 75.1875, 75.3125, 75.4375, 75.5, 75.785713, 75.75, 75.571426, 75.571426, 75.60714, 75.482147, 75.5625, 75.5625, 75.4375, 75.375, 75.25, 75.285713, 75.35714, 75.428574, 75.571426, 75.64286, 75.5, 75.428574, 75.35714, 75.35714, 75.5, 75.1875, 75.1875, 75.1875, 75.053574, 75.214287, 75.214287, 75.14286, 75.14286, 74.9375, 75, 75.0625, 75.125, 75.35714, 75.25, 75.178574, 75.071426, 74.9375, 75, 75.0625, 75.25, 75.214287, 75.214287, 75.071426, 75, 75.010201, 75.39286, 75.18367, 75.375, 75.226189, 75.25, 75.309525, 75.321426, 75.387756, 75.285713, 75.0625, 74.89286, 75.285713, 75.790817, 75.5625, 75.375, 75.35714, 75.178574, 75.14286, 75.214287, 75.178574, 75.14286, 74.9375, 74.9375, 74.9375, 75, 75, 74.9375, 75, 75.0625, 75.0625, 75.125, 75.125, 75.1875, 75.428574, 75.571426, 75.571426, 75.571426, 75.571426, 75.464287, 75.428574, 75.321426, 75.39286, 75.35714, 75.321426, 75.125, 75, 75.0625, 75.25, 75.5, 75.8125, 76.25, 77.239586, 77.700897, 78.361603, 79.135422, 79.794647, 80.366074, 80.785713, 81.080353, 81.5, 81.785713, 82.333336, 83.053574, 83.321426, 83.59375, 83.71875, 84.03125, 84.34375, 84.75, 85.1875, 85.607147, 86.125, 86.589294, 86.9375, 87.339287, 87.857147, 88.375, 88.8125, 89.258926, 89.770836, 90.125, 90.383926, 90.979164, 91.4375, 92.044647, 92.15625, 92.375, 92.375, 92.73661, 94.25695, 94.470238, 94.343529, 94.092262, 94.053574, 94.1875, 94.4375, 94.857147, 95.232147, 95.5, 95.75, 95.946426, 96.333336, 96.553574, 96.625, 96.6875, 96.964287, 97.535721, 97.877975, 98.017853, 98.205353, 98.3125, 98.625, 98.9375, 99.1875, 99.375, 99.580353, 100.29167, 100.66965, 100.91071, 100.875, 100.89285, 101.31945, 101.59821, 102.13195, 102.39584, 103.07143, 103.75, 104.65476, 105.90476, 106.76935, 107.17857, 107.32812, 107.34375, 107.375, 107.51785, 108.1756, 108.38393, 108.65625, 108.78125, 109.14286, 110.3125, 110.77857, -10, -10, -10, -10, -10, -10, -10, -10, 114.16965, 114.5619, 115.38889, 115.7262, 115.80059, 116.59226, 117.19048, 117.48215, 117.6875, 118.03571, 118.61071, 118.77976, 119.42857, -10, -10, -10, -10, -10, -10, -10, -10, -10, -10, -10, -10, -10, -10, -10, -10, -10, -10, -10, -10, -10, -10, -10, -10, -10, -10, -10, -10, -10, -10, -10, -10, -10, -10, -10, -10, -10, -10, -10, -10, -10, -10, -10, -10, -10, -10, -10, -10, -10, -10, -10, -10, -10, -10, -10, -10, -10, -10, -10, -10, -10, -10, -10, -10, -10, -10, -10, -10, -10, -10, -10, -10, 76.666672, 76.60714, 76.801025, 76.678574, 76.75, 76.64286, 76.535713, 76.428574, 76.458336, 76.071426, 76, 75.928574, 75.928574, 76.071426, 76.14286, 75.916664, 76.321426, 76.35714, 76.321426, 76.5, 76.35714, 76.35714, 76.1875, 76.1875, 76, 75.875, 76.035713, 76, 76.035713, 75.875, 76.0625, 76.25, 76.169647, 76.0625, 75.9375, 75.875, 76, 76.125, 76.1875, 76.125, 76.125, 76, 76, 76, 76, 76, 76.125, 76.428574, 76.535713, 76.60714, 76.5, 76.428574, 76.428574, 76.464287, 76.5, 76.428574, 76.35714, 76.321426, 76.39286, 76.571426, 76.678574, 76.714287, 76.64286, 76.375, 76.3125, 76.1875, 76.1875, 76.1875, 76.464287, 76.489799, 76.5, 76.602043, 76.561226, 76.678574, 76.60714, 76.535713, 76.25, 76.125, 76, 75.9375, 76, 76.0625, 76.39286, 76.583336, 76.25, 76.209183, 76.10714, 76.178574, 76.178574, 76.14286, 76.178574, 76.14286, 76.321426, 76.3125, 76.4375, 76.5625, 76.5625, 76.4375, 76.4375, 76.571426, 76.25, 76.1875, 76.0625, 76, 76, 75.9375, 75.9375, 76.0625, 76.428574, 76.60714, 76.4375, 76.3125, 76.25, 75.928574, 76.125, 76.1875, 75.96875, 75.84375, 76, 75.84375, 75.973213, 76, 76, 75.9375, 75.9375, 76, 76.0625, 76.39286, 76.464287, 76.35714, 76.0625, 75.857147, 75.791664, 76.0625, 76.39286, 76.5, 76.1875, 76.125, 76.14286, 76, 76.081627, 76.336731, 76.377556, 76.39286, 76.193871, 76.214287, 76.083336, 76.125, 76.151787, 76, 76.25, 76.583336, 76.809525, 76.806129, 76.785713, 76.64286, 76.5, 76.39286, 76.428574, 76.5, 76.428574, 76.35714, 76.214287, 76.14286, 76.14286, 76.214287, 76.285713, 76.14286, 76.10714, 76.071426, 76.071426, 76.214287, 76.285713, 76.428574, 76.1875, 76.3125, 76.535713, 76.464287, 76.464287, 76.0625, 76, 76, 76.098213, 76.125, 76.125, 76.285713, 75.9375, 76, 76.0625, 76.25, 76.5, 76.758926, 77.447922, 77.763397, 78.299103, 79.251495, 79.964287, 80.616074, 81.035713, 81.392853, 81.875, 82.223213, 82.824409, 83.407738, 83.678574, 83.875, 84.017853, 84.458336, 84.803574, 85.1875, 85.59375, 85.950897, 86.34375, 86.700897, 87.133926, 87.708336, 88.178574, 88.625, 89, 89.508926, 90.065475, 90.4375, 90.696426, 91.229164, 91.625, 92.1875, 92.40625, 92.625, 92.71875, 93.08036, 94.363098, 94.617348, 94.479164, 94.330353, 94.458336, 94.482147, 94.75, 95.107147, 95.419647, 95.75, 96.008926, 96.404762, 96.824409, 97.053574, 97.285713, 97.25, 97.589287, 98.223221, 98.627975, 98.705353, 98.830353, 98.875, 99.125, 99.5, 99.857147, 100, 100.26785, 100.91667, 101.23215, 101.47321, 101.375, 101.46429, 101.72084, 102.14966, 102.94218, 103.28571, 103.8125, 104.15625, 104.67857, 105.67857, 106.57143, 106.99107, 107.25, 107.15625, 107.1875, 107.45535, 108.1756, 108.55357, 108.84375, 108.90625, 109.21429, 110.45834, 110.85, -10, -10, -10, -10, -10, -10, -10, -10, 114.1875, -10, -10, -10, 115.35416, 115.92559, 116.5119, 116.91965, 117.36607, 117.88988, 118.69405, 118.84226, 119.53274, 119.63333, -10, -10, -10, -10, -10, -10, -10, -10, -10, -10, -10, -10
-10, -10, -10, -10, -10, -10, -10, -10, -10, -10, -10, -10, -10, -10, -10, -10, -10, -10, -10, -10, -10, 77.233337, 77.150002, 77.836739, 77.619041, 77.714287, 77.60714, 77.64286, 77.75, 77.64286, 77.166664, 77.041664, 77.14286, 77.071426, 77.10714, 77.071426, 77.291664, 77.25, 77.35714, 77.39286, 77.428574, 77.464287, 77.464287, 77.464287, 77.39286, 77.214287, 77.14286, 77.071426, 77.071426, 77.10714, 76.9375, 77.125, 77.142853, 77.0625, 76.9375, 76.8125, 76.8125, 77.10714, 77.14286, 77.178574, 76.875, 76.875, 76.8125, 76.8125, 76.8125, 76.8125, 76.875, 77.0625, 77.1875, 77.375, 77.571426, 77.535713, 77.571426, 77.5, 77.5, 77.39286, 77.125, 77.1875, 77.285713, 77.60714, 77.64286, 77.571426, 77.3125, 77.1875, 77.125, 77.0625, 77.178574, 77.285713, 77.428574, 77.571426, 77.571426, 77.535713, 77.464287, 77.39286, 77.428574, 77.1875, 77.125, 77, 76.875, 76.8125, 76.8125, 76.9375, 77.285713, 77.464287, 77.428574, 77.321426, 77.026787, 77, 77.125, 77.321426, 77.321426, 77.321426, 77, 77.125, 77.35714, 77.321426, 77.285713, 77.285713, 77.25, 77.39286, 77.464287, 77.1875, 77.1875, 76.785713, 76.714287, 76.9375, 76.875, 76.875, 76.9375, 77.125, 77.5, 77.571426, 77.5, 77.35714, 77.523811, 77.1875, 77.1875, 76.785713, 76.60714, 76.60714, 76.84375, 76.910713, 76.9375, 77, 77.255104, 77.25, 77.234688, 77.214287, 77.25, 77.285713, 77.178574, 77.178574, 76.857147, 76.854164, 77.428574, 77.535713, 77.64286, 77.5, 77.428574, 77.25, 77.17347, 77.071426, 77.133926, 77.205353, 77.25, 77.125, 77.1875, 77.125, 77.1875, 77.1875, 77.0625, 77.39286, 77.535713, 77.714287, 77.821426, 77.821426, 77.714287, 77.571426, 77.535713, 77.571426, 77.60714, 77.60714, 77.535713, 77.428574, 77.39286, 77.428574, 77.39286, 77.35714, 77.214287, 77.14286, 77.178574, 77.214287, 77.25, 77.214287, 77.321426, 77.0625, 77.125, 77.1875, 77.0625, 77.0625, 76.9375, 76.8125, 76.892853, 77.098213, 77.017853, 77.39286, 77.35714, 77.25, 77.285713, 77.285713, 77.125, 77.375, 77.508926, 77.864586, 78.084824, 78.540176, 79.355659, 80.214287, 80.910721, 81.348213, 81.767853, 82.25, 82.589287, 82.991074, 83.541664, 83.866074, 84.169647, 84.392853, 84.833336, 85.116074, 85.5, 85.915176, 86.388397, 86.71875, 87.03125, 87.383926, 87.958336, 88.366074, 88.8125, 89.125, 89.633926, 90.252975, 90.625, 91.008926, 91.541664, 91.883926, 92.258926, 92.708336, 92.833336, 92.90625, 93.29911, 94.346725, 94.540176, 94.568451, 94.571426, 94.779762, 94.982147, 95.375, 95.910721, 96.040825, 96.285713, 96.510201, 97.029762, 97.386909, 97.678574, 97.8125, 97.9375, 98.089287, 98.58036, 99.119049, 99.205353, 99.392853, 99.375, 99.5, 99.883926, 100.61054, 100.84694, 101.18877, 101.45834, 101.74107, 101.91071, 101.90179, 102.19643, 102.58691, 102.94345, 103.69941, 103.99107, 104.375, 104.53125, 104.80357, 105.51786, 106.42857, 106.79465, 107.0625, 107.0625, 107.125, 107.45535, 108.22917, 108.61607, 108.90625, 108.96875, 109.25, 110.37501, 110.85, 111.33334, -10, -10, -10, -10, -10, -10, -10, 114.33334, -10, -10, -10, 115.2619, 115.79591, 116.20068, 116.73215, 117.05357, 117.45238, 118.15833, 118.3244, 119.36607, 119.51746, -10, -10, -10, -10, -10, -10, -10, -10, -10, -10, -10, -10, -10, -10, -10, -10, -10, -10, -10, -10, -10, -10, -10, -10, -10, -10, -10, -10, -10, -10, -10, -10, -10, -10, -10, -10, -10, -10, -10, -10, -10, -10, -10, -10, -10, -10, -10, -10, -10, -10, -10, -10, -10, -10, -10, -10, -10, -10, -10, -10, -10, -10, -10, -10, -10, -10, -10, -10, -10, -10, -10, -10, -10, 78.14286, 78.416664, 78.5, 78.4375, 78.714287, 78.85714, 78.785713, 78.875, 78.666664, 78.25, 78.214287, 78, 77.714287, 78.214287, 78.25, 78.285713, 78.25, 78.35714, 78.35714, 78.428574, 78.464287, 78.35714, 78.25, 78.178574, 77.9375, 77.9375, 78.214287, 78.25, 78.39286, 78.377548, 78.35714, 78.0625, 78.214287, 78.25, 78.321426, 78.321426, 78.25, 77.8125, 77.6875, 77.5, 77.5625, 77.5625, 77.5625, 77.6875, 78, 78, 78.25, 78.3125, 78.375, 78.4375, 78.3125, 78.3125, 78.1875, 78.125, 78.464287, 78.57653, 78.60714, 78.535713, 78.1875, 78, 77.946426, 77.785713, 77.714287, 78.083336, 78.464287, 78.571426, 78.60714, 78.3125, 78.1875, 78.125, 78.125, 78, 77.964287, 77.89286, 77.714287, 77.724998, 77.797615, 77.797615, 78.041664, 78.428574, 78.25, 78.1875, 78, 77.901787, 78.035713, 78.25, 78.125, 78.1875, 78.25, 78.125, 78.125, 78.125, 78.0625, 78.0625, 78.0625, 78, 78.125, 78.1875, 78.39286, 78.428574, 78.541664, 78.5, 78.214287, 78.14286, 78.14286, 77.875, 78, 78.125, 78.39286, 78.428574, 78.39286, 78.520401, 78.64286, 78.678574, 78.895836, 78.604164, 78.41964, 78.035713, 78.040817, 78.10714, 78.285713, 78.469383, 78.428574, 78.341835, 78, 78, 78.0625, 78, 78.321426, 78.265312, 78.226189, 78.5, 78.464287, 78.535713, 78.428574, 78.35714, 78.214287, 78.17347, 78.321426, 78.008926, 78.306114, 78.214287, 78.10714, 78.25, 78.25, 78.321426, 78.35714, 78.285713, 78.39286, 78.375, 78.5625, 78.5625, 78.5, 78.375, 78.25, 78.25, 78.25, 78.25, 78.39286, 78.35714, 78.285713, 78.285713, 78.321426, 78.25, 78.285713, 78.178574, 78.10714, 78.14286, 78.178574, 78, 77.9375, 78.0625, 78.178574, 78, 78.0625, 77.9375, 77.875, 77.75, 77.821426, 77.948975, 78.219383, 78.270401, 78.464287, 78.35714, 78.25, 78.178574, 78.14286, 78.214287, 78.39286, 78.428574, 78.40625, 78.53125, 78.90625, 79.584824, 80.401787, 81.214287, 81.70536, 82.142853, 82.607147, 82.732147, 83.0625, 83.613098, 84.199402, 84.607147, 84.892853, 85.270836, 85.491074, 85.857147, 86.540176, 87.022324, 87.28125, 87.46875, 87.696426, 88.208336, 88.553574, 89, 89.3125, 89.866074, 90.502975, 90.9375, 91.3125, 91.5625, 91.8125, 92.133926, 92.645836, 92.940483, 93.09375, 93.441963, 94.096725, 94.10714, 94.380951, 94.616074, 95.029762, 95.357147, 95.964287, 96.551025, 97.10714, 97.35714, 97.642853, 97.498512, 97.980659, 98.209824, 98.375, 98.5625, 98.651787, 99.14286, 99.636909, 99.767853, 99.955353, 99.9375, 100.0625, 100.38393, 100.94048, 101.17857, 101.50893, 101.95834, 102.17857, 102.3125, 102.33929, 102.61607, 103.07551, 103.40476, 104.01191, 104.30357, 104.6875, 104.8125, 104.9375, 105.28571, 106.21429, 106.53572, 106.8125, 106.9375, 107.125, 107.5625, 108.27084, 108.66072, 108.9375, 109, 109.28571, 110.41667, 110.9, 111.33334, -10, -10, -10, -10, -10, -10, 114.08333, 114.54167, -10, -10, -10, 115.58843, 116.47619, 116.65179, 117.08334, 117.22024, 117.48809, 117.96458, 118.28423, 119.27232, 119.49523, 119.66666, -10, -10, -10, -10, -10, -10, -10, -10, -10, -10, -10
-10, -10, -10, -10, -10, -10, -10, -10, -10, -10, -10, -10, -10, -10, -10, -10, -10, -10, -10, -10, -10, -10, -10, -10, 79.066666, 79.64286, 79.64286, 79.714287, 79.85714, 79.821426, 79.785713, 79.60714, 79.428574, 79.39286, 79.35714, 79.625, 79.1875, 79.1875, 79.1875, 79.0625, 79.125, 79.125, 79.35714, 79.1875, 79.0625, 78.9375, 78.9375, 79.14286, 79.214287, 79.39286, 79.39286, 79.428574, 79.377548, 79.367348, 79.285713, 79.285713, 79.285713, 79.285713, 79.25, 79.178574, 79, 78.89286, 78.5, 78.5, 78.4375, 78.3125, 78.663261, 78.770836, 78.991074, 79.25, 79.3125, 79.571426, 79.64286, 79.3125, 79.3125, 79.39286, 79.35714, 79.5, 79.540817, 79.464287, 79.1875, 79.0625, 78.9375, 78.946426, 79.583336, 79.583336, 79.75, 79.571426, 79.64286, 79.4375, 79.25, 79.0625, 79, 79, 79.583336, 79.625, 79.541664, 79.416664, 79.007141, 79.553566, 79.553566, 79.625, 79.35714, 79.0625, 79, 78.9375, 78.64286, 78.958336, 79.166664, 79.464287, 79.535713, 79.464287, 79.35714, 79.321426, 79.285713, 79.125, 79.125, 79.125, 79.0625, 79.125, 79.125, 79.35714, 79.39286, 79.285713, 79.35714, 79.285713, 79.214287, 79.25, 79.14286, 79.0625, 79.125, 79.1875, 79.25, 79.25, 79.663261, 79.821426, 79.85714, 79.803574, 79.446426, 79.181114, 79.053574, 79.091835, 79.25, 79.5, 79.68367, 79.525513, 78.934525, 78.791664, 78.895836, 78.982147, 79.178574, 79.321426, 79.346939, 79.309517, 79.25, 79.125, 79.125, 79.0625, 79.0625, 78.9375, 79.137756, 79.25, 79.010201, 79.017853, 79, 78.785713, 79.223213, 79.341835, 79.295914, 79.214287, 79.178574, 79.214287, 79.285713, 79.39286, 79.1875, 79.125, 79.0625, 79, 79, 79, 79, 79.0625, 79.0625, 79, 79, 78.875, 78.839287, 79.044647, 79.053574, 79.0625, 79.321426, 79.321426, 79.0625, 79.0625, 79.1875, 79.0625, 79, 79, 79.071426, 78.875, 79.061226, 78.878578, 79.071426, 79.234688, 79.306114, 79.464287, 79.1875, 79.125, 78.85714, 78.785713, 79.125, 79.25, 79.1875, 79.25, 79.3125, 79.5625, 80.116074, 80.785713, 81.410721, 81.919647, 82.375, 82.75, 83, 83.25, 83.571426, 84.127975, 84.836304, 85.303574, 85.739586, 86.022324, 86.200897, 86.745529, 87.272324, 87.522324, 87.78125, 88.071426, 88.619049, 88.946426, 89.482147, 89.803574, 90.294647, 90.732147, 91.0625, 91.4375, 91.75, 92, 92.415176, 92.958336, 93.252983, 93.40625, 93.691963, 94.013397, 94.15625, 94.401787, 94.75, 95.342262, 95.669647, 96.1875, 96.678574, 97.017853, 97.330353, 97.908157, 98.034225, 98.397324, 98.71875, 98.910713, 99.21875, 99.296875, 99.511162, 99.975449, 100.14062, 100.38393, 100.64584, 100.66965, 100.88393, 101.39584, 101.76191, 102.11607, 102.4375, 102.5625, 102.6875, 102.85714, 103.3244, 103.61072, 103.85416, 104.30357, 104.5, 104.875, 105.13393, 105.45834, 105.78571, 106.42262, 106.5759, 106.78125, 106.92857, 107.25893, 107.8125, 108.25, 108.54465, 108.8125, 108.875, 109.21428, 110.5, 111, -10, -10, -10, -10, -10, -10, -10, 113.72222, 114.50001, 114.85715, 115.25, 115.375, 115.53571, 116.38889, 116.89286, 117.7262, 117.72024, 117.9122, 117.97173, 118.29465, 118.9375, 119.34524, 119.61111, -10, -10, -10, -10, -10, -10, -10, -10, -10, -10, -10, -10, -10, -10, -10, -10, -10, -10, -10, -10, -10, -10, -10, -10, -10, -10, -10, -10, -10, -10, -10, -10, -10, -10, -10, -10, -10, -10, -10, -10, -10, -10, -10, -10, -10, -10, -10, -10, -10, -10, -10, -10, -10, -10, -10, -10, -10, -10, -10, -10, -10, -10, -10, -10, -10, -10, -10, -10, -10, -10, -10, -10, -10, -10, 80.150002, 80.678574, 80.714287, 80.625, 80.625, 80.5625, 80.375, 80.39286, 80.285713, 80.321426, 80.35714, 80.35714, 80.39286, 80.35714, 80.25, 80.1875, 80.1875, 80.1875, 80.25, 80.0625, 79.64286, 80, 80.321426, 80.39286, 80.5, 80.321426, 80.026787, 79.955353, 80.017853, 80.35714, 80.35714, 80.1875, 80.125, 80.321426, 80.239799, 79.928574, 79.85714, 79.64286, 79.64286, 79.571426, 79.25, 79.455353, 79.833336, 80.204086, 80.464287, 80.5, 80.571426, 80.60714, 80.5, 80.5, 80.39286, 80.39286, 80.39286, 80.160713, 80.0625, 79.9375, 80, 79.964287, 80.081627, 80.35714, 80.428574, 80.60714, 80.64286, 80.678574, 80.571426, 80.321426, 80.14286, 80.035713, 80.071426, 80.377548, 80.666672, 80.622452, 80.25, 80.328568, 80.581627, 80.617348, 80.64286, 80.25, 80.125, 80.285713, 80.285713, 80.5, 80.625, 80.708336, 80.535713, 80.678574, 80.60714, 80.535713, 80.464287, 80.428574, 80.464287, 80.428574, 80.428574, 80.285713, 80.352043, 80.551025, 80.357147, 80.10714, 80.214287, 80.1875, 80, 79.9375, 80.301025, 80.275513, 80.39286, 80.35714, 80.39286, 80.464287, 80.5, 80.724487, 80.85714, 80.928574, 80.6875, 80.4375, 80.205353, 80.0625, 80.285713, 80.428574, 80.60714, 80.535713, 80.366074, 79.639458, 79.476189, 80.095238, 80.122452, 80.214287, 80.321426, 80.428574, 80.25, 80.25, 80.0625, 79.9375, 79.875, 79.9375, 79.9375, 80.026787, 80.125, 79.883926, 79.986603, 80.10714, 80.5, 80.43367, 80.125, 79.946426, 79.875, 79.8125, 79.875, 80, 80.125, 80.0625, 80, 79.875, 79.8125, 79.875, 79.875, 79.9375, 80, 80, 80.0625, 80.0625, 79.64286, 79.602043, 80.044647, 80.275513, 80.285713, 80.25, 80.178574, 80.14286, 80.10714, 80.178574, 80.178574, 80.178574, 80.178574, 80.14286, 80.071426, 80.025513, 79.706253, 79.90625, 80.09375, 80.111603, 80.1875, 80.321426, 80.25, 80.541664, 80.625, 80.464287, 80.5, 80.25, 80.25, 80.1875, 80.25, 80.5625, 81.053574, 81.598221, 82.107147, 82.5625, 82.982147, 83.25, 83.4375, 83.705353, 84.425598, 85.273804, 85.848213, 86.263397, 86.46875, 86.575897, 87.089279, 87.553574, 87.866074, 88.395836, 88.678574, 89.035713, 89.330353, 89.919647, 90.348221, 90.794647, 91.125, 91.375, 91.758926, 92.270836, 92.553574, 92.915176, 93.333336, 93.565483, 93.6875, 93.973213, 94.294647, 94.5, 94.839287, 95.214287, 95.571426, 95.955353, 96.5, 96.991074, 97.392853, 97.651787, 98.217262, 98.379463, 98.78125, 99.15625, 99.517853, 99.84375, 99.890625, 99.948662, 100.22545, 100.34598, 100.70535, 101.07441, 101.10715, 101.22768, 101.63244, 102.10566, 102.45982, 102.8125, 103, 103.0625, 103.35714, 103.81548, 103.97322, 104.3125, 104.5, 104.75, 105.33334, 105.6875, 106.02084, 106.28571, 106.71429, 106.8259, 106.9375, 107.11607, 107.44643, 108, 108.40625, 108.625, 108.875, 108.9375, 109.26785, 110.29166, 110.66666, -10, -10, -10, -10, -10, 112.3125, 112.54166, 113.48809, 114.41667, 114.90476, 115.29166, 115.4375, 115.86384, 116.08928, 116.60204, 118.04167, 118.2721, 118.28062, 117.8884, 118.04465, 118.64285, 119.28571, 119.70833, 120, -10, -10, -10, -10, -10, -10, -10, -10, -10, -10
-10, -10, -10, -10, -10, -10, -10, -10, -10, -10, -10, -10, -10, -10, -10, -10, -10, -10, -10, -10, -10, -10, -10, -10, -10, -10, 81.199997, 81.714287, 81.714287, 81.714287, 81.4375, 81.3125, 81.25, 80.964287, 81.285713, 81.205353, 81.133926, 81.285713, 81.25, 81.14286, 81.178574, 81.178574, 81.14286, 81.214287, 81.178574, 81.375, 81.25, 81.35714, 81.35714, 81.321426, 81, 80.901787, 80.75, 81.0625, 81.1875, 81.1875, 81.1875, 81.25, 81.25, 81.178574, 80.64286, 80.571426, 80.625, 80.625, 80.541664, 80.375, 80.806114, 81.095238, 81.168373, 81.35714, 81.464287, 81.375, 81.4375, 81.60714, 81.60714, 81.3125, 81.3125, 81.25, 80.85714, 80.714287, 80.875, 80.8125, 81, 80.821426, 81.125, 81.25, 81.4375, 81.64286, 81.571426, 81.39286, 81.14286, 81.10714, 81.10714, 81, 81.330353, 81.773811, 81.729599, 81.916664, 81.557144, 81.508926, 81.446426, 81.4375, 81.428574, 81.35714, 81.464287, 81.5, 81.5, 81.571426, 81.60714, 81.64286, 81.678574, 81.5, 81.39286, 81.285713, 81.285713, 81.35714, 81.321426, 81.39286, 81.35714, 81.459183, 81.693886, 81.658165, 81.791664, 81.214287, 81.1875, 80.785713, 80.785713, 81.294647, 81.366074, 81.693886, 81.535713, 81.535713, 81.428574, 81.464287, 81.375, 81.375, 81.4375, 81.375, 81.25, 81.224487, 81.178574, 81.25, 81.285713, 81.39286, 81.428574, 81.311226, 81.194443, 81.236107, 81.202385, 81.193886, 81.151787, 81.285713, 81.3125, 81.535713, 81.35714, 81.10714, 80.964287, 80.964287, 81.10714, 81.25, 81.25, 81.214287, 81.14286, 81.178574, 81.214287, 81.39286, 81.397957, 81, 80.821426, 80.8125, 80.5, 80.8125, 80.875, 81, 80.9375, 81.14286, 81.10714, 81.035713, 81.10714, 81.10714, 81.178574, 81.285713, 81.214287, 81.214287, 81.14286, 81.125, 81.14286, 81.229599, 81.239799, 81.25, 81.178574, 80.8125, 80.875, 80.9375, 81.0625, 81.125, 81.35714, 81.285713, 81.214287, 81.178574, 80.866074, 80.831253, 81.265312, 81.321426, 81.21875, 81.1875, 81.428574, 81.39286, 81.5, 81.571426, 81.60714, 81.60714, 81.535713, 81.5, 81.428574, 81.125, 81.25, 81.5, 81.866074, 82.419647, 82.875, 83.294647, 83.625, 83.875, 84.178566, 84.738098, 85.309525, 85.862244, 86.239799, 86.697914, 86.933044, 87.517853, 87.803574, 88.125, 88.791672, 89.107147, 89.473213, 89.767853, 90.357147, 90.848221, 91.232147, 91.571426, 91.9375, 92.196426, 92.708336, 92.9375, 93.427086, 93.678574, 93.982147, 94.1875, 94.410713, 94.75, 94.9375, 95.25, 95.473213, 95.75, 96.142853, 96.669647, 97, 97.285713, 97.589287, 98.217262, 98.566963, 99.09375, 99.53125, 99.955353, 100.28125, 100.51562, 100.66295, 100.74404, 100.78826, 101.35714, 101.63691, 101.73215, 101.84375, 101.9866, 102.42709, 102.64732, 103, 103.1875, 103.375, 103.76785, 104.14584, 104.23215, 104.4375, 104.625, 104.91965, 105.45834, 105.875, 106.27084, 106.50893, 106.91965, 107.02232, 107.125, 107.30357, 107.57143, 108, 108.34375, 108.5, 108.75, 108.9375, 109.375, 110.20833, 110.34524, -10, -10, -10, -10, -10, 112.25, 112.56944, 113.29018, 114.26191, 114.71429, 115.1116, 115.47098, 115.77455, 116.27604, 116.70918, 118.16667, 118.30059, 118.37054, 118.2009, 118.3125, 118.64285, 119.40179, 119.84166, 120, -10, -10, -10, -10, -10, -10, -10, -10, -10, -10, -10, -10, -10, -10, -10, -10, -10, -10, -10, -10, -10, -10, -10, -10, -10, -10, -10, -10, -10, -10, -10, -10, -10, -10, -10, -10, -10, -10, -10, -10, -10, -10, -10, -10, -10, -10, -10, -10, -10, -10, -10, -10, -10, -10, -10, -10, -10, -10, -10, -10, -10, -10, -10, -10, -10, -10, -10, -10, -10, -10, -10, -10, -10, -10, -10, 82.199997, 82.714287, 82.714287, 82.64286, 82.571426, 82.5, 82.75, 82.540817, 82.205353, 82.133926, 82.0625, 82.0625, 82, 82.0625, 82.0625, 81.9375, 81.9375, 82.188774, 82.371422, 82.341835, 82.5, 82.1875, 81.928574, 82.0625, 82.17347, 82.458336, 82.285713, 82.35714, 82.285713, 82.25, 82.321426, 82.39286, 82.454086, 82.541664, 82.541664, 82.5, 82.5, 82.458336, 82.375, 82.081627, 82.190483, 81.928574, 82.0625, 82.1875, 82.25, 82.5, 82.5, 82.428574, 82.35714, 82.428574, 82.25, 82.416664, 82.541664, 82.372452, 82, 81.785713, 81.75, 82.0625, 82.125, 82.1875, 82.25, 82.25, 82.1875, 82, 82, 82.214287, 82.285713, 82.484688, 82.630959, 82.551025, 82.5, 82.428574, 82.464287, 82.464287, 82.5, 82.535713, 82.535713, 82.64286, 82.678574, 82.64286, 82.5, 82.4375, 82.375, 82.3125, 82.0625, 82, 82, 82.0625, 82.1875, 81.928574, 82.25, 82.25, 82.56633, 82.801025, 82.693886, 82.535713, 82.387756, 82.321426, 82.458336, 82.541664, 82.551025, 82.704086, 82.801025, 82.60714, 82.535713, 82.1875, 82.098213, 82.026787, 82.0625, 82.107147, 82.125, 82.1875, 82.39286, 82.39286, 82.1875, 81.928574, 82, 82, 82.116074, 82.09523, 82.166664, 82.261909, 82.275513, 82.387756, 82.469383, 82.5, 82.571426, 82.418373, 82.035713, 81.928574, 81.85714, 82.035713, 82.178574, 82.178574, 82.10714, 82.14286, 82.14286, 82.178574, 82.15625, 82.066963, 81.875, 81.82653, 81.785713, 81.958336, 81.85714, 82.051025, 82.14286, 82.214287, 82.285713, 82.285713, 82.285713, 82.285713, 82.214287, 82.285713, 82.39286, 82.39286, 82.464287, 82.39286, 81.958336, 81.976189, 82.107147, 81.991074, 81.901787, 81.875, 81.857147, 81.9375, 82.0625, 82.125, 82.39286, 82.5, 82.428574, 82.285713, 82, 81.866074, 81.992859, 82.168373, 82.214287, 82.25, 82.214287, 82.25, 82.331627, 82.690475, 82.75, 82.821426, 82.75, 82.678574, 82.64286, 82.571426, 82.428574, 82.1875, 82.3125, 82.4375, 82.8125, 83.1875, 83.544647, 83.9375, 84.25, 84.60714, 85.092262, 85.666672, 85.714287, 86.095238, 87.135414, 87.361603, 87.580353, 87.794647, 88.0625, 88.916672, 89.401787, 89.848213, 90.205353, 90.732147, 91.223221, 91.5, 91.821426, 92.196426, 92.696426, 93.306549, 93.59375, 94.083336, 94.241074, 94.375, 94.5, 94.723213, 95.125, 95.3125, 95.6875, 95.910713, 96.125, 96.580353, 97.044647, 97.25, 97.5625, 97.821426, 98.395836, 98.910713, 99.375, 99.875, 100.26785, 100.46875, 100.70312, 100.78795, 101.39236, 101.60565, 101.91837, 102.13691, 102.35715, 102.59375, 102.70982, 103.01637, 103.20982, 103.375, 103.5625, 103.75, 104.14285, 104.58334, 104.73215, 104.875, 104.9375, 105.16965, 105.64584, 106.09821, 106.80833, 106.9375, 107.3125, 107.34375, 107.4375, 107.55357, 107.82143, 108.125, 108.40625, 108.59375, 108.84375, 109.09375, 109.58482, 110.16666, 110.22024, 110.3125, 110.3125, 110.6875, 111.25, 111.95833, 112.25893, 112.76041, 113.09375, 114.05357, 114.46429, 114.80803, 115.36682, 115.66741, 115.85938, 116.37054, 117.79167, 118.1875, 118.40625, 118.35715, 118.46875, 118.91518, 119.61607, 120.05, -10, -10, -10, -10, -10, -10, -10, -10, -10, -10, -10
-10, -10, -10, -10, -10, -10, -10, -10, -10, -10, -10, -10, -10, -10, -10, -10, -10, -10, -10, -10, -10, -10, -10, -10, -10, -10, -10, -10, 83.199997, 83.571426, 83.583328, 83.64286, 83.75, 83.765312, 83.552719, 83.280602, 83.153061, 82.9375, 83, 83, 83.178574, 83.10714, 82.8125, 82.875, 83.008926, 83.324997, 83.330353, 83.571426, 83.142853, 83.375, 83.178574, 83.265312, 83.39286, 83.5, 83.5, 83.428574, 83.125, 83.125, 83.125, 83.31633, 83.35714, 83.428574, 83.464287, 83.464287, 83.464287, 83.464287, 83.285713, 83.214287, 82.8125, 82.8125, 82.9375, 83, 83.0625, 83.125, 83.0625, 83, 83.35714, 83.25, 83.35714, 83.571426, 83.622452, 83.75, 83.708336, 83.583336, 83.321426, 83.428574, 82.964287, 83.035713, 83.3125, 83.39286, 83.285713, 83.35714, 83.39286, 83.464287, 83.510201, 83.333336, 83.294647, 83.1875, 83.125, 83.125, 83.0625, 83.125, 83.35714, 83.35714, 83.428574, 83.5, 83.535713, 83.535713, 83.535713, 83.25, 83.1875, 82.85714, 83, 82.9375, 83, 83.0625, 83.583336, 83.5, 83.535713, 83.622452, 83.607147, 83.544647, 83.4375, 83.339287, 83.428574, 83.428574, 83.571426, 83.704086, 83.775513, 83.765312, 83.3125, 83.3125, 83.125, 83.098213, 82.964287, 82.9375, 82.982147, 83, 83.214287, 83.214287, 83.285713, 83.35714, 83.583336, 83.583336, 83.583336, 83.125, 83.0625, 83.1875, 83.125, 83.285713, 83.31633, 83.32653, 83.321426, 83.25, 83.178574, 82.9375, 82.64286, 82.571426, 82.714287, 83.0625, 83, 82.9375, 83, 83.03125, 83.03125, 83.03125, 82.90625, 82.857147, 82.464287, 82.464287, 82.428574, 82.75, 83.158165, 83.285713, 83.35714, 83.35714, 83.321426, 83.321426, 83.35714, 83.35714, 83.25, 83.3125, 83.464287, 83.5, 83.428574, 83.5, 83.583336, 83.1875, 83, 82.602043, 82.571426, 83.122452, 83.214287, 83.35714, 83.428574, 83.535713, 83.60714, 83.464287, 83.25, 83, 82.785713, 82.611603, 82.927086, 83.084824, 82.89286, 82.85714, 82.85714, 83.196426, 83.726189, 83.75, 83.75, 83.60714, 83.5, 83.5, 83.464287, 83.35714, 83.35714, 83.35714, 83.39286, 83.4375, 83.625, 83.857147, 84.1875, 84.5, 84.91964, 85.458336, 85.857147, 86.39286, 86.882652, 87.291664, 87.642853, 87.9375, 88.25, 88.633926, 89.479172, 89.839287, 90.25, 90.5625, 90.982147, 91.482147, 91.75, 92.080353, 92.654762, 93.196426, 93.806549, 94.09375, 94.552086, 94.741074, 94.875, 94.9375, 95.125, 95.3125, 95.5625, 96.0625, 96.383926, 96.625, 97.080353, 97.419647, 97.6875, 98.0625, 98.29464, 98.833336, 99.303574, 99.732147, 100.125, 100.58929, 100.90477, 101.15477, 101.28274, 101.58334, 101.8512, 102.32143, 102.61607, 102.875, 103.21875, 103.6503, 103.8616, 103.75, 103.78571, 104, 104.375, 104.625, 104.875, 105, 105.25, 105.5, 105.90179, 106.33334, 106.74107, 107.33215, 107.36607, 107.75, 107.8125, 108.03125, 108.1875, 108.3125, 108.4375, 108.59375, 108.84375, 109.09375, 109.40625, 109.83482, 110.0625, 110.03274, 110.375, 110.54166, 110.93453, 111.41666, 111.97222, 112.20535, 112.92709, 113.27232, 113.97024, 114.28571, 114.62946, 115.45015, 115.91741, 116.26562, 116.72321, 117.61459, 117.90625, 118.125, 118.25, 118.4375, 119.04018, 119.79465, 120.175, -10, -10, -10, -10, -10, -10, -10, -10, -10, -10, -10, -10, -10, -10, -10, -10, -10, -10, -10, -10, -10, -10, -10, -10, -10, -10, -10, -10, -10, -10, -10, -10, -10, -10, -10, -10, -10, -10, -10, -10, -10, -10, -10, -10, -10, -10, -10, -10, -10, -10, -10, -10, -10, -10, -10, -10, -10, -10, -10, -10, -10, -10, -10, -10, -10, -10, -10, -10, -10, -10, -10, -10, -10, -10, -10, -10, -10, -10, 83.833336, 84.416664, 84.714287, 84.85714, 84.872452, 84.452377, 84.151779, 83.946426, 84.071426, 84.071426, 84.071426, 84.071426, 84, 83.85714, 83.85714, 84.045914, 84.442856, 84.520401, 84.64286, 84.413261, 84.285713, 84.25, 84.285713, 84.321426, 84.39286, 84.39286, 84.39286, 84.321426, 84.1875, 84.1875, 83.928574, 84.3125, 84.375, 84.4375, 84.4375, 84.375, 84.3125, 84.0625, 84, 83.852043, 83.732147, 83.928574, 83.785713, 83.85714, 84.1875, 84.125, 84.125, 84.25, 84.1875, 84.3125, 84.714287, 84.801025, 84.785713, 84.75, 84.64286, 84.535713, 84.571426, 84.75, 84.666664, 84.5, 84.39286, 84.285713, 84.321426, 84.35714, 84.464287, 84.3125, 84.25, 84.1875, 84.0625, 84.0625, 84.125, 84, 83.9375, 83.901787, 83.875, 83.9375, 84, 84.0625, 84.125, 84.232147, 84.21875, 84.285713, 84.375, 84, 84, 84.14286, 84.285713, 84.428574, 84.535713, 84.571426, 84.60714, 84.714287, 84.64286, 84.5, 84.428574, 84.125, 84.125, 84.5, 84.375, 84.464287, 84.482147, 84.25, 84.25, 84.214287, 84.18367, 84.06633, 84.14286, 84.193886, 84.14286, 83.875, 83.883926, 84.180557, 84.586739, 84.64286, 84.571426, 84.428574, 84.285713, 84.214287, 84.25, 84.214287, 84.214287, 83.964287, 84.04464, 83.976196, 84.061226, 84.238098, 84.25, 84.375, 84.291664, 84.291664, 83.9375, 83.875, 84.071426, 84.14286, 84.285713, 84.321426, 84, 84.14286, 84.071426, 84.208336, 84.208336, 83.928574, 83.75, 84.122452, 84.285713, 84.428574, 84.1875, 84.125, 84.0625, 84.0625, 84.321426, 84.464287, 84.571426, 84.454086, 84.285713, 84.25, 84.14286, 84.35714, 84.321426, 84.25, 84.434525, 84.458336, 84.408165, 84.39286, 84.428574, 84.39286, 84.35714, 84.25, 84.1875, 84.0625, 83.660713, 83.5, 83.520401, 84.083336, 84.178574, 84.666664, 84.666664, 84.666664, 84.510201, 84.761902, 84.678574, 84.40625, 84.21875, 84.125, 84.1875, 84.1875, 84.125, 84.285713, 84.285713, 84.35714, 84.3125, 84.375, 84.375, 84.625, 84.875, 85.285713, 85.6875, 85.919647, 86.321426, 86.760201, 87.345238, 87.946426, 88.419647, 88.875, 89.258926, 89.833336, 90.160721, 90.5625, 90.90625, 91.294647, 91.71875, 91.96875, 92.330353, 93.029762, 93.65625, 94.191963, 94.508926, 94.989586, 95.241074, 95.375, 95.375, 95.5, 95.6875, 95.875, 96.375, 96.660713, 96.9375, 97.4375, 97.848221, 98.223213, 98.5625, 98.866074, 99.25, 99.6875, 100.04465, 100.3125, 100.73215, 101.84723, 102.11111, 101.78274, 102.06548, 102.20834, 102.5625, 102.79465, 103.0625, 103.54465, 104.52892, 104.7551, 105.16666, 105.16666, 105.25, 105, 105.125, 105.45535, 105.7381, 105.97619, 106.375, 106.66327, 106.5625, 106.875, 107.45715, 107.55357, 108, 108.1875, 108.4375, 108.625, 108.75893, 109.02084, 109.08334, 109.15625, 109.34375, 109.59375, 110.20982, 110.4375, 110.42857, 110.59375, 110.78125, 111.2009, 111.6875, 112.16666, 112.4241, 113.13542, 113.4509, 113.86607, 114.09821, 114.47321, 115.41667, 115.96429, 116.4375, 116.75893, 117.32887, 117.69197, 117.92857, 118.125, 118.4375, 119.08482, 119.79465, 120.175, -10, -10, -10, -10, -10, -10, -10, -10, -10, -10, -10
-10, -10, -10, -10, -10, -10, -10, -10, -10, -10, -10, -10, -10, -10, -10, -10, -10, -10, -10, -10, -10, -10, -10, -10, -10, -10, -10, -10, -10, -10, 85.066666, 85.714287, 85.85714, 85.836739, 85.547615, 85.196426, 85, 84.8125, 84.776787, 84.8125, 84.919647, 84.9375, 84.571426, 84.571426, 85.008926, 85.324997, 85.653061, 85.714287, 85.484688, 85.1875, 85.125, 85.0625, 85.0625, 85.178574, 85.095238, 85.392853, 85.354164, 85.571426, 85.464287, 85.625, 85.428574, 85.428574, 85.428574, 85.428574, 85.1875, 85.125, 84.9375, 84.6875, 84.651787, 85.015312, 85.132652, 85.416664, 85.333336, 85.14286, 85.178574, 85.25, 85.428574, 85.464287, 85.571426, 85.714287, 85.607147, 85.6875, 85.6875, 85.625, 85.75, 85.64286, 85.60714, 85.535713, 85.571426, 85.3125, 85.25, 85.25, 85.25, 85.3125, 85.535713, 85.5, 85.464287, 85.285713, 85.285713, 85.321426, 85.214287, 85, 84.67347, 84.64286, 84.64286, 84.714287, 84.785713, 84.89286, 85.294647, 85.535713, 85.5, 85.39286, 85.25, 85.25, 85.35714, 85.39286, 85.25, 85.3125, 85.3125, 85.375, 85.714287, 85.678574, 85.571426, 85.428574, 85, 84.9375, 85.0625, 85.125, 85.214287, 85.3125, 85.464287, 85.428574, 85.214287, 85.234688, 85.193886, 85.321426, 85.418373, 85.125, 85.0625, 85.071426, 85.81945, 85.693886, 85.714287, 85.64286, 85.3125, 85.1875, 85.35714, 85.125, 85.0625, 85.0625, 84.714287, 85.008926, 85.736115, 85.809532, 85.785713, 85.428574, 85.35714, 85.25, 85, 85.14286, 85.071426, 85.071426, 85.035713, 85.178574, 85.178574, 85.035713, 85.071426, 85, 84.964287, 84.928574, 84.785713, 84.89286, 84.857147, 85.214287, 85.321426, 85.178574, 84.9375, 85, 85.0625, 85.428574, 85.571426, 85.64286, 85.303574, 85.125, 85.0625, 85, 85.1875, 85.1875, 85.464287, 85.408165, 85.35714, 85.489799, 85.428574, 85.25, 85.1875, 85.0625, 85.0625, 85.0625, 85.0625, 85.4375, 85.458336, 85.428566, 85.380959, 85.489799, 85.571426, 85.571426, 85.5, 85.469383, 85.354164, 85.28125, 85.28125, 85.15625, 85.0625, 85.0625, 85.0625, 85.0625, 85.125, 85.1875, 85.1875, 85.1875, 85.0625, 85, 85.1875, 85.375, 85.75, 86.1875, 86.526787, 86.8125, 87.21875, 87.616074, 88.160713, 88.836311, 89.446426, 90.10714, 90.535713, 90.607147, 91, 91.375, 91.669647, 92, 92.25, 92.571426, 93.186012, 94.013397, 94.796127, 95.1875, 95.46875, 95.5625, 95.625, 95.6875, 95.8125, 96.017853, 96.419647, 96.928574, 97.223213, 97.4375, 97.8125, 98.178574, 98.535713, 98.8125, 99.232147, 99.553574, 99.9375, 100.23215, 100.4375, 100.85715, 101.66667, 102.13096, 102.04762, 101.91965, 102.08334, 102.47321, 102.91965, 103.29465, 103.85715, 104.74405, 104.97321, 105.5, 105.53571, 105.71429, 105.625, 105.6875, 106.125, 107.72222, 107.95834, 107.5119, 107.22321, 107.125, 107.3125, 107.83215, 107.92857, 108.3125, 108.5, 108.75, 108.94643, 109.34226, 109.69941, 109.77084, 109.84375, 110.03125, 110.21875, 110.65625, 110.875, 110.9375, 111.125, 111.375, 111.66965, 112.08035, 112.375, 112.64285, 113.35417, 113.66965, 114.04465, 114.25, 114.64285, 115.39881, 115.92857, 116.34375, 116.60268, 117.20387, 117.61162, 117.92857, 118.125, 118.375, 118.97768, 119.64881, 120, 120.375, 120.5, -10, -10, -10, -10, -10, -10, -10, -10, -10, -10, -10, -10, -10, -10, -10, -10, -10, -10, -10, -10, -10, -10, -10, -10, -10, -10, -10, -10, -10, -10, -10, -10, -10, -10, -10, -10, -10, -10, -10, -10, -10, -10, -10, -10, -10, -10, -10, -10, -10, -10, -10, -10, -10, -10, -10, -10, -10, -10, -10, -10, -10, -10, -10, -10, -10, -10, -10, -10, -10, -10, -10, -10, -10, -10, -10, -10, -10, -10, 86.199997, 86.625, 86.607147, 86.59523, 86.469383, 86.25, 85.875, 85.839287, 85.875, 85.982147, 86.25, 86.416664, 86.375, 86.285713, 86.428574, 86.4375, 86.64286, 86.438774, 86.25, 86.178574, 86.14286, 86.0625, 86.241074, 87.013885, 87.119049, 87.041664, 86.75, 86.64286, 86.5, 86.464287, 86.428574, 86.25, 86.285713, 86.151787, 86.125, 85.9375, 85.5, 86.06633, 86.193886, 86.204086, 86.285713, 86.214287, 86, 86.39286, 86.464287, 86.571426, 86.64286, 86.678574, 86.714287, 86.714287, 86.785713, 86.785713, 86.785713, 86.714287, 86.4375, 86.375, 86.25, 86.25, 86.285713, 86.214287, 86.214287, 86.285713, 86.428574, 86.535713, 86.64286, 86.64286, 86.454086, 86.25, 86.321426, 86.265312, 86.214287, 86.39286, 86.375, 86.291664, 86.333336, 86.375, 86.5, 86.515312, 86.571426, 86.5, 86.321426, 86.214287, 86.214287, 86.285713, 86.285713, 85.9375, 86.026787, 86.169647, 86.303574, 86.714287, 86.64286, 86.571426, 86.25, 86.0625, 85.9375, 85.9375, 86, 86.089287, 86.464287, 86.64286, 86.678574, 86.166664, 86, 86.1875, 86.35714, 86.35714, 86.178574, 86.14286, 86.153061, 86.488098, 86.551025, 86.535713, 86.535713, 86.39286, 86.321426, 86.321426, 86.125, 86.321426, 86.35714, 86.541664, 86.295914, 86.595238, 86.658165, 86.571426, 86.464287, 86.1875, 86.125, 86.666664, 86.464287, 86.083336, 85.85714, 85.75, 86.0625, 86, 85.892853, 85.833336, 85.775513, 85.75, 85.964287, 85.8125, 85.9375, 85.75, 85.89286, 86.1875, 85.9375, 86.035713, 85.964287, 86.071426, 86.25, 86.35714, 86.428574, 86.382652, 86.178574, 86, 86.214287, 86.1875, 86.464287, 86.60714, 86.375, 86.3125, 86.375, 86.3125, 86.3125, 86.25, 86.125, 86, 85.9375, 86.160713, 86.160713, 86.214287, 86.224487, 86.333336, 86.387756, 86.428574, 86.5, 86.3125, 86.3125, 86.3125, 86.25, 86.125, 86.214287, 86.10714, 86.035713, 86.035713, 86.035713, 86.071426, 86.14286, 86.214287, 86.285713, 86.25, 86.25, 86.35714, 86.464287, 86.5, 86.75, 86.919647, 87.125, 87.46875, 87.803574, 88.375, 89.148811, 89.883926, 90.46875, 90.90625, 91.15625, 91.53125, 91.875, 92.169647, 92.4375, 92.6875, 93.071426, 93.793152, 94.495544, 95.135414, 95.46875, 95.6875, 95.8125, 96, 96.125, 96.25, 96.455353, 96.857147, 97.366074, 97.723213, 97.9375, 98.25, 98.616074, 98.973213, 99.1875, 99.669647, 99.928574, 100.1875, 100.50893, 100.79465, 101.28571, 102.16667, 102.33334, 102.22916, 102.24107, 102.5625, 102.9375, 103.29465, 103.54465, 103.98215, 104.83334, 105.19643, 105.625, 105.75, 106, 106.1875, 106.25, 106.73215, 108.5, 108.81633, 108.47916, 108.08163, 107.97916, 107.95535, 108.0759, 108.2634, 108.46875, 108.65625, 108.8125, 108.94643, 109.32441, 110.15775, 110.48299, 110.4375, 110.625, 110.8125, 111.25, 111.375, 111.4375, 111.5625, 111.8125, 112.10715, 112.51785, 112.72321, 112.82143, 113.4494, 113.74107, 114.16965, 114.4375, 114.88393, 115.44048, 116, 116.40625, 116.59375, 116.99554, 117.37054, 117.78571, 118, 118.25893, 118.7991, 119.32738, 119.78125, 120.20834, 120.46667, -10, -10, -10, -10, -10, -10, -10, -10, -10
-10, -10, -10, -10, -10, -10, -10, -10, -10, -10, -10, -10, -10, -10, -10, -10, -10, -10, -10, -10, -10, -10, -10, -10, -10, -10, -10, -10, -10, -10, -10, -10, 87.199997, 87.714287, 87.64286, 87.60714, 87.428574, 87.178574, 87.030617, 87, 87.122452, 87.214287, 87.285713, 87.285713, 87.39286, 87.5, 87.678574, 87.5625, 87.419647, 87.104164, 87.017853, 87.178574, 87.35714, 87.561226, 87.869041, 87.887756, 87.785713, 87.60714, 87.535713, 87.3125, 87.3125, 87.3125, 87.5, 87.540817, 87.352043, 87.285713, 87.178574, 87.291664, 87.265312, 87.418373, 87.178574, 87.25, 87.125, 87.151787, 87.5, 87.448975, 87.64286, 87.64286, 87.714287, 87.714287, 87.714287, 87.785713, 87.785713, 87.714287, 87.375, 87.25, 87.1875, 87.125, 87.1875, 86.85714, 86.785713, 86.785713, 87.166664, 87.571426, 87.60714, 87.591835, 87.571426, 87.241074, 87.125, 87.25, 87.232147, 87.464287, 87.479599, 87.39286, 87.321426, 87.321426, 87.25, 87.428574, 87.489799, 87.446426, 87.09375, 86.84375, 87.089287, 87.229599, 87.125, 87.1875, 86.714287, 86.744896, 87.169647, 87.303574, 87.714287, 87.4375, 87.60714, 87.5, 87.311226, 86.904762, 86.797615, 87.059525, 87.275513, 87.535713, 87.75, 87.75, 87.833336, 87.75, 87.35714, 87.0625, 87.0625, 87, 87.25, 87.008926, 87.208336, 87.232147, 87.25, 87.3125, 87.25, 87.35714, 87.285713, 87.25, 87.25, 87.321426, 87.35714, 87.255104, 87.270836, 87.294647, 87.25, 87.1875, 87.35714, 87.39286, 87.571426, 87.64286, 87.791664, 87.791664, 87.666664, 87.321426, 87.0625, 87.234688, 87.736115, 87.726196, 87.625, 87.209183, 87.071426, 87.14286, 87.416664, 87.541664, 87.321426, 86.9375, 86.8125, 86.75, 86.8125, 86.9375, 87.0625, 87.125, 87.178574, 87.35714, 87.35714, 87.428574, 87.428574, 87.5, 87.60714, 87.464287, 87.39286, 87.428574, 87.321426, 87.35714, 87.321426, 87.214287, 87.160713, 87.196426, 87.09375, 86.89286, 87.1875, 87.125, 87.0625, 87, 87.071426, 87.3125, 87.25, 87.276787, 87.35714, 87.25, 87.214287, 87.035713, 86.964287, 86.6875, 86.75, 86.875, 86.9375, 86.785713, 87.125, 87.1875, 87.39286, 87.428574, 87.5, 87.571426, 87.678574, 87.5, 87.4375, 87.5625, 87.8125, 88.241074, 88.875, 89.586311, 90.133926, 90.65625, 91.138397, 91.46875, 91.84375, 92.1875, 92.4375, 92.6875, 93.044647, 93.833336, 94.495537, 95.183044, 95.688988, 95.78125, 96, 96.107147, 96.375, 96.833336, 96.919647, 97.142853, 97.419647, 97.741074, 98.0625, 98.25, 98.625, 99.053574, 99.348213, 99.5625, 100.00893, 100.24107, 100.5, 100.77679, 101.10715, 101.55357, 102.02084, 102.25, 102.5, 102.61607, 102.85416, 103.36224, 103.67347, 103.73215, 104.16965, 104.6875, 105.08035, 105.5, 105.6875, 106.0625, 106.375, 106.5625, 107.16965, 108.625, 108.96429, 109.28571, 109.28571, 108.54166, 108.36607, 108.28125, 108.46875, 108.70982, 108.98809, 109.15306, 109.24235, 109.63861, 110.689, 110.98512, 111.23215, 111.4375, 111.85714, 112, 112.0625, 112.125, 112.1875, 112.3125, 112.57143, 113.1637, 113.33036, 113.375, 113.67857, 113.875, 114.29465, 114.625, 115.125, 115.48215, 115.9375, 116.25, 116.3125, 116.66071, 117.23512, 117.71429, 118.0625, 118.38393, 118.86607, 119.21131, 119.65625, 120.09375, 120.52857, -10, -10, -10, -10, -10, -10, -10, -10, -10, -10, -10, -10, -10, -10, -10, -10, -10, -10, -10, -10, -10, -10, -10, -10, -10, -10, -10, -10, -10, -10, -10, -10, -10, -10, -10, -10, -10, -10, -10, -10, -10, -10, -10, -10, -10, -10, -10, -10, -10, -10, -10, -10, -10, -10, -10, -10, -10, -10, -10, -10, -10, -10, -10, -10, -10, -10, -10, -10, -10, -10, -10, -10, -10, -10, -10, -10, -10, -10, -10, -10, 88.199997, 88.150002, 88.678574, 88.476189, 88.285713, 88.122444, 88, 87.857147, 87.9375, 88, 88, 88.125, 88.428574, 88.64286, 88.785713, 88.658165, 88.166664, 88.142853, 88.35714, 88.571426, 88.67347, 88.604164, 88.526787, 88.34375, 88.21875, 88.21875, 88.1875, 88.39286, 88.35714, 88.321426, 88.362244, 88.280617, 88.321426, 88.321426, 88.428574, 88.464287, 88.428574, 88.35714, 88.35714, 88.321426, 88.459183, 88.60714, 88.520401, 88.60714, 88.3125, 88.571426, 88.571426, 88.571426, 88.4375, 88.4375, 88.375, 88.3125, 88.25, 88.125, 88.321426, 88.39286, 88.583336, 88.666664, 88.666664, 88.791664, 88.64286, 88.64286, 88.392853, 88.375, 88.241074, 88.321426, 88.39286, 88.372452, 88.35714, 88.35714, 88.0625, 88.026787, 88.169647, 88.178574, 88.375, 88.375, 88.3125, 87.928574, 87.714287, 87.785713, 88.107147, 88.125, 88.25, 88.291664, 88.39286, 88.408165, 88.525513, 88.64286, 88.571426, 88.571426, 88.60714, 88.489799, 87.619041, 87.476189, 88.273811, 88.418373, 88.60714, 88.785713, 88.821426, 88.785713, 88.632652, 88.119041, 87.767853, 87.75, 87.8125, 88, 88.0625, 88.0625, 88.125, 88.125, 88.464287, 88.535713, 88.535713, 88.25, 88.25, 87.964287, 88.1875, 88.25, 88.125, 87.928574, 87.948975, 88.017853, 88.008926, 88.178574, 88.25, 88.428574, 88.535713, 88.571426, 88.60714, 88.571426, 88.5, 88.428574, 88.377548, 88.523811, 88.479599, 88.35714, 88.17347, 88.14286, 88.147957, 88.226189, 88.535713, 88.382652, 88.163261, 87.964287, 87.6875, 87.75, 87.875, 88, 88.0625, 88.25, 88.464287, 88.428574, 88.428574, 88.285713, 88.321426, 88.1875, 88.0625, 88.285713, 88.35714, 88.0625, 88.125, 88.0625, 87.9375, 88.10714, 88.178574, 88.285713, 88.541664, 88.1875, 88.125, 88, 87.9375, 88.008926, 88.428574, 88.464287, 88.530617, 88.464287, 88.311226, 87.875, 87.8125, 87.794647, 87.464287, 87.571426, 88.214287, 88.321426, 88.666664, 88.464287, 88.5, 88.535713, 88.60714, 88.64286, 88.678574, 88.714287, 88.4375, 88.3125, 88.375, 88.5, 88.75, 89.196426, 89.791664, 90.258926, 90.78125, 91.325897, 91.65625, 92.03125, 92.352676, 92.6875, 92.915176, 93.495537, 94.488098, 95.429428, 96.030617, 96.220238, 96.125, 96.25, 96.294647, 96.625, 97.345238, 97.515312, 97.580353, 97.857147, 98.116074, 98.4375, 98.6875, 99, 99.3125, 99.625, 99.875, 100.30357, 100.49107, 100.75, 101.08929, 101.58929, 101.99107, 102.3125, 102.4375, 102.625, 102.88393, 103.29166, 103.72321, 104.03571, 104.23215, 104.625, 104.8125, 105.125, 105.5, 105.75, 106.1875, 106.59375, 106.90625, 107.43304, 108.42709, 108.81845, 109.3125, 109.35714, 109.04166, 108.89732, 108.75, 108.99554, 109.43899, 110.36805, 110.69047, 110.63095, 110.76361, 111.04316, 111.33929, 111.79465, 112.0625, 112.25, 112.4375, 112.5, 112.5, 112.625, 112.75893, 113.15476, 113.71727, 113.83036, 113.75, 113.99107, 114.125, 114.48215, 114.77679, 115.29465, 115.55357, 116, 116.25, 116.375, 116.75893, 117.25298, 117.72321, 118.125, 118.50893, 119.10715, 119.42559, 119.75, 120.14732, 120.68333, 121.42857, 121.5, 121.5, -10, -10, -10, -10, -10, -10
