-10, -10, -10, -10, -10, -10, -10, -10, -10, -10, -10, -10, -10, -10, -10, -10, -10, -10, -10, -10, -10, -10, -10, -10, -10, -10, -10, -10, -10, -10, -10, -10, -10, 70.199997, 70.571426, 70.946426, 71.551582, 71.476189, 71.333336, 70.913261, 70.821426, 70.5625, 70.821426, 70.89286, 70.964287, 71.015305, 70.833328, 70.904762, 70.666664, 70.387756, 70.39286, 70.928574, 71.071426, 71.214287, 71.43367, 71.459183, 71.535713, 71.3125, 71.3125, 71.25, 71.1875, 71.0625, 71.0625, 71, 71.0625, 71.25, 71.1875, 71.285713, 71.10714, 70.89286, 70.6875, 70.75, 70.75, 70.75, 70.75, 70.875, 71, 71.0625, 71.125, 70.928574, 70.948982, 70.89286, 70.714287, 70.8125, 70.875, 70.9375, 71.125, 70.928574, 71.1875, 71.125, 71.583336, 71.43367, 71.280617, 71.321426, 71.321426, 71.35714, 71.35714, 71.1875, 71.125, 71.125, 71.25, 71.5, 71.5, 71.535713, 71.428574, 71.428574, 71.35714, 71.0625, 71.0625, 71, 70.9375, 70.9375, 71, 71.14286, 71.188774, 71.35714, 70.755104, 71.35714, 71.42347, 71.464287, 71.224487, 70.955353, 70.875, 70.9375, 70.663261, 70.85714, 70.85714, 71.25, 71.25, 71.5, 71.571426, 71.64286, 71.714287, 71.4375, 71.25, 71.276787, 71.348213, 71.375, 71.5625, 71.3125, 71.1875, 71.1875, 71.125, 71.25, 71.25, 71.25, 71.3125, 71.25, 71.3125, 71.264877, 71.62925, 71.62925, 71.404762, 71.295914, 71.285713, 71.35714, 71.428574, 71.535713, 71.535713, 71.5, 71.464287, 71.35714, 70.785713, 71.125, 71.1875, 71.25, 71.39286, 71.428574, 71.5, 71.464287, 71.464287, 71.39286, 71.285713, 71.39286, 71.208336, 71.333336, 71.75, 71.678574, 71.4375, 71.375, 71.428574, 71.438774, 71.464287, 71.464287, 71.5, 71.25, 71, 71.25, 71.5, 71.535713, 71.60714, 71.64286, 71.678574, 71.375, 71.25, 71.1875, 71.125, 71.125, 71.0625, 70.75, 70.678574, 71, 71.321426, 71.25, 71.285713, 71.25, 71.321426, 71.35714, 71.321426, 71.285713, 71.285713, 71.285713, 71.321426, 71.285713, 71.285713, 71.125, 71.0625, 70.821426, 70.89286, 70.785713, 70.955353, 70.875, 70.8125, 70.875, 70.9375, 70.96875, 70.825897, 70.964287, 71.071426, 71.091835, 71.25, 71.25, 71.214287, 71.321426, 71.285713, 71.178574, 70.96875, 70.90625, 70.90625, 71.25, 71.214287, 71.071426, 71.071426, 71, 71, 70.875, 70.875, 70.9375, 71.25, 71.285713, 71.214287, 71.071426, 70.964287, 70.75, 70.8125, 71.071426, 71.14286, 71.333336, 71.333336, 71.14286, 71.178574, 71.178574, 71.14286, 71.214287, 71, 71.0625, 70.785713, 70.785713, 70.785713, 71.0625, 70.89286, 71, 71.419647, 71.375, 71.4375, 71.60714, 71.571426, 71.464287, 71.39286, 71.428574, 71.60714, 71.836739, 72.010201, 72.157143, 71.867348, 71.755104, 71.375, 71.375, 71.4375, 71.375, 71.571426, 71.3125, 71.25, 71.1875, 71.125, 71, 70.875, 70.75, 70.6875, 70.8125, 70.9375, 71.0625, 71, 70.520409, 70.35714, 69.916664, 70.083336, 70.138885, -10, -10, -10, -10, -10, -10, -10, -10, -10, -10, -10, -10, -10, -10, -10, -10, -10, -10, -10, -10, -10, -10, -10, -10, -10, -10, -10, -10, -10, -10, -10, -10, -10, -10, -10, -10, -10, -10, -10, -10, -10, -10, -10, -10, -10, -10, -10, -10, -10, -10, -10, -10, -10, -10, -10, -10, -10, -10, -10, -10, -10, -10, -10, -10, -10, -10, -10, -10, -10, -10, -10, -10, -10, -10, -10, -10, -10, -10, -10, -10, -10, -10, -10, -10, -10, -10, -10, -10, -10, -10, -10, -10, -10, -10, -10, -10, -10, -10, -10, -10, -10, -10, 72.666664, 72.367348, 72.544212, 72.479591, 72.083336, 71.898811, 71.791664, 71.708336, 72.14286, 72.035713, 71.892853, 72.218369, 71.962578, 72.115646, 72.333336, 72.309525, 72.25, 71.964287, 72.035713, 72.178574, 72.32653, 72.31633, 72.321426, 72.125, 72.1875, 72.1875, 72.1875, 72.0625, 72.0625, 71.714287, 72.0625, 72.25, 72.1875, 72.0625, 71.9375, 71.75, 72, 72.14286, 72.071426, 71.928574, 71.85714, 71.969383, 72.035713, 72.14286, 72.10714, 72.333336, 72.464287, 72.541664, 72.5, 72.178574, 72.178574, 72.214287, 72.25, 72.458336, 72.285713, 72.25, 72.35714, 72.505104, 72.352043, 72.39286, 72.428574, 72.1875, 72.1875, 72.1875, 72.125, 72.321426, 72.35714, 72.428574, 72.1875, 72.3125, 72.3125, 72.571426, 72.5, 72.35714, 72.0625, 72, 72.214287, 72.25, 72.321426, 72.0625, 72.133926, 72.5, 72.666664, 72.5, 72.339287, 72.60714, 72.133926, 72.188774, 71.971428, 72.214287, 72.470238, 72.666664, 72.583336, 72.5, 72.535713, 72.60714, 72.64286, 72.678574, 72.64286, 72.5, 72.413261, 72.535713, 72.535713, 72.60714, 72.571426, 72.321426, 72.14286, 72.14286, 72.14286, 72.321426, 72.39286, 72.464287, 72.535713, 72.5, 72.535713, 72.452377, 72.354164, 72.354164, 72.380951, 72.397957, 72.464287, 72.464287, 72.535713, 72.571426, 72.571426, 72.60714, 72.571426, 72.5, 72.666664, 72.1875, 72.125, 72.0625, 72.0625, 72.1875, 72.3125, 72.375, 72.4375, 72.14286, 72.071426, 72.64286, 72.958336, 72.916664, 72.785713, 72.75, 72.60714, 72.3125, 72.25, 72.25, 72.3125, 72.3125, 72.428574, 72.35714, 72.5, 72.35714, 72.5, 72.64286, 72.64286, 72.64286, 72.64286, 72.3125, 72.25, 72.1875, 72.35714, 72.321426, 72.35714, 72.541664, 72.541664, 72.708336, 72.464287, 72.1875, 72.1875, 71.85714, 72.1875, 72.25, 72.464287, 72.464287, 72.25, 72.1875, 72.125, 72, 71.9375, 71.9375, 72.035713, 72.333336, 72.333336, 72.208336, 71.913261, 71.821426, 71.821426, 71.928574, 71.8125, 71.84375, 71.71875, 71.71875, 71.78125, 71.8125, 71.875, 71.901787, 71.973213, 72, 72, 71.875, 71.90625, 71.90625, 71.96875, 72.09375, 72, 71.875, 71.875, 71.75, 71.6875, 71.75, 71.6875, 71.767853, 72.044647, 72.178574, 72.1875, 71.785713, 71.64286, 72.10714, 72.214287, 72.214287, 72.214287, 72.214287, 72.14286, 72.14286, 72.214287, 72.214287, 72.10714, 72.14286, 71.9375, 71.9375, 72.291664, 72.333336, 72.375, 72.285713, 72.666664, 72.791664, 72.658165, 72.5, 72.5, 72.25, 72.25, 72.21875, 72.1875, 72.1875, 72.3125, 72.729591, 72.938774, 73.157143, 72.867348, 72.535713, 72.375, 72.375, 72.64286, 72.375, 72.4375, 72.14286, 72.357147, 72.104164, 72.017853, 71.875, 71.75, 71.89286, 71.785713, 71.928574, 72.071426, 72.14286, 72.166672, 71.642853, 71.5625, -10, -10, -10, -10, -10, -10, -10, -10, -10, -10, -10, -10, -10, -10, -10, -10, -10, -10, -10, -10, -10, -10, -10, -10, -10, -10, -10, -10, -10
-10, -10, -10, -10, -10, -10, -10, -10, -10, -10, -10, -10, -10, -10, -10, -10, -10, -10, -10, -10, -10, -10, -10, -10, -10, -10, -10, -10, -10, -10, -10, -10, -10, -10, 73.199997, 73.612244, 73.476189, 73.419647, 73.5, 73.678566, 73.541664, 73.416664, 73.178574, 73.035713, 73.127548, 73.335709, 73.260201, 73.341835, 73.285713, 73.193886, 73.035713, 72.928574, 72.8125, 73, 73.160713, 72.959183, 73.125, 73, 73.214287, 73.178574, 73.25, 73.285713, 73.321426, 73.458336, 73.25, 73.285713, 73.14286, 73.071426, 73, 72.964287, 73.14286, 73.285713, 73.214287, 73.071426, 72.8125, 72.704079, 72.714287, 72.955353, 72.875, 73.071426, 73.18367, 73.285713, 73.214287, 73.214287, 73.214287, 73.214287, 73.214287, 73.214287, 73.321426, 73.35714, 73.3125, 73.348213, 73.151787, 73.125, 73.321426, 73.35714, 73.35714, 73.39286, 73.39286, 73.39286, 73.25, 73.25, 73.125, 73.125, 73.35714, 73.428574, 73.464287, 73.428574, 73.321426, 73.35714, 73.428574, 73.464287, 73.5, 73.35714, 73.295914, 73.464287, 73.428574, 73.535713, 73.530617, 73.60714, 73.403061, 73.331627, 73.257141, 73.5, 73.438774, 73.5, 73.35714, 73.35714, 73.464287, 73.571426, 73.571426, 73.64286, 73.375, 73.25, 73.520401, 73.64286, 73.571426, 73.535713, 73.25, 73.0625, 73, 72.785713, 73.0625, 73.428574, 73.535713, 73.60714, 73.64286, 73.60714, 73.64286, 73.375, 73.3125, 73.3125, 73.25, 73.464287, 73.464287, 73.464287, 73.3125, 73.375, 73.4375, 73.678574, 73.64286, 73.60714, 73.571426, 73.464287, 73.35714, 73.0625, 73.0625, 73.1875, 73.25, 73.428574, 73.5, 73.708336, 73.75, 73.75, 73.821426, 73.714287, 73.678574, 73.571426, 73.428574, 73.428574, 73.428574, 73.1875, 73.25, 73.39286, 73.35714, 73.39286, 73.35714, 73.464287, 73.5, 73.535713, 73.25, 73.25, 73.25, 73.321426, 73.285713, 73.285713, 73.35714, 73.428574, 73.5, 73.464287, 73.428574, 73.464287, 73.39286, 73.285713, 73.178574, 73.375, 73.35714, 73.464287, 73.571426, 73.60714, 73.428574, 73.321426, 73.214287, 72.875, 72.875, 72.875, 72.916664, 73.10714, 73.083336, 73.244896, 73.020409, 72.85714, 72.85714, 72.85714, 72.928574, 73, 73, 72.571426, 72.64286, 72.64286, 72.64286, 72.602043, 72.910713, 72.875, 72.875, 72.8125, 73.035713, 73.071426, 73.178574, 73.214287, 73, 72.9375, 72.875, 72.6875, 72.5625, 72.39286, 72.418373, 72.510201, 73.205788, 73.214287, 73.14286, 73.333336, 73.291664, 73.14286, 73.25, 73.214287, 73.0625, 73.125, 73.125, 73.125, 73.1875, 73.1875, 73.0625, 73.0625, 73.25, 72.916664, 73, 73.35714, 73.428574, 73.535713, 73.60714, 73.60714, 73.551025, 73.35714, 73.1875, 73.125, 73.125, 73.09375, 73.0625, 73.125, 73.3125, 73.482147, 73.602676, 73.731247, 73.415176, 73.285713, 73.39286, 73.464287, 73.60714, 73.60714, 73.64286, 73.875, 73.622452, 73.369041, 73.234688, 73.071426, 72.928574, 72.928574, 72.928574, 73.083328, 72.416664, 72.5, 72.78334, -10, -10, -10, -10, -10, -10, -10, -10, -10, -10, -10, -10, -10, -10, -10, -10, -10, -10, -10, -10, -10, -10, -10, -10, -10, -10, -10, -10, -10, -10, -10, -10, -10, -10, -10, -10, -10, -10, -10, -10, -10, -10, -10, -10, -10, -10, -10, -10, -10, -10, -10, -10, -10, -10, -10, -10, -10, -10, -10, -10, -10, -10, -10, -10, -10, -10, -10, -10, -10, -10, -10, -10, -10, -10, -10, -10, -10, -10, -10, -10, -10, -10, -10, -10, -10, -10, -10, -10, -10, -10, -10, -10, -10, -10, -10, -10, -10, -10, -10, -10, -10, -10, -10, -10, -10, -10, -10, -10, 74.428574, 74.367348, 74.39286, 74.35714, 74.428574, 74.428574, 74.35714, 74.321426, 74.25, 74.260201, 74.133339, 73.948975, 73.994896, 74.083336, 74.116074, 74, 73.8125, 73.8125, 74.071426, 74.178574, 74.5, 74, 73.875, 73.875, 73.875, 73.9375, 74.214287, 74.25, 74.214287, 74.178574, 73.9375, 73.8125, 73.8125, 73.875, 74.214287, 74.270401, 74.377548, 74.285713, 74.214287, 74.25, 74.613098, 74.583336, 74.306114, 74.0625, 74.0625, 74.160713, 74.1875, 74.0625, 74.0625, 74.0625, 74.125, 74.1875, 74.125, 74.1875, 74.39286, 74.464287, 74.535713, 74.428574, 74.0625, 74.0625, 74.25, 74.178574, 74.25, 74.25, 74.285713, 74.39286, 74.39286, 74.35714, 74.125, 74.1875, 74.25, 74.3125, 74.571426, 74.535713, 74.535713, 74.571426, 74.571426, 74.5, 74.39286, 74.255104, 74.1875, 74.25, 74.3125, 74.276787, 74.3125, 74.397957, 74.428574, 74.471428, 74.678574, 74.4375, 74.4375, 74.10714, 74.020401, 74.205353, 74.196426, 74.125, 74.25, 74.25, 74.25, 74.591835, 74.714287, 74.4375, 74.375, 74.25, 74.125, 74.214287, 74.416664, 74.285713, 74.321426, 74.5, 74.571426, 74.571426, 74.60714, 74.60714, 74.60714, 74.535713, 74.464287, 74.39286, 74.321426, 74.0625, 74.125, 74.1875, 74.3125, 74.571426, 74.64286, 74.714287, 74.836739, 74.85714, 74.678574, 74.459183, 74.321426, 74.285713, 74.39286, 74.35714, 74.35714, 74.428574, 74.5, 74.571426, 74.64286, 74.4375, 74.3125, 74.25, 74.125, 74, 74.214287, 74.321426, 74.321426, 74.5, 74.3125, 74.3125, 74.375, 74.3125, 74.571426, 74.375, 74.375, 74.25, 74.25, 74.25, 74.1875, 74.1875, 74.125, 74.35714, 74.321426, 74.1875, 74.25, 74.3125, 74.375, 74.3125, 74.1875, 74, 74.214287, 74.25, 74.285713, 74.39286, 74.428574, 74.321426, 74.214287, 74.178574, 74.14286, 74.10714, 74.214287, 74.541664, 74.469383, 74.428574, 74.089287, 73.830353, 73.89286, 73.964287, 73.75, 73.875, 74.214287, 74.290817, 74.541664, 74.398811, 74.291664, 74.166664, 74.226189, 74.112244, 74.071426, 74.14286, 74.071426, 74.089287, 73.84375, 73.90625, 73.90625, 74.071426, 74.035713, 73.964287, 73.89286, 73.89286, 74.333336, 74.601189, 74.654762, 74.312927, 74, 73.875, 74.071426, 74.071426, 74.178574, 74.0625, 74.0625, 74.35714, 74.321426, 74.25, 74.214287, 74.25, 74.321426, 74.35714, 74.428574, 74.428574, 74.625, 74.666664, 74.5, 74.571426, 74.64286, 74.5, 74.5, 74.419647, 74.25, 74.25, 74.0625, 74, 74.10714, 74.10714, 74.178574, 74.321426, 74.357147, 74.40625, 74.46875, 74.34375, 74.151787, 74.1875, 74.25, 74.3125, 74.535713, 74.571426, 74.571426, 74.551025, 74.404762, 74.234688, 74.071426, 73.988098, 73.449997, 73.449997, 73.616661, -10, -10, -10, -10, -10, -10, -10, -10, -10, -10, -10, -10, -10, -10, -10, -10, -10, -10, -10, -10, -10, -10, -10, -10, -10, -10, -10, -10, -10, -10, -10, -10, -10, -10
-10, -10, -10, -10, -10, -10, -10, -10, -10, -10, -10, -10, -10, -10, -10, -10, -10, -10, -10, -10, -10, -10, -10, -10, -10, -10, -10, -10, -10, -10, -10, -10, -10, -10, -10, 74.666664, 75.125, 75.145836, 75.0625, 75.017853, 75.017853, 75.145836, 75.107147, 75.285713, 75.214287, 74.804169, 74.705353, 74.530617, 75.020836, 75.275513, 75.14286, 74.964287, 74.928574, 75, 75.071426, 75.14286, 75, 74.6875, 74.6875, 74.6875, 74.875, 75, 75.0625, 75.0625, 74.9375, 74.875, 74.75, 74.8125, 75.14286, 75.214287, 75.080353, 75.142853, 75.125, 75.39286, 75.428574, 75.489799, 75.35714, 75.198975, 75.14286, 75.14286, 75.25, 75.285713, 75, 75.0625, 75, 75, 75.178574, 75.14286, 75.285713, 75.428574, 75.5, 75.464287, 75.39286, 75.178574, 75, 75.0625, 75, 75.125, 74.928574, 75.1875, 75.571426, 75.540817, 75.377548, 75.260201, 75.214287, 75.214287, 75.285713, 75.35714, 75.35714, 75.1875, 75.1875, 75.1875, 75.1875, 75.1875, 75.0625, 75.125, 75.1875, 75.25, 75.3125, 75.3125, 75.3125, 75.459183, 75.557144, 75.64286, 75.571426, 75.4375, 75.791664, 75.714287, 75.205353, 75.196426, 74.85714, 75.25, 75.25, 75.5, 75.653061, 75.714287, 75.64286, 75.571426, 75.428574, 75.321426, 75.285713, 75.214287, 75.25, 75, 75.0625, 75.1875, 75.25, 75.375, 75.375, 75.60714, 75.5, 75.35714, 75.285713, 74.9375, 74.875, 74.875, 75, 75.39286, 75.535713, 75.4375, 75.714287, 75.836739, 75.85714, 75.75, 75.602043, 75.535713, 75.464287, 75.428574, 75.178574, 75.349998, 75.3125, 75.446426, 75.375, 75.375, 75.25, 75.125, 74.85714, 74.785713, 74.821426, 74.89286, 75.035713, 75.3125, 75.60714, 75.60714, 75.571426, 75.64286, 75.571426, 75.64286, 75.60714, 75.571426, 75.464287, 75.464287, 75.464287, 75.464287, 75.5, 75.25, 75.25, 75.1875, 74.964287, 75.223213, 75.42347, 75.428574, 75.285713, 75.285713, 74.9375, 74.9375, 75, 75, 75.0625, 75.0625, 74.9375, 74.9375, 74.9375, 75.178574, 75.14286, 75.14286, 75.214287, 75.255104, 75.285713, 75.17347, 75, 75, 75, 75, 75.214287, 75.35714, 75.540817, 75.571426, 75.377548, 75.214287, 75.035713, 75.051025, 75.091835, 75.071426, 75.10714, 75.10714, 75.14286, 74.875, 74.875, 74.8125, 74.8125, 74.875, 74.8125, 75, 75.035713, 75.25, 75.479599, 75.561226, 75.394554, 75.0625, 75.0625, 75, 74.9375, 75, 75.0625, 75.25, 75.35714, 75.285713, 75.25, 75.25, 75.25, 75.321426, 75.39286, 75.464287, 75.464287, 75.428574, 75.428574, 75.39286, 75.428574, 75.535713, 75.5, 75.5, 75.5, 75.464287, 75.5, 75.39286, 75.321426, 75.03125, 75.0625, 75.125, 75.125, 75.125, 75.03125, 75.03125, 75.25, 75.0625, 75.25, 75.348213, 75.205353, 75.196426, 75.1875, 75.1875, 75.107147, 74.958328, 74.523811, 74.550003, 74.483337, -10, -10, -10, -10, -10, -10, -10, -10, -10, -10, -10, -10, -10, -10, -10, -10, -10, -10, -10, -10, -10, -10, -10, -10, -10, -10, -10, -10, -10, -10, -10, -10, -10, -10, -10, -10, -10, -10, -10, -10, -10, -10, -10, -10, -10, -10, -10, -10, -10, -10, -10, -10, -10, -10, -10, -10, -10, -10, -10, -10, -10, -10, -10, -10, -10, -10, -10, -10, -10, -10, -10, -10, -10, -10, -10, -10, -10, -10, -10, -10, -10, -10, -10, -10, -10, -10, -10, -10, -10, -10, -10, -10, -10, -10, -10, -10, -10, -10, -10, -10, -10, -10, -10, -10, -10, -10, -10, -10, -10, -10, -10, -10, -10, -10, -10, 75.5, 76.145836, 75.979164, 75.627548, 75.627548, 76.020836, 76.301025, 76.321426, 75.928574, 75.604164, 75.633926, 75.82653, 76.095238, 76.168373, 76.14286, 75.969383, 75.651787, 75.75, 75.6875, 75.8125, 75.6875, 75.5625, 75.5625, 75.714287, 75.821426, 75.928574, 75.8125, 75.875, 75.8125, 76.035713, 76.071426, 76.214287, 76.35714, 76.39286, 76.377548, 76.306114, 76.285713, 76.35714, 76.321426, 76.160713, 76.125, 75.955353, 75.9375, 76.178574, 76.178574, 76.178574, 76.071426, 76.035713, 75.964287, 75.75, 75.875, 76.178574, 76.35714, 76.535713, 76.375, 76.3125, 76.5, 76.321426, 76.25, 76.285713, 76.214287, 76.25, 76.458336, 76.321426, 76.5, 76.57653, 76.520401, 76.403061, 76, 76, 76.0625, 76.125, 75.928574, 75.928574, 76.125, 76.151787, 76.223213, 76.1875, 76.35714, 76.285713, 76.285713, 76.321426, 76.39286, 76.464287, 76.535713, 76.464287, 76.3125, 76.25, 76.321426, 76.35714, 76.39286, 76.397957, 76.341835, 76.367348, 76.5, 76.39286, 76.464287, 76.464287, 76.64286, 76.64286, 76.60714, 76.64286, 76.571426, 76.5, 76.25, 76.1875, 76.1875, 76.125, 75.89286, 76, 76.10714, 76.25, 76.5, 76.5, 76.375, 76.25, 76.1875, 75.714287, 75.571426, 75.64286, 76.0625, 76.28125, 76.46875, 76.821426, 76.877548, 76.741501, 76.734688, 76.571426, 76.459183, 76.428574, 76.1875, 76.1875, 76.178574, 76.614281, 76.428574, 76.438774, 76.25, 76.0625, 76, 76.178574, 76.5, 76.458336, 76.625, 76.666664, 76.75, 76.60714, 76.678574, 76.714287, 76.714287, 76.75, 76.678574, 76.714287, 76.678574, 76.64286, 76.60714, 76.60714, 76.60714, 76.60714, 76.60714, 76.535713, 76.5, 76.464287, 76.75, 76.540817, 76.530617, 76.464287, 76.25, 76.178574, 75.964287, 75.78125, 75.84375, 75.84375, 75.875, 75.8125, 75.75, 75.875, 75.9375, 76.0625, 76, 75.9375, 76, 75.973213, 76.0625, 76.026787, 75.9375, 76.25, 76.25, 76.285713, 76.464287, 76.571426, 76.647957, 76.571426, 76.205353, 76, 75.875, 75.875, 75.875, 75.9375, 76, 76.321426, 76.321426, 76.25, 76.214287, 75.9375, 76, 76, 76.071426, 76.035713, 76.035713, 76, 76.232147, 76.294647, 76.238098, 76.18367, 76.214287, 76.10714, 76.035713, 76.035713, 76.10714, 76.25, 76.35714, 76.0625, 76, 75.9375, 75.9375, 76.0625, 76.125, 76.1875, 76.1875, 76.196426, 76.375, 76.3125, 76.3125, 76.25, 76.125, 76.285713, 76.321426, 76.39286, 76.5, 76.428574, 76.35714, 76.214287, 76.214287, 76.321426, 76.1875, 76.21875, 76.09375, 75.96875, 76.23214, 76.14286, 76.321426, 76.469383, 76.142853, 76.196426, 75.85714, 75.785713, 75.333336, 75.388885, -10, -10, -10, -10, -10, -10, -10, -10, -10, -10, -10, -10, -10, -10, -10, -10, -10, -10, -10, -10, -10, -10, -10, -10, -10, -10, -10, -10, -10, -10, -10, -10, -10, -10, -10, -10, -10, -10, -10, -10
-10, -10, -10, -10, -10, -10, -10, -10, -10, -10, -10, -10, -10, -10, -10, -10, -10, -10, -10, -10, -10, -10, -10, -10, -10, -10, -10, -10, -10, -10, -10, -10, -10, -10, -10, -10, -10, 76.78334, 77.226189, 77.386902, 77.428566, 77.309525, 77.301025, 77.0625, 76.803574, 76.666664, 76.755104, 76.969383, 76.799324, 76.918373, 76.928574, 76.719383, 76.530617, 76.8125, 76.408157, 76.5, 76.571426, 76.508926, 76.714287, 76.714287, 76.785713, 76.928574, 77, 77.214287, 77.285713, 77.35714, 77.35714, 77.321426, 77.321426, 77.214287, 77.224487, 77.153061, 77.14286, 77.0625, 77.0625, 77, 77, 76.875, 76.8125, 76.9375, 77, 77.0625, 77, 76.875, 76.8125, 76.8125, 77, 77.125, 77.39286, 77.535713, 77.464287, 77.35714, 77.35714, 77.178574, 77.14286, 77.178574, 77.214287, 77.285713, 77.35714, 77.464287, 77.5, 77.505104, 77.377548, 77.295914, 77, 77, 77, 76.9375, 77.333336, 77.291664, 77.10714, 77.209183, 77.397957, 77.5, 77.535713, 77.39286, 77.35714, 77.35714, 77.35714, 77.428574, 77.428574, 77.321426, 77.1875, 77.125, 77.0625, 77.125, 77.1875, 77.285713, 77.205353, 77.469383, 77.428574, 77.464287, 77.571426, 77.3125, 77.4375, 77.375, 77.3125, 77.5, 77.35714, 77.35714, 77.39286, 77.35714, 77.428574, 77.39286, 77.666664, 77.791664, 77.916664, 78, 77.678574, 77.571426, 77.35714, 77.25, 77.285713, 77.458336, 77.5, 77.541664, 77.428574, 77.571426, 77.714287, 77.85714, 77.877548, 77.523811, 77.455353, 77.339287, 77.3125, 77.25, 77.1875, 77.0625, 77.275513, 77.542854, 77.428574, 77.510201, 77.125, 77.321426, 77.285713, 77.35714, 77.5, 77.5, 77.64286, 77.64286, 77.60714, 77.571426, 77.5, 77.3125, 77.375, 77.4375, 77.64286, 77.714287, 77.714287, 77.64286, 77.64286, 77.64286, 77.64286, 77.714287, 77.714287, 77.60714, 77.5, 77.464287, 77.60714, 77.68367, 77.515312, 77.196426, 76.9375, 76.8125, 76.703125, 76.765625, 77, 76.831627, 76.653061, 76.571426, 76.714287, 77.051025, 77.178574, 77.35714, 77.285713, 77, 76.9375, 76.875, 77, 77.214287, 77.321426, 77.39286, 77.285713, 77.285713, 77.39286, 77.5, 77.410713, 77.375, 77.205353, 77.25, 77.14286, 77.035713, 76.8125, 76.9375, 77, 77.321426, 77.35714, 77.25, 77.214287, 77.071426, 77.071426, 77.071426, 77, 76.964287, 76.8125, 76.9375, 77, 77.0625, 76.9375, 76.9375, 77.25, 77.14286, 77.14286, 77.10714, 77, 77.1875, 77.25, 77.125, 77, 76.64286, 76.64286, 77.0625, 77.125, 77.1875, 77.1875, 77.196426, 77.571426, 77.5, 77.5, 77.25, 77.1875, 76.928574, 77, 77.3125, 77.375, 77.3125, 77.428574, 77.25, 77.25, 77.39286, 77.464287, 77.377548, 77.306114, 77.178574, 77.1875, 76.89286, 77.25, 77.16964, 77.106125, 76.814285, 76.875, 76.8125, -10, -10, -10, -10, -10, -10, -10, -10, -10, -10, -10, -10, -10, -10, -10, -10, -10, -10, -10, -10, -10, -10, -10, -10, -10, -10, -10, -10, -10, -10, -10, -10, -10, -10, -10, -10, -10, -10, -10, -10, -10, -10, -10, -10, -10, -10, -10, -10, -10, -10, -10, -10, -10, -10, -10, -10, -10, -10, -10, -10, -10, -10, -10, -10, -10, -10, -10, -10, -10, -10, -10, -10, -10, -10, -10, -10, -10, -10, -10, -10, -10, -10, -10, -10, -10, -10, -10, -10, -10, -10, -10, -10, -10, -10, -10, -10, -10, -10, -10, -10, -10, -10, -10, -10, -10, -10, -10, -10, -10, -10, -10, -10, -10, -10, -10, -10, -10, -10, -10, -10, -10, -10, 78.190475, 78.248299, 78.295914, 78.333336, 78.275513, 77.9375, 77.75, 77.928574, 78.10714, 78.285713, 78.76786, 78.791664, 78.791664, 78.648811, 78.476189, 78.214287, 78.369049, 78.458336, 77.938774, 77.867348, 77.785713, 77.714287, 77.625, 77.8125, 78.14286, 78.35714, 78.39286, 78.39286, 78.321426, 78.214287, 77.9375, 77.8125, 77.875, 77.875, 77.9375, 78.0625, 78.0625, 78.214287, 78.168373, 77.914291, 77.989799, 78.096939, 78.14286, 78.178574, 78.10714, 78, 78.035713, 78.071426, 78.214287, 78.42347, 78.5, 78.403061, 78.133926, 78, 78, 77.875, 77.875, 77.9375, 78.0625, 78.1875, 78.3125, 78.571426, 78.375, 78.276787, 77.955353, 77.883926, 77.928574, 78.071426, 78.14286, 78.14286, 78, 78, 78.285713, 78.387756, 78.57653, 78.64286, 78.714287, 78.535713, 78.464287, 78.39286, 78.125, 78.125, 78.125, 78.0625, 78.125, 78.125, 78.0625, 78.125, 78.125, 78.25, 78.3125, 78.375, 78.3125, 78.3125, 78.571426, 78.5, 78.64286, 78.3125, 78.1875, 78.1875, 78.0625, 78.125, 78.5, 78.464287, 78.535713, 78.535713, 78.571426, 78.75, 78.785713, 78.821426, 78.678574, 78.375, 78, 78.25, 78.327385, 78.404762, 78.367348, 78.285713, 78.39286, 78.535713, 78.714287, 78.89286, 78.877548, 78.619041, 78.330353, 78.276787, 78.540817, 78.428574, 78.321426, 78.14286, 77.928574, 78.162498, 78.125, 78.258926, 78.39286, 78.464287, 78.464287, 78.535713, 78.64286, 78.64286, 78.5625, 78.5625, 78.5, 78.4375, 78.3125, 78, 78.3125, 78.375, 78.4375, 78.714287, 78.714287, 78.4375, 78.375, 78.3125, 78.25, 78.5, 78.64286, 78.473213, 78.4375, 78.4375, 78.5, 78.535713, 78.357147, 78.196426, 77.64286, 77.5, 77.446426, 78.160713, 78.214287, 77.545914, 77.367348, 77.285713, 77.428574, 78.229599, 78.25, 78.321426, 78.178574, 78.071426, 78.071426, 78.14286, 78.443886, 78.535713, 78.678574, 78.64286, 78.464287, 78.1875, 78.25, 78.25, 78.25, 78.35714, 78.321426, 78.285713, 78.321426, 78.285713, 78.14286, 78.14286, 78.071426, 78.178574, 78.295914, 78.137497, 78.080353, 77.785713, 77.9375, 77.9375, 77.8125, 77.6875, 77.6875, 77.928574, 77.928574, 77.8125, 77.75, 77.875, 78.0625, 78, 78.214287, 78.071426, 78.14286, 78.35714, 78.428574, 78.464287, 78.39286, 78.583336, 78.583336, 78.428574, 78.428574, 78.428574, 78.428574, 78.438774, 78.571426, 78.535713, 78.535713, 78.428574, 78.428574, 78.625, 78.666664, 78.428574, 78.428574, 78.35714, 78.125, 78.0625, 78.125, 78.25, 78.535713, 78.377548, 78.270401, 78.214287, 78.321426, 78.597221, 77.900002, 77.642853, 77.37381, -10, -10, -10, -10, -10, -10, -10, -10, -10, -10, -10, -10, -10, -10, -10, -10, -10, -10, -10, -10, -10, -10, -10, -10, -10, -10, -10, -10, -10, -10, -10, -10, -10, -10, -10, -10, -10, -10, -10, -10, -10, -10, -10, -10, -10
-10, -10, -10, -10, -10, -10, -10, -10, -10, -10, -10, -10, -10, -10, -10, -10, -10, -10, -10, -10, -10, -10, -10, -10, -10, -10, -10, -10, -10, -10, -10, -10, -10, -10, -10, -10, -10, -10, 78.55555, 79.270836, 79.229164, 79.125, 79.0625, 79.14286, 79.10714, 79.14286, 79.214287, 79.285713, 79.408165, 79.428574, 79.464287, 79.377548, 79.265312, 79.214287, 79.17347, 79.25, 78.974487, 78.903061, 78.867348, 78.722221, 78.821434, 79.285713, 79.234688, 79.39286, 79.428574, 79.25, 79.1875, 79.0625, 79, 78.9375, 78.714287, 79, 79.14286, 79.178574, 79.214287, 79.14286, 79.168373, 78.737503, 79.096939, 79.239799, 79.285713, 79.35714, 79.285713, 79.214287, 79.285713, 79.35714, 79.464287, 79.602043, 79.535713, 79.133926, 79.008926, 78.9375, 79, 79, 79.0625, 79.0625, 79.1875, 79.464287, 79.571426, 79.64286, 79.5, 79.178574, 79, 79, 78.678574, 78.821426, 79.1875, 79.39286, 79.666664, 79.666664, 79.39286, 79.408165, 79.285713, 79.428574, 79.3125, 79.321426, 79.35714, 79.285713, 79.14286, 79, 79, 79, 79.35714, 79.39286, 79.35714, 79.428574, 79.35714, 79.464287, 79.5, 79.535713, 79.535713, 79.535713, 79.60714, 79.571426, 79.60714, 79.464287, 79.125, 79.0625, 79, 79.0625, 79.35714, 79.25, 79.375, 79.375, 79.375, 79.5, 79.5, 79.5625, 79.5, 79.4375, 79.875, 79.958336, 79.988098, 79.354164, 79.321426, 79, 79.3125, 79.34375, 79.495537, 79.691963, 79.642853, 79.738091, 79.581627, 79.56633, 79.57653, 79.39286, 79.25, 78.8125, 78.8125, 78.9375, 79.0625, 79.428574, 79.535713, 79.60714, 79.60714, 79.64286, 79.75, 79.821426, 79.85714, 79.85714, 79.714287, 79.571426, 79.5, 79.666664, 79.5, 79.571426, 79.64286, 79.714287, 79.714287, 79.64286, 79.375, 79.3125, 79.25, 79.3125, 79.4375, 79.68367, 79.714287, 79.68367, 79.602043, 79.714287, 79.448975, 79.331627, 79.416664, 79.333336, 79.427086, 79.39286, 79.410713, 79.526787, 79.339287, 79.208336, 79.25, 79.122452, 79.224487, 79.25, 78.85714, 78.785713, 79.25, 79.35714, 79.586739, 79.714287, 79.821426, 79.714287, 79.5, 79.35714, 79.285713, 79.0625, 79, 79, 79.0625, 79.321426, 79.39286, 79.321426, 79.10714, 79.071426, 78.8125, 78.9375, 79.071426, 79.199997, 79.205353, 79.666664, 79.0625, 79, 78.875, 78.75, 78.75, 78.833336, 78.833336, 78.833336, 79, 79.035713, 79.071426, 79, 79.071426, 78.964287, 79.035713, 79.214287, 79.35714, 79.5, 79.535713, 79.571426, 79.571426, 79.60714, 79.535713, 79.535713, 79.464287, 79.469383, 79.375, 79.3125, 79.3125, 79.35714, 79.321426, 79.285713, 79.35714, 79.39286, 79.35714, 79.125, 79, 79.10714, 79.270401, 79.5, 79.60714, 79.330353, 79.142853, 79.104164, 78.900002, 79.016663, -10, -10, -10, -10, -10, -10, -10, -10, -10, -10, -10, -10, -10, -10, -10, -10, -10, -10, -10, -10, -10, -10, -10, -10, -10, -10, -10, -10, -10, -10, -10, -10, -10, -10, -10, -10, -10, -10, -10, -10, -10, -10, -10, -10, -10, -10, -10, -10, -10, -10, -10, -10, -10, -10, -10, -10, -10, -10, -10, -10, -10, -10, -10, -10, -10, -10, -10, -10, -10, -10, -10, -10, -10, -10, -10, -10, -10, -10, -10, -10, -10, -10, -10, -10, -10, -10, -10, -10, -10, -10, -10, -10, -10, -10, -10, -10, -10, -10, -10, -10, -10, -10, -10, -10, -10, -10, -10, -10, -10, -10, -10, -10, -10, -10, -10, -10, -10, -10, -10, -10, -10, -10, -10, -10, -10, -10, -10, -10, -10, 80.380959, 80.208328, 80.125, 80.285713, 80.321426, 80.285713, 80.285713, 80.25, 80, 80.107147, 80.125, 80.125, 80.0625, 80, 79.9375, 80.026787, 80.0625, 79.821426, 79.758926, 79.938774, 80.44445, 80.601189, 80.464287, 80.306114, 80.1875, 80.1875, 80.25, 80.125, 80.14286, 80.035713, 80, 80.25, 80.14286, 80.214287, 80.25, 80.125, 79.85714, 80.053574, 80.092857, 80.275513, 80.311226, 80.428574, 80.464287, 80.39286, 80.35714, 80.428574, 80.5, 80.464287, 80.530617, 80.39286, 79.821426, 79.696426, 79.821426, 79.89286, 80, 80.14286, 80.214287, 80.39286, 80.571426, 80.678574, 80.714287, 80.60714, 80.418373, 80.10714, 80.035713, 80.333336, 80.5, 80.464287, 80.571426, 80.571426, 80.571426, 80.464287, 80.428574, 80.125, 80.0625, 80.125, 80.0625, 80.1875, 80.1875, 80.0625, 80.214287, 80.10714, 80.10714, 80.214287, 80.35714, 80.428574, 80.5, 80.5, 80.535713, 80.535713, 80.535713, 80.535713, 80.535713, 80.5, 80.571426, 80.375, 80.464287, 80.428574, 80.25, 80.14286, 80.10714, 79.9375, 80, 80.125, 80.125, 80.125, 80.25, 80.1875, 80.3125, 80.535713, 80.5, 80.678574, 80.75, 80.775513, 80.583328, 80.510201, 80.666664, 80.5, 80.3125, 80.401787, 80.755104, 80.714287, 80.785713, 80.678574, 80.693871, 80.473213, 80.3125, 79.964287, 79.714287, 79.916664, 80.041664, 80.25, 80.739799, 80.64286, 80.714287, 80.64286, 80.714287, 80.785713, 80.85714, 80.85714, 80.785713, 80.60714, 80.428574, 80.39286, 80.35714, 80.39286, 80.5, 80.535713, 80.571426, 80.571426, 80.464287, 80.39286, 80.464287, 80.505104, 80.571426, 80.714287, 80.719383, 80.785713, 80.755104, 80.637756, 80.714287, 80.267853, 80.397957, 80.35714, 80.321426, 80.348213, 80.45536, 80.39286, 80.255104, 80.18367, 80.178574, 80.25, 79.765312, 80.133926, 80.5, 80.666664, 80.666664, 80.39286, 80.464287, 80.586739, 80.60714, 80.571426, 80.5, 80.39286, 80.35714, 80.285713, 79.9375, 79.9375, 80, 80.125, 80.25, 80.25, 80.1875, 79.785713, 79.734688, 79.60714, 79.678574, 80.295914, 80.478569, 80.484688, 80.5, 80.214287, 80.14286, 80, 79.928574, 80.208336, 80.25, 80.25, 80.25, 80.035713, 80.10714, 80.10714, 79.8125, 79.8125, 79.75, 79.875, 80.0625, 80.25, 80.375, 80.4375, 80.714287, 80.714287, 80.714287, 80.4375, 80.375, 80.25, 80.25, 80.1875, 80.125, 80.125, 80, 80, 79.9375, 80, 80.0625, 80.107147, 80.1875, 80.125, 80.0625, 80.448975, 80.535713, 80.547615, 80.014282, 79.714279, 79.766663, -10, -10, -10, -10, -10, -10, -10, -10, -10, -10, -10, -10, -10, -10, -10, -10, -10, -10, -10, -10, -10, -10, -10, -10, -10, -10, -10, -10, -10, -10, -10, -10, -10, -10, -10, -10, -10, -10, -10, -10, -10, -10, -10, -10, -10, -10, -10, -10, -10, -10
-10, -10, -10, -10, -10, -10, -10, -10, -10, -10, -10, -10, -10, -10, -10, -10, -10, -10, -10, -10, -10, -10, -10, -10, -10, -10, -10, -10, -10, -10, -10, -10, -10, -10, -10, -10, -10, -10, -10, 81.190483, 81.261902, 81.285713, 81.35714, 81.428574, 81.428574, 81.1875, 81.0625, 80.9375, 80.8125, 80.8125, 80.875, 80.9375, 80.9375, 80.9375, 80.9375, 80.875, 80.8125, 80.6875, 80.903061, 81.238098, 81.372452, 81.428574, 81.080353, 81.125, 81.35714, 81.464287, 81.428574, 81.285713, 81.214287, 81.14286, 81.214287, 81.25, 81.285713, 81.125, 81.1875, 81.666664, 81.387756, 81.242859, 81.31633, 81.053574, 81.25, 81.285713, 81.25, 81.25, 81.285713, 81.39286, 81.1875, 81.276787, 81.25, 80.581627, 80.474487, 80.464287, 80.535713, 80.9375, 81.39286, 81.464287, 81.571426, 81.678574, 81.714287, 81.714287, 81.64286, 81.530617, 81.35714, 81.285713, 81.39286, 81.535713, 81.64286, 81.678574, 81.571426, 81.571426, 81.25, 81.1875, 81.0625, 80.875, 80.875, 80.875, 81, 81.178574, 81.214287, 81.25, 81.25, 81.0625, 80.85714, 81.25, 81.25, 81.25, 81.25, 81.25, 81.25, 81.25, 81.464287, 81.464287, 81.25, 81.60714, 81.3125, 81.39286, 81.35714, 81.071426, 81.030617, 80.919647, 80.991074, 80.785713, 80.85714, 80.85714, 81.125, 81.25, 81.1875, 81.535713, 81.60714, 81.3125, 81.5, 81.5625, 81.553574, 81.666664, 81.612244, 81.571426, 81.535713, 81.428574, 81.42347, 81.469383, 81.5, 81.64286, 81.571426, 81.64286, 81.571426, 81.464287, 81.708336, 81.708336, 81.791664, 82, 82.166664, 81.989799, 81.821426, 81.785713, 81.4375, 81.714287, 81.785713, 81.85714, 81.85714, 81.5625, 81.4375, 81.25, 81.1875, 81.1875, 81.1875, 81.3125, 81.375, 81.375, 81.375, 81.3125, 81.035713, 81.64286, 81.719383, 81.75, 81.75, 81.535713, 81.625, 81.598213, 81.67347, 81.714287, 81.571426, 81.25, 81.1875, 81.125, 81.0625, 81.125, 81.125, 81.125, 81.1875, 81.25, 81.25, 81.541664, 81.367348, 81.464287, 81.35714, 81.428574, 81.39286, 81.464287, 81.419647, 81.4375, 81.14286, 81.34375, 81.28125, 81.28125, 81.21875, 81.0625, 81.214287, 81.25, 81.39286, 81.5, 81.464287, 81.25, 81.625, 81.630951, 81.625, 81.541664, 81.32653, 81.400002, 81.438774, 81.3125, 81.35714, 81.125, 80.714287, 80.916664, 81, 81, 81, 81, 81.285713, 81.321426, 81.35714, 81, 80.75, 80.958336, 81, 81.428574, 81.535713, 81.571426, 81.64286, 81.714287, 81.714287, 81.714287, 81.64286, 81.375, 81.25, 81.25, 81.125, 81.0625, 81, 80.875, 80.9375, 80.60714, 80.714287, 81, 80.982147, 81.321426, 81.25, 81.238098, 80.978569, 81.050003, 80.80555, -10, -10, -10, -10, -10, -10, -10, -10, -10, -10, -10, -10, -10, -10, -10, -10, -10, -10, -10, -10, -10, -10, -10, -10, -10, -10, -10, -10, -10, -10, -10, -10, -10, -10, -10, -10, -10, -10, -10, -10, -10, -10, -10, -10, -10, -10, -10, -10, -10, -10, -10, -10, -10, -10, -10, -10, -10, -10, -10, -10, -10, -10, -10, -10, -10, -10, -10, -10, -10, -10, -10, -10, -10, -10, -10, -10, -10, -10, -10, -10, -10, -10, -10, -10, -10, -10, -10, -10, -10, -10, -10, -10, -10, -10, -10, -10, -10, -10, -10, -10, -10, -10, -10, -10, -10, -10, -10, -10, -10, -10, -10, -10, -10, -10, -10, -10, -10, -10, -10, -10, -10, -10, -10, -10, -10, -10, -10, -10, -10, -10, -10, -10, -10, -10, 81.5, 82.041664, 82.333328, 82.35714, 82.35714, 82.321426, 82.25, 82.14286, 82.10714, 82.071426, 82.071426, 82.14286, 82.14286, 82.071426, 82, 82, 81.897957, 81.85714, 81.989799, 81.8125, 82.145836, 82.107147, 82.026787, 81.830353, 82.14286, 82.35714, 82.535713, 82.60714, 82.464287, 82.39286, 82.125, 82.125, 82.0625, 82, 82.14286, 82.178574, 82.285713, 82.25, 82.178574, 82.14286, 81.875, 81.9375, 82, 82.0625, 82.125, 82.125, 82.1875, 82.125, 82.1875, 82.321426, 82.458336, 82.416664, 82.333336, 82.375, 82.25, 82.35714, 82.428574, 82.5, 82.571426, 82.64286, 82.64286, 82.60714, 82.535713, 82.464287, 82.464287, 82.375, 82.4375, 82.4375, 82.4375, 82.3125, 82.3125, 82.25, 82.428574, 82.239799, 81.914291, 82.061226, 82.061226, 81.9375, 81.9375, 82.178574, 82.14286, 82.14286, 82.14286, 82.375, 82.321426, 82.39286, 82.1875, 82.1875, 82.1875, 82.1875, 82.25, 82.3125, 82.3125, 82.3125, 82.571426, 82.464287, 82.25, 82.285713, 81.75, 81.709183, 82.229599, 82.239799, 82.583336, 82.625, 82.541664, 82.285713, 82.35714, 82.35714, 82.535713, 82.64286, 82.3125, 82.375, 82.3125, 82.25, 82.5, 82.5, 82.571426, 82.375, 82.25, 82.214287, 82.223213, 82.25, 82.4375, 82.375, 82.4375, 82.60714, 82.571426, 82.678574, 82.714287, 82.821426, 83, 83.10714, 83.061226, 82.85714, 82.785713, 82.64286, 82.714287, 82.5625, 82.625, 82.625, 82.5, 82.375, 82.1875, 82.125, 82.1875, 82.1875, 82.3125, 82.5, 82.428574, 82.35714, 82.285713, 82.625, 82.64286, 82.82653, 82.785713, 82.714287, 82.64286, 82.5, 82.535713, 82.693886, 82.64286, 82.571426, 82.428574, 82.285713, 82, 81.875, 81.9375, 82, 82, 82.25, 82.285713, 82.25, 82.214287, 82.255104, 82.1875, 82.1875, 82.3125, 82.3125, 82.535713, 82.535713, 82.5, 82.666664, 82.464287, 82.5, 82.535713, 82.5, 82.428574, 82.428574, 82.39286, 82.428574, 82.428574, 82.35714, 82.39286, 82.5, 82.612244, 82.64286, 82.60714, 82.5, 82.25, 82.3125, 82.3125, 82.464287, 82.39286, 82.541664, 82.541664, 82.583336, 82.666664, 82.666664, 82.666664, 82.464287, 82.5, 82.535713, 82.75, 82.791664, 82.875, 82.833336, 82.64286, 82.678574, 82.64286, 82.678574, 82.714287, 82.64286, 82.64286, 82.60714, 82.464287, 82.428574, 82.428574, 82.321426, 82.35714, 82.285713, 82.178574, 82.14286, 82.208336, 82.333336, 82.14286, 82.265312, 82.25, 81.583336, 81.78334, -10, -10, -10, -10, -10, -10, -10, -10, -10, -10, -10, -10, -10, -10, -10, -10, -10, -10, -10, -10, -10, -10, -10, -10, -10, -10, -10, -10, -10, -10, -10, -10, -10, -10, -10, -10, -10, -10, -10, -10, -10, -10, -10, -10, -10, -10, -10, -10, -10, -10, -10, -10, -10, -10, -10, -10
-10, -10, -10, -10, -10, -10, -10, -10, -10, -10, -10, -10, -10, -10, -10, -10, -10, -10, -10, -10, -10, -10, -10, -10, -10, -10, -10, -10, -10, -10, -10, -10, -10, -10, -10, -10, -10, -10, -10, -10, 82.5, 83.104164, 83.083336, 83.0625, 82.9375, 82.875, 83.035713, 83.14286, 83.14286, 83.214287, 83.35714, 83.285713, 83.214287, 83.14286, 83.10714, 82.848213, 82.571426, 83.168373, 83.096939, 83.163261, 82.761909, 82.721085, 82.854164, 82.955353, 83.285713, 83.39286, 83.464287, 83.285713, 83.321426, 83.321426, 83.321426, 83.321426, 83.0625, 83, 83.0625, 83, 82.948975, 82.85714, 82.955353, 82.8125, 82.875, 82.9375, 83.0625, 83.321426, 83.321426, 83.39286, 83.35714, 83.428574, 83.464287, 83.535713, 83.60714, 83.535713, 83.464287, 83.306114, 83.178574, 83.14286, 83, 83.0625, 83.1875, 83.1875, 83.1875, 83.321426, 83.35714, 83.39286, 83.464287, 83.571426, 83.535713, 83.375, 83.3125, 83.3125, 83.535713, 83.535713, 83.418373, 82.925003, 83.275513, 83.275513, 83.321426, 83.0625, 83, 82.875, 82.8125, 82.8125, 83.071426, 83.178574, 83.285713, 83.285713, 83.39286, 83.464287, 83.39286, 83.39286, 83.321426, 83.321426, 83.428574, 83.535713, 83.535713, 83.535713, 83.540817, 83.666664, 83.64286, 83.443886, 83.489799, 83.571426, 83.571426, 83.5, 83.464287, 83.5, 83.428574, 83.464287, 83.535713, 83.35714, 83.464287, 83.535713, 83.285713, 83.10714, 83.10714, 83.375, 83.375, 83.34375, 83.34375, 83.28125, 83.34375, 83.64286, 83.571426, 83.64286, 83.64286, 83.64286, 83.5625, 83.625, 83.6875, 83.8125, 83.8125, 83.741074, 83.785713, 83.64286, 83.637756, 83.755104, 83.714287, 83.785713, 83.714287, 83.60714, 83.571426, 83.464287, 83.39286, 83.464287, 83.464287, 83.571426, 83.571426, 83.5, 83.1875, 83.39286, 83.464287, 83.535713, 83.410713, 83.3125, 83.3125, 83.3125, 83.375, 83.714287, 83.714287, 83.4375, 83.375, 83.39286, 83, 82.875, 82.6875, 82.6875, 83.035713, 83.14286, 83.321426, 83.1875, 82.928574, 82.928574, 82.928574, 83.1875, 83.25, 83.375, 83.64286, 83.678574, 83.571426, 83.535713, 83.5, 83.51786, 83.625, 83.660713, 83.660713, 83.571426, 83.5, 83.428574, 83.1875, 83.25, 83.1875, 83.1875, 83.25, 83.285713, 83.375, 83.375, 83.5, 83.5, 83.5, 83.464287, 83.428574, 83.39286, 83.35714, 83.35714, 83.35714, 83.35714, 83.285713, 83.35714, 83.464287, 83.571426, 83.714287, 83.785713, 83.821426, 83.89286, 83.85714, 83.821426, 83.714287, 83.64286, 83.64286, 83.571426, 83.3125, 83.3125, 83.25, 83.125, 83.35714, 83.35714, 83.25, 83.321426, 83.25, 83.214287, 83.35714, 83.321426, 83.335709, 82.699997, 82.785721, 82.949997, -10, -10, -10, -10, -10, -10, -10, -10, -10, -10, -10, -10, -10, -10, -10, -10, -10, -10, -10, -10, -10, -10, -10, -10, -10, -10, -10, -10, -10, -10, -10, -10, -10, -10, -10, -10, -10, -10, -10, -10, -10, -10, -10, -10, -10, -10, -10, -10, -10, -10, -10, -10, -10, -10, -10, -10, -10, -10, -10, -10, -10, -10, -10, -10, -10, -10, -10, -10, -10, -10, -10, -10, -10, -10, -10, -10, -10, -10, -10, -10, -10, -10, -10, -10, -10, -10, -10, -10, -10, -10, -10, -10, -10, -10, -10, -10, -10, -10, -10, -10, -10, -10, -10, -10, -10, -10, -10, -10, -10, -10, -10, -10, -10, -10, -10, -10, -10, -10, -10, -10, -10, -10, -10, -10, -10, -10, -10, -10, -10, -10, -10, -10, -10, -10, -10, -10, -10, -10, -10, -10, -10, 84.404762, 84.145836, 84, 83.9375, 83.9375, 83.9375, 84.0625, 84.25, 84.25, 84.285713, 84, 84, 83.9375, 84.071426, 84.07653, 84.208336, 84.204086, 84.132652, 84.234688, 84.56945, 84.462303, 83.976189, 83.79464, 83.9375, 84.107147, 84.25, 83.928574, 84.1875, 84.428574, 84.428574, 84.428574, 84.35714, 84.25, 84.25, 84.583336, 84.714287, 84.625, 84.234688, 84.10714, 84.071426, 84.14286, 84.285713, 84.428574, 84.5, 84.535713, 84.5, 84.535713, 84.571426, 84.714287, 84.821426, 84.75, 84.678574, 84.330353, 83.928574, 83.85714, 83.85714, 83.85714, 83.964287, 83.964287, 83.964287, 83.928574, 84.1875, 84.1875, 84.1875, 84.25, 84.25, 84.464287, 84.5, 84.5, 84.5, 84.571426, 84.489799, 84.307144, 84.489799, 84.418373, 84.35714, 84.14286, 83.964287, 83.6875, 83.6875, 83.75, 83.8125, 83.875, 84, 84.285713, 84.35714, 84.5, 84.428574, 84.428574, 84.1875, 84.1875, 84.3125, 84.375, 84.60714, 84.571426, 84.57653, 84.464287, 84.479591, 84.561226, 84.602043, 84.714287, 84.714287, 84.64286, 84.571426, 84.571426, 84.3125, 84.25, 84.25, 84.0625, 84.125, 84.464287, 84.505104, 84.791664, 84.791664, 84.5, 84.535713, 84.535713, 84.571426, 84.60714, 84.571426, 84.64286, 84.571426, 84.60714, 84.678574, 84.60714, 84.571426, 84.571426, 84.571426, 84.4375, 84.4375, 84.375, 84.3125, 84.25, 84.339287, 84.68367, 84.64286, 84.714287, 84.64286, 84.571426, 84.64286, 84.678574, 84.64286, 84.714287, 84.714287, 84.678574, 84.571426, 84.428574, 84.35714, 84.428574, 84.410713, 84.375, 84.339287, 84, 84.285713, 84.375, 84.4375, 84.714287, 84.714287, 84.64286, 84.375, 84.25, 84, 83.8125, 83.928574, 83.85714, 84.035713, 84.14286, 84.178574, 84.285713, 84.5, 84.458336, 84.541664, 84.35714, 84.464287, 84.64286, 84.714287, 84.75, 84.4375, 84.4375, 84.4375, 84.4375, 84.714287, 84.714287, 84.714287, 84.4375, 84.375, 84.25, 84.125, 84.0625, 84, 84, 84.0625, 84.125, 84.25, 84.3125, 84.571426, 84.60714, 84.60714, 84.571426, 84.3125, 84.25, 84.1875, 84.1875, 84.1875, 84.1875, 84.125, 84.125, 84.1875, 84.3125, 84.5, 84.625, 84.6875, 84.75, 84.6875, 84.625, 84.5, 84.375, 84.3125, 84.1875, 84.0625, 84.125, 84.125, 84.125, 84.25, 84.1875, 84.0625, 84.0625, 84, 84.020836, 83.949997, 83.949997, 83.76667, -10, -10, -10, -10, -10, -10, -10, -10, -10, -10, -10, -10, -10, -10, -10, -10, -10, -10, -10, -10, -10, -10, -10, -10, -10, -10, -10, -10, -10, -10, -10, -10, -10, -10, -10, -10, -10, -10, -10, -10, -10, -10, -10, -10, -10, -10, -10, -10, -10, -10, -10, -10, -10, -10, -10, -10, -10, -10, -10, -10, -10
-10, -10, -10, -10, -10, -10, -10, -10, -10, -10, -10, -10, -10, -10, -10, -10, -10, -10, -10, -10, -10, -10, -10, -10, -10, -10, -10, -10, -10, -10, -10, -10, -10, -10, -10, -10, -10, -10, -10, -10, -10, 84.933334, 85.309525, 85.130959, 85.10714, 85.178574, 85.214287, 85.39286, 85.1875, 85.125, 85.0625, 84.875, 84.875, 85.10714, 85.178574, 85.306114, 85, 85.116074, 84.991074, 85.080353, 85.488098, 85.360542, 85.154762, 84.79464, 84.875, 85.107147, 85.25, 85.666664, 85.25, 85.25, 85.39286, 85.35714, 85.321426, 85.285713, 85.35714, 85.5, 85.612244, 85.571426, 85.448975, 85.35714, 85.321426, 85.39286, 85.5, 85.60714, 85.678574, 85.678574, 85.64286, 85.64286, 85.64286, 85.75, 85.785713, 85.678574, 85.60714, 85.484688, 85.666664, 85.708336, 85.708336, 85.708336, 85.708336, 85.708336, 85.625, 85.458336, 85.178574, 85, 85.0625, 85.1875, 85.25, 85.3125, 85.60714, 85.535713, 85.25, 85.25, 85.387756, 85.385719, 85.602043, 85.602043, 85.375, 84.89286, 84.678574, 84.75, 84.928574, 84.928574, 84.75, 84.8125, 85, 85.0625, 85.0625, 85.39286, 85.321426, 85.1875, 85.428574, 85.5, 85.64286, 85.75, 85.821426, 85.5625, 85.535713, 85.4375, 85.4375, 85.4375, 85.4375, 85.714287, 85.714287, 85.678574, 85.64286, 85.64286, 85.571426, 85.39286, 85.1875, 85.0625, 85.125, 85.3125, 85.612244, 85.678574, 85.678574, 85.5, 85.56633, 85.765312, 85.809525, 85.690475, 85.591835, 85.375, 85.375, 85.4375, 85.714287, 85.4375, 85.3125, 85.25, 85.1875, 85.1875, 85.1875, 85.1875, 84.928574, 85.1875, 85.339287, 85.473213, 85.4375, 85.5, 85.375, 85.464287, 85.556114, 85.845238, 85.872452, 85.928574, 85.85714, 85.714287, 85.60714, 85.5, 85.464287, 85.535713, 85.612244, 85.535713, 85.276787, 85.625, 85.505104, 85.60714, 85.678574, 85.714287, 85.64286, 85.535713, 85.39286, 85.25, 85.071426, 85, 85.035713, 84.964287, 84.9375, 85, 85, 85.39286, 85.428574, 85.35714, 85.428574, 85.464287, 85.571426, 85.75, 85.714287, 85.64286, 85.5, 85.428574, 85.428574, 85.428574, 85.428574, 85.428574, 85.428574, 85.428574, 85.428574, 85.321426, 85.214287, 85.178574, 84.875, 84.714287, 85.098213, 85.017853, 85.142853, 85.428574, 85.571426, 85.714287, 85.714287, 85.64286, 85.571426, 85.39286, 85.0625, 85, 85, 85.0625, 85.0625, 85.125, 85.1875, 85.3125, 85.4375, 85.64286, 85.64286, 85.64286, 85.571426, 85.64286, 85.571426, 85.3125, 85.3125, 85.1875, 84.785713, 85.125, 85.125, 85.35714, 85.464287, 85.39286, 85.125, 85.125, 84.5, 84.527779, -10, -10, -10, -10, -10, -10, -10, -10, -10, -10, -10, -10, -10, -10, -10, -10, -10, -10, -10, -10, -10, -10, -10, -10, -10, -10, -10, -10, -10, -10, -10, -10, -10, -10, -10, -10, -10, -10, -10, -10, -10, -10, -10, -10, -10, -10, -10, -10, -10, -10, -10, -10, -10, -10, -10, -10, -10, -10, -10, -10, -10, -10, -10, -10, -10, -10, -10, -10, -10, -10, -10, -10, -10, -10, -10, -10, -10, -10, -10, -10, -10, -10, -10, -10, -10, -10, -10, -10, -10, -10, -10, -10, -10, -10, -10, -10, -10, -10, -10, -10, -10, -10, -10, -10, -10, -10, -10, -10, -10, -10, -10, -10, -10, -10, -10, -10, -10, -10, -10, -10, -10, -10, -10, -10, -10, -10, -10, -10, -10, -10, -10, -10, -10, -10, -10, -10, -10, -10, -10, -10, -10, -10, -10, -10, -10, -10, -10, -10, 86.476196, 86.345238, 86.35714, 86.428574, 86.428574, 86.535713, 86.464287, 86.35714, 86, 85.875, 85.875, 86.14286, 86.285713, 86.39286, 86.583336, 86.25, 86.071426, 85.955353, 86.270836, 86.270836, 86.380943, 86.255104, 86.25, 86.443886, 86.535713, 86.571426, 86.464287, 86.428574, 86.125, 86.125, 86.1875, 86.1875, 86.535713, 86.571426, 86.410713, 86.5, 86.438774, 86.428574, 86.428574, 86.464287, 86.5, 86.571426, 86.64286, 86.714287, 86.64286, 86.64286, 86.64286, 86.5, 86.5625, 86.4375, 86.375, 86.267853, 86.571426, 86.678574, 86.678574, 86.60714, 86.571426, 86.571426, 86.5, 86.35714, 86.10714, 85.92347, 86, 86.229599, 86.464287, 86.571426, 86.64286, 86.375, 86.25, 86.25, 86.25, 86.3125, 86.4375, 86.64286, 86.64286, 86.666664, 86.5, 86.375, 86, 86, 86.071426, 86.071426, 86.25, 86.35714, 86.125, 86.1875, 86.0625, 86.214287, 86.25, 86.39286, 86.571426, 86.75, 86.785713, 86.64286, 86.5, 86.35714, 86.5, 86.68367, 86.714287, 86.785713, 86.714287, 86.714287, 86.64286, 86.64286, 86.60714, 86.428574, 86.428574, 86.321426, 86.35714, 86.571426, 86.473213, 86.5625, 86.5, 86.3125, 86.339287, 86.711739, 86.614586, 86.510414, 86.424103, 86.375, 86.4375, 86.714287, 86.785713, 86.64286, 86.25, 86.125, 86.0625, 86.125, 86.125, 86.39286, 86.625, 86.428574, 86.551025, 86.473213, 86.64286, 86.5, 86.375, 86.3125, 86.392853, 86.880959, 86.908165, 86.85714, 86.714287, 86.5, 86.35714, 86.35714, 86.428574, 86.571426, 86.647957, 86.571426, 86.494896, 86.5, 86.647957, 86.714287, 86.75, 86.64286, 86.3125, 86.1875, 86, 85.875, 85.8125, 86.071426, 86.214287, 86.214287, 86.321426, 86.35714, 86.39286, 86.64286, 86.693886, 86.229164, 86.196426, 86.125, 86.1875, 86.3125, 86.3125, 86.3125, 86.25, 86.25, 86.25, 86.25, 86, 86, 86, 86.25, 86.428574, 86.285713, 86.14286, 85.9375, 85.9375, 86.5, 86.43367, 86.306114, 86.413261, 86.5, 86.60714, 86.714287, 86.714287, 86.678574, 86.64286, 86.428574, 86.25, 85.96875, 85.96875, 86.285713, 86.285713, 86.25, 86.214287, 86.25, 86.428574, 86.25, 86.25, 86.25, 86.1875, 86.3125, 86.535713, 86.535713, 86.464287, 86.285713, 86.416664, 86.285713, 86.39286, 86.535713, 86.60714, 85.949997, 85.849998, 85.75, -10, -10, -10, -10, -10, -10, -10, -10, -10, -10, -10, -10, -10, -10, -10, -10, -10, -10, -10, -10, -10, -10, -10, -10, -10, -10, -10, -10, -10, -10, -10, -10, -10, -10, -10, -10, -10, -10, -10, -10, -10, -10, -10, -10, -10, -10, -10, -10, -10, -10, -10, -10, -10, -10, -10, -10, -10, -10, -10, -10, -10, -10, -10, -10, -10, -10
-10, -10, -10, -10, -10, -10, -10, -10, -10, -10, -10, -10, -10, -10, -10, -10, -10, -10, -10, -10, -10, -10, -10, -10, -10, -10, -10, -10, -10, -10, -10, -10, -10, -10, -10, -10, -10, -10, -10, -10, -10, -10, 87, 87.488098, 87.440475, 87.464287, 87.39286, 87.464287, 87.428574, 87.321426, 87.14286, 87.071426, 87.035713, 87.10714, 87.321426, 87.39286, 87.428574, 87.39286, 87.25, 87.0625, 87.1875, 87.35714, 87.464287, 87.408165, 87.428574, 87.632652, 87.60714, 87.64286, 87.535713, 87.39286, 87.0625, 86.9375, 87.10714, 87.178574, 87.39286, 87.464287, 87.3125, 87.3125, 87.25, 87.25, 87.428574, 87.35714, 87.35714, 87.321426, 87.25, 87.571426, 87.375, 87.375, 87.3125, 87.25, 87.428574, 87.1875, 87.25, 87.3125, 87.375, 87.5, 87.4375, 87.4375, 87.4375, 87.4375, 87.4375, 87.3125, 86.821426, 86.67347, 86.714287, 87.184532, 87.64286, 87.64286, 87.678574, 87.535713, 87.35714, 87.25, 87.25, 87.39286, 87.5, 87.535713, 87.571426, 87.464287, 87.428574, 87.428574, 87.285713, 87.285713, 87.35714, 87.35714, 87.464287, 87.5, 87.428574, 87.39286, 87.125, 87.125, 86.928574, 87.3125, 87.4375, 87.5625, 87.5625, 87.4375, 87.3125, 87.1875, 87.571426, 87.719383, 87.75, 87.714287, 87.571426, 87.571426, 87.3125, 87.375, 87.4375, 87.535713, 87.5, 87.464287, 87.464287, 87.571426, 87.678574, 87.714287, 87.4375, 87.535713, 87.56633, 87.729599, 87.773811, 87.619041, 87.556114, 87.535713, 87.678574, 87.75, 87.785713, 87.678574, 87.5, 87.285713, 87.214287, 87.285713, 87.35714, 87.535713, 87.5, 87.535713, 87.5, 87.535713, 87.60714, 87.60714, 87.535713, 87.464287, 87.520401, 87.583336, 87.669647, 87.553574, 87.349998, 87.112244, 86.969383, 87, 87.571426, 87.60714, 87.473213, 87.4375, 87.401787, 87.4375, 87.535713, 87.5625, 87.5625, 87.4375, 87.3125, 87.1875, 86.785713, 86.9375, 86.875, 87.14286, 87.285713, 87.39286, 87.535713, 87.464287, 87.5, 87.678574, 87.693886, 87.476189, 87.133926, 87.0625, 87.0625, 87.1875, 87.25, 87.25, 87.25, 87.35714, 87.285713, 87.285713, 87.5, 87.583336, 87.666664, 87.428574, 87.1875, 87, 86.8125, 87.035713, 87.14286, 87.35714, 87.505104, 87.306114, 87.341835, 87.428574, 87.571426, 87.714287, 87.714287, 87.64286, 87.571426, 87.39286, 87.321426, 87.362244, 87.39286, 87.464287, 87.35714, 87.25, 87.10714, 86.9375, 87.125, 87.1875, 87.25, 87.25, 87.1875, 87.3125, 87.3125, 87.464287, 87.35714, 87.25, 87.285713, 87.369041, 87, 87.150002, 87.199997, -10, -10, -10, -10, -10, -10, -10, -10, -10, -10, -10, -10, -10, -10, -10, -10, -10, -10, -10, -10, -10, -10, -10, -10, -10, -10, -10, -10, -10, -10, -10, -10, -10, -10, -10, -10, -10, -10, -10, -10, -10, -10, -10, -10, -10, -10, -10, -10, -10, -10, -10, -10, -10, -10, -10, -10, -10, -10, -10, -10, -10, -10, -10, -10, -10, -10, -10, -10, -10, -10, -10, -10, -10, -10, -10, -10, -10, -10, -10, -10, -10, -10, -10, -10, -10, -10, -10, -10, -10, -10, -10, -10, -10, -10, -10, -10, -10, -10, -10, -10, -10, -10, -10, -10, -10, -10, -10, -10, -10, -10, -10, -10, -10, -10, -10, -10, -10, -10, -10, -10, -10, -10, -10, -10, -10, -10, -10, -10, -10, -10, -10, -10, -10, -10, -10, -10, -10, -10, -10, -10, -10, -10, -10, -10, -10, -10, -10, -10, -10, -10, -10, -10, -10, -10, 88.333328, 88.35714, 88.25, 88.285713, 88.3125, 88.276787, 88.1875, 88, 88.178574, 88.035713, 87.875, 88.0625, 88.125, 88.25, 88.39286, 88.285713, 88.35714, 88.428574, 88.35714, 88.464287, 88.464287, 88.464287, 88.64286, 88.375, 88.375, 88.3125, 88.125, 88.285713, 88.178574, 87.9375, 87.785713, 88.25, 88.3125, 88.25, 88.35714, 88.0625, 88.0625, 88.125, 88.125, 88.1875, 87.928574, 88.25, 88.375, 88.375, 88.375, 88.3125, 88.25, 88.1875, 88.285713, 88.285713, 88.214287, 88, 88.125, 88, 88.026787, 88.232147, 88.303574, 88.60714, 88.571426, 88.666664, 88.684532, 88.75, 88.863098, 88.714287, 88.714287, 88.714287, 88.535713, 88.35714, 88.178574, 88.178574, 88.35714, 88.25, 88.3125, 88.3125, 88.25, 88.25, 88.5, 88.464287, 88.464287, 88.535713, 88.464287, 88.464287, 88.5, 88.464287, 88.464287, 88.464287, 88.428574, 88.541664, 88.35714, 88.3125, 88.4375, 88.5, 88.4375, 88.25, 88.35714, 88.5, 88.68367, 88.785713, 88.5, 88.375, 88.375, 88.3125, 88.4375, 88.714287, 88.678574, 88.678574, 88.60714, 88.60714, 88.375, 88.571426, 88.5, 88.428574, 88.39286, 88.479591, 88.482147, 88.520836, 88.666672, 88.653061, 88.714287, 88.821426, 88.85714, 88.85714, 88.714287, 88.60714, 88.428574, 88.39286, 88.464287, 88.5, 88.678574, 88.4375, 88.4375, 88.3125, 88.3125, 88.375, 88.375, 88.60714, 88.571426, 88.581627, 88.520836, 88.607147, 88.491074, 88.287498, 88.803566, 88.761902, 88.875, 88.64286, 88.64286, 88.64286, 88.64286, 88.64286, 88.64286, 88.714287, 88.714287, 88.714287, 88.64286, 88.464287, 88.35714, 88.458336, 88.14286, 88.14286, 88.178574, 88.214287, 88.285713, 88.321426, 88.178574, 88.311226, 88.412498, 88.294647, 88.37925, 88.117348, 88.10714, 88.178574, 88.125, 88.464287, 88.428574, 88.35714, 88.25, 88.10714, 88.10714, 88.214287, 88.35714, 88.5, 88.535713, 88.428574, 88.0625, 87.64286, 88, 88.285713, 88.1875, 88.285713, 88.017853, 88.080353, 88.428574, 88.464287, 88.64286, 88.64286, 88.3125, 88.25, 88.125, 88.321426, 88.469383, 88.571426, 88.60714, 88.25, 88.1875, 87.785713, 88.0625, 88.1875, 88.321426, 88.321426, 88.178574, 88.102043, 88.372452, 88.454086, 88.3125, 88.25, 88.1875, 87.666664, 87.722221, -10, -10, -10, -10, -10, -10, -10, -10, -10, -10, -10, -10, -10, -10, -10, -10, -10, -10, -10, -10, -10, -10, -10, -10, -10, -10, -10, -10, -10, -10, -10, -10, -10, -10, -10, -10, -10, -10, -10, -10, -10, -10, -10, -10, -10, -10, -10, -10, -10, -10, -10, -10, -10, -10, -10, -10, -10, -10, -10, -10, -10, -10, -10, -10, -10, -10, -10, -10, -10, -10, -10, -10
-10, -10, -10, -10, -10, -10, -10, -10, -10, -10, -10, -10, -10, -10, -10, -10, -10, -10, -10, -10, -10, -10, -10, -10, -10, -10, -10, -10, -10, -10, -10, -10, -10, -10, -10, -10, -10, -10, -10, -10, -10, -10, -10, 88.666664, 88.666664, 89.3125, 89.540817, 89.5, 89.276787, 89.25, 89.125, 89.125, 89, 88.9375, 89.0625, 89, 89.125, 89.428574, 89.39286, 89.535713, 89.571426, 89.25, 89.25, 89.25, 89.25, 89.375, 89.375, 89.375, 89.535713, 89.1875, 89.428574, 89.285713, 89.25, 89.541664, 89.428574, 89.464287, 89.35714, 89.25, 89.035713, 88.875, 89, 89.0625, 89.39286, 89.625, 89.464287, 89.5, 89.464287, 89.39286, 89.25, 89.25, 89.125, 89.125, 89.1875, 88.85714, 88.785713, 88.89286, 88.75, 88.780617, 89.294647, 89.303574, 89.678574, 89.60714, 89.535713, 89.479599, 89.5, 89.561226, 89.60714, 89.64286, 89.64286, 89.3125, 89.125, 88.9375, 88.875, 89, 89.0625, 89.125, 89.0625, 89.0625, 89.35714, 89.5, 89.535713, 89.464287, 89.428574, 89.285713, 89.0625, 89.125, 89.1875, 89.464287, 89.571426, 89.60714, 89.5, 89.464287, 89.5, 89.3125, 89.60714, 89.571426, 89.464287, 89.39286, 89.25, 89.348213, 89.375, 89.3125, 89.35714, 89.35714, 89.39286, 89.60714, 89.678574, 89.75, 89.714287, 89.64286, 89.64286, 89.375, 89.375, 89.3125, 89.035713, 89.035713, 89.375, 89.678574, 89.4375, 89.714287, 89.714287, 89.785713, 89.821426, 89.821426, 89.821426, 89.714287, 89.60714, 89.5, 89.5, 89.535713, 89.60714, 89.714287, 89.64286, 89.64286, 89.3125, 89.25, 89.339287, 89.482147, 89.738098, 89.547615, 89.520401, 89.5, 89.64286, 89.596939, 89.471428, 89.688774, 89.653061, 89.75, 89.64286, 89.535713, 89.464287, 89.39286, 89.464287, 89.535713, 89.571426, 89.64286, 89.64286, 89.535713, 89.428574, 89.25, 89.214287, 89.314285, 89.10714, 89.153061, 88.875, 88.9375, 89, 88.714287, 88.882652, 89.412498, 89.051025, 89.238091, 88.724487, 89.214287, 89.214287, 89.214287, 89.321426, 89.35714, 89.125, 89.125, 88.785713, 88.785713, 89.125, 89.1875, 89.25, 89.35714, 89.321426, 89.285713, 89.375, 89.321426, 89.35714, 89.125, 89.25, 89.125, 89.125, 89.1875, 89.125, 89.25, 89.3125, 89.25, 89.25, 89.1875, 89.21875, 89.630104, 89.73214, 89.625, 89.464287, 89.35714, 89.375, 89.214287, 89.321426, 89.321426, 89.39286, 88.785713, 88.744896, 89.169647, 89.220238, 89, 88.849998, 88.800003, -10, -10, -10, -10, -10, -10, -10, -10, -10, -10, -10, -10, -10, -10, -10, -10, -10, -10, -10, -10, -10, -10, -10, -10, -10, -10, -10, -10, -10, -10, -10, -10, -10, -10, -10, -10, -10, -10, -10, -10, -10, -10, -10, -10, -10, -10, -10, -10, -10, -10, -10, -10, -10, -10, -10, -10, -10, -10, -10, -10, -10, -10, -10, -10, -10, -10, -10, -10, -10, -10, -10, -10, -10, -10, -10, -10, -10, -10, -10, -10, -10, -10, -10, -10, -10, -10, -10, -10, -10, -10, -10, -10, -10, -10, -10, -10, -10, -10, -10, -10, -10, -10, -10, -10, -10, -10, -10, -10, -10, -10, -10, -10, -10, -10, -10, -10, -10, -10, -10, -10, -10, -10, -10, -10, -10, -10, -10, -10, -10, -10, -10, -10, -10, -10, -10, -10, -10, -10, -10, -10, -10, -10, -10, -10, -10, -10, -10, -10, -10, -10, -10, -10, -10, -10, -10, -10, -10, -10, -10, -10, -10, 90.571426, 90.647957, 90.60714, 90.56633, 90.535713, 90.464287, 90.464287, 90.39286, 90.25, 90.214287, 90.14286, 90.0625, 90.25, 90.3125, 90.64286, 90.64286, 90.535713, 90.464287, 90.464287, 90.464287, 90.375, 90.60714, 90.535713, 90.464287, 90.285713, 90.285713, 90.178574, 90.214287, 90.285713, 90.321426, 90.428574, 90.125, 90.125, 89.714287, 89.9375, 90.214287, 90.321426, 90.39286, 90.428574, 90.39286, 90.35714, 90.1875, 90.1875, 89.85714, 90.39286, 90.39286, 90.35714, 90.39286, 90.541664, 90.5, 90.666664, 90.583336, 90.64286, 90.586739, 90.596939, 90.714287, 90.375, 90.375, 90.3125, 90.25, 90.3125, 90.3125, 90.3125, 90.3125, 90.321426, 90.071426, 89.964287, 89.75, 89.9375, 89.785713, 90.125, 90.0625, 90.35714, 90.464287, 90.375, 90.375, 90.25, 90.125, 89.9375, 89.875, 89.9375, 90.0625, 90.1875, 90.375, 90.571426, 90.5, 90.5, 90.5, 90.571426, 90.64286, 90.571426, 90.428574, 90.1875, 90.125, 90.1875, 90.25, 90.1875, 90.125, 90, 90.261902, 90.630959, 90.5, 90.85714, 90.75, 90.678574, 90.678574, 90.60714, 90.571426, 90.5, 90.791664, 90.791664, 90.714287, 90.785713, 90.714287, 90.785713, 90.714287, 90.85714, 90.85714, 90.85714, 90.785713, 90.64286, 90.3125, 90.464287, 90.535713, 90.535713, 90.60714, 90.571426, 90.535713, 90.535713, 90.5, 90.5, 90.56633, 90.729599, 90.773811, 90.291664, 90.267853, 90.25, 90.3125, 90.530617, 90.485718, 90.446426, 90.508926, 90.59375, 90.40625, 90.21875, 90.09375, 90, 90.0625, 90.125, 90.1875, 90.3125, 90.3125, 90.3125, 90.25, 90.125, 89.928574, 90.275002, 90, 89.946426, 89.8125, 89.8125, 89.9375, 90.14286, 90.494049, 90.507141, 90.541664, 90.438774, 90.541664, 90.25, 90.125, 90.125, 90.1875, 90.25, 90.1875, 90.428574, 90.708336, 90.708336, 90.5, 90.1875, 90.0625, 89.901787, 89.875, 90.178574, 90.285713, 90.464287, 90.428574, 90.285713, 90.35714, 90.25, 90.25, 90.35714, 90.0625, 90.1875, 90.3125, 90.464287, 90.428574, 90.428574, 90.39286, 90.285713, 90.4375, 90.3125, 90.428574, 90.39286, 90.214287, 90.25, 90.35714, 90.1875, 90.3125, 90.666664, 89.964287, 89.726196, 89.71032, -10, -10, -10, -10, -10, -10, -10, -10, -10, -10, -10, -10, -10, -10, -10, -10, -10, -10, -10, -10, -10, -10, -10, -10, -10, -10, -10, -10, -10, -10, -10, -10, -10, -10, -10, -10, -10, -10, -10, -10, -10, -10, -10, -10, -10, -10, -10, -10, -10, -10, -10, -10, -10, -10, -10, -10, -10, -10, -10, -10, -10, -10, -10, -10, -10, -10, -10, -10, -10, -10, -10, -10, -10, -10, -10, -10, -10
-10, -10, -10, -10, -10, -10, -10, -10, -10, -10, -10, -10, -10, -10, -10, -10, -10, -10, -10, -10, -10, -10, -10, -10, -10, -10, -10, -10, -10, -10, -10, -10, -10, -10, -10, -10, -10, -10, -10, -10, -10, -10, -10, -10, -10, 91.150002, 91.535713, 91.714287, 91.693886, 91.678574, 91.571426, 91.5, 91.39286, 91.178574, 91.10714, 91.035713, 91.071426, 91.214287, 91.285713, 91.39286, 91.39286, 91.438774, 91.571426, 91.571426, 91.64286, 91.60714, 91.60714, 91.5, 91.21875, 91.09375, 91.15625, 90.85714, 90.964287, 91.071426, 91.071426, 91.14286, 91.25, 91.35714, 91.458336, 91.244896, 91.43367, 91.5, 91.3125, 91.25, 91.125, 91, 91, 91, 91.333336, 91.285713, 91.39286, 91.35714, 91.464287, 91.35714, 91.35714, 91.571426, 91.535713, 91.551025, 91.632652, 91.602043, 91.64286, 91.375, 91.3125, 91.125, 91, 91.0625, 91.125, 91.1875, 91.1875, 91, 90.75, 90.964287, 91.035713, 91.214287, 91.625, 91.464287, 91.428574, 91.5, 91.5, 91.464287, 91.25, 91.125, 91.0625, 90.64286, 90.8125, 90.875, 91.214287, 91.125, 91.375, 91.375, 91.3125, 91.571426, 91.571426, 91.64286, 91.678574, 91.60714, 91.571426, 91.5, 90.89286, 91.25, 91.1875, 91.125, 91.125, 91, 91.104164, 91.458336, 91.5, 91.75, 91.4375, 91.5, 91.428574, 91.39286, 91.35714, 91.321426, 91.464287, 91.535713, 91.714287, 91.75, 91.60714, 91.64286, 91.571426, 91.75, 91.821426, 91.821426, 91.5625, 91.5, 91.14286, 91.178574, 91.25, 91.5, 91.5, 91.375, 91.375, 91.375, 91.60714, 91.60714, 91.637756, 91.801025, 91.809525, 91.354164, 91.330353, 91.3125, 91.3125, 91.375, 91.3125, 91.3125, 91.375, 91.40625, 91.34375, 91.21875, 91.09375, 90.714287, 90.785713, 91.0625, 91.0625, 91.1875, 91.125, 91.125, 91.321426, 91.178574, 91.541664, 91.492859, 91.178574, 91.081627, 90.89286, 90.928574, 91.10714, 91.285713, 91.459183, 91.628578, 91.428574, 91.397957, 91.285713, 91.10714, 91.214287, 91.25, 91.125, 91.464287, 91.5, 91.60714, 91.714287, 91.714287, 91.60714, 91.35714, 90.9375, 90.839287, 90.678574, 91.0625, 91.125, 91.1875, 91.321426, 91.285713, 91.428574, 91.39286, 91.285713, 91.25, 91.14286, 91.25, 91.464287, 91.571426, 91.5, 91.428574, 91.35714, 91.125, 91.25, 91.1875, 91.1875, 91.1875, 91.1875, 91, 91.071426, 91.654762, 91, 91, -10, -10, -10, -10, -10, -10, -10, -10, -10, -10, -10, -10, -10, -10, -10, -10, -10, -10, -10, -10, -10, -10, -10, -10, -10, -10, -10, -10, -10, -10, -10, -10, -10, -10, -10, -10, -10, -10, -10, -10, -10, -10, -10, -10, -10, -10, -10, -10, -10, -10, -10, -10, -10, -10, -10, -10, -10, -10, -10, -10, -10, -10, -10, -10, -10, -10, -10, -10, -10, -10, -10, -10, -10, -10, -10, -10, -10, -10, -10, -10, -10, -10, -10, -10, -10, -10, -10, -10, -10, -10, -10, -10, -10, -10, -10, -10, -10, -10, -10, -10, -10, -10, -10, -10, -10, -10, -10, -10, -10, -10, -10, -10, -10, -10, -10, -10, -10, -10, -10, -10, -10, -10, -10, -10, -10, -10, -10, -10, -10, -10, -10, -10, -10, -10, -10, -10, -10, -10, -10, -10, -10, -10, -10, -10, -10, -10, -10, -10, -10, -10, -10, -10, -10, -10, -10, -10, -10, -10, -10, -10, -10, -10, -10, -10, -10, -10, -10, -10, 92.714287, 92.714287, 92.714287, 92.714287, 92.375, 92.25, 92.125, 91.875, 91.875, 91.8125, 91.8125, 92, 92.0625, 92.1875, 92, 92.321426, 92.678574, 92.678574, 92.75, 92.678574, 92.4375, 92.34375, 92.21875, 92.09375, 92.03125, 92.291664, 92.5, 92.666664, 92.75, 92.875, 92.571426, 92.535713, 92.5, 92.494896, 92.612244, 92.535713, 92.5, 92.1875, 92, 91.875, 91.8125, 91.75, 92, 92.10714, 92.214287, 92.0625, 92.25, 92.1875, 92.1875, 92.3125, 92.3125, 92.375, 92.4375, 92.4375, 92.4375, 92.60714, 92.571426, 92.39286, 92.25, 92.321426, 92.285713, 92.0625, 92.0625, 91.9375, 91.75, 92.035713, 92.071426, 92.14286, 92.35714, 92.39286, 92.464287, 92.5, 92.39286, 92.125, 92, 92.14286, 92.178574, 92.416664, 92.214287, 92.285713, 92.39286, 92.428574, 92.60714, 92.571426, 92.571426, 92.571426, 92.5, 92.5, 92.428574, 92.428574, 92.5, 92.535713, 92.666664, 92.428574, 92.321426, 92.25, 92.321426, 92.25, 92.333328, 92.630959, 92.60714, 92.4375, 92.3125, 92.25, 92, 92, 92, 92, 92.375, 92.4375, 92.5, 92.5, 92.375, 92.375, 92.375, 92.5, 92.785713, 92.785713, 92.714287, 92.714287, 92.875, 92.958336, 93, 92.75, 92.714287, 92.571426, 92.571426, 92.571426, 92.64286, 92.678574, 92.693871, 92.607147, 92.583336, 92.595238, 92.510201, 92.5, 92.464287, 92.428574, 92.25, 92.25, 92.3125, 92.40625, 92.571426, 92.464287, 92.285713, 92.333336, 92.291664, 92, 92.071426, 92.0625, 92.0625, 92.125, 92.428574, 92.35714, 92.5, 92.585709, 92.275513, 91.858925, 91.833336, 92.214287, 92.464287, 92.571426, 92.678574, 92.714287, 92.375, 92.3125, 92.25, 91.785713, 92.125, 92.39286, 92.428574, 92.60714, 92.64286, 92.75, 92.85714, 92.85714, 92.678574, 92.428574, 92.10714, 91.887756, 92.25, 92.14286, 92.285713, 92.1875, 92.1875, 92.1875, 92.3125, 92.3125, 92.1875, 92.125, 92.321426, 92.39286, 92.571426, 92.678574, 92.375, 92.3125, 92.1875, 92.125, 92.1875, 92.125, 92.125, 92.125, 92.333328, 92.1875, 92.25, 92.266663, -10, -10, -10, -10, -10, -10, -10, -10, -10, -10, -10, -10, -10, -10, -10, -10, -10, -10, -10, -10, -10, -10, -10, -10, -10, -10, -10, -10, -10, -10, -10, -10, -10, -10, -10, -10, -10, -10, -10, -10, -10, -10, -10, -10, -10, -10, -10, -10, -10, -10, -10, -10, -10, -10, -10, -10, -10, -10, -10, -10, -10, -10, -10, -10, -10, -10, -10, -10, -10, -10, -10, -10, -10, -10, -10, -10, -10, -10, -10, -10, -10, -10
-10, -10, -10, -10, -10, -10, -10, -10, -10, -10, -10, -10, -10, -10, -10, -10, -10, -10, -10, -10, -10, -10, -10, -10, -10, -10, -10, -10, -10, -10, -10, -10, -10, -10, -10, -10, -10, -10, -10, -10, -10, -10, -10, -10, -10, -10, 93.571426, 93.523811, 93.5, 93.5, 93.1875, 93.125, 93.0625, 92.64286, 92.9375, 92.875, 92.8125, 92.875, 92.9375, 93.0625, 93.5, 93.438774, 93.64286, 93.571426, 93.714287, 93.64286, 93.571426, 93.571426, 93.535713, 93.166664, 93.125, 93.083336, 93.25, 93.60714, 93.678574, 93.714287, 93.571426, 93.535713, 93.5, 93.56633, 93.647957, 93.464287, 93.35714, 93.14286, 92.964287, 92.89286, 92.6875, 92.6875, 92.75, 92.8125, 92.9375, 93, 93.1875, 93.125, 93.0625, 93.0625, 93, 93.125, 93.1875, 93.5, 93.571426, 93.60714, 93.678574, 93.571426, 93.39286, 93.35714, 93.285713, 93.285713, 93.397957, 93.321426, 93.214287, 93.25, 93.0625, 92.85714, 93.3125, 93.3125, 93.375, 93.375, 93.25, 93.1875, 93, 92.9375, 93.178574, 93.214287, 93.285713, 93.39286, 93.428574, 93.428574, 93.535713, 93.5, 93.5, 93.464287, 93.1875, 93.1875, 93.1875, 93.25, 93.5, 93.571426, 93.535713, 93.5, 93.1875, 93.0625, 93.25, 93.178574, 93.238091, 93.333336, 93.0625, 93.0625, 92.9375, 92.9375, 93.416664, 93.416664, 93.5, 93.583336, 93.428574, 93.5, 93.375, 93.375, 93.3125, 93.3125, 93.5, 93.5, 93.598213, 93.625, 93.785713, 93.75, 93.785713, 93.85714, 93.89286, 93.821426, 93.75, 93.64286, 93.64286, 93.64286, 93.678574, 93.714287, 93.714287, 93.714287, 93.714287, 93.60714, 93.535713, 93.535713, 93.5, 93.571426, 93.571426, 93.5, 93.494896, 93.553574, 93.589287, 93.625, 93.51786, 93.428574, 93.35714, 92.916664, 93.178574, 93.214287, 93.14286, 93.25, 93.39286, 93.464287, 93.571426, 93.5, 93.116074, 92.912498, 93.583336, 93.5, 93.678574, 93.714287, 93.714287, 93.64286, 93.535713, 93.39286, 93.25, 93.333336, 93.178574, 93.25, 93.321426, 93.428574, 93.5, 93.375, 93.4375, 93.4375, 93.3125, 93.1875, 93.25, 93.122452, 93.178574, 93.14286, 93.14286, 93.178574, 93.25, 93.35714, 93.5, 93.571426, 93.5, 93.39286, 93.39286, 93.464287, 93.571426, 93.714287, 93.60714, 93.535713, 93.428574, 93.321426, 93.285713, 93.238098, 92.800003, 92.800003, 92.916664, -10, -10, -10, -10, -10, -10, -10, -10, -10, -10, -10, -10, -10, -10, -10, -10, -10, -10, -10, -10, -10, -10, -10, -10, -10, -10, -10, -10, -10, -10, -10, -10, -10, -10, -10, -10, -10, -10, -10, -10, -10, -10, -10, -10, -10, -10, -10, -10, -10, -10, -10, -10, -10, -10, -10, -10, -10, -10, -10, -10, -10, -10, -10, -10, -10, -10, -10, -10, -10, -10, -10, -10, -10, -10, -10, -10, -10, -10, -10, -10, -10, -10, -10, -10, -10, -10, -10, -10, -10, -10, -10, -10, -10, -10, -10, -10, -10, -10, -10, -10, -10, -10, -10, -10, -10, -10, -10, -10, -10, -10, -10, -10, -10, -10, -10, -10, -10, -10, -10, -10, -10, -10, -10, -10, -10, -10, -10, -10, -10, -10, -10, -10, -10, -10, -10, -10, -10, -10, -10, -10, -10, -10, -10, -10, -10, -10, -10, -10, -10, -10, -10, -10, -10, -10, -10, -10, -10, -10, -10, -10, -10, -10, -10, -10, -10, -10, -10, -10, -10, -10, -10, -10, -10, 93.833336, 94.208336, 94.229164, 94.25, 94.1875, 94.35714, 94.25, 94.333336, 94.14286, 94, 94, 94.071426, 94.14286, 94.285713, 94.285713, 94.32653, 94.1875, 94.125, 94.25, 94.1875, 94.321426, 94.446426, 94.51786, 94.770836, 94.854164, 94.75, 94.666664, 94.3125, 94.375, 94.4375, 94.375, 94.3125, 94.25, 94.276787, 94.285713, 94.125, 94.071426, 93.785713, 93.875, 94.102043, 94, 93.928574, 93.666664, 93.5, 93.9375, 94.285713, 94.464287, 94.428574, 94.35714, 93.821426, 93.734688, 94.017853, 94.008926, 94.0625, 94.39286, 94.3125, 94.64286, 94.60714, 94.428574, 94.285713, 94.214287, 94.285713, 94.469383, 94.535713, 94.428574, 94.39286, 94.35714, 94.458336, 94.428574, 94.428574, 94.428574, 94.428574, 94.25, 94.214287, 94.14286, 94.14286, 94.0625, 93.928574, 94.25, 94.205353, 94.133926, 94.125, 94.25, 94.3125, 94.375, 94.25, 94.125, 94.0625, 94.0625, 94.428574, 94.375, 94.4375, 94.4375, 94.375, 94.464287, 94.285713, 94, 93.9375, 93.9375, 94, 93.714287, 93.678574, 93.64286, 93.64286, 94.35714, 94.35714, 94.464287, 94.60714, 94.64286, 94.60714, 94.413261, 94.321426, 94.214287, 94.214287, 94.285713, 94.464287, 94.612244, 94.714287, 94.785713, 94.5625, 94.625, 94.75, 94.75, 94.6875, 94.625, 94.714287, 94.714287, 94.714287, 94.714287, 94.714287, 94.714287, 94.714287, 94.714287, 94.4375, 94.375, 94.375, 94.375, 94.64286, 94.678574, 94.60714, 94.56633, 94.60714, 94.4375, 94.64286, 94.5, 94.35714, 94.214287, 94.291664, 94.14286, 94.214287, 94.25, 94.321426, 94.35714, 94.428574, 94.464287, 94.25, 94.418373, 94.292854, 94.571426, 94.60714, 94.64286, 94.535713, 94.428574, 94.25, 94.464287, 94.428574, 94.39286, 94.35714, 93.785713, 93.85714, 93.928574, 94, 94.25, 94.25, 94.1875, 94.125, 94.0625, 94.285713, 94.35714, 94.35714, 94.1875, 94.0625, 94, 93.9375, 94.25, 94.428574, 94.535713, 94.678574, 94.64286, 94.535713, 94.535713, 94.571426, 94.60714, 94.714287, 94.678574, 94.64286, 94.571426, 93.900002, 93.800003, 93.527779, -10, -10, -10, -10, -10, -10, -10, -10, -10, -10, -10, -10, -10, -10, -10, -10, -10, -10, -10, -10, -10, -10, -10, -10, -10, -10, -10, -10, -10, -10, -10, -10, -10, -10, -10, -10, -10, -10, -10, -10, -10, -10, -10, -10, -10, -10, -10, -10, -10, -10, -10, -10, -10, -10, -10, -10, -10, -10, -10, -10, -10, -10, -10, -10, -10, -10, -10, -10, -10, -10, -10, -10, -10, -10, -10, -10, -10, -10, -10, -10, -10, -10, -10, -10, -10, -10, -10, -10
-10, -10, -10, -10, -10, -10, -10, -10, -10, -10, -10, -10, -10, -10, -10, -10, -10, -10, -10, -10, -10, -10, -10, -10, -10, -10, -10, -10, -10, -10, -10, -10, -10, -10, -10, -10, -10, -10, -10, -10, -10, -10, -10, -10, -10, -10, -10, 95.083336, 95.145828, 95.1875, 95.464287, 95.428574, 95.39286, 95.35714, 95.321426, 94.714287, 95.25, 95.285713, 95.35714, 95.464287, 95.25, 95.25, 94.928574, 94.85714, 94.928574, 94.928574, 94.928574, 95.3125, 95.375, 95.714287, 95.678574, 95.428574, 95.25, 95.044647, 95.178574, 95.375, 95.348213, 95.205353, 95.205353, 95.1875, 95.1875, 95.125, 95.071426, 95.625, 95.285713, 95.31633, 95.25, 95.14286, 95.333336, 95.25, 95.071426, 95.25, 95.428574, 95.5, 95.5, 95.666664, 95.589287, 95.306114, 95.071426, 94.85714, 95.25, 95.3125, 95.4375, 95.375, 95.1875, 95, 94.9375, 95.285713, 95.540817, 95.64286, 95.571426, 95.428574, 95.321426, 95.14286, 95.178574, 95.25, 95.336739, 95.35714, 95.321426, 95.25, 95.14286, 95.10714, 95.14286, 95.458336, 95.428574, 95.267853, 95.196426, 95.1875, 95.25, 95.25, 95.428574, 95.321426, 95.214287, 95.25, 95.285713, 95.464287, 95.5, 95.464287, 95.464287, 95.35714, 95.35714, 95.285713, 95.0625, 95, 94.875, 94.892853, 95.085709, 95.220238, 95.303566, 95.25, 95.214287, 95.214287, 95.35714, 95.571426, 95.64286, 95.64286, 95.267853, 95.1875, 94.85714, 94.85714, 94.928574, 95.3125, 95.410713, 95.5, 95.714287, 95.571426, 95.571426, 95.64286, 95.714287, 95.785713, 95.785713, 95.714287, 95.714287, 95.714287, 95.714287, 95.714287, 95.714287, 95.714287, 95.714287, 95.64286, 95.60714, 95.678574, 95.678574, 95.785713, 95.821426, 95.678574, 95.637756, 95.64286, 95.64286, 95.4375, 95.3125, 95.1875, 94.785713, 95, 95.25, 95.285713, 95.321426, 95.1875, 95.25, 95.241074, 95.0625, 95.125, 95.285713, 95.342857, 95.64286, 95.375, 95.375, 95.267853, 95.047623, 95.102043, 95.178574, 95.4375, 95.571426, 95.5, 95.666664, 95.666664, 95.666664, 95.666664, 95.1875, 95.1875, 95.125, 95.0625, 95.125, 95.125, 95.35714, 95.321426, 95.214287, 95.14286, 95.178574, 95.0625, 95.1875, 95.25, 95.25, 95.5, 95.5, 95.5, 95.571426, 95.64286, 95.64286, 95.714287, 95.714287, 95.199997, 95.150002, -10, -10, -10, -10, -10, -10, -10, -10, -10, -10, -10, -10, -10, -10, -10, -10, -10, -10, -10, -10, -10, -10, -10, -10, -10, -10, -10, -10, -10, -10, -10, -10, -10, -10, -10, -10, -10, -10, -10, -10, -10, -10, -10, -10, -10, -10, -10, -10, -10, -10, -10, -10, -10, -10, -10, -10, -10, -10, -10, -10, -10, -10, -10, -10, -10, -10, -10, -10, -10, -10, -10, -10, -10, -10, -10, -10, -10, -10, -10, -10, -10, -10, -10, -10, -10, -10, -10, -10, -10, -10, -10, -10, -10, -10, -10, -10, -10, -10, -10, -10, -10, -10, -10, -10, -10, -10, -10, -10, -10, -10, -10, -10, -10, -10, -10, -10, -10, -10, -10, -10, -10, -10, -10, -10, -10, -10, -10, -10, -10, -10, -10, -10, -10, -10, -10, -10, -10, -10, -10, -10, -10, -10, -10, -10, -10, -10, -10, -10, -10, -10, -10, -10, -10, -10, -10, -10, -10, -10, -10, -10, -10, -10, -10, -10, -10, -10, -10, -10, -10, -10, -10, -10, -10, -10, -10, -10, -10, -10, -10, -10, 95.666672, 96.416664, 96.464287, 96.60714, 96.571426, 96.535713, 96.3125, 96.1875, 96.577385, 96.469383, 96.464287, 96.535713, 96.5, 96.428574, 96.39286, 96.625, 96.583336, 96.625, 96.625, 96.625, 96.5, 96.4375, 96.5625, 96.5625, 96.3125, 96.125, 96.107147, 96.178574, 96.60714, 96.612244, 96.448975, 96.448975, 96.1875, 96.39286, 96.428574, 96.331627, 96.428574, 96.35714, 96.387756, 96.428574, 96.428574, 96.428574, 96.35714, 95.785713, 96.1875, 96.25, 96.464287, 96.428574, 96.39286, 96.32653, 96.198975, 96.117348, 96.25, 96.25, 96.39286, 96.571426, 96.375, 96.125, 95.875, 95.8125, 95.9375, 96.223213, 96.375, 96.375, 96.3125, 96.25, 95.85714, 95.85714, 95.928574, 96.232147, 96.25, 96.25, 96.1875, 96.125, 95.821426, 96.125, 96.25, 96.678574, 96.591835, 96.367348, 96.285713, 96.35714, 96.35714, 96.428574, 96.428574, 96.35714, 96.428574, 96.464287, 96.375, 96.60714, 96.25, 96.25, 96.25, 96.061226, 96.25, 96.535713, 96.35714, 96.14286, 96.198975, 96.299995, 96.224487, 96.224487, 96.10714, 95.875, 95.875, 96.0625, 96.3125, 96.375, 96.60714, 96.484688, 96.39286, 96.625, 96.625, 96.625, 96.5, 96.410713, 96.5, 96.4375, 96.25, 96.267853, 96.387497, 96.321426, 96.581627, 96.5, 96.428574, 96.428574, 96.5, 96.571426, 96.64286, 96.714287, 96.714287, 96.714287, 96.678574, 96.678574, 96.75, 96.75, 96.821426, 96.75, 96.571426, 96.479591, 96.39286, 96.321426, 96.285713, 96.214287, 96.14286, 96.416664, 96.5, 96.321426, 96.428574, 96.464287, 96.464287, 96.5, 96.241074, 95.785713, 96.0625, 95.973213, 96.17347, 96.1875, 96.232147, 96.25, 96.267853, 96.777779, 96.904762, 96.958336, 96.64286, 96.535713, 96.39286, 96.35714, 96.428574, 96.5, 96.571426, 96.464287, 96.39286, 96.321426, 96.25, 96.39286, 96.428574, 96.3125, 96.035713, 95.89286, 96.083336, 96.35714, 96.35714, 96.464287, 96.5, 96.25, 96.3125, 96.3125, 96.3125, 96.60714, 96.678574, 96.150002, 96.199997, 96.199997, -10, -10, -10, -10, -10, -10, -10, -10, -10, -10, -10, -10, -10, -10, -10, -10, -10, -10, -10, -10, -10, -10, -10, -10, -10, -10, -10, -10, -10, -10, -10, -10, -10, -10, -10, -10, -10, -10, -10, -10, -10, -10, -10, -10, -10, -10, -10, -10, -10, -10, -10, -10, -10, -10, -10, -10, -10, -10, -10, -10, -10, -10, -10, -10, -10, -10, -10, -10, -10, -10, -10, -10, -10, -10, -10, -10, -10, -10, -10, -10, -10, -10, -10, -10, -10, -10, -10, -10, -10, -10, -10, -10, -10
-10, -10, -10, -10, -10, -10, -10, -10, -10, -10, -10, -10, -10, -10, -10, -10, -10, -10, -10, -10, -10, -10, -10, -10, -10, -10, -10, -10, -10, -10, -10, -10, -10, -10, -10, -10, -10, -10, -10, -10, -10, -10, -10, -10, -10, -10, -10, -10, 97, 97.464287, 97.523811, 97.5, 97.464287, 97.5, 97.464287, 97.530617, 97.647957, 97.64286, 97.60714, 97.464287, 97.35714, 97.25, 97.285713, 97.285713, 97.35714, 97.428574, 97.428574, 97.464287, 97.428574, 97.464287, 97.428574, 97.178574, 97.14286, 97.229599, 97.382652, 97.714287, 97.647957, 97.484688, 97.484688, 97.428574, 97.535713, 97.60714, 97.540817, 97.375, 97.3125, 97.339287, 97.60714, 97.535713, 97.5, 97.428574, 97.583336, 97.5, 97.3125, 97.25, 97.125, 97.026787, 96.973213, 96.830353, 96.821426, 97.071426, 97.178574, 97.285713, 97.39286, 97.321426, 97.14286, 96.964287, 96.964287, 96.875, 97.125, 97.3125, 97.535713, 97.535713, 97.535713, 97.666664, 97.666664, 97.708336, 97.479599, 97.5, 97.464287, 97.39286, 97.35714, 97.625, 97.833336, 97.833336, 97.64286, 97.510201, 97.32653, 97.321426, 97.428574, 97.25, 97.3125, 97.535713, 97.428574, 97.428574, 97.428574, 97.464287, 97.571426, 97.3125, 97.3125, 97.5, 97.851196, 97.875, 97.64286, 97.464287, 97.214287, 97.198975, 97.299995, 97.188774, 97.071426, 97, 97, 97, 97.0625, 97.1875, 97.1875, 97.25, 97.438774, 97.464287, 97.571426, 97.571426, 97.571426, 97.60714, 97.64286, 97.678574, 97.375, 97.25, 97.267853, 97.387497, 97.321426, 97.383926, 97.25, 97.125, 97.0625, 97.125, 97.25, 97.375, 97.714287, 97.714287, 97.714287, 97.714287, 97.714287, 97.714287, 97.64286, 97.64286, 97.4375, 97.333336, 97.020836, 96.958336, 97.020836, 97.053574, 96.785713, 96.714287, 97.35714, 97.428574, 97.464287, 97.5, 97.464287, 97.39286, 97.428574, 97.418373, 97.5, 97.39286, 97.098213, 97.026787, 97.125, 97.107147, 97.35714, 97.484688, 97.666672, 97.811226, 97.85714, 97.75, 97.4375, 97.3125, 97.25, 97.3125, 97.375, 97.64286, 97.60714, 97.535713, 97.5, 97.39286, 97.428574, 97.35714, 97.39286, 97.625, 97.666664, 97.75, 97.464287, 97.5, 97.571426, 97.535713, 97.464287, 97.35714, 97.309525, 97, 97.099998, 97.199997, -10, -10, -10, -10, -10, -10, -10, -10, -10, -10, -10, -10, -10, -10, -10, -10, -10, -10, -10, -10, -10, -10, -10, -10, -10, -10, -10, -10, -10, -10, -10, -10, -10, -10, -10, -10, -10, -10, -10, -10, -10, -10, -10, -10, -10, -10, -10, -10, -10, -10, -10, -10, -10, -10, -10, -10, -10, -10, -10, -10, -10, -10, -10, -10, -10, -10, -10, -10, -10, -10, -10, -10, -10, -10, -10, -10, -10, -10, -10, -10, -10, -10, -10, -10, -10, -10, -10, -10, -10, -10, -10, -10, -10, -10, -10, -10, -10, -10, -10, -10, -10, -10, -10, -10, -10, -10, -10, -10, -10, -10, -10, -10, -10, -10, -10, -10, -10, -10, -10, -10, -10, -10, -10, -10, -10, -10, -10, -10, -10, -10, -10, -10, -10, -10, -10, -10, -10, -10, -10, -10, -10, -10, -10, -10, -10, -10, -10, -10, -10, -10, -10, -10, -10, -10, -10, -10, -10, -10, -10, -10, -10, -10, -10, -10, -10, -10, -10, -10, -10, -10, -10, -10, -10, -10, -10, -10, -10, -10, -10, -10, -10, -10, -10, -10, -10, -10, -10, 98.3125, 98.333336, 98.25, 98.1875, 98.39286, 98.39286, 98.530617, 98.68367, 98.714287, 98.4375, 98.25, 98.1875, 98.125, 98.1875, 98.1875, 98.25, 98.3125, 98.3125, 98.375, 98.3125, 98.3125, 98.25, 98.321426, 98.35714, 98.418373, 98.459183, 98.5, 98.410713, 98.510201, 98.581627, 98.571426, 98.678574, 98.714287, 98.64286, 98.5, 98.5, 98.5, 98.571426, 98.60714, 98.571426, 98.535713, 98.5, 98.60714, 98.571426, 98.39286, 98.0625, 97.901787, 97.60714, 97.625, 97.9375, 97.9375, 97.9375, 98.03125, 98.125, 98.125, 97.785713, 97.64286, 98.178574, 98.214287, 98.39286, 98.535713, 98.60714, 98.64286, 98.678574, 98.64286, 98.535713, 98.5, 98.489799, 98.428574, 98.39286, 98.428574, 98.39286, 98.535713, 98.75, 98.714287, 98.375, 98.25, 98.0625, 98.0625, 98.1875, 98.464287, 98.571426, 98.571426, 98.5, 98.25, 98.25, 98.3125, 98.60714, 98.571426, 98.571426, 98.60714, 98.658165, 98.64286, 98.60714, 98.25, 98.125, 97.877548, 97.942856, 97.795914, 98.071426, 98.285713, 98.285713, 98.285713, 98.303574, 98.022324, 97.943748, 98.21875, 98.3125, 98.375, 98.571426, 98.5, 98.428574, 98.5, 98.571426, 98.64286, 98.60714, 98.5, 98.520401, 98.585709, 98.474487, 98.510201, 98.1875, 98.125, 98.0625, 98.125, 98.25, 98.375, 98.64286, 98.64286, 98.64286, 98.64286, 98.714287, 98.5, 98.4375, 98.4375, 98.4375, 98.333336, 97.738098, 97.666672, 97.958336, 97.991074, 98.375, 98.386902, 98.5, 98.571426, 98.678574, 98.525513, 97.979164, 97.892853, 97.9375, 97.991074, 98.214287, 98.321426, 98.234688, 98.17347, 98.321426, 98.408165, 98.5, 98.653061, 98.520836, 98.616074, 98.625, 98.5, 98.375, 98.35714, 98.125, 98.1875, 98.3125, 98.375, 98.535713, 98.464287, 98.39286, 98.39286, 98.25, 98.1875, 98.1875, 98.39286, 98.428574, 98.535713, 98.5, 98.535713, 98.3125, 98.464287, 98.380959, 97.849998, 97.78334, -10, -10, -10, -10, -10, -10, -10, -10, -10, -10, -10, -10, -10, -10, -10, -10, -10, -10, -10, -10, -10, -10, -10, -10, -10, -10, -10, -10, -10, -10, -10, -10, -10, -10, -10, -10, -10, -10, -10, -10, -10, -10, -10, -10, -10, -10, -10, -10, -10, -10, -10, -10, -10, -10, -10, -10, -10, -10, -10, -10, -10, -10, -10, -10, -10, -10, -10, -10, -10, -10, -10, -10, -10, -10, -10, -10, -10, -10, -10, -10, -10, -10, -10, -10, -10, -10, -10, -10, -10, -10, -10, -10, -10, -10, -10, -10, -10, -10, -10
-10, -10, -10, -10, -10, -10, -10, -10, -10, -10, -10, -10, -10, -10, -10, -10, -10, -10, -10, -10, -10, -10, -10, -10, -10, -10, -10, -10, -10, -10, -10, -10, -10, -10, -10, -10, -10, -10, -10, -10, -10, -10, -10, -10, -10, -10, -10, -10, -10, 99, 99.523811, 99.229164, 99.125, 99.125, 99.125, 99.214287, 99.410713, 99.64286, 99.5, 99.39286, 99.25, 99.10714, 99, 99, 99.0625, 99.125, 99.125, 99.35714, 99.35714, 99.428574, 99.5, 99.39286, 99.464287, 99.464287, 99.464287, 99.4375, 99.375, 99.375, 99.64286, 99.64286, 99.714287, 99.64286, 99.535713, 99.428574, 99.428574, 99.5, 99.60714, 99.64286, 99.571426, 99.5, 99.5, 99.571426, 99.60714, 99.5, 99.321426, 99.102043, 99.208336, 99.166664, 99, 99.071426, 99.10714, 99.03125, 99.125, 99.125, 99.541664, 99.5, 99.321426, 99.428574, 99.535713, 99.64286, 99.678574, 99.785713, 99.85714, 99.85714, 99.5625, 99.375, 99.3125, 99.25, 99.125, 99.25, 99.1875, 99.3125, 99.5625, 99.5, 99.4375, 99.25, 99.0625, 99.0625, 99.428574, 99.571426, 99.678574, 99.4375, 99.375, 99.3125, 99.3125, 99.571426, 99.571426, 99.60714, 99.60714, 99.64286, 99.482147, 99.375, 99.3125, 99.125, 99.0625, 99.416664, 99.333336, 99.416664, 99.321426, 99.35714, 99.464287, 99.464287, 99.428574, 99.178574, 99.099998, 99.535713, 99.60714, 99.60714, 99.25, 99.125, 99, 99.0625, 99.125, 99.25, 99.535713, 99.571426, 99.653061, 99.685715, 99.612244, 99.612244, 99.5, 99.35714, 99.285713, 99.321426, 99.428574, 99.60714, 99.4375, 99.4375, 99.4375, 99.4375, 99.714287, 99.64286, 99.571426, 99.571426, 99.60714, 99.513611, 99.18055, 99.222221, 99.110542, 99.239799, 99.321426, 99.331627, 99.535713, 99.571426, 99.678574, 99.241074, 98.726189, 98.627548, 98.571426, 98.9375, 99, 99, 99.178574, 99.122452, 99.214287, 99.275513, 99.321426, 99.428574, 99.1875, 99.1875, 99.1875, 99.321426, 99.214287, 99.137756, 99.147957, 99.214287, 99.464287, 99.3125, 99.375, 99.3125, 99.25, 99.25, 99.464287, 99.25, 99.3125, 99.25, 99.25, 99.3125, 99.25, 99.291664, 98.75, 98.75, 98.69445, -10, -10, -10, -10, -10, -10, -10, -10, -10, -10, -10, -10, -10, -10, -10, -10, -10, -10, -10, -10, -10, -10, -10, -10, -10, -10, -10, -10, -10, -10, -10, -10, -10, -10, -10, -10, -10, -10, -10, -10, -10, -10, -10, -10, -10, -10, -10, -10, -10, -10, -10, -10, -10, -10, -10, -10, -10, -10, -10, -10, -10, -10, -10, -10, -10, -10, -10, -10, -10, -10, -10, -10, -10, -10, -10, -10, -10, -10, -10, -10, -10, -10, -10, -10, -10, -10, -10, -10, -10, -10, -10, -10, -10, -10, -10, -10, -10, -10, -10, -10, -10, -10, -10, -10, -10, -10, -10, -10, -10, -10, -10, -10, -10, -10, -10, -10, -10, -10, -10, -10, -10, -10, -10, -10, -10, -10, -10, -10, -10, -10, -10, -10, -10, -10, -10, -10, -10, -10, -10, -10, -10, -10, -10, -10, -10, -10, -10, -10, -10, -10, -10, -10, -10, -10, -10, -10, -10, -10, -10, -10, -10, -10, -10, -10, -10, -10, -10, -10, -10, -10, -10, -10, -10, -10, -10, -10, -10, -10, -10, -10, -10, -10, -10, -10, -10, -10, -10, -10, -10, -10, -10, -10, -10, 100.33333, 100.30476, 100.45238, 100.23215, 100, 100.3125, 100.375, 100.375, 100.25, 100.33674, 99.984688, 99.877548, 99.85714, 99.928574, 100.10714, 100, 100.0625, 100.1875, 100.46429, 100.53571, 100.60714, 100.53571, 100.5, 100.5, 100.39286, 100.42857, 100.46429, 100.46429, 100.60714, 100.60714, 100.57143, 100.3125, 100.25, 100.1875, 100.1875, 100.1875, 100.35714, 100.46429, 100.46429, 100.25, 100.3125, 100.375, 100.4375, 100.60714, 100.53571, 100.40816, 100.32143, 100.28571, 100.28571, 100.32143, 100.32143, 100.42857, 100.39286, 100.35714, 100.42857, 100.35714, 100.39286, 100.5, 100.53571, 100.64286, 100.71429, 100.78571, 100.82143, 100.82143, 100.75, 100.375, 100.3125, 100.25, 100.125, 100.46429, 100.1875, 100.25, 100.375, 100.46429, 100.42857, 100.32143, 100.32143, 100.42857, 100.53571, 100.64286, 100.71429, 100.64286, 100.60714, 100.5, 100.42857, 100.42857, 100.32143, 100.25893, 100.4375, 100.4375, 100.4375, 100.25, 100.11607, 99.729164, 99.913261, 99.928574, 99.928574, 100.14286, 100.32143, 100.35714, 100.46429, 100.39286, 100.28571, 100.31123, 100.32857, 100.53571, 100.64286, 100.60714, 100.1875, 100.125, 99.714287, 99.821426, 99.928574, 100.07143, 100.21429, 100.5, 100.71429, 100.71429, 100.71429, 100.64286, 100.60714, 100.5, 100.53571, 100.60714, 100.64286, 100.75, 100.64286, 100.64286, 100.64286, 100.64286, 100.71429, 100.67857, 100.57143, 100.57143, 100.60714, 100.32441, 99.972221, 100.2619, 100.31293, 100.38776, 100.42857, 100.5102, 100.4375, 100.4375, 100.5, 100.24107, 100.40277, 100.30357, 100.125, 100, 99.785713, 99.604164, 99.708336, 99.833336, 99.875, 99.830353, 99.830353, 100.08334, 100.04465, 100.0625, 100.0625, 100.0625, 99.821426, 100.02679, 100.03571, 100.0625, 100.46429, 100.53571, 100.57143, 100.5, 100.35714, 100.32143, 100.35714, 100.39286, 100.46429, 100.42857, 100.1875, 99.666664, 99.666664, 99.722221, -10, -10, -10, -10, -10, -10, -10, -10, -10, -10, -10, -10, -10, -10, -10, -10, -10, -10, -10, -10, -10, -10, -10, -10, -10, -10, -10, -10, -10, -10, -10, -10, -10, -10, -10, -10, -10, -10, -10, -10, -10, -10, -10, -10, -10, -10, -10, -10, -10, -10, -10, -10, -10, -10, -10, -10, -10, -10, -10, -10, -10, -10, -10, -10, -10, -10, -10, -10, -10, -10, -10, -10, -10, -10, -10, -10, -10, -10, -10, -10, -10, -10, -10, -10, -10, -10, -10, -10, -10, -10, -10, -10, -10, -10, -10, -10, -10, -10, -10, -10, -10, -10, -10, -10
-10, -10, -10, -10, -10, -10, -10, -10, -10, -10, -10, -10, -10, -10, -10, -10, -10, -10, -10, -10, -10, -10, -10, -10, -10, -10, -10, -10, -10, -10, -10, -10, -10, -10, -10, -10, -10, -10, -10, -10, -10, -10, -10, -10, -10, -10, -10, -10, -10, -10, 100.66666, 101.09047, 101.78571, 101.7296, 101.875, 101.5, 101.53571, 101.28125, 101.15625, 101.0759, 100.7366, 100.70535, 100.5, 100.8125, 101, 101.0625, 101.32143, 101.5, 101.5, 101.5, 101.5, 101.42857, 101.25, 101.3125, 101.25, 101.25, 101.3125, 101.3125, 101.375, 101.3125, 101.1875, 101.0625, 101.0625, 101.0625, 101.125, 101.1875, 101.125, 101.1875, 101.1875, 101.25, 101.61224, 101.64286, 101.64286, 101.53571, 101.53571, 101.46429, 101.46429, 101.48214, 101.53571, 101.57143, 101.53571, 101.50255, 101.35714, 101.32143, 101.25, 101.1875, 101.1875, 101.25, 101.25, 101.375, 101.64286, 101.71429, 101.71429, 101.64286, 101.60714, 101.35714, 101.28571, 101.32143, 101.32143, 101.42857, 101.35714, 101.39286, 101.25, 101.25, 101.25, 101.35714, 101.39286, 101.46429, 101.57143, 101.67857, 101.71429, 101.67857, 101.67857, 101.60714, 101.375, 101.10714, 100.96429, 101.32143, 101.64286, 101.64286, 101.67857, 101.5, 101.41837, 100.54762, 100.59184, 100.64286, 100.64286, 101.125, 101.1875, 101.125, 101.1875, 101.125, 101.125, 101.24107, 101.48572, 101.3125, 101.3125, 101.25, 101.28571, 101.32143, 101.5, 101.70834, 101.83334, 101.91666, 102, 101.64286, 101.64286, 101.64286, 101.64286, 101.4375, 101.4375, 101.375, 101.64286, 101.71429, 101.64286, 101.71429, 101.60714, 101.60714, 101.67857, 101.67857, 101.64286, 101.57143, 101.25, 101.1875, 101.1875, 101.11607, 101.41666, 101.125, 101.37245, 101.5, 101.53571, 101.61224, 101.64286, 101.64286, 101.5, 101.53062, 101.41666, 101.36735, 101.21429, 101.25, 101.11224, 100.2619, 100.38096, 100.59524, 100.67857, 100.66326, 100.69897, 100.95238, 100.86736, 100.97916, 100.95535, 100.9375, 101.33334, 101.10204, 101.18367, 101.14286, 101.39286, 101.46429, 101.42857, 101.35714, 101.17857, 100.9375, 101, 101.0625, 101.05, 101, 100.9, -10, -10, -10, -10, -10, -10, -10, -10, -10, -10, -10, -10, -10, -10, -10, -10, -10, -10, -10, -10, -10, -10, -10, -10, -10, -10, -10, -10, -10, -10, -10, -10, -10, -10, -10, -10, -10, -10, -10, -10, -10, -10, -10, -10, -10, -10, -10, -10, -10, -10, -10, -10, -10, -10, -10, -10, -10, -10, -10, -10, -10, -10, -10, -10, -10, -10, -10, -10, -10, -10, -10, -10, -10, -10, -10, -10, -10, -10, -10, -10, -10, -10, -10, -10, -10, -10, -10, -10, -10, -10, -10, -10, -10, -10, -10, -10, -10, -10, -10, -10, -10, -10, -10, -10, -10, -10, -10, -10, -10, -10, -10, -10, -10, -10, -10, -10, -10, -10, -10, -10, -10, -10, -10, -10, -10, -10, -10, -10, -10, -10, -10, -10, -10, -10, -10, -10, -10, -10, -10, -10, -10, -10, -10, -10, -10, -10, -10, -10, -10, -10, -10, -10, -10, -10, -10, -10, -10, -10, -10, -10, -10, -10, -10, -10, -10, -10, -10, -10, -10, -10, -10, -10, -10, -10, -10, -10, -10, -10, -10, -10, -10, -10, -10, -10, -10, -10, -10, -10, -10, -10, -10, -10, -10, -10, -10, -10, -10, -10, -10, -10, 103.01111, 102.92857, 102.83674, 102.71429, 102.5, 102.39286, 102.1741, 102.19196, 102.1384, 101.5204, 101.98469, 102.29166, 102.10714, 102.32143, 102.39286, 102.46429, 102.53571, 102.5, 102.25, 102.25, 102.25, 102.25, 102.53571, 102.53571, 102.5, 102.57143, 102.57143, 102.3125, 102.25, 102.125, 102, 102, 102.21429, 102.21429, 102.25, 102.0625, 102.125, 102.1875, 102.5, 102.68367, 102.71429, 102.67857, 102.375, 102.4375, 102.375, 102.64286, 102.67857, 102.67857, 102.71429, 102.67857, 102.39285, 102.25, 102.1875, 102.1875, 102.0625, 102.0625, 102.125, 102.1875, 102.375, 102.4375, 102.5, 102.4375, 102.3125, 102.33035, 102.25, 101.92857, 102.03571, 102.5, 102.3125, 102.42857, 102.35714, 102.125, 102.32143, 102.25, 102.25, 102.25, 102.25, 102.25, 102.42857, 102.42857, 102.42857, 102.42857, 102.35714, 102.42857, 102.54166, 102.54166, 102.47449, 102.60714, 102.67857, 102.75, 102.64286, 102.4898, 102.31944, 102.22024, 102.20834, 102.29166, 102.32143, 102.42857, 102.35714, 102.1875, 102.0625, 102.17857, 102.37755, 102.45834, 102.41965, 102.14286, 102.03571, 102.42857, 102.46429, 102.5, 102.64286, 102.71429, 102.75, 102.71429, 102.46429, 102.1875, 102.1875, 102.1875, 102.42857, 102.5, 102.53571, 102.67857, 102.75, 102.67857, 102.5, 102.4375, 102.5, 102.85714, 102.85714, 102.5, 102.33929, 102.1875, 102.0625, 102.0625, 101.92857, 102.14286, 102.25, 102.32653, 102.32143, 102.42857, 102.55103, 102.60714, 102.60714, 102.53571, 102.42857, 102.35714, 102.39286, 102.35714, 102.35714, 102.29082, 102.27777, 102.30556, 102.47223, 102.54166, 102.59524, 102.67857, 102.80556, 102.7262, 102.33333, 102.34694, 102.35714, 102.39286, 102.40816, 102.44897, 102.08334, 102.3125, 102.3125, 102.3125, 102.25, 101.85714, 101.78571, 101.41666, 101.5, -10, -10, -10, -10, -10, -10, -10, -10, -10, -10, -10, -10, -10, -10, -10, -10, -10, -10, -10, -10, -10, -10, -10, -10, -10, -10, -10, -10, -10, -10, -10, -10, -10, -10, -10, -10, -10, -10, -10, -10, -10, -10, -10, -10, -10, -10, -10, -10, -10, -10, -10, -10, -10, -10, -10, -10, -10, -10, -10, -10, -10, -10, -10, -10, -10, -10, -10, -10, -10, -10, -10, -10, -10, -10, -10, -10, -10, -10, -10, -10, -10, -10, -10, -10, -10, -10, -10, -10, -10, -10, -10, -10, -10, -10, -10, -10, -10, -10, -10, -10, -10, -10, -10, -10, -10, -10, -10, -10, -10, -10
-10, -10, -10, -10, -10, -10, -10, -10, -10, -10, -10, -10, -10, -10, -10, -10, -10, -10, -10, -10, -10, -10, -10, -10, -10, -10, -10, -10, -10, -10, -10, -10, -10, -10, -10, -10, -10, -10, -10, -10, -10, -10, -10, -10, -10, -10, -10, -10, -10, -10, -10, 103.48, 103.5, 103.41965, 103.3125, 103.1875, 103.125, 103.1741, 103.54082, 103.45409, 103.53274, 103.29591, 103.28571, 103.32143, 103.46429, 103.42857, 103.46429, 103.3125, 103.25, 103.25, 103.25, 103.5, 103.46429, 103.53571, 103.57143, 103.53571, 103.57143, 103.5, 103.39286, 103.32143, 103.28571, 103.28571, 103.42857, 103.16666, 102.96429, 103.24405, 103.2619, 103.18877, 103.21429, 103.39286, 103.54082, 103.57143, 103.5, 103.35714, 103.5, 103.5, 103.57143, 103.57143, 103.57143, 103.64286, 103.57143, 103.44897, 103.25, 103.25, 103.32143, 103.35714, 103.16666, 103.16666, 103.57143, 103.67857, 103.64286, 103.64286, 103.375, 103.25, 103.26785, 103.5, 103.66666, 103.70834, 103.5, 103.5, 103.25, 103.3125, 103, 103.29166, 103.375, 103.57143, 103.34184, 103.125, 103.0625, 103.0625, 103.0625, 103.0625, 103.125, 103.125, 103.25, 103.46429, 103.5, 103.54082, 103.3125, 103.5, 103.3125, 103.42857, 103.31633, 103.16667, 103.15306, 103.21429, 103.32143, 103.39286, 103.35714, 103.21429, 103.28571, 103.25, 103.28571, 103.48469, 103.66667, 103.62245, 103.83334, 103.75, 103.53571, 103.375, 103.4375, 103.5625, 103.625, 103.625, 103.5625, 103.3125, 102.92857, 103.11607, 103.0375, 103.25, 103.3125, 103.67857, 103.71429, 103.5625, 103.5, 103.5, 103.64286, 103.71429, 103.85714, 103.85714, 103.64286, 103.27679, 103.32143, 103, 103.0625, 102.75, 102.89286, 103.1875, 103.27381, 103.04762, 103.14286, 103.30103, 103.54465, 103.02084, 102.875, 102.97916, 103.04018, 103.1875, 103.42857, 103.42857, 103.44898, 103.30952, 103.33333, 103.47619, 103.53571, 103.58163, 103.72449, 103.83333, 103.76531, 103.54762, 103.56123, 103.57143, 103.60714, 103.60714, 103.60714, 103.75, 103.60714, 103.57143, 103.5, 102.85, 102.875, 102.8125, -10, -10, -10, -10, -10, -10, -10, -10, -10, -10, -10, -10, -10, -10, -10, -10, -10, -10, -10, -10, -10, -10, -10, -10, -10, -10, -10, -10, -10, -10, -10, -10, -10, -10, -10, -10, -10, -10, -10, -10, -10, -10, -10, -10, -10, -10, -10, -10, -10, -10, -10, -10, -10, -10, -10, -10, -10, -10, -10, -10, -10, -10, -10, -10, -10, -10, -10, -10, -10, -10, -10, -10, -10, -10, -10, -10, -10, -10, -10, -10, -10, -10, -10, -10, -10, -10, -10, -10, -10, -10, -10, -10, -10, -10, -10, -10, -10, -10, -10, -10, -10, -10, -10, -10, -10, -10, -10, -10, -10, -10, -10, -10, -10, -10, -10, -10, -10, -10, -10, -10, -10, -10, -10, -10, -10, -10, -10, -10, -10, -10, -10, -10, -10, -10, -10, -10, -10, -10, -10, -10, -10, -10, -10, -10, -10, -10, -10, -10, -10, -10, -10, -10, -10, -10, -10, -10, -10, -10, -10, -10, -10, -10, -10, -10, -10, -10, -10, -10, -10, -10, -10, -10, -10, -10, -10, -10, -10, -10, -10, -10, -10, -10, -10, -10, -10, -10, -10, -10, -10, -10, -10, -10, -10, -10, -10, -10, -10, -10, -10, -10, -10, -10, -10, -10, -10, -10, 103.88889, 104.07143, 103.92857, 104.125, 104.125, 104.46684, 104.66582, 104.625, 104.66071, 104.60714, 104.57143, 104.4898, 104.22619, 103.95535, 103.9375, 104.0625, 104.33334, 104.62245, 104.67857, 104.67857, 104.57143, 104.53571, 104.375, 104.3125, 104.25, 104.25, 104.125, 104.35714, 104.46429, 104.5, 104.60714, 104.83334, 104.91666, 104.94643, 104.22916, 104.13393, 103.89286, 104.03571, 104.34821, 104.26785, 104.125, 103.9375, 104.28571, 104.35714, 104.3125, 104.375, 104.33929, 104.4375, 104.3125, 104.26785, 104.39286, 104.39286, 104.5, 104.57143, 104.91666, 104.91666, 104.71429, 104.75, 104.67857, 104.67857, 104.53571, 104.42857, 104.44897, 104.53571, 104.57143, 104.60714, 104.57143, 104.57143, 104.5, 104.5, 104.75, 104.875, 104.91666, 104.64286, 104.40816, 104.39796, 104.0625, 104.0625, 103.9375, 103.875, 103.9375, 104, 104.1875, 104.1875, 104.1875, 104.1875, 104.0625, 104.0625, 104.0625, 104.125, 104.125, 104.1875, 104.1875, 104.25, 104.3125, 104.25, 104.125, 104, 104.125, 104.46938, 104.46429, 104.59184, 104.81463, 104.76531, 104.82143, 104.67857, 104.64286, 104.60714, 104.64286, 104.5, 104.4375, 104.4375, 104.4375, 104.46429, 104.57738, 104.11607, 103.975, 104.5, 104.57143, 104.71429, 104.71429, 104.71429, 104.67857, 104.67857, 104.60714, 104.67857, 104.78571, 104.78571, 104.67857, 104.53062, 104.39286, 104.21429, 104.21429, 104.375, 104.5, 104.42857, 104.56293, 104.94445, 105.04166, 105.15476, 104.76531, 103.7381, 103.57143, 103.72619, 103.86735, 104.10714, 104.17857, 104.4375, 104.5, 104.4375, 104.375, 104.33035, 104.3125, 104.3125, 104.5, 104.5625, 104.55357, 104.66667, 104.62244, 104.57143, 104.5, 104.5, 104.5, 104.53571, 104.61904, 104.1, 104.05, -10, -10, -10, -10, -10, -10, -10, -10, -10, -10, -10, -10, -10, -10, -10, -10, -10, -10, -10, -10, -10, -10, -10, -10, -10, -10, -10, -10, -10, -10, -10, -10, -10, -10, -10, -10, -10, -10, -10, -10, -10, -10, -10, -10, -10, -10, -10, -10, -10, -10, -10, -10, -10, -10, -10, -10, -10, -10, -10, -10, -10, -10, -10, -10, -10, -10, -10, -10, -10, -10, -10, -10, -10, -10, -10, -10, -10, -10, -10, -10, -10, -10, -10, -10, -10, -10, -10, -10, -10, -10, -10, -10, -10, -10, -10, -10, -10, -10, -10, -10, -10, -10, -10, -10, -10, -10, -10, -10, -10, -10, -10, -10, -10, -10, -10
