42.540176, 42.760418, 42.904758, 43.178574, 43.3125, 43.482143, 43.59375, 43.71875, 43.90625, 43.96875, 44, 44.1875, 44.25, 44.4375, 44.8125, 45.0625, 45.508926, 46.208332, 46.598213, 47.03125, 47.46875, 48.035713, 49.229164, 49.982143, 50.589287, 50.875, 51, 12.125, 12.083333, 12.0625, 11.75, 11.5625, 11.5625, 11.5, 11.482143, 11.3125, 11.125, 10.9375, 11, 11, 10.9375, 10.9375, 10.9375, 10.8125, 10.6875, 10.5, 10.25, 10.125, 10.0625, 10, 9.9375, 9.8125, 9.625, 9.4375, 9.3482141, 9.125, 9.0267859, 8.9375, 8.9375, 9, 9, 9, 8.9375, 8.75, 8.5, 8.25, 8.0625, 7.9375, 7.9375, 7.8125, 7.6875, 7.5625, 7.25, 7.0625, 6.9375, 6.875, 6.875, 6.9375, 6.9375, 6.875, 7.1517859, 7.4821429, 7.7410717, 8, 8, 8, 8, 8, 8, 8.0625, 8.0625, 8.0625, 8.0982141, 8.2392864, 8.1517859, 8.0446434, 8.0625, 7.9107141, 7.7767859, 7.6875, 7.375, 7.25, 7.0625, 7, 7.2857141, 9.1269846, 10.523809, 11.330357, 11.78125, 11.8125, 11.9375, 11.883928, 11.6875, 11.5625, 11.3125, 11.020833, 9.9761906, 7.5119047, 6.7410717, 6.4375, 6.625, 6.875, 7, 7, 7, 7.0625, 7, 6.7916665, 6.8958335, 7.1666665, 7.2321429, 7.1875, 7.0267859, 7, 7.0625, 7.125, 7.125, 7.1875, 7.1875, 7.1875, 7.1875, 7.0625, 7, 7, 7, 7, 7, 7, 7, 6.9375, 6.875, 6.8125, 6.75, 6.625, 6.5625, 6.5, 6.4375, 6.375, 6.3125, 6.1607141, 5.9910717, 6.15625, 6.2901783, 6.7395835, 6.7708335, 6.5416665, 6.5684524, 6.8690476, 7.3375001, -10, -10, 9.3095236, 10.966666, 11.276785, 11.65625, 11.71875, 11.84375, 11.96875, 12.0625, 12.0625, 12.0625, 11.678572, 9.916666, 9.0714283, 8.2857141, 7.8125, 7.3928571, 7.125, 6.9375, 6.875, 6.9375, 7, 7, 7.0625, 7, 7, 7.0625, 7, 7, 7.0625, 7.0625, 7.125, 7.125, 7.0625, 7, 7, 7, 7, 7.0625, 7.3125, 7.5625, 7.8125, 8, 8.0625, 8.0625, 8.0625, 8.0625, 8, 8, 8.0625, 8.1875, 8.375, 8.5625, 8.6875, 8.5625, 8.4375, 8.375, 8.4375, 8.6875, 8.875, 9.0625, 9.125, 9.25, 9.4375, 9.6875, 9.9107141, 10, 10.15625, 10.28125, 10.285714, 10.0625, 10.008928, 9.9196434, 9.9375, 10, 10, 10, -10, -10, -10, -10, 15.25, 15.166667, 15.125, 15.078125, 15.020833, -10, -10, -10, -10, 16.625, 16.75, 17.21875, 17.604166, 18.00893, 18.708334, 18.946428, 18.545918, 18.392857, 18.25, 18.330357, 18.3125, 18.375, 18.5625, 18.75, 18.9375, 19, 19, 19.0625, -10, -10, -10, -10, -10, -10, -10, -10, -10, -10, -10, -10, -10, -10, -10, -10, -10, -10, -10, -10, -10, -10, -10, -10, -10, -10, -10, -10, 59, 59.03125, 59.09375, 59.09375, 59.09375, 59.1875, 59.25, 59.214287, 59.178574, 58.851189, -10, -10, -10, -10, -10, -10, -10, -10, -10, -10, -10, -10, -10, -10, -10, -10, -10, -10, -10, -10, -10, -10, -10, -10, -10, -10, -10, -10, -10, -10, -10, -10, -10, -10, -10, 39.75, 40.504761, 40.699402, 40.919643, 40.9375, 40.875, 40.964287, 41.223213, 41.3125, 41.25, 40.897324, 40.456249, 40.522324, 40.683037, 41.160713, 41.544643, 41.875, 42.03125, 41.995537, 42.15625, 42.03125, 42.1875, 42.486607, 42.766964, 42.82589, 43.010418, 43.217258, 43.428574, 43.642857, 44.026787, 44.075893, 44.15625, 44.21875, 44.21875, 44.25, 44.4375, 44.5, 44.75, 45.125, 45.4375, 45.883926, 46.458332, 46.803574, 47.125, 47.517857, 48.17857, 49.083332, 49.994049, 50.580357, 50.875, 51, 12.125, 12.083333, 12.0625, 11.875, 11.75, 11.75, 11.6875, 11.544643, 11.3125, 11.125, 10.9375, 11, 11, 11, 11, 11, 10.8125, 10.6875, 10.5, 10.25, 10.1875, 10.0625, 10, 9.875, 9.75, 9.625, 9.4375, 9.3125, 9.1875, 9.0625, 9, 9, 9, 9, 8.9375, 8.8125, 8.625, 8.375, 8.1875, 8.0625, 7.9375, 7.9375, 7.8125, 7.6875, 7.5625, 7.3125, 7.1875, 7.125, 7.0625, 7, 7, 6.9375, 6.875, 7.0892859, 7.4196429, 7.6785717, 7.9375, 8, 7.9375, 7.875, 7.875, 7.9375, 8.1696434, 8.1875, 8.1875, 8.0892859, 8.0892859, 8.2232141, 8.1875, 8.25, 7.9732141, 7.7767859, 7.6875, 7.4375, 7.4375, 7.375, 7.4375, 7.7142859, 9.4523811, 10.627975, 11.258928, 11.53125, 11.5625, 11.553572, 11.156632, 11.007653, 11.053572, 11, 11.0625, 10.357143, 7.833333, 7, 6.5625, 6.7946429, 7, 7.125, 7.0625, 7, 7.125, 7.125, 6.8988094, 6.9458337, 7.2738094, 7.2321429, 7.25, 7.0267859, 6.9375, 6.9375, 7, 6.9375, 7, 7.0625, 7.0625, 7.125, 7.0625, 7, 7, 7, 7, 7, 7, 7, 7, 7, 7, 7.0625, 6.9375, 6.8125, 6.6428571, 6.5, 6.375, 6.3125, 6.2232141, 6.0535717, 6.21875, 6.28125, 6.5395832, 6.604167, 6.1130953, 6.2767859, 6.7190475, 7.0250001, -10, -10, 10.68254, 11.466666, 11.491072, 11.71875, 11.78125, 11.90625, 12.004464, 12.0625, 12.0625, 12, 11.607143, 10.083333, 9.3571434, 8.6428566, 8.1428566, 7.6428571, 7.25, 7, 6.9375, 7, 7.0625, 7.0625, 7.0625, 7, 7, 7.0625, 7, 7, 7, 6.9375, 7, 7, 7, 7, 7, 7, 7, 7, 7.21875, 7.46875, 7.71875, 7.96875, 8.0625, 8.0625, 8.0625, 8.0625, 8, 8, 8.0625, 8.125, 8.25, 8.375, 8.5, 8.5, 8.5, 8.5625, 8.625, 8.875, 9, 9.1875, 9.3125, 9.375, 9.5625, 9.6875, 9.8125, 9.9375, 10.15625, 10.40625, 10.473214, 10.241072, 10.008928, 9.9196434, 9.875, 10, 10, 10, 10, -10, -10, -10, 15.125, 15.083333, 15.078125, 15.046875, 15.0625, -10, -10, -10, -10, 16.625, 16.791666, 16.84375, 17.1875, 17.678572, 18.854168, 19.551022, 19.880953, 19.833334, 19.541666, 18.830357, 18.479166, 18.517857, 18.625, 18.8125, 19, 19, 19, 19.083334, -10, -10, -10, -10, -10, -10, -10, -10, -10, -10, -10, -10, -10, -10, -10, -10, -10, -10, -10, -10, -10, -10, -10, -10, -10, -10, -10, -10, 59.125, 59.114582, 59.15625, 59.09375, 59.09375, 59.1875, 59.25, 59.214287, 59.241074, 58.976189, -10, -10, -10, -10, -10
43.10714, 43.166668, 43.270832, 43.366074, 43.75, 44.214287, 44.325893, 44.40625, 44.46875, 44.40625, 44.5625, 44.78125, 44.875, 45.125, 45.4375, 45.71875, 46.0625, 46.4375, 46.78125, 47.15625, 47.736607, 48.47768, 49.178574, 50.065475, 50.580357, 50.875, 51, 12.125, 12.083333, 12.125, 12.03125, 11.90625, 11.90625, 11.78125, 11.544643, 11.3125, 11.125, 10.9375, 11, 11, 11, 11, 10.9375, 10.6875, 10.5625, 10.375, 10.1875, 10.1875, 10.0625, 10, 9.8125, 9.6875, 9.5625, 9.3125, 9.25, 9.125, 9, 9, 9, 9, 9, 8.875, 8.6875, 8.5, 8.25, 8.125, 8.0625, 7.9375, 7.9375, 7.875, 7.8125, 7.6875, 7.4375, 7.3125, 7.1875, 7.125, 7.0625, 7, 6.9375, 6.9375, 7.125, 7.375, 7.625, 7.875, 8, 7.875, 7.8125, 7.8125, 7.9375, 8.2946434, 8.3125, 8.25, 8.0267859, 7.9017859, 7.9732141, 8, 8.125, 7.9107141, 7.8392859, 7.8125, 7.625, 7.6875, 7.6875, 7.875, 9.000001, 10.130953, 10.794643, 11.25, 11.34375, 11.28125, 11.147322, 10.77653, 11.013393, 11.053572, 11.017857, 11.071428, 10.357143, 7.75, 6.916667, 6.5446429, 6.7857141, 6.9375, 7.0625, 7, 6.9375, 7.125, 7.125, 6.8988094, 6.8833337, 7.2113094, 7.1696429, 7.1875, 7.0267859, 6.9375, 6.9375, 7, 6.875, 6.875, 6.9375, 6.9375, 7, 7, 6.9375, 6.9375, 7, 7, 7, 7, 7, 7, 7, 7, 7.0625, 7, 6.8125, 6.5803571, 6.4375, 6.25, 6.25, 6.2232141, 6.0535717, 6.21875, 6.28125, 6.5395832, 6.5952382, 5.9672618, 6.1339283, 6.5315475, 6.5666671, -10, -10, 10.791667, 11.683333, 11.776786, 11.875, 11.875, 12, 12.071428, 12.125, 12.125, 12, 11.607143, 10.249999, 9.5642853, 8.5714283, 8.1339283, 7.6428571, 7.375, 7.1875, 7.0625, 7.0625, 7.0625, 7.0625, 7, 6.9375, 6.9375, 7, 7.0625, 7.125, 7.125, 7.0625, 7.0625, 7, 7, 7, 7, 7, 7, 7, 7.15625, 7.34375, 7.59375, 7.78125, 7.9375, 8, 8, 8.0625, 8, 8, 8.0625, 8.0625, 8.1875, 8.375, 8.5357141, 8.625, 8.6875, 8.75, 8.8125, 9, 9.0625, 9.25, 9.375, 9.4375, 9.625, 9.6875, 9.8125, 10, 10.28125, 10.53125, 10.660714, 10.366072, 10.071428, 9.9821434, 9.875, 10, 10, 10, 10, -10, -10, -10, 15.375, 15.25, 15.234375, 15.171875, 15.1875, -10, 15.8125, 16.083332, 16.3125, 16.59375, 16.78125, 16.96875, 17.1875, 17.678572, 19.216667, 19.919643, 20.257143, 20.200001, 19.85, 19.378571, 18.638887, 18.607141, 18.666666, 18.833334, 19, 19, -10, -10, -10, -10, -10, -10, -10, -10, -10, -10, -10, -10, -10, -10, -10, -10, -10, -10, -10, -10, -10, -10, -10, -10, -10, -10, -10, -10, -10, -10, 59.25, 59.166664, 59.125, 59, 59, 59.0625, 59.1875, 59.25, 59.25, 59.208332, -10, -10, -10, -10, -10, -10, -10, -10, -10, -10, -10, -10, -10, -10, -10, -10, -10, -10, -10, -10, -10, -10, -10, -10, -10, -10, -10, -10, -10, -10, -10, -10, -10, -10, -10, 39.875, 40.433334, 40.571426, 40.919643, 41.0625, 41.1875, 41.446426, 41.895832, 41.895832, 41.666668, 41.32143, 41.285118, 41.714287, 41.892857, 42.125, 42.3125, 42.4375, 42.5625, 42.651787, 42.8125, 42.857143, 43.145832, 43.25893, 43.450001, 43.41964, 43.604168, 43.927082, 44.022324, 44.285713, 44.294643, 44.28125, 44.34375, 44.647324, 44.691963, 44.9375, 45.15625, 45.25, 45.5, 45.6875, 45.90625, 46.140625, 46.453125, 46.84375, 47.15625, 47.658482, 48.35268, 49.303574, 50.199402, 50.660717, 50.9375, 51, 12, 12, 12.125, 12.21875, 12.21875, 12.21875, 12.09375, 11.732143, 11.375, 11.1875, 10.9375, 11, 11, 11, 11, 10.9375, 10.6875, 10.5625, 10.3125, 10.125, 10.125, 10, 10, 9.8125, 9.6875, 9.5625, 9.375, 9.3125, 9.1875, 9.0625, 9, 9, 9, 9, 8.8125, 8.5625, 8.3125, 8.0625, 8.0625, 8.0625, 8.0625, 8.0625, 8, 8, 7.8125, 7.625, 7.5, 7.3125, 7.25, 7.125, 7, 6.9375, 6.9375, 7.0625, 7.3125, 7.5625, 7.8125, 8, 7.875, 7.8125, 7.8125, 7.9375, 8.2946434, 8.3125, 8.25, 8.0892859, 7.9375, 8, 8.125, 8.3125, 8.3482141, 8.4017859, 8.4285717, 8.041667, 8.0089283, 8, 8.3125, 9.4081631, 10.309525, 10.901787, 11.25, 11.241072, 10.885417, 10.665178, 10.58125, 11.09375, 11.272322, 11.361607, 11.178572, 9.916667, 7.6071429, 6.791667, 6.5446429, 6.7857141, 6.9375, 7.0625, 7, 6.9375, 7.125, 7.125, 6.8988094, 6.7583337, 6.9613094, 6.9196429, 6.9375, 6.9017859, 6.9375, 6.9375, 7.0625, 6.9375, 6.875, 6.875, 6.75, 6.75, 6.75, 6.75, 6.8125, 6.9375, 7, 7, 7, 7, 7, 7, 7, 7.0625, 7.0625, 6.875, 6.6428571, 6.5, 6.3125, 6.375, 6.3482141, 6.1785717, 6.28125, 6.2723217, 6.3312502, 6.3869047, 5.9880953, 6.1547618, 6.3857141, 6.3571429, -10, -10, 10.886905, 11.561905, 11.776786, 11.8125, 11.8125, 11.964286, 12.107143, 12.125, 12.1875, 12, 11.607143, 10.333333, 9.5940475, 8.3214283, 8, 7.625, 7.5625, 7.4375, 7.25, 7.125, 7, 7, 6.96875, 7.03125, 7.09375, 7.15625, 7.1875, 7.1875, 7.125, 7.0625, 7.0625, 7, 7, 7, 7, 7, 7, 7, 7.09375, 7.21875, 7.46875, 7.65625, 7.8125, 7.9375, 7.9375, 8, 8, 8, 8.0625, 8.125, 8.25, 8.4375, 8.5982141, 8.6875, 8.8125, 8.875, 8.9375, 9.0625, 9.0625, 9.3125, 9.5, 9.5625, 9.8125, 9.8125, 9.875, 10.125, 10.34375, 10.59375, 10.723214, 10.366072, 10.071428, 9.9821434, 9.875, 10, 10, 10, 10, -10, -10, -10, 15.375, 15.25, 15.3125, 15.229167, 15.375, 15.791666, 15.819444, 16.083332, 17.85, 17.642857, 17.809525, 17.928572, 17.964285, 18.331633, 19.854763, 20.553061, -10, -10, -10, -10, -10, -10, -10, -10, -10, -10, -10, -10, -10, -10, -10, -10, -10, -10, -10, -10, -10, -10, -10, -10, -10, -10, -10, -10, -10, -10, -10, -10, -10, -10, -10, -10, -10, -10, -10, -10, 59.285713, 59.229164, 59.21875, 59.09375, 59.15625, 59.205357, 59.041668, 59.008926, 59, 59.0625, 59.464287, 59.5, -10, -10, -10
44.035713, 44.21875, 44.4375, 44.607143, 44.629463, 44.607143, 44.464287, 44.632652, 44.954082, 45.379463, 45.65625, 45.8125, 45.90625, 46.015625, 46.015625, 46.140625, 46.21875, 46.453125, 46.90625, 47.236607, 48.01265, 48.67411, 49.616074, 50.386902, 50.741074, 51, 51, 12.125, 12.083333, 12.1875, 12.28125, 12.28125, 12.21875, 12.09375, 11.75, 11.5, 11.3125, 11.0625, 11, 11, 11, 11, 10.9375, 10.6875, 10.5, 10.25, 10.0625, 10.0625, 10, 10, 9.875, 9.75, 9.6875, 9.5, 9.375, 9.25, 9.0625, 9, 9, 9, 9, 8.75, 8.5, 8.3125, 8.125, 8.25, 8.25, 8.1875, 8.125, 8, 8, 7.75, 7.5625, 7.375, 7.1875, 7.1875, 7.125, 7.0625, 7, 7, 7, 7.25, 7.5, 7.75, 8, 7.875, 7.8125, 7.8125, 7.9375, 8.2321434, 8.25, 8.25, 8.125, 8, 8.125, 8.3125, 8.5357141, 8.7053566, 9.2295923, 8.9702387, 8.416667, 8.2410717, 8.125, 8.4375, 9.3622446, 10.12245, 10.877976, 11.321428, 11.419643, 10.833334, 10.651785, 10.675, 11.392857, 11.616072, 11.705357, 11.285715, 9.5119057, 7.6190481, 6.8630953, 6.7321429, 6.9107141, 7, 7, 6.9375, 6.875, 7, 7.125, 7.1071429, 6.9875002, 6.9821429, 6.875, 6.9375, 6.9375, 7, 7, 7.0625, 7, 6.9375, 6.9375, 6.8125, 6.75, 6.6875, 6.6875, 6.8125, 6.9732141, 7.0625, 7.0625, 7, 7, 7, 7, 7, 7.0625, 7.0625, 6.9375, 6.7678571, 6.6875, 6.5625, 6.5625, 6.5625, 6.5, 6.5625, 6.6160717, 6.6125002, 6.6369047, 6.1755953, 6.2172618, 6.3499999, 6.3958335, 7.5178571, 8.5238094, 9.9404764, 10.835714, 11.464286, 11.705357, 11.8125, 12.026786, 12.169643, 12.1875, 12.25, 12, 11.607143, 10.3, 9.3202372, 8.1071434, 7.875, 7.6875, 7.6785717, 7.3541665, 7.0714283, 6.9375, 6.875, 7, 7.09375, 7.15625, 7.21875, 7.15625, 7.125, 7.125, 7.0625, 7.0625, 7, 6.875, 6.875, 6.875, 6.9375, 7, 7, 7, 7.03125, 7.09375, 7.34375, 7.53125, 7.75, 7.9375, 8, 8.09375, 8.09375, 8.09375, 8.03125, 8.125, 8.3125, 8.5625, 8.8482141, 8.9375, 9, 9, 9, 9.0625, 9.0625, 9.3125, 9.5625, 9.6875, 9.9375, 10, 10.0625, 10.3125, 10.5625, 10.75, 10.9375, 10.803572, 10.4375, 10.25, 10, 10, 10, 10, 10, -10, -10, -10, 15.5, 15.333333, -10, -10, 15.541667, 16.26111, 16.547619, 22.299999, 21.354166, 21.4375, 21.520834, 21.666666, 21.75, 21.84524, 21.894445, 21.932144, -10, -10, -10, -10, -10, -10, -10, -10, -10, -10, -10, -10, -10, -10, -10, -10, -10, -10, -10, -10, -10, -10, -10, -10, -10, -10, -10, -10, -10, -10, -10, -10, -10, -10, -10, -10, -10, 58, 58.333332, 58.75, 59.285713, 59.229164, 59.21875, 59.15625, 59.34375, 59.375, 59.020836, 58.892853, 58.8125, 58.991074, 59.587299, 59.666668, -10, -10, -10, -10, -10, -10, -10, -10, -10, -10, -10, -10, -10, -10, -10, -10, -10, -10, -10, -10, -10, -10, -10, -10, -10, -10, -10, -10, -10, -10, -10, -10, -10, -10, 41.285713, 41.345238, 41.357143, 41.5625, 41.75, 41.883926, 42.208332, 42.208332, 42.041668, 42.017857, 42.503399, 42.535713, 42.741074, 42.875, 43.0625, 43.1875, 43.25, 43.375, 43.714287, 43.732143, 44.083332, 44.303574, 44.4375, 44.5625, 44.78125, 44.9375, 45.089287, 45.34375, 45.083332, 45.129253, 45.34864, 45.994049, 46.183674, 46.535713, 46.69643, 46.75, 46.546875, 46.359375, 46.234375, 46.1875, 46.453125, 46.950893, 47.424107, 48.453125, 48.995537, 49.928574, 50.428574, 50.75, 51, 51, 12.291667, 12.208333, 12.25, 12.21875, 12.21875, 12.09375, 11.90625, 11.625, 11.375, 11.25, 11.0625, 11, 11, 11, 11, 10.9375, 10.6875, 10.4375, 10.1875, 10, 10, 10, 10, 9.9375, 9.875, 9.8125, 9.625, 9.4375, 9.25, 9.0625, 9, 9, 9, 9, 8.75, 8.5, 8.3125, 8.125, 8.25, 8.25, 8.1875, 8.125, 8, 8, 7.75, 7.5, 7.25, 7, 7, 7, 7, 6.9375, 6.9375, 7, 7.2946429, 7.5625, 7.8125, 8, 7.9375, 7.9375, 7.9375, 8, 8.1875, 8.1875, 8.125, 7.9910717, 7.90625, 8.0892859, 8.625, 9.0357141, 9.5178566, 9.9642859, 9.3244057, 8.5863094, 8.2410717, 8.0625, 8.25, 8.3214293, 8.9523811, 10.857142, 11.428572, 11.669643, 11.011906, 10.723213, 10.9375, 11.571428, 11.875, 11.741072, 10.89796, 8.6904764, 7.2440481, 6.7291665, 6.7321429, 6.8035717, 6.875, 6.875, 6.8125, 6.8125, 6.875, 6.9375, 7, 6.9375, 6.875, 6.875, 6.875, 6.9375, 7, 7, 7.0625, 7.0625, 7.0625, 7.0625, 6.9375, 6.8125, 6.75, 6.8125, 6.9375, 7.0982141, 7.125, 7.0625, 7, 6.9375, 6.9375, 6.9375, 6.9375, 7, 7, 6.9375, 6.875, 6.875, 6.8125, 6.75, 6.6875, 6.5625, 6.5625, 6.6875, 6.8125, 6.8035717, 6.6041665, 6.5089283, 6.5, 6.7083335, 7.5119042, 8.265873, 9.2738104, 9.8612242, 11.202381, 11.625, 11.875, 12.026786, 12.205358, 12.325, 12.258928, 12.071428, 11.607143, 10.166667, 9.0166664, 7.7946434, 7.6071429, 7.625, 7.6785717, 7.3541665, 7.0357141, 6.8125, 6.75, 6.9375, 7.03125, 7.15625, 7.21875, 7.15625, 7.1875, 7.1875, 7.125, 7.125, 7, 6.875, 6.875, 6.875, 6.9375, 7, 7, 7, 7.03125, 7.0625, 7.3125, 7.4791665, 7.6666665, 7.9166665, 8, 8.28125, 8.21875, 8.21875, 8.15625, 8.28125, 8.53125, 8.8125, 9.0982141, 9.1875, 9.1875, 9.15625, 9.15625, 9.15625, 9.21875, 9.4375, 9.625, 9.8125, 10.0625, 10.1875, 10.3125, 10.625, 10.833333, 10.833333, 11, 10.833333, 10.583333, 10.333333, 10.083333, 10, 10, -10, -10, -10, -10, -10, -10, -10, -10, -10, 16.714285, 17.271429, 19.408333, 22.690475, 22.75, 22.714285, 22.678572, 22.642857, 22.666666, 22.648809, 22.290476, 22.171429, -10, -10, -10, -10, -10, -10, -10, -10, -10, -10, -10, -10, -10, -10, -10, -10, -10, -10, -10, -10, -10, -10, -10, -10, -10, -10, -10, -10, -10, -10, -10, -10, -10, -10, -10, -10, -10, -10, -10, -10, 59.214283, 59.145832, 59.15625, 59.15625, 59.34375, 59.3125, 58.895836, 58.767853, 58.6875, 58.991074, 59.565475, 59.666668, -10, -10, -10
44.9375, 45.34375, 45.669643, 45.839287, 45.924107, 45.773808, 45.557827, 45.461311, 46.053574, 46.441963, 46.964287, 47.142857, 47.0625, 46.984375, 46.734375, 46.640625, 46.5625, 46.828125, 47.294643, 47.714283, 48.734375, 49.151787, 50, 50.428574, 50.75, 51, 12.5, 12.291667, 12.208333, 12.1875, 12.125, 12.0625, 11.875, 11.6875, 11.4375, 11.3125, 11.3125, 11.1875, 11.125, 11.0625, 11, 11, 11, 10.75, 10.5, 10.25, 10, 10, 10, 10, 10, 9.9375, 9.8125, 9.625, 9.375, 9.1875, 9.0625, 9, 9, 9, 9, 8.8125, 8.5625, 8.375, 8.1875, 8.1875, 8.125, 8.0625, 8, 7.9375, 8, 7.75, 7.5, 7.25, 7, 7, 7, 7, 6.875, 6.875, 6.9375, 7.2321429, 7.5625, 7.8125, 8, 8, 8, 8, 8, 8.125, 8.125, 8.0625, 7.9910717, 8.0133934, 8.3877554, 9.2678566, 9.8482141, 10.232143, 9.979166, 9.4047623, 8.5238094, 8.1785717, 8, 8.0625, 8.3839283, 8.9920645, 10.964286, 11.616072, 11.857143, 11.190476, 10.702381, 10.830357, 11.330357, 11.732143, 11.5625, 9.1428576, 7.9047623, 6.9732141, 6.625, 6.75, 6.75, 6.875, 6.9375, 6.875, 6.875, 6.875, 6.9375, 7, 7, 6.9375, 6.9375, 6.9375, 6.9375, 7, 7, 7.0625, 7.0625, 7.0625, 7.0625, 6.9375, 6.875, 6.8125, 6.8125, 6.875, 6.9732141, 7, 7, 7, 6.9375, 6.9375, 6.9375, 6.9375, 7, 7, 7, 7, 7, 7, 6.875, 6.8125, 6.75, 6.6875, 6.8125, 6.875, 6.875, 6.9375, 6.9375, 6.9375, 7.1875, 7.5089283, 8.1369047, 8.6071434, 9.1224489, 10.940476, 11.544643, 11.9375, 12.026786, 12.241072, 12.4625, 12.267857, 12.142857, 11.607143, 10, 8.8095236, 7.8035717, 7.6160717, 7.625, 7.5535717, 7.1666665, 6.8482141, 6.625, 6.625, 6.875, 6.96875, 7.15625, 7.21875, 7.15625, 7.1875, 7.125, 7.0625, 7.0625, 6.9375, 6.875, 6.875, 6.9375, 7, 7.0625, 7.0625, 7, 7.015625, 7.0416665, 7.3333335, 7.5555553, -10, -10, -10, 8.375, 8.291667, 8.291667, 8.208333, 8.84375, 9.052083, 9.25, 9.4375, 9.46875, 9.4375, 9.421875, 9.453125, 9.46875, 9.291667, 9.5, 10, 10.208333, 10.4375, 10.625, 10.8125, 11.0625, 11.208333, -10, -10, -10, -10, -10, 20.25, 10, -10, -10, -10, -10, -10, -10, -10, -10, -10, -10, 20.361113, 20.783335, 21.541666, 23.666666, 23.6875, 23.5625, 23.464287, 23.375, 23.142857, 23.051022, 22.666666, 22.337502, 21.6875, 21.4375, 21.1875, 20.919643, 20.208332, 20.033333, -10, -10, -10, -10, -10, -10, -10, -10, -10, -10, -10, -10, -10, -10, -10, -10, -10, -10, -10, -10, -10, -10, -10, -10, -10, -10, -10, -10, -10, -10, -10, -10, -10, -10, -10, 59.3125, 59.260418, 59.21875, 59.245537, 59.125, 58.645836, 58.517853, 58.5625, 58.991074, 59.565475, 59.75, -10, -10, -10, -10, -10, -10, -10, -10, -10, -10, -10, -10, -10, -10, -10, -10, -10, -10, -10, -10, -10, -10, -10, -10, -10, -10, -10, -10, -10, -10, -10, -10, -10, -10, 42, 42, 42.0625, 42.25, 42.4375, 42.5, 42.53125, 42.625, 42.75, 43, 43.21875, 43.383926, 43.625, 43.6875, 43.9375, 44, 44.125, 44.1875, 44.1875, 44.3125, 44.4375, 44.75, 45, 45.25, 45.59375, 45.888393, 46.058037, 46.200893, 46.208332, 46.041668, 46.211311, 46.5625, 46.84375, 47.09375, 47.21875, 47.375, 47.234375, 46.984375, 46.953125, 46.921875, 47.125, 47.57143, 48.071426, 49.05357, 49.491074, 50.208332, 50.535713, 50.8125, 51, 12.333333, 12.291667, 12.270833, 12.1875, 12.0625, 11.9375, 11.625, 11.4375, 11.25, 11.25, 11.375, 11.3125, 11.25, 11.125, 11, 11, 11, 10.75, 10.5, 10.25, 10, 10, 10, 9.9375, 9.875, 9.75, 9.5625, 9.375, 9.1875, 9.0625, 9, 9, 9, 9, 9, 8.875, 8.6875, 8.5, 8.3125, 8.1875, 8.0625, 8, 7.9375, 7.9375, 8, 7.75, 7.5, 7.25, 7, 7, 7, 7, 6.8125, 6.8125, 6.875, 7.1696429, 7.5625, 7.8125, 8, 7.9375, 7.9375, 7.9375, 7.9375, 8.1875, 8.25, 8.1875, 8.2053566, 8.4419641, 9.3571424, 10, 10.806123, 10.785715, 9.916666, 9.1547623, 8.3571434, 8.1071434, 7.96875, 7.96875, 8.1875, 9.8531752, 10.964286, 11.647322, 11.928572, 11.452381, 10.726191, 10.714286, 11, 11.388393, 11.03125, 8.4897966, 7.5595236, 6.8035717, 6.8125, 6.9375, 6.9375, 7, 6.9375, 6.875, 6.9375, 6.9375, 7, 7.0625, 7.0625, 7.0625, 7.0625, 7.0625, 7, 7, 7, 7, 7, 7, 7, 7, 7, 7, 6.9375, 6.875, 6.9107141, 6.875, 6.9375, 7, 6.9375, 6.9375, 6.9375, 6.9375, 7, 7, 7, 7, 7, 6.9375, 6.75, 6.75, 6.75, 6.8125, 7, 7, 7, 7, 7, 7, 7.125, 7.3839283, 7.833333, 8.1160717, 8.7857141, 10.75, 11.464285, 12, 12.0625, 12.267857, 12.525, 12.267857, 12.205357, 11.5, 9.583333, 8.4226189, 7.7410717, 7.6875, 7.75, 7.5535717, 7.1041665, 6.7857141, 6.5625, 6.625, 6.875, 6.9375, 7.0625, 7.0625, 7, 7.0625, 7.0625, 7.0625, 7.0625, 6.9375, 6.875, 6.875, 6.9375, 7, 7.0625, 7.0625, 7, 6.953125, 6.958333, -10, -10, -10, -10, -10, -10, -10, -10, -10, 9.5714283, 9.510416, 9.625, 9.71875, 9.8125, 9.84375, 9.890625, 9.953125, 9.96875, -10, -10, 10.65625, 10.791666, 11.026786, 11.458333, 11.633928, 11.84375, 11.875, -10, -10, -10, -10, -10, 20.166666, 19.75, -10, -10, -10, -10, -10, -10, -10, -10, -10, 22, 21.559525, 21.980953, 22.479166, 23.447916, 23.53125, 23.446428, 23.205357, 23.080357, 22.714285, 22.776787, 22.104166, 21.825001, 21.291666, 21.208334, 21, 20.779762, 20.305555, 20.133333, -10, -10, -10, -10, -10, -10, -10, -10, -10, -10, -10, -10, -10, -10, -10, -10, -10, -10, -10, -10, -10, -10, -10, -10, -10, -10, -10, -10, -10, -10, -10, -10, -10, -10, -10, 59.5, 59.416668, 59.3125, 59.214287, 59.044643, 58.729168, 58.758926, 58.875, 59.241074, 59.645832, 59.75, -10, -10, -10
45.5, 45.75, 45.982143, 46.214287, 46.482143, 46.520832, 46.354168, 46.354168, 46.5625, 46.75, 47, 47.232143, 47.46875, 47.46875, 47.34375, 47.34375, 47.28125, 47.464287, 47.928574, 48.35714, 49.074402, 49.5, 50.252975, 50.598213, 50.875, 51, 12.25, 12.166667, 12.25, 12.25, 12.1875, 12.125, 11.75, 11.4375, 11.1875, 11.125, 11.3125, 11.3125, 11.3125, 11.1875, 11, 11, 11, 10.8125, 10.5625, 10.375, 10.1875, 10.125, 10.125, 9.9375, 9.75, 9.5625, 9.3125, 9.1875, 9.0625, 9, 9, 9, 8.9375, 8.875, 8.8125, 8.6875, 8.5625, 8.375, 8.1875, 8, 7.875, 7.8125, 7.75, 7.8125, 7.875, 7.6875, 7.5, 7.25, 7, 7, 7, 7, 6.8125, 6.8125, 6.875, 7.1696429, 7.5625, 7.8125, 8, 7.875, 7.875, 7.875, 7.9375, 8.3125, 8.4375, 8.375, 8.4464283, 9.1505108, 10.12245, 10.982142, 11.607142, 11.392858, 9.7261906, 8.791667, 8.1071434, 8, 8.09375, 8.28125, 8.8035717, 10.404762, 11.238096, 11.763393, 12, 11.714286, 10.750001, 10.598214, 10.669643, 11.044643, 10.6875, 8.3469391, 7.4761906, 6.7678571, 6.8125, 6.9375, 6.875, 6.875, 6.8125, 6.75, 6.875, 6.9375, 7, 7.0625, 7, 7, 7, 7, 6.9375, 6.875, 6.875, 6.875, 6.9375, 7, 7.0625, 7.0625, 7.0625, 7.125, 7.0625, 6.9375, 6.9375, 6.875, 6.875, 7, 6.9375, 6.9375, 6.9375, 6.9375, 7, 7, 7, 7, 7, 6.9375, 6.6875, 6.6875, 6.6875, 6.8125, 7.125, 7.125, 7.125, 7.0625, 7, 7, 7.125, 7.375, 7.625, 7.875, 8.5714283, 10.666667, 11.428572, 12, 12, 12.267857, 12.5875, 12.392857, 12.455357, 11.678572, 9.583333, 8.5059528, 7.8125, 7.75, 7.8125, 7.5625, 7.3125, 7.0267859, 6.75, 6.75, 6.875, 6.8125, 6.9375, 6.9375, 6.9375, 7.125, 7.1875, 7.1875, 7.1875, 7.0625, 7, 7, 7.125, 7.125, 7.125, 7.125, 7, 6.953125, 6.9444442, -10, -10, -10, -10, -10, -10, -10, -10, -10, 10.178572, 10.385416, 10.3375, 10.311225, 10.598214, 10.6875, 10.671875, 10.703125, 10.71875, -10, -10, 11.642858, 11.761904, 11.941327, 12.45238, 12.545918, 12.714286, 12.625, -10, -10, -10, -10, -10, 20.375, 20.166666, -10, -10, -10, -10, -10, -10, -10, -10, 21.8125, 22.047617, 22.729168, 22.940477, 23.125, 23.40625, 23.53125, 23.404762, 22.997023, 22.767857, 22.4375, 22.25, 21.633928, 21.267857, 21.09375, 21.09375, 21.035713, 20.897322, 20.541666, 20.31875, -10, -10, -10, -10, -10, -10, -10, -10, -10, -10, -10, -10, -10, -10, -10, -10, -10, -10, -10, -10, -10, -10, -10, -10, -10, -10, -10, -10, -10, -10, -10, -10, -10, -10, -10, 59.75, 59.666668, 59.4375, 59.214287, 59.0625, 58.875, 59.0625, 59.25, 59.5, 59.625, 59.666668, -10, -10, -10, -10, -10, -10, -10, -10, -10, -10, -10, -10, -10, -10, -10, -10, -10, -10, -10, -10, -10, -10, -10, -10, -10, -10, -10, -10, -10, -10, -10, -10, -10, -10, 42.041668, 42.190479, 42.5625, 42.9375, 43.232143, 43.3125, 43.40625, 43.4375, 43.5, 43.6875, 43.84375, 44.133926, 44.4375, 44.5625, 44.8125, 44.8125, 45, 45.125, 45.1875, 45.375, 45.4375, 45.5625, 45.6875, 45.75, 46, 46.294643, 46.5, 46.625, 46.6875, 46.71875, 46.78125, 46.84375, 46.96875, 47.125, 47.294643, 47.5625, 47.5625, 47.5625, 47.75, 47.794643, 47.964287, 48.32143, 48.60714, 49.053574, 49.508926, 50.297619, 50.660713, 50.9375, 51, 12.125, 12.083333, 12.1875, 12.1875, 12.1875, 12.125, 11.8125, 11.5, 11.25, 11.1875, 11.3125, 11.3125, 11.3125, 11.125, 10.875, 10.875, 10.875, 10.8125, 10.6875, 10.5625, 10.4375, 10.375, 10.3125, 10, 9.6428566, 9.375, 9.125, 9.0625, 9, 8.9375, 8.9375, 8.875, 8.8125, 8.8125, 8.6875, 8.6875, 8.625, 8.5, 8.375, 8.125, 7.9375, 7.75, 7.5625, 7.5625, 7.7321429, 7.6071429, 7.5, 7.25, 7, 7, 7, 7, 6.875, 6.875, 6.875, 7.125, 7.5, 7.75, 8, 7.875, 7.9375, 8, 8.1875, 8.666667, 8.8571424, 8.8928576, 9.0739803, 9.8973217, 10.84375, 11.345982, 11.535714, 11.122449, 9.083334, 8.5, 8, 8, 8.15625, 8.46875, 9.2321424, 10.639881, 11.321428, 11.78125, 11.9375, 11.723215, 10.875001, 10.598214, 10.5625, 10.857143, 10.651786, 9.6190481, 7.6904755, 6.8928571, 6.75, 6.8125, 6.75, 6.75, 6.6875, 6.6875, 6.875, 7, 7.0625, 7.0625, 7, 7, 7, 7, 6.9375, 6.8125, 6.8125, 6.8125, 6.8125, 6.875, 6.9375, 6.9375, 7, 7.0625, 7, 6.875, 6.875, 6.875, 6.875, 7, 7, 7, 7, 7, 7, 7, 7, 7.0625, 7.0625, 7, 6.8125, 6.75, 6.75, 6.875, 7.125, 7.125, 7.0625, 6.9375, 6.875, 6.875, 7.0625, 7.375, 7.625, 8.0178566, 8.8707485, 10.857143, 11.571428, 12, 12, 12.258928, 12.5125, 12.508928, 12.571428, 11.821428, 9.6750002, 8.666667, 8, 7.875, 7.625, 7.4375, 7.1875, 7.0625, 6.875, 6.8125, 6.8125, 6.75, 6.8125, 6.875, 6.9375, 7.0625, 7.125, 7.125, 7.125, 7.0625, 7, 7, 7.125, 7.125, 7.125, 7.125, 7, 6.921875, -10, -10, -10, -10, -10, -10, -10, -10, -10, -10, 11.736111, 11.291666, 11.2125, 11.568878, 11.285714, 11.464286, 11.508928, 11.421875, 11.5, -10, -10, 12.3125, 12.479166, 12.636161, 13.083333, 13.133928, 13.28125, 13.680273, 15.416666, 16.174999, -10, -10, -10, 20.125, 20.125, -10, -10, -10, -10, -10, -10, 21.375, 21.5, 21.791666, 22.098213, 22.604168, 22.794643, 23.0625, 23.34375, 23.59375, 23.592262, 23.247023, 23.142857, 22.8125, 22.616072, 21.800594, 21.370535, 21.125, 21.1875, 21.191963, 21.075893, 20.791666, 20.540178, 20.3125, 20.375, -10, -10, -10, -10, -10, -10, -10, -10, -10, -10, -10, -10, -10, -10, -10, -10, -10, -10, -10, -10, -10, -10, -10, -10, -10, -10, -10, -10, -10, -10, -10, -10, -10, 60, 59.916668, 59.6875, 59.401787, 59.25, 59.0625, 59.25, 59.5, 59.6875, 59.75, 59.750004, -10, -10, -10
46.125, 46.375, 46.5625, 46.75, 46.9375, 47.125, 47.25, 47.375, 47.375, 47.3125, 47.375, 47.482143, 47.75, 47.875, 47.9375, 48.125, 48.169643, 48.276787, 48.57143, 48.85714, 49.303574, 49.758926, 50.547619, 50.839287, 51.0625, 51.083332, 12.375, 12.25, 12.3125, 12.1875, 12.125, 12.125, 11.875, 11.625, 11.375, 11.125, 11.125, 11.125, 11.1875, 11.098214, 10.767857, 10.696428, 10.625, 10.6875, 10.6875, 10.6875, 10.625, 10.5625, 10.4375, 10.03125, 9.6116066, 9.28125, 9.03125, 9, 9, 8.9375, 8.9375, 8.875, 8.8125, 8.8125, 8.6875, 8.6875, 8.625, 8.5, 8.375, 8.1875, 8.0625, 7.875, 7.6875, 7.625, 7.6696429, 7.5446429, 7.4375, 7.1875, 7, 7, 7, 7, 6.9375, 6.9375, 6.9375, 7.1875, 7.5, 7.75, 8, 7.875, 7.9375, 8.0714283, 8.604167, 9.8710318, 10.446429, 10.767858, 11.011905, 11.040178, 11.65625, 12.078125, 11.408334, 10.285714, 9.0555563, 8.2321434, 7.8333335, 7.875, 8.03125, 8.46875, 9.2142859, 10.160714, 10.821428, 11.53125, 11.830357, 11.794643, 11.145834, 10.830357, 10.6875, 10.75, 10.6875, 10.163264, 8.3214283, 7.5386901, 6.9375, 6.8660717, 6.8125, 6.8482141, 6.75, 6.75, 6.875, 7, 7.0625, 7.0625, 7.0625, 7.0625, 7, 6.9642859, 6.875, 6.75, 6.875, 6.8482141, 6.7767859, 6.875, 6.875, 6.9375, 7, 7.0625, 7.0625, 7, 7, 7, 6.9375, 7, 7, 7, 7, 7, 7, 7, 6.9375, 7, 7, 6.9375, 6.875, 6.8125, 6.8125, 6.9375, 7.125, 7.125, 7, 6.875, 6.875, 6.9107141, 7.125, 7.4375, 7.625, 8.1607141, 9.9682541, 11.04762, 11.714287, 12, 12, 12.25, 12.4375, 12.625, 12.75, 12, 9.5916672, 8.5595245, 7.875, 7.6875, 7.4642859, 7.3125, 7.125, 7.125, 7, 6.9375, 6.875, 6.875, 6.875, 6.9375, 7, 7.0625, 7.125, 7.125, 7.125, 7.0625, 7, 7, 7.0625, 7.0625, 7.0625, 7.0625, 7, 6.9375, -10, -10, -10, -10, -10, -10, -10, -10, -10, 12.25, 12, 12.119047, 11.992857, 12.211736, 11.816964, 11.875, 11.9375, 12.125, 12.3125, 13.4375, 13.625, 13.0625, 13.145833, 13.323661, 13.708333, 13.696428, 13.90625, 14.095239, 15.277778, 16.227777, -10, -10, -10, 20.142857, 20.21875, -10, -10, -10, -10, 21.25, 21.309525, 21.5, 21.583334, 21.78125, 22.098213, 22.583334, 22.794643, 23.125, 23.46875, 23.888393, 24.029762, 23.720238, 23.580357, 23.25, 22.883928, 21.738094, 21.258928, 20.9375, 21.125, 21.165178, 20.9375, 20.675594, 20.373512, 20.208334, 20.25, 20.25, 20.666666, -10, -10, -10, -10, -10, -10, -10, -10, -10, -10, -10, -10, -10, -10, -10, -10, -10, -10, -10, -10, -10, -10, -10, -10, -10, -10, -10, -10, -10, -10, -10, 60, 60, 59.875, 59.625, 59.4375, 59.25, 59.375, 59.625, 59.8125, 59.875, 59.833336, -10, -10, -10, -10, -10, -10, -10, -10, -10, -10, -10, -10, -10, -10, -10, -10, -10, -10, -10, -10, -10, -10, -10, -10, -10, -10, -10, -10, -10, -10, -10, -10, -10, -10, 43.066669, 43.952381, 43.916664, 43.84375, 43.950893, 43.866074, 44.133926, 44.303574, 44.5, 44.6875, 44.8125, 45.0625, 45.1875, 45.375, 45.5625, 45.625, 45.75, 45.875, 46.0625, 46.357143, 46.4375, 46.4375, 46.4375, 46.375, 46.59375, 46.84375, 47.09375, 47.34375, 47.5625, 47.75, 47.8125, 47.8125, 47.625, 47.651787, 47.901787, 48.116074, 48.3125, 48.375, 48.5625, 48.638393, 48.745537, 49.013393, 49.21875, 49.732143, 50.125, 50.714287, 50.910713, 51.0625, 51.083332, 12.5, 12.333333, 12.3125, 12.125, 12.0625, 12.0625, 11.9375, 11.75, 11.5, 11.1875, 11.0625, 11, 11.0625, 10.973214, 10.642857, 10.508928, 10.375, 10.5625, 10.6875, 10.8125, 10.8125, 10.6875, 10.5, 10.09375, 9.6741066, 9.40625, 9.15625, 9.0625, 9.0625, 8.9375, 8.9375, 8.875, 8.8125, 8.8125, 8.6875, 8.6875, 8.5625, 8.4375, 8.3125, 8.125, 8.0625, 7.8035717, 7.4875002, 7.4821429, 7.4196429, 7.4821429, 7.4375, 7.25, 7.125, 7.0625, 7, 7, 7, 7, 6.9375, 7.1517859, 7.4821429, 7.7410717, 8, 7.9375, 8, 8.2410717, 9.166667, 10.384354, 11.096939, 11.607142, 11.840136, 11.764285, 12.235715, 12.294642, 12.316668, -10, -10, 7.9285717, 7.666667, 7.75, 7.9375, 8.4821434, 9.2321434, 10.139881, 10.693878, 11.5, 11.830357, 11.866072, 11.416667, 11.196428, 11, 10.9375, 11, 10.580357, 9.0714283, 8.0178576, 7.0892859, 6.8973217, 6.78125, 6.7857141, 6.75, 6.75, 6.75, 6.8125, 6.875, 6.8125, 6.9375, 7, 6.9375, 6.9642859, 6.875, 6.75, 6.875, 6.8482141, 6.8392859, 6.9107141, 6.7678571, 6.8303571, 6.875, 7, 7.125, 7.125, 7.125, 7.125, 7, 7, 7, 7, 7, 7, 7, 7, 6.9375, 7, 7, 7, 7, 6.9375, 6.9375, 7, 7.1875, 7.25, 7.1071429, 6.7916665, 6.7916665, 6.9107141, 7.1875, 7.5625, 7.6875, 8.3660717, 10.367347, 11.238095, 11.857143, 12, 12, 12.25, 12.5, 12.75, 12.875, 12.178572, 9.6333342, 8.4880953, 7.75, 7.4375, 7.2142859, 7.125, 7, 7.0625, 7, 6.9375, 6.875, 6.875, 6.875, 6.9375, 7, 7.0625, 7.125, 7.125, 7.125, 7.0625, 7, 7, 7.0625, 7.0625, 7.0625, 7.0625, 7, 7, -10, -10, -10, -10, -10, -10, -10, -10, -10, 12.722222, 12.8125, 12.6875, 12.525, 12.8125, 12.723214, 12.71875, 12.607142, 12.9375, 13.125, 13.708333, 13.833333, 13.65625, 13.75, 13.921875, 14.0625, 14.0625, 14.3125, 14.616072, 15.395833, 16.277977, 16.732143, 17.428572, 19, 20.035713, 20.21875, 19.875, 19.625, 19.375, 19.642857, 21.166666, 21.396826, 21.625, 21.6875, 21.78125, 22.098213, 22.583334, 22.794643, 23.1875, 23.5625, 24.044643, 24.270834, 24.104166, 24, 23.6875, 23.383928, 22.380951, 21.571428, 21.169643, 21.1875, 21.258928, 21.0625, 20.769344, 20.446428, 20.25, 20.229166, 20.25, -10, -10, -10, -10, -10, -10, -10, -10, -10, -10, -10, -10, -10, -10, -10, -10, -10, -10, -10, -10, -10, -10, -10, -10, -10, -10, -10, -10, -10, -10, -10, -10, 60, 60, 59.9375, 59.8125, 59.625, 59.208332, 59.169643, 59.357143, 59.791668, 59.9375, 60, -10, -10, -10
46.6875, 46.9375, 47.21875, 47.46875, 47.59375, 47.78125, 47.9375, 48.0625, 48.25, 48.125, 48.151787, 48.294643, 48.428574, 48.5625, 48.625, 48.875, 49.075893, 49.21875, 49.40625, 49.540176, 49.919643, 50.21875, 50.700893, 50.879463, 51.020832, 51.111111, 12.583333, 12.395833, 12.25, 12, 11.9375, 11.9375, 11.9375, 11.875, 11.625, 11.3125, 11.125, 11, 11.03125, 10.879464, 10.486607, 10.290178, 10.125, 10.383928, 10.7, 10.696428, 10.696428, 10.5625, 10.3125, 9.96875, 9.6116066, 9.34375, 9.15625, 9.0625, 9.0625, 8.9375, 8.9375, 8.875, 8.875, 8.9375, 8.875, 8.9375, 8.75, 8.5625, 8.375, 8.125, 8.125, 7.9017859, 7.5053573, 7.3571429, 7.2321429, 7.3571429, 7.4196429, 7.3125, 7.25, 7.125, 7, 7, 7, 7, 6.9375, 7.1517859, 7.4821429, 7.7410717, 8, 8, 8.0625, 8.4107141, 9.75, 10.809524, 11.616072, 12.25, 12.539583, -10, -10, -10, -10, -10, -10, 7.5, 7.416667, 7.5, 7.6875, 8.1696434, 8.8035717, 9.8613091, 10.678572, 11.491072, 11.830357, 11.9375, 11.678572, 11.375, 11.1875, 11, 11.0625, 10.580357, 9.3197279, 8.1607141, 7.2142859, 7.0223217, 6.84375, 6.7857141, 6.8125, 6.8125, 6.75, 6.75, 6.75, 6.6875, 6.875, 7.0625, 7, 7.0267859, 6.9375, 6.8125, 6.9375, 6.9107141, 6.9017859, 6.9107141, 6.7053571, 6.7053571, 6.75, 6.875, 7, 7.0625, 7.0625, 7.0625, 7, 7, 7, 7, 7, 7, 7, 7, 6.9375, 7, 7, 7, 7.0625, 7, 7, 7, 7.0625, 7.0625, 6.8571429, 6.5416665, 6.6130953, 6.860714, 7.1041665, 7.7142859, 7.8482141, 8.6785717, 10.729167, 11.464285, 12, 12, 12, 12.1875, 12.375, 12.5625, 12.625, 11.928572, 9.333334, 8.3214283, 7.5625, 7.25, 6.9642859, 6.9375, 6.875, 7.0625, 7.0625, 7, 6.9375, 6.875, 6.875, 6.9375, 7, 7, 7, 7, 7, 7, 7, 7, 7, 7, 7, 7, 7, 7, -10, -10, -10, -10, -10, -10, -10, -10, 14, 13.041667, 13.1875, 13.1875, 13.125, 13.205357, 13.1875, 13.357142, 13.791667, 13.625, 13.875, 14.03125, 14.1875, 14.375, 14.5625, 14.8125, 14.84375, 14.90625, 15.15625, 15.401786, 16.041666, 16.652977, 16.821428, 17.428572, 19.111113, 19.821426, 20.075893, 19.805555, 19.607141, 19.5, 19.809523, 21, 21.235119, 21.5625, 21.6875, 21.8125, 22.125, 22.4375, 22.723213, 23.15625, 23.625, 24.091518, 24.359375, 24.390625, 24.296875, 24.0625, 23.821428, 22.997023, 22.241072, 21.6875, 21.5, 21.348213, 21.083334, 20.609127, 20.303572, 20.125, 20.138887, -10, -10, -10, -10, -10, -10, -10, -10, -10, -10, -10, -10, -10, -10, -10, -10, -10, -10, -10, -10, -10, -10, -10, -10, -10, -10, -10, -10, -10, -10, -10, -10, -10, 60, 60, 60, 59.9375, 59.75, 59.324402, 58.961311, 59.127975, 59.770836, 60, 60.166664, -10, -10, -10, -10, -10, -10, -10, -10, -10, -10, -10, -10, -10, -10, -10, -10, -10, -10, -10, -10, -10, -10, -10, -10, -10, -10, -10, -10, -10, -10, -10, -10, -10, -10, -10, 44.583332, 44.5625, 44.40625, 44.28125, 44.116074, 44.330357, 44.761902, 45.14286, 45.482143, 45.65625, 45.84375, 45.84375, 45.96875, 46.169643, 46.25, 46.4375, 46.5625, 46.758926, 47.007141, 46.916668, 47.125, 47.053574, 47.125, 47.3125, 47.53125, 47.71875, 47.84375, 48.09375, 48.28125, 48.40625, 48.59375, 48.40625, 48.401787, 48.544643, 48.678574, 48.875, 48.96875, 49.21875, 49.375, 49.4375, 49.59375, 49.790176, 50.214287, 50.46875, 50.84375, 50.941963, 51.020832, 12.75, 12.708333, 12.5, 12.3125, 12, 11.875, 11.875, 11.8125, 11.875, 11.6875, 11.375, 11.25, 11, 10.90625, 10.754464, 10.361607, 10.165178, 9.9375, 10.071428, 10.325, 10.321428, 10.383928, 10.3125, 10.125, 9.90625, 9.71875, 9.53125, 9.34375, 9.1875, 9.125, 9, 9, 9, 9, 9, 9, 9, 8.75, 8.5, 8.25, 8, 8.0625, 7.9017859, 7.5678573, 7.4196429, 7.125, 7.25, 7.2946429, 7.25, 7.25, 7.125, 7, 7, 7, 7, 6.875, 7.0535717, 7.4642859, 7.7321429, 8, 8, 8, 8.3809528, 10, 11.059524, 12.116072, 12.854166, 13.195833, -10, -10, -10, -10, -10, -10, 7.25, 7.166667, 7.25, 7.375, 7.7946429, 8.25, 9.1916676, 10.285714, 11.282739, 11.75, 12, 11.741072, 11.4375, 11.25, 11, 11.0625, 10.580357, 9.2380953, 8.3035717, 7.3392859, 7.1473217, 6.96875, 6.9732141, 7, 7, 6.8125, 6.625, 6.625, 6.5625, 6.8125, 7.125, 7.125, 7.2142859, 7.1160717, 6.875, 7, 6.9107141, 7.0267859, 7.0357141, 6.8303571, 6.8303571, 6.8125, 6.875, 6.9375, 7, 7, 7, 7, 7, 7, 7, 7, 7, 7, 7, 6.9375, 6.875, 6.875, 6.875, 6.9375, 7, 7, 7, 7.0625, 7.0625, 6.9196429, 6.6979165, 6.8318453, 7.141964, 7.3229165, 7.9017859, 8.0982141, 8.9642849, 10.741072, 11.464285, 11.9375, 12, 12, 12.125, 12.25, 12.375, 12.4375, 11.75, 9.041667, 8.0357141, 7.3125, 7.0625, 7.0267859, 7, 6.9375, 7.0625, 7.0625, 7.0625, 7.0625, 7, 7, 7, 7, 6.9375, 6.9375, 6.9375, 6.9375, 7, 7, 7, 7, 7, 7, 7, 7, 7, -10, -10, -10, -10, -10, -10, -10, -10, 14, 13.541667, 13.604167, 13.5625, 13.5, 13.580357, 13.6875, 13.8125, 14.357142, 14.3125, 14.5, 14.642857, 15.041666, 15.285714, 15.678572, 15.892858, 15.821428, 15.857142, 16.035715, 16.255102, 16.5, 16.815477, 16.928572, 17.428572, 19.083334, 19.714287, 20.075893, 19.791666, 19.669643, 19.732143, 20.035713, 20.875, 21.214285, 21.5625, 21.8125, 21.9375, 22.1875, 22.5625, 22.821426, 23.15625, 23.642857, 24.133184, 24.328125, 24.421875, 24.265625, 24.0625, 23.830357, 23.142857, 22.383928, 21.875, 21.5625, 21.303572, 21.059525, -10, -10, -10, -10, -10, -10, -10, -10, -10, -10, -10, -10, -10, -10, -10, -10, -10, -10, -10, -10, -10, -10, -10, -10, -10, -10, -10, -10, -10, -10, -10, -10, -10, -10, -10, -10, -10, 60.125, 60.083332, 60.0625, 59.9375, 59.75, 59.324402, 58.961311, 59.190475, 60.011906, 60.357143, 60.583332, -10, -10, -10
47.5, 47.5625, 47.78125, 48.03125, 48.200893, 48.40625, 48.5625, 48.625, 48.75, 48.75, 48.839287, 49.044643, 49.241074, 49.375, 49.40625, 49.59375, 49.75, 49.8125, 50.03125, 50.21875, 50.464287, 50.65625, 50.84375, 50.90625, 50.958332, 12.833333, 12.625, 12.458333, 12.25, 12, 11.9375, 11.9375, 11.875, 11.9375, 11.8125, 11.5625, 11.4375, 11.125, 10.84375, 10.59375, 10.28125, 10.15625, 10, 10.008928, 10.164286, 10.071428, 10.133928, 10.125, 10, 9.875, 9.75, 9.6875, 9.5, 9.3125, 9.1875, 9, 9, 9, 9, 9, 9, 9, 8.75, 8.5, 8.3125, 8.0625, 8.125, 7.9642859, 7.5678573, 7.4196429, 7.1875, 7.375, 7.4196429, 7.375, 7.3125, 7.125, 7, 7, 7, 6.96875, 6.78125, 6.9553571, 7.5267859, 7.7946429, 8.0625, 8, -10, -10, -10, 11.222222, 12.642858, 13.497025, 13.344444, -10, -10, -10, -10, -10, -10, 7.125, 7.0833335, 7.125, 7.3125, 7.6696429, 8.0625, 8.7666674, 9.4285707, 11.199406, 11.714286, 11.9375, 11.678572, 11.375, 11.1875, 11, 11.0625, 10.508928, 8.9047623, 7.9880953, 7.3392859, 7.21875, 7.03125, 6.9375, 6.9375, 6.9375, 6.8125, 6.625, 6.625, 6.625, 6.875, 7.25, 7.375, 7.5, 7.4285717, 7.1875, 7.1875, 7.0625, 7.1875, 7.0982141, 6.8928571, 6.7678571, 6.75, 6.8125, 6.9375, 7.0625, 7.0625, 7.0625, 7, 7, 7, 7, 7, 7.0625, 7.0625, 7.0625, 7.0625, 6.9375, 6.9375, 6.9375, 6.9375, 6.9375, 6.9375, 6.9375, 7, 7.0625, 6.9821429, 6.8229165, 6.9568453, 7.3562498, 7.5729165, 8.1517859, 8.4732141, 9.1964283, 10.574406, 11.294643, 11.794643, 11.9375, 12, 12.0625, 12.125, 12.1875, 12.044643, 11.244898, 8.791667, 7.8125, 7.25, 7.0625, 7.0625, 7.0625, 7, 7.0625, 7.125, 7.1875, 7.1875, 7.1875, 7.1875, 7.1875, 7.1875, 7.0625, 7.0625, 7.0625, 7.0625, 7.125, 7.0625, 7.0625, 7.0625, 7.0625, 7.0625, 7, 7, 7, -10, -10, -10, -10, -10, -10, -10, -10, 13.75, 13.75, 13.8125, 13.8125, 13.8125, 13.955357, 14.1875, 14.375, 14.75, 14.875, 15.0625, 15.3125, 16.011904, 16.32653, 16.535715, 16.75, 16.607143, 16.714285, 16.892857, 17.005102, 16.9375, 17.125, 17.333334, 17.82143, 19.208334, 19.758926, 20.107143, 19.916666, 19.919643, 20.107143, 20.392857, 20.875, 21.205357, 21.5, 21.875, 22.125, 22.375, 22.75, 22.946426, 23.21875, 23.580357, 23.963541, 24.140625, 24.234375, 24.069197, 23.75, 23.6875, 23.267857, 22.651787, 22.1875, 21.6875, 21.392857, 21.25, -10, -10, -10, -10, -10, -10, -10, -10, -10, -10, -10, -10, -10, -10, -10, -10, -10, -10, -10, -10, -10, -10, -10, -10, -10, -10, -10, -10, -10, -10, -10, -10, -10, -10, -10, -10, -10, 60.166668, 60.083332, 60.0625, 59.9375, 59.75, 59.324402, 58.961311, 59.252975, 60.199406, 60.714287, 61, -10, -10, -10, -10, -10, -10, -10, -10, -10, -10, -10, -10, -10, -10, -10, -10, -10, -10, -10, -10, -10, -10, -10, -10, -10, -10, -10, -10, -10, -10, -10, -10, -10, -10, -10, 45, 45.083336, 44.857143, 44.764286, 45.044643, 45.224998, 45.529762, 45.785717, 45.982143, 46.129463, 46.209824, 46.53125, 46.700893, 46.794643, 46.705357, 46.75, 46.875, 47.165176, 47.538391, 47.510418, 47.84375, 47.803574, 48, 48.03125, 48.125, 48.375, 48.517857, 48.65625, 48.75, 48.75, 48.875, 49.0625, 49.1875, 49.3125, 49.5625, 49.732143, 49.84375, 49.96875, 50.09375, 50.21875, 50.410713, 50.5625, 50.669643, 50.71875, 50.84375, 50.90625, 50.958332, 12.875, 12.666667, 12.5, 12.25, 12, 11.9375, 11.9375, 11.875, 11.9375, 11.875, 11.625, 11.5, 11.1875, 10.84375, 10.65625, 10.40625, 10.34375, 10.25, 10.196428, 10.226786, 10.008928, 10.008928, 10, 9.9375, 9.8125, 9.75, 9.625, 9.4375, 9.375, 9.1875, 9.0625, 9.0625, 9, 9, 9, 8.9375, 8.9375, 8.75, 8.5, 8.375, 8.125, 8.125, 8.0357141, 7.7678571, 7.5625, 7.4375, 7.5, 7.4821429, 7.375, 7.25, 7.0625, 7, 7, 7, 6.90625, 6.8080359, 7.1696429, 7.6696429, 7.9285717, 8.125, 8, -10, -10, -10, -10, 13.333334, 14.12619, 8.4000006, 7.0333333, 8.083333, -10, -10, -10, -10, 7, 7, 7, 7.1875, 7.4375, 7.75, 8.3374996, 8.9183674, 10.928572, 11.571428, 11.9375, 11.678572, 11.3125, 11.125, 10.9375, 10.857143, 10.129251, 8.2261906, 7.5714283, 7.125, 7.125, 7, 6.9375, 6.9375, 6.9375, 6.875, 6.75, 6.75, 6.875, 7.125, 7.4375, 7.5625, 7.5625, 7.4285717, 7.25, 7.3125, 7.25, 7.3125, 7.1875, 7.1428571, 7.208333, 7.2321429, 7.25, 7.25, 7.3125, 7.375, 7.3125, 7.0416665, 6.9285717, 6.875, 6.9375, 7, 7.1875, 7.1875, 7.25, 7.1875, 7, 7, 6.9375, 6.9375, 6.9375, 6.9375, 6.9375, 6.9375, 6.9375, 6.875, 6.96875, 7.1651783, 7.5437498, 7.6979165, 8.1785717, 8.6428576, 9.3035717, 10.345239, 11.116072, 11.651786, 11.875, 12, 12, 12, 12, 11.714286, 9.9206352, 8.6428566, 7.8125, 7.375, 7.1875, 7.0625, 7, 6.9375, 7, 7.125, 7.1875, 7.125, 7.125, 7.125, 7.1875, 7.25, 7.125, 7.1875, 7.1875, 7.1875, 7.25, 7.125, 7.125, 7.125, 7.125, 7.125, 7, 7, 7, -10, -10, -10, -10, -10, -10, -10, -10, 13.6875, 13.875, 13.96875, 14.0625, 14.125, 14.1875, 14.28125, 14.46875, 14.803572, 15.133928, 15.357143, 15.625, 16.041666, 16.330357, 16.822916, 17.098213, 17.09375, 17.1875, 17.375, 17.410713, 17.464287, 17.625, 17.895834, 18.339287, 19.395834, 19.86607, 20.044643, 19.880953, 20.089285, 20.482143, 20.776787, 20.9375, 21.1875, 21.375, 21.8125, 22.0625, 22.339287, 22.794643, 22.92857, 23.09375, 23.348213, 23.796875, 24.006697, 24.171875, 23.935268, 23.5, 23.40625, 22.96875, 22.745537, 22.299107, 21.875, 21.580357, 21.416668, -10, -10, -10, -10, -10, -10, -10, -10, -10, -10, -10, -10, -10, -10, -10, -10, -10, -10, -10, -10, -10, -10, -10, -10, -10, -10, -10, -10, -10, -10, -10, -10, -10, -10, -10, -10, -10, -10, 60.083332, 60.0625, 59.8125, 59.625, 59.491074, 59.229168, 59.583332, 60.282742, 60.714287, 60.916668, -10, -10, -10
48.625, 48.5, 48.4375, 48.625, 48.830357, 49.107143, 49.1875, 49.125, 49.0625, 49.125, 49.1875, 49.375, 49.75, 50.089287, 50.28125, 50.40625, 50.53125, 50.566963, 50.625, 50.8125, 50.919643, 51.0625, 51.1875, 51.1875, 51.166668, 13, 12.750001, 12.5625, 12.3125, 12, 11.9375, 11.9375, 11.875, 11.9375, 11.9375, 11.75, 11.625, 11.3125, 10.875, 10.651786, 10.5, 10.5, 10.5, 10.375, 10.214286, 10.0625, 10, 10, 10, 9.875, 9.8125, 9.75, 9.5625, 9.5625, 9.375, 9.1875, 9.125, 9, 9, 9, 8.9375, 8.875, 8.75, 8.5, 8.375, 8.1875, 8.0625, 8, 7.875, 7.8125, 7.75, 7.75, 7.625, 7.4375, 7.25, 7.0625, 7, 7, 7, 6.90625, 6.8705359, 7.2946429, 7.8303576, 8.0535717, 8.1875, 8, -10, -10, -10, -10, 12.222222, 13.447618, 12.902857, 7.2126985, 8.9250002, -10, -10, -10, -10, 7.25, 7.1666665, 7.125, 7.25, 7.4375, 7.6875, 7.9375, 8.5714283, 10.666667, 11.428572, 11.9375, 11.678572, 11.3625, 11.232143, 11, 10.785715, 9.0317459, 7.9523807, 7.2857141, 7, 7, 7, 7.0625, 7.0625, 7.0625, 7, 6.875, 6.875, 7.0625, 7.3125, 7.5, 7.625, 7.5625, 7.4285717, 7.375, 7.5, 7.5, 7.5625, 7.4375, 7.3928571, 7.458333, 7.4196429, 7.375, 7.3839283, 7.645833, 7.8035717, 7.8125, 7.4702377, 7.0952382, 6.9464283, 7, 7.125, 7.375, 7.5, 7.5625, 7.5, 7.3125, 7.25, 7.1875, 7.125, 7.0625, 7, 6.9375, 6.9375, 7, 7, 7.21875, 7.46875, 7.71875, 7.90625, 8.0892859, 8.5446434, 9.2321434, 10.044643, 10.830357, 11.401786, 11.75, 11.9375, 12, 12, 12, 11.571428, 9.5374146, 8.4642859, 7.6875, 7.375, 7.1875, 7.0625, 7, 6.9375, 7, 7.1875, 7.3125, 7.2410717, 7.125, 7.125, 7.125, 7.25, 7.125, 7.1875, 7.1875, 7.1875, 7.25, 7.125, 7.125, 7.125, 7.125, 7.125, 7, 7, 7.0625, -10, -10, -10, -10, -10, -10, -10, -10, 13.6875, 13.958333, 14.09375, 14.25, 14.375, 14.4375, 14.53125, 14.65625, 14.866072, 15.160714, 15.5, 15.875, 16.354166, 16.642857, 17.041666, 17.254463, 17.321428, 17.53125, 17.65625, 17.75, 17.776787, 18, 18.458334, 19.061224, 19.5, 19.830357, 19.875, 19.901787, 20.196428, 20.723215, 21.026787, 21.125, 21.375, 21.5, 21.875, 22.1875, 22.401787, 22.794643, 22.892857, 23.0625, 23.285713, 23.6875, 23.897322, 24.03125, 23.745537, 23.25, 23.15625, 22.71875, 22.620537, 22.21875, 21.875, 21.74107, 21.583334, -10, -10, -10, -10, -10, -10, -10, -10, -10, -10, -10, -10, -10, -10, -10, -10, -10, -10, -10, -10, -10, -10, -10, -10, -10, -10, -10, -10, -10, -10, -10, -10, -10, -10, -10, -10, -10, -10, 60.083332, 60.0625, 59.78125, 59.53125, 59.40625, 59.40625, 59.75, 60.303574, 60.714287, 60.833336, -10, -10, -10, -10, -10, -10, -10, -10, -10, -10, -10, -10, -10, -10, -10, -10, -10, -10, -10, -10, -10, -10, -10, -10, -10, -10, -10, -10, -10, -10, -10, -10, -10, -10, -10, 45.5, 45.666668, 45.669643, 45.933929, 46.419643, 46.689285, 46.633926, 46.598213, 46.5625, 46.660713, 46.741074, 47.125, 47.357143, 47.348213, 47.142857, 47.03125, 47.09375, 47.491074, 48.026787, 48.352676, 48.864582, 48.919643, 49, 48.8125, 48.758926, 49.208332, 49.4375, 49.669643, 49.5625, 49.104168, 49.104168, 49.42857, 49.602043, 49.92857, 50.306122, 50.732143, 50.821426, 50.8125, 50.875, 50.973213, 51.0625, 51.1875, 51.25, 51.3125, 51.375, 51.4375, 51.222225, 13, 12.687501, 12.5, 12.25, 11.9375, 11.9375, 11.9375, 11.875, 11.875, 11.8125, 11.625, 11.5, 11.3125, 11, 10.839286, 10.75, 10.75, 10.8125, 10.75, 10.526786, 10.3125, 10.125, 10, 9.9375, 9.75, 9.625, 9.5625, 9.5, 9.625, 9.5, 9.3125, 9.1875, 9, 9, 9, 8.9375, 8.875, 8.75, 8.5, 8.4375, 8.3125, 8.1875, 8.1875, 8.0625, 8, 8, 8, 7.875, 7.625, 7.375, 7.125, 7, 7, 7, 6.96875, 7.0580359, 7.5178576, 7.9732141, 8.125, 8.1875, 8, -10, -10, -10, -10, 10.311111, 10.233334, 8.2612247, 7.3470235, 8.0928574, -10, -10, -10, -10, 7.5, 7.4166665, 7.375, 7.5, 7.625, 7.8125, 8, 8.5714283, 10.666667, 11.428572, 11.9375, 11.669643, 11.2875, 11.348215, 11.178572, 10.973215, 9.1269836, 7.9940472, 7.2857141, 7, 7, 7.0625, 7.125, 7.1875, 7.1875, 7.125, 7.125, 7.125, 7.375, 7.6875, 7.75, 7.75, 7.5178571, 7.3125, 7.375, 7.5, 7.625, 7.6875, 7.625, 7.6428571, 7.708333, 7.6696429, 7.625, 7.6964283, 7.958333, 8.1785717, 8.1696434, 7.6130953, 7.2380948, 7.0714283, 7.1875, 7.375, 7.6875, 7.875, 8, 7.9375, 7.75, 7.625, 7.5, 7.4375, 7.3125, 7.25, 7.1875, 7.1875, 7.25, 7.25, 7.4375, 7.6875, 7.875, 8, 8.1517859, 8.4821434, 8.9910717, 9.7232141, 10.639881, 11.285715, 11.6875, 11.875, 12, 12, 12, 11.428572, 9.249999, 8.2857141, 7.5625, 7.3125, 7.125, 7, 7, 7, 7.0625, 7.25, 7.375, 7.3660717, 7.25, 7.25, 7.1875, 7.25, 7.1875, 7.25, 7.25, 7.25, 7.25, 7.125, 7.125, 7.125, 7.125, 7.125, 7, 7, 7.125, 7.541667, -10, -10, -10, -10, -10, -10, -10, 13.8125, 14.125, 14.34375, 14.625, 14.75, 14.8125, 14.71875, 14.65625, 14.678572, 14.848214, 15.294643, 15.982143, 16.330357, 16.607143, 17.010416, 17.285713, 17.477678, 17.78125, 17.90625, 18, 18.089287, 18.375, 18.927084, 19.34375, 19.65625, 19.90625, 19.875, 19.964287, 20.263393, 20.709822, 21.004463, 21.09375, 21.3125, 21.446428, 21.875, 22.1875, 22.464287, 22.732143, 22.857143, 23, 23.205357, 23.520834, 23.741072, 23.875, 23.714287, 23.285713, 23.21875, 22.763393, 22.625, 22.1875, 21.90625, 21.848213, 21.75, -10, -10, -10, -10, -10, -10, -10, -10, -10, -10, -10, -10, -10, -10, -10, -10, -10, -10, -10, -10, -10, -10, -10, -10, -10, -10, -10, -10, -10, -10, -10, -10, -10, -10, -10, -10, -10, -10, 60, 60, 59.84375, 59.59375, 59.46875, 59.4375, 59.65625, 60.03125, 60.325893, 60.416668, -10, -10, -10
49.1875, 49, 48.955357, 49.541664, 49.758926, 49.982143, 49.875, 49.297619, 49.541668, 50.285713, 50.738098, 51.083332, 51.047619, 50.825893, 50.946426, 50.973213, 51.125, 51.285713, 51.375, 51.4375, 51.349998, 51.5625, 51.553574, 51.6875, 13, 13, 12.770834, 12.625, 12.375, 12.0625, 12, 11.875, 11.8125, 11.75, 11.625, 11.5, 11.375, 11.25, 11.0625, 10.964286, 10.9375, 10.9375, 11, 11, 10.75, 10.5, 10.25, 10, 10, 9.8125, 9.6875, 9.625, 9.5, 9.6875, 9.5625, 9.375, 9.25, 9, 9, 9, 8.875, 8.75, 8.625, 8.375, 8.375, 8.375, 8.25, 8.25, 8.125, 8, 8, 8, 7.9375, 7.75, 7.5, 7.25, 7.0625, 7, 7.0625, 7.125, 7.3392859, 7.8035717, 8.0357141, 8.125, 8.125, 8, 8, 8, 8.0625, 8.3303566, 9.0880957, 9.0214291, 8.9040823, 7.7470236, 8.3785715, 8, 8, 8, 8, 7.75, 7.6666665, 7.625, 7.75, 7.9375, 8.3035717, 8.3469391, 8.9183674, 10.875001, 11.508928, 11.9375, 11.607143, 11.225, 11.455357, 11.285714, 11.098215, 10.063492, 8.0773811, 7.4285717, 7.1875, 7.1875, 7.3125, 7.375, 7.4375, 7.4375, 7.375, 7.375, 7.375, 7.625, 7.9375, 8, 7.9375, 7.5803571, 7.2053571, 7.1875, 7.25, 7.5, 7.6875, 7.75, 7.8928571, 8.020833, 7.9821429, 7.9375, 7.9464283, 8.145833, 8.3660717, 8.2946434, 7.7380953, 7.3005948, 7.1026783, 7.28125, 7.59375, 7.96875, 8.25, 8.4375, 8.3125, 8.125, 8, 7.8125, 7.75, 7.6875, 7.5625, 7.5, 7.5, 7.5, 7.5, 7.6875, 7.9375, 8.0625, 8.125, 8.2142859, 8.4910717, 9.1994047, 9.9017859, 10.639881, 11.142857, 11.607143, 11.803572, 12, 12, 12, 11.464287, 9.416666, 8.5, 7.8125, 7.5, 7.25, 7.125, 7.125, 7.1875, 7.3125, 7.4375, 7.4375, 7.4285717, 7.25, 7.25, 7.1875, 7.1875, 7.125, 7.1875, 7.25, 7.3125, 7.375, 7.3125, 7.3125, 7.375, 7.4375, 7.5, 7.4375, 7.375, 7.46875, 7.75, 8.1999998, -10, -10, -10, -10, -10, -10, 14.428572, 14.854167, 14.96875, 15.1875, 15.25, 15.1875, 14.90625, 14.611607, 14.491072, 14.642858, 15.357143, 16.017857, 16.299107, 16.450893, 16.854166, 17.129463, 17.522322, 17.90625, 18.09375, 18.3125, 18.464287, 18.732143, 19.165178, 19.677084, 19.888393, 20.15625, 20, 19.964287, 20.263393, 20.647322, 20.941963, 21.09375, 21.25, 21.392857, 21.958334, 22.241072, 22.526787, 22.732143, 22.857143, 22.9375, 23.142857, 23.458334, 23.709822, 23.9375, 23.910715, 23.660713, 23.5625, 23.138393, 22.8125, 22.267857, 22.09375, 22.056549, 21.888887, -10, -10, -10, -10, -10, -10, -10, -10, -10, -10, -10, -10, -10, -10, -10, -10, -10, -10, -10, -10, -10, -10, -10, -10, -10, -10, -10, -10, -10, -10, -10, -10, -10, -10, -10, -10, -10, 60, 60, 60, 59.90625, 59.71875, 59.59375, 59.5625, 59.65625, 59.84375, 59.96875, 60, -10, -10, -10, -10, -10, -10, -10, -10, -10, -10, -10, -10, -10, -10, -10, -10, -10, -10, -10, -10, -10, -10, -10, -10, -10, -10, -10, -10, -10, -10, -10, -10, -10, -10, -10, -10, 46.904758, 46.674999, 46.586311, 46.8125, 47.306545, 47.49107, 47.50893, 47.424999, 47.544643, 47.5625, 47.8125, 48, 48.098213, 48.1875, 48.28125, 48.46875, 48.772324, 49.013393, 49.196426, 49.458332, 49.482143, 49.428574, 48.979168, 48.839287, 49.398808, 49.973213, 50.3125, 50.3125, 50.166668, 50.041668, 50.785713, 51.025513, 51.285713, 51.004463, 51.03125, 51.133926, 51.223213, 51.508926, 51.785713, 51.776787, 51.839287, 51.662498, 51.875, 51.866074, 51.9375, 13, 12.916667, 12.729167, 12.5625, 12.3125, 12.0625, 12, 11.875, 11.8125, 11.75, 11.625, 11.5625, 11.4375, 11.3125, 11.125, 10.964286, 10.9375, 10.9375, 11, 11, 10.75, 10.5, 10.25, 10, 10, 9.875, 9.75, 9.75, 9.6875, 9.8125, 9.75, 9.5625, 9.375, 9.125, 9.0625, 9, 8.9375, 8.75, 8.5625, 8.3125, 8.3125, 8.4375, 8.4375, 8.5, 8.375, 8.25, 8.25, 8.25, 8.25, 8.0625, 7.8125, 7.5625, 7.375, 7.375, 7.5, 7.625, 7.75, 8, 8.0982141, 8.125, 8.125, 8.0625, 8.083333, 8.083333, 8.2321424, 8.6646814, 8.9223213, 8.59375, 8.3839283, 8.0303574, 8.3416672, 8, 8.0952377, 8, 8.083333, 8.125, 8.104167, 8.125, 8.1875, 8.375, 8.8035717, 9.6190481, 10.190475, 11.083334, 11.589287, 11.875, 11.482143, 11.064286, 11.392857, 11.392857, 11.366072, 10.64966, 8.6190481, 7.9591837, 7.7874999, 7.6428571, 7.9196429, 7.9375, 7.9375, 7.9732141, 7.9375, 8.0625, 8.0625, 8.3125, 8.5625, 8.5625, 8.4375, 8.0803566, 7.7053571, 7.625, 7.4285712, 7.8125, 8, 8.125, 8.25, 8.1875, 8.125, 8.0625, 8.1339283, 8.333333, 8.5178576, 8.5803576, 8.1964283, 7.7465982, 7.7276783, 7.84375, 8.09375, 8.34375, 8.625, 8.75, 8.625, 8.5267859, 8.5446434, 8.4196434, 8.375, 8.3125, 8.1875, 8.125, 8.125, 8.0625, 8, 8.125, 8.3125, 8.4375, 8.5, 8.625, 8.8214283, 9.4494047, 10.297619, 10.794643, 11.085714, 11.598214, 11.732143, 12, 12, 12, 11.535715, 9.666666, 8.7857141, 8.125, 7.75, 7.5625, 7.5625, 7.625, 7.75, 7.8125, 7.875, 7.8125, 7.8035717, 7.6875, 7.6875, 7.625, 7.5625, 7.4375, 7.4375, 7.4375, 7.5625, 7.6875, 7.6875, 7.75, 7.8125, 7.875, 8, 8.0625, 8, 8.09375, 8.145833, -10, -10, -10, -10, -10, 17, 16.690475, 15.583333, 15.3125, 15.3125, 15.5625, 15.625, 15.5625, 15.3125, 15.017857, 14.84375, 14.915179, 15.65625, 16.361607, 16.736607, 16.84375, 17, 17.21875, 17.553572, 17.9375, 18.0625, 18.375, 18.535713, 18.6875, 19.058035, 19.635418, 19.879465, 20.21875, 20.1875, 20.125, 20.34375, 20.584822, 20.816963, 21.03125, 21.1875, 21.392857, 21.958334, 22.366072, 22.6875, 22.8125, 23, 23.0625, 23.3125, 23.5, 23.78125, 24.03125, 24.075893, 24.004463, 23.875, 23.482143, 23.09375, 22.611607, 22.40625, 22.158731, -10, -10, -10, -10, -10, -10, -10, -10, -10, -10, -10, -10, -10, -10, -10, -10, -10, -10, -10, -10, -10, -10, -10, -10, -10, -10, -10, -10, -10, -10, -10, -10, -10, -10, -10, -10, -10, -10, 60, 60, 60, 59.96875, 59.84375, 59.71875, 59.6875, 59.71875, 59.84375, 59.96875, 60, -10, -10, -10
49.428574, 49.104168, 49.214287, 49.802715, 50.473213, 50.705357, 50.6875, 50.595242, 50.541668, 51.25, 51.700897, 51.927082, 51.525295, 51.28125, 51.258926, 51.348213, 51.696426, 52.0625, 52.125, 52.151787, 51.912498, 52, 51.928574, 52, 13, 12.916667, 12.75, 12.5625, 12.3125, 12.0625, 12, 11.875, 11.8125, 11.75, 11.625, 11.5, 11.375, 11.25, 11.125, 11.0625, 11, 11, 11, 11, 10.75, 10.5, 10.25, 10, 10, 9.9375, 9.875, 9.875, 9.8125, 9.875, 9.8125, 9.6875, 9.5, 9.25, 9.1875, 9.125, 9.125, 9.0625, 8.875, 8.625, 8.6875, 8.875, 9.0446434, 9.125, 8.9375, 8.6428566, 8.5625, 8.5, 8.5, 8.375, 8.1875, 8, 7.875, 7.9375, 8.1875, 8.4821434, 8.5089283, 8.4624996, 8.479167, 8.1339283, 8.1339283, 8.125, 8.125, 8.2053566, 8.53125, 8.927083, 9.1723213, 9.25, 8.9553566, 8.6999998, 8.916667, 8.3571424, 8.4387751, 8.3214283, 8.5625, 8.5625, 8.625, 8.6875, 8.75, 9, 9.4285717, 10.102041, 10.653061, 11.291667, 11.669643, 11.875, 11.553572, 11.264286, 11.535714, 11.580357, 11.5625, 11.026786, 10.063492, 9.5476189, 8.8285713, 9.208333, 8.8724489, 8.75, 8.8125, 8.9107141, 8.9375, 9.2857141, 9.2857141, 9.4642859, 9.375, 9.3125, 9.0625, 8.7053566, 8.3928566, 8.5, 8.833333, 8.5, 8.625, 8.6875, 8.75, 8.75, 8.75, 8.75, 8.8125, 8.75, 8.9017859, 8.8928576, 8.5178566, 8.5765305, 8.28125, 8.46875, 8.8258934, 9.03125, 9.1875, 9.25, 9.0625, 8.9642859, 9.0446434, 8.9196434, 8.9375, 8.9375, 8.875, 8.875, 8.8125, 8.6875, 8.5625, 8.625, 8.8125, 9, 9.125, 9.25, 9.3839283, 9.8422613, 10.70238, 11.116072, 11.335714, 11.723214, 11.794643, 12, 12, 12, 11.616072, 10.145833, 9.3571434, 8.8125, 8.5, 8.375, 8.375, 8.4375, 8.5625, 8.625, 8.3928576, 8.25, 8.1785717, 8.4017859, 8.375, 8.375, 8.375, 8.25, 8.25, 7.9642859, 8.3125, 8.4375, 8.4375, 8.7142859, 8.7857141, 8.8571424, 9, 9.1428576, 9.1428576, 9.1224489, 8.8125, -10, -10, -10, -10, 17, 17, 16.710318, 15.875, 15.791667, 15.758928, 16.208334, 16.303572, 16.241072, 15.729166, 15.339285, 15.15625, 15.443878, 16.096939, 16.486607, 16.799107, 16.84375, 16.96875, 17.28125, 17.607143, 17.875, 18.0625, 18.3125, 18.535713, 18.625, 18.95982, 19.617561, 19.870537, 20.28125, 20.375, 20.3125, 20.53125, 20.59375, 20.71875, 21.03125, 21.1875, 21.455357, 22.020834, 22.366072, 22.6875, 22.8125, 23, 23, 23.25, 23.5625, 23.950893, 24.21875, 24.34375, 24.316963, 24.125, 23.794643, 23.34375, 22.861607, 22.606251, -10, -10, -10, -10, -10, -10, -10, -10, -10, -10, -10, -10, -10, -10, -10, -10, -10, -10, -10, -10, -10, -10, -10, -10, -10, -10, -10, -10, -10, -10, -10, -10, -10, -10, -10, -10, -10, -10, -10, -10, -10, 60, 60, 59.9375, 59.875, 59.84375, 59.78125, 59.84375, 59.96875, 60.049999, -10, -10, -10, -10, -10, -10, -10, -10, -10, -10, -10, -10, -10, -10, -10, -10, -10, -10, -10, -10, -10, -10, -10, -10, -10, -10, -10, -10, -10, -10, -10, -10, -10, -10, -10, -10, 47.5, 47.383331, 47.041668, 47.25, 47.770832, 48.17857, 48.419647, 48.261311, 48.294643, 48.041668, 48.258926, 48.4375, 48.625, 48.9375, 49.1875, 49.40625, 49.5625, 49.5625, 49.5625, 49.46875, 49.625, 49.886902, 49.625, 49.642857, 50.207481, 50.428574, 50.642857, 50.794643, 51.1875, 51.321426, 51.625, 51.834824, 51.802082, 51.427082, 51.388393, 51.587502, 51.669643, 52.133926, 52.3125, 52.3125, 52.214287, 51.912498, 52, 51.928574, 52, 13, 12.916667, 12.8125, 12.625, 12.375, 12.1875, 12.0625, 11.9375, 11.9375, 11.875, 11.8125, 11.6875, 11.5625, 11.375, 11.1875, 11.125, 11, 11, 11, 11, 10.75, 10.5625, 10.3125, 10.0625, 10.125, 10.125, 10.1875, 10.25, 10.1875, 10.15625, 10.03125, 9.9910717, 9.895833, 9.6428566, 9.6875, 9.5625, 9.625, 9.5625, 9.4375, 9.25, 9.3125, 9.5, 9.6696434, 9.9285717, 9.8928576, 9.4553566, 9.1071424, 9.0357141, 9, 8.9285717, 8.7857141, 8.6428576, 8.6071424, 9, 9.333333, 9.908164, 9.9030609, 9.2285719, 9.229167, 8.5089283, 8.2410717, 8.1875, 8.1875, 8.3482141, 8.8883934, 9.3556547, 9.6473217, 9.78125, 9.7053566, 9.7285709, 9.9404764, 9.8888893, 9.3214283, 9.125, 9.2142859, 9.2124996, 9.4250002, 9.3660717, 9.4285717, 9.625, 10.116072, 10.589286, 11.125, 11.5625, 11.8125, 11.875, 11.625, 11.464286, 11.544643, 11.526786, 11.4375, 11.026786, 10.554421, 10.244898, 9.8642864, 10.035714, 9.8367357, 9.8571424, 9.8571424, 9.969388, 10.071428, 10.285714, 10.357142, 10.464286, 10.428572, 10.0625, 9.8125, 9.625, 9.6530609, 9.6785717, 9.7857141, 9.75, 9.7142859, 9.6785717, 9.6428576, 9.6428576, 9.7142859, 9.7142859, 9.7142859, 9.6428576, 9.7448978, 9.7908163, 9.6428576, 9.5561218, 9.4464283, 9.5535717, 9.8188782, 9.9107141, 9.8125, 9.75, 9.5, 9.4017859, 9.4821434, 9.4196434, 9.4375, 9.5, 9.7142859, 9.7857141, 9.5625, 9.4375, 9.1071424, 9.2142859, 9.3928576, 9.6428576, 10, 10, 10.071428, 10.467261, 11.220238, 11.386905, 11.514286, 11.785714, 11.857143, 12, 12, 12, 11.696428, 10.6875, 10.098215, 9.8928576, 9.6785717, 9.6428576, 9.6428576, 9.6428576, 9.75, 9.7857141, 10.041667, 9.958333, 9.75, 9.4948978, 9.4642859, 9.5357141, 9.6428576, 9.5357141, 9.5357141, 9.791667, 9.6785717, 9.7857141, 9.7857141, 9.8214283, 9.65625, 9.71875, 9.84375, 9.9375, 10.071428, 9.9515314, 9.375, -10, -10, -10, -10, 17, 17, 16.782738, 16.5, 16.375, 16.258928, 16.520834, 16.553572, 16.491072, 16.166666, 15.922619, 15.635416, 15.763393, 16.21875, 16.486607, 16.6875, 16.6875, 16.8125, 17.125, 17.482143, 17.75, 18, 18.3125, 18.535713, 18.625, 18.92857, 19.586311, 19.901787, 20.419643, 20.5625, 20.5625, 20.75, 20.75, 20.8125, 21.0625, 21.25, 21.540178, 22.020834, 22.428572, 22.6875, 22.84375, 23, 23, 23.1875, 23.508928, 24.159227, 24.388393, 24.46875, 24.40625, 24.1875, 23.9375, 23.517857, 23.049107, 22.783333, -10, -10, -10, -10, -10, -10, -10, -10, -10, -10, -10, -10, -10, -10, -10, -10, -10, -10, -10, -10, -10, -10, -10, -10, -10, -10, -10, -10, -10, -10, -10, -10, -10, -10, -10, -10, -10, -10, -10, -10, -10, 60, 60, 60, 60.0625, 60.0625, 60, 60, 59.9375, 59.966667, -10, -10, -10
50.386902, 50.333332, 50.32653, 50.433674, 50.5625, 50.830357, 51.044643, 51.46875, 51.633926, 51.75, 51.928574, 51.958332, 51.752975, 51.919643, 52.150002, 52.196426, 52.508926, 52.5, 52.3125, 52.120537, 51.96875, 51.90625, 51.958332, 52, 12.916667, 12.854167, 12.75, 12.5, 12.3125, 12.125, 12, 12, 12, 12, 12, 11.875, 11.875, 11.660714, 11.330357, 11.196428, 11.0625, 11.125, 11.1875, 11.25, 11.0625, 10.9375, 10.75, 10.5625, 10.5625, 10.5625, 10.625, 10.6875, 10.75, 10.71875, 10.71875, 10.741072, 10.645833, 10.455357, 10.4375, 10.3125, 10.642858, 10.678572, 10.642858, 10.535714, 10.535714, 10.642858, 10.801021, 10.857142, 10.857142, 10.663264, 10.708333, 10.666667, 10.583333, 10.541667, 10.583333, 10.625, 10.708333, 10.875, 11.083333, 11.086736, 11.153061, 11.316667, 10.756804, 9.3979588, 9.1530609, 9.1428576, 9.1428576, 9.2551022, 9.783164, 10.156463, 10.418367, 10.75, 10.642857, 10.757143, 10.697917, 10.761905, -10, -10, 9.8125, 10.571428, 10.827551, 10.275511, 10.239797, 10.285714, 10.6875, 10.946428, 11.410714, 11.6875, 11.9375, 11.9375, 11.875, 11.776786, 11.75, 11.732143, 11.5625, 11.3125, 11.151786, 10.875, 10.4625, 10.669643, 10.419643, 10.5625, 10.785714, 10.723214, 10.875, 11.125, 11.1875, 11.25, 11.125, 10.875, 10.625, 10.75, 10.714286, 10.714286, 10.857142, 10.785714, 10.5, 10.5, 10.4375, 10.4375, 10.714286, 10.714286, 10.714286, 10.678572, 10.765306, 10.535714, 10.642858, 10.3125, 10.204082, 10.321428, 10.443878, 10.535714, 10.571428, 10.321428, 10.395833, 10.091837, 10.193878, 10.158164, 10.178572, 10.473214, 10.392857, 10.383928, 10.375, 10.3125, 10.708333, 10.875, 11, 11.25, 11.035714, 11, 10.8125, 10.883928, 11.541666, 11.699405, 11.8, 11.928572, 11.928572, 12, 12, 12, 11.741072, 11.235119, 10.919643, 10.625, 10.821428, 10.75, 10.678572, 10.678572, 10.785714, 10.943878, 11.015306, 10.914286, 10.882653, 10.724489, 10.785714, 10.75, 10.75, 10.714286, 10.755102, 10.75, 10.857142, 10.821428, 10.821428, 10.821428, 10.821428, 10.892858, 11, 10.875, 10.875, 10.723215, 10.095238, -10, -10, -10, -10, 16.666668, 16.857143, 16.866072, 16.625, 16.5625, 16.571428, 16.806547, 16.732143, 16.772322, 16.479166, 16.373016, 16.097221, 16.21875, 16.260416, 16.375, 16.46875, 16.59375, 16.78125, 17.03125, 17.339287, 17.607143, 17.803572, 18.1875, 18.410713, 18.5625, 18.919643, 19.377977, 19.794643, 20.357143, 20.625, 20.75, 20.8125, 20.8125, 20.8125, 21, 21.3125, 21.609375, 21.90625, 22.34375, 22.59375, 22.796875, 23, 23, 23.1875, 23.508928, 24.127977, 24.325893, 24.34375, 24.28125, 24.022322, 23.604166, 23.348213, 23.03125, 22.825001, -10, -10, -10, -10, -10, -10, -10, -10, -10, -10, -10, -10, -10, -10, -10, -10, -10, -10, -10, -10, -10, -10, -10, -10, -10, -10, -10, -10, -10, -10, -10, -10, -10, -10, -10, -10, -10, -10, -10, -10, -10, 60, 60, 60, 60.0625, 60.0625, 60.0625, 60.0625, 59.9375, 59.916668, -10, -10, -10, -10, -10, -10, -10, -10, -10, -10, -10, -10, -10, -10, -10, -10, -10, -10, -10, -10, -10, -10, -10, -10, -10, -10, -10, -10, -10, -10, -10, -10, -10, -10, -10, -10, 47.3125, 47.541664, 47.714287, 48.25, 48.616074, 48.75, 48.883926, 48.836311, 48.642857, 48.684525, 48.758926, 49.035713, 49.1875, 49.4375, 49.6875, 49.96875, 50.169643, 50.3125, 50.520832, 50.46875, 50.5625, 50.708332, 50.708332, 50.75, 50.825893, 50.875, 51.0625, 51.232143, 51.71875, 51.946426, 52.125, 52.366074, 52.458332, 52.252975, 52.357143, 52.671429, 52.446426, 52.5625, 52.3125, 52.15625, 51.96875, 51.90625, 51.90625, 51.979164, 13, 12.833334, 12.875, 12.8125, 12.6875, 12.598214, 12.267857, 12.071428, 12, 12, 12, 12.0625, 12.0625, 12.223214, 12.098214, 11.830357, 11.758928, 11.392858, 11.5, 11.794643, 11.642857, 11.446428, 11.383928, 11.520833, 11.663264, 11.678572, 11.607142, 11.607142, 11.642858, 11.714286, 11.678572, 11.607142, 11.632653, 11.630952, 11.520408, 11.642858, 11.571428, 11.75, 11.785714, 11.714286, 11.637755, 11.607142, 11.714286, 11.669643, 11.6875, 11.6875, 11.724489, 11.678572, 11.714286, 11.375, 11.416667, 11.5, 11.928572, 11.928572, 11.964286, 12.035714, 11.857143, 12.183673, 12.322449, 12.387755, 12.535714, 12.5, 12.416667, 12.333333, 12.190475, 12.351192, 12.285714, 12.25, 12, 11.666667, 11.75, 11.78125, 11.75, -10, -10, 10.416667, 11.278571, 11.613265, 11.994048, 12.136905, 12.166667, 11.6875, 11.776786, 12.098214, 12.1875, 12.4375, 12.357143, 12.276786, 12.3125, 12.1875, 12.125, 11.9375, 11.8125, 11.8125, 11.454082, 11.271429, 11.336736, 11.214286, 11.428572, 11.5, 11.642858, 12, 12.0625, 12.0625, 12, 11.875, 11.6875, 11.714286, 11.75, 11.821428, 11.625, 11.75, 11.6875, 11.5625, 11.5625, 11.714286, 11.714286, 11.785714, 11.714286, 11.714286, 11.785714, 11.625, 11.5625, 11.5, 11.25, 10.811225, 10.964286, 11.12245, 11.25, 11.25, 11.153061, 11.738095, 11.851192, 11.833333, 11.75, 11.75, 11.540816, 11.205357, 11.133928, 11.0625, 11.214286, 11.321428, 11.464286, 11.653061, 12.130952, 12.204082, 12.142858, 12, 11.758928, 12.083333, 12.303572, 12.285714, 12.428572, 12.25, 12.25, 12.125, 12.1875, 12.0625, 11.9375, 11.803572, 11.625, 11.821428, 11.5625, 11.5, 11.5, 11.5625, 11.732143, 11.794643, 11.7375, 11.954082, 11.816327, 11.964286, 11.964286, 11.75, 11.5, 11.785714, 11.75, 12.071428, 12, 12, 12.035714, 12.035714, 12.107142, 12.178572, 12.035714, 11.887755, 11.535715, 11.583333, 12.75, 13.107143, 13.611111, 14.428571, 16.572918, 16.825893, 16.96875, 16.96875, 16.96875, 17.102678, 17.306547, 17.216518, 17.256697, 16.958332, -10, -10, 16.25, 16.1875, 16.21875, 16.21875, 16.40625, 16.59375, 16.84375, 17.151787, 17.419643, 17.678572, 18.125, 18.410713, 18.625, 19.026787, 19.401787, 19.866072, 20.419643, 20.625, 20.8125, 20.75, 20.75, 20.875, 21.035713, 21.375, 21.6875, 21.9375, 22.375, 22.6875, 22.9375, 23.125, 23.125, 23.1875, 23.446428, 24.002977, 24.232143, 24.34375, 24.28125, 24.084822, 23.630951, 23.223213, 22.96875, 22.766668, -10, -10, -10, -10, -10, -10, -10, -10, -10, -10, -10, -10, -10, -10, -10, -10, -10, -10, -10, -10, -10, -10, -10, -10, -10, -10, -10, -10, -10, -10, -10, -10, -10, -10, -10, -10, -10, -10, -10, -10, -10, 60, 60, 60, 60, 60, 60.0625, 60.169643, 60.125, 60.166668, -10, -10, -10
51.270832, 51.440475, 51.4375, 51.397324, 51.1875, 51.3125, 51.482143, 52.09375, 52.321426, 52.4375, 52.4375, 52.5, 52.482143, 52.6875, 52.931252, 52.821426, 52.705357, 52.321426, 52.09375, 51.96875, 51.96875, 51.96875, 52.041664, 13, 13.083334, 13.041667, 13, 12.9375, 12.910714, 12.705357, 12.571428, 12.4375, 12.3125, 12.214286, 12.3125, 12.482143, 12.660714, 12.660714, 12.556122, 12.403061, 12.541667, 12.666667, 12.551021, 12.205357, 12.133928, 12.133928, 12.666666, 12.770408, 12.785714, 12.785714, 12.75, 12.75, 12.785714, 12.696428, 12.660714, 12.67347, 12.458333, 12.724489, 12.785714, 12.75, 12.857142, 12.857142, 12.785714, 12.526786, 12.5, 12.714286, 12.785714, 12.785714, 12.821428, 12.5625, 12.75, 12.821428, 13.041667, 13.220238, 13.433333, 13.153061, 13.198979, 13.142858, 13, 12.714286, 12.892858, 13.165306, 13.863946, 13.989797, 13.816327, 13.607142, 13.535714, 13.367347, 13.382653, 13.357142, 13.285714, 13.178572, 13.333333, 13, 12.875, 12.904762, -10, -10, 11.190476, 12.028571, 12.322449, 12.887755, 13.010203, 12.928572, 12.964286, 12.959184, 13.183673, 12.9375, 13.0625, 12.919643, 12.776786, 12.8125, 12.75, 12.8125, 12.6875, 12.928572, 12.928572, 13.119048, 13.116666, 13.154762, 13.125, 13.208333, 13.291667, 13.416667, 13.214286, 13.178572, 12.875, 12.75, 12.625, 12.4375, 12.591836, 12.5625, 12.821428, 12.892858, 12.821428, 12.704082, 12.45, 12.668367, 12.668367, 12.75, 12.785714, 12.642858, 12.67347, 12.82653, 12.857142, 12.857142, 12.785714, 12.62245, 12.702381, 12.8125, 12.854167, 12.979167, 12.916667, 12.922619, 12.880952, 12.801021, 12.785714, 12.571428, 12.5, 12.505102, 12.306122, 12.071428, 12.125, 11.892858, 12, 12.225, 12.508928, 12.824405, 12.928572, 13.071428, 12.964286, 12.892858, 12.928572, 13.035714, 13.416667, 13.053572, 12.9375, 12.714286, 12.571428, 12.607142, 12.75, 12.6875, 12.862245, 12.785714, 12.785714, 12.714286, 12.642858, 12.714286, 12.857142, 12.979592, 12.979592, 12.842857, 12.918367, 12.836736, 13, 13, 12.928572, 13.166667, 12.969388, 12.892858, 13, 12.928572, 13, 13.053572, 13.053572, 13.125, 13.125, 13.035714, 12.714286, 12.577381, 12.416667, 13.5, 13.738095, 14.797618, 15.704761, 16.501488, 16.825893, 17.0625, 17.1875, 17.3125, 17.5, 17.473213, 17.272322, 17.3125, 17.270832, -10, -10, 16.5625, 16.3125, 16.236607, 16.09375, 16.28125, 16.53125, 16.71875, 17.089287, 17.419643, 17.678572, 18.0625, 18.535713, 18.892857, 19.419643, 19.732143, 20.1875, 20.544643, 20.625, 20.75, 20.633928, 20.895834, 21.044643, 21.098213, 21.375, 21.625, 21.875, 22.375, 22.75, 23.107143, 23.3125, 23.303572, 23.174999, 23.4375, 23.752977, 24.044643, 24.21875, 24.254463, 24.084822, 23.422617, 23.035713, 22.822916, -10, -10, -10, -10, -10, -10, -10, -10, -10, -10, -10, -10, -10, -10, -10, -10, -10, -10, -10, -10, -10, -10, -10, -10, -10, -10, -10, -10, -10, -10, -10, -10, -10, -10, -10, -10, -10, -10, -10, -10, -10, -10, -10, 60.125, 60.083332, 60.0625, 60, 60.125, 60.303574, 60.333332, 60.325001, -10, -10, -10, -10, -10, -10, -10, -10, -10, -10, -10, -10, -10, -10, -10, -10, -10, -10, -10, -10, -10, -10, -10, -10, -10, -10, -10, -10, -10, -10, -10, -10, -10, -10, -10, -10, 48.214287, 48.291664, 48.526787, 49.125, 49.491074, 49.5625, 49.517857, 49.5, 49.455357, 49.855358, 49.821426, 50.053574, 50.0625, 50.366074, 50.607143, 50.541668, 50.508926, 50.633926, 51.104164, 51.241074, 51.4375, 51.4375, 51.669643, 51.8125, 51.897324, 51.875, 52, 52.125, 52.34375, 52.5, 52.5625, 52.6875, 52.875, 52.982143, 53.1875, 53.28125, 53.1875, 52.830357, 52.401787, 52.09375, 52.03125, 52.03125, 52.03125, 52.104164, 52, 13.333334, 13.291667, 13.25, 13.25, 13.285714, 13.142857, 13.224489, 12.866072, 12.5625, 12.285714, 12.416667, 12.726192, 12.964286, 13.612245, 13.329932, 13.153061, 13.416667, 13.178572, 13.193878, 12.984694, 13.196428, 13.196428, 13.520833, 13.806122, 13.75, 13.75, 13.678572, 13.714286, 13.714286, 13.571428, 13.375, 13.375, 13.4375, 13.75, 13.714286, 13.714286, 13.785714, 13.785714, 13.785714, 13.744898, 13.714286, 13.714286, 13.785714, 13.785714, 13.785714, 13.714286, 13.75, 13.892858, 14.035714, 14.260203, 14.514285, 14.403061, 14.413264, 14.321428, 14.321428, 14.541667, 14.666667, 14.821429, 15.027211, 15.053572, 15.035714, 14.875, 14.75, 14.589286, 14.638393, 14.520834, 14.476191, 14.260203, 14.142858, 14, 13.857142, 13.880952, 14.75, 14.875, 13.611112, 14.083333, 14.166667, 13.642858, 13.765306, 13.708333, 13.918367, 13.836736, 14.020408, 14, 14.035714, 13.908164, 13.526786, 13.5625, 13.75, 13.892858, 13.928572, 14, 14.071428, 14.17347, 14.171428, 14.275511, 14.25, 14.321428, 14.321428, 14.357142, 14.25, 14.071428, 13.75, 13.625, 13.5, 13.375, 13.392857, 13.642858, 13.642858, 13.678572, 13.607142, 13.366072, 13.2375, 13.553572, 13.553572, 13.857142, 13.857142, 13.4375, 13.464286, 13.82653, 13.857142, 13.892858, 13.892858, 13.744898, 13.561225, 13.696428, 13.660714, 13.839286, 13.785714, 13.82653, 13.708333, 13.669643, 13.6875, 13.5625, 13.5, 13.255102, 13.020408, 13.469388, 13.464286, 13.666667, 13.625, 13.1, 13.510203, 13.511905, 13.616072, 13.625, 13.5625, 13.785714, 13.857142, 14, 14.214286, 14.275511, 14.214286, 14.416667, 14.25, 14.125, 13.821428, 13.877551, 13.723214, 13.928572, 13.6875, 13.785714, 13.678572, 13.75, 13.857142, 13.918367, 13.918367, 13.814285, 13.616072, 13.482143, 13.5625, 13.5625, 13.785714, 13.857142, 13.660714, 13.785714, 13.59375, 13.75, 13.821428, 13.892858, 13.928572, 14.107142, 13.875, 13.8125, 13.959184, 14.083333, 14.208333, 14.178572, 14.346939, 15.018707, 15.884354, 16.430059, 16.825893, 17.09375, 17.28125, 17.46875, 17.71875, 17.848213, 17.772322, 17.875, 17.802082, -10, -10, 17.09375, 16.875, 16.736607, 16.491072, 16.354166, 16.446428, 16.5625, 16.901787, 17.294643, 17.616072, 18, 18.535713, 18.892857, 19.450893, 19.732143, 20.125, 20.375, 20.40625, 20.5, 20.415178, 20.708334, 20.919643, 21.098213, 21.40625, 21.65625, 21.875, 22.3125, 22.75, 23.245537, 23.5, 23.491072, 23.362499, 23.553572, 23.607143, 23.875, 23.96875, 23.941963, 23.772322, 23.172617, 22.892857, 22.791666, -10, -10, -10, -10, -10, -10, -10, -10, -10, -10, -10, -10, -10, -10, -10, -10, -10, -10, -10, -10, -10, -10, -10, -10, -10, -10, -10, -10, -10, -10, -10, -10, -10, -10, -10, -10, -10, -10, -10, -10, -10, -10, -10, 60.125, 60.083332, 60, 59.9375, 60.0625, 60.241074, 60.395832, 60.408333, -10, -10, -10
51.8125, 52.044643, 52.1875, 52.303574, 52.3125, 52.3125, 52.375, 52.5625, 52.6875, 52.875, 53, 53.1875, 53.25, 53.375, 53.46875, 53.303574, 52.830357, 52.464287, 52.15625, 52.1875, 52.125, 52.125, 52.145832, 13.5, 13.666667, 13.604167, 13.5625, 13.5, 13.547619, 13.440475, 13.428571, 13.154762, 12.75, -10, -10, -10, -10, 15.833333, 15.680554, 15.5, 15.333333, 15.125, 14.946429, 14.720238, 14.469388, 14.469388, 14.520833, 14.580357, 14.53125, 14.59375, 14.321428, 14.625, 14.625, 14.214286, 14.375, 14.142858, 14.5, 14.892858, 14.625, 14.5625, 14.5625, 14.625, 14.928572, 14.908163, 14.892858, 14.785714, 14.625, 14.625, 14.6875, 14.928572, 14.75, 14.9375, 15.0625, 15.258928, 15.657143, 15.438775, 15.413264, 15.285714, 15.25, 15.285714, 15.428572, 15.632653, 15.791667, 15.9375, 15.8125, 15.5, 15.25, 15.214286, 15.551021, 15.666667, 15.291667, 15.071428, 14.9375, 14.75, 14.625, 14.645833, 15.166667, 15.25, 14.666666, 14.871428, 14.989797, 15.291667, 15.488095, 14.523809, 14.632653, 14.535714, 14.8125, 14.642857, 14.5625, 14.482143, 14.612245, 14.694444, 14.763889, 15.047618, 15.010203, 14.964286, 15, 15.107142, 15, 15.285714, 15.357142, 15.428572, 15.25, 15.1875, 15, 14.75, 14.6875, 14.785714, 14.714286, 14.642858, 14.663264, 14.5625, 14.544643, 14.5, 14.4375, 14.366072, 14.3, 14.739797, 14.739797, 14.821428, 14.821428, 14.642858, 14.744898, 14.723214, 14.75, 14.8125, 14.964286, 14.82653, 14.526786, 14.625, 14.625, 14.75, 14.625, 14.625, 14.5625, 14.785714, 14.82653, 14.591836, 14.438775, 14.666667, 14.625, 14.428572, 14.464286, 14.357142, 14.357142, 14.257143, 14.540816, 14.449405, 14.553572, 14.5625, 14.4375, 14.5, 14.625, 14.857143, 15.125, 15.530612, 15.571428, 15.571428, 15.357142, 15.107142, 14.928572, 14.877551, 14.892858, 14.892858, 14.857142, 14.785714, 14.714286, 14.785714, 14.785714, 14.785714, 14.785714, 14.714286, 14.508928, 14.285714, 14.25, 14.255102, 14.5625, 14.732143, 14.803572, 14.464286, 14.65625, 14.59375, 14.59375, 14.65625, 14.6875, 14.8125, 14.6875, 14.75, 14.765306, 14.75, 14.964286, 15.107142, 14.991072, 15.610119, 16.327381, 16.700893, 16.96875, 17.09375, 17.34375, 17.59375, 17.8125, 18.0625, 18.09375, 18.15625, 18.270832, 18.5, 18.4375, 17.65625, 17.395834, 17.236607, 16.928572, 16.666666, 16.633928, 16.71875, 17.03125, 17.34375, 17.65625, 17.9375, 18.410713, 18.767857, 19.263393, 19.607143, 20, 20.1875, 20.21875, 20.25, 20.299107, 20.770834, 20.982143, 21.285713, 21.46875, 21.640625, 21.870537, 22.325893, 22.84375, 23.417412, 23.625, 23.616072, 23.424999, 23.616072, 23.705357, 23.875, 23.861607, 23.754463, 23.59375, 23.318453, 23.0625, 23, -10, -10, -10, -10, -10, -10, -10, -10, -10, -10, -10, -10, -10, -10, -10, -10, -10, -10, -10, -10, -10, -10, -10, -10, -10, -10, -10, -10, -10, -10, -10, -10, -10, -10, -10, -10, -10, -10, -10, -10, -10, -10, -10, 60.125, 60.083332, 60, 59.9375, 60, 60.116074, 60.333332, 60.375, -10, -10, -10, -10, -10, -10, -10, -10, -10, -10, -10, -10, -10, -10, -10, -10, -10, -10, -10, -10, -10, -10, -10, -10, -10, -10, -10, -10, -10, -10, -10, -10, -10, -10, -10, -10, -10, 49.708332, 49.770832, 50.0625, 50.125, 50.1875, 50.125, 50.0625, 50.3125, 50.587502, 50.767857, 50.967857, 50.892857, 51.241074, 51.294643, 51.166668, 51.026783, 51.071426, 51.520832, 51.848213, 52.125, 52.3125, 52.544643, 52.6875, 52.803574, 52.8125, 52.875, 52.973213, 53.125, 53.125, 53.1875, 53.1875, 53.3125, 53.5, 53.625, 53.642857, 53.4375, 52.955357, 52.589287, 52.25, 52.1875, 52.0625, 52.0625, 52.0625, 52, 14, 13.888889, 13.833333, -10, -10, -10, -10, -10, -10, -10, -10, -10, -10, 16.821428, 16.690475, 16.535715, 16.392857, 16.107143, 15.964286, 15.821428, 15.714286, 15.714286, 15.678572, 15.642858, 15.571428, 15.678572, 15.958333, 15.821428, 15.892858, 16, 15.714286, 16, 16.041666, 15.892858, 15.821428, 15.75, 15.5, 15.75, 15.892858, 15.964286, 15.964286, 15.857142, 15.857142, 15.785714, 15.857142, 15.928572, 15.928572, 16.071428, 16.214285, 16.397959, 16.614286, 16.540815, 16.205357, 16.0625, 16, 16, 16.125, 16.321428, 16.625, 16.625, 16.744898, 16.571428, 16.285715, 16.387754, 16.479593, 16.488096, 16.369047, 16.081633, 15.75, 15.625, 15.714286, 15.5625, 15.625, 15.6875, 15.75, 15.8125, 15.928572, 16.214285, 16.285715, 16.180555, 16.160715, 16.041666, 15.625, 15.517857, 15.375, 15.375, 15.491072, 16.388887, 16.486113, 16.119047, 15.821428, 15.625, 15.5625, 15.5625, 15.5625, 15.964286, 16.107143, 16.178572, 16.17347, 15.973214, 15.8125, 15.75, 15.964286, 15.928572, 15.821428, 15.591836, 15.581633, 15.642858, 15.62245, 15.375, 15.428572, 15.316327, 15.385714, 15.663266, 15.982994, 16, 15.948979, 15.821428, 15.836734, 15.94898, 15.964286, 15.928572, 15.821428, 15.473214, 15.459184, 15.428572, 15.357142, 15.428572, 15.1875, 15.25, 15.25, 15.3125, 15.410714, 15.267857, 15.196428, 15.25, 15.25, 15.25, 15.25, 15.1875, 15.125, 15.2, 15.25, 15.459184, 15.5, 15.571428, 15.3125, 15.375, 15.714286, 15.908164, 16.107143, 16.428572, 16.607143, 16.642857, 16.571428, 16.125, 15.875, 15.75, 15.928572, 15.857142, 15.857142, 15.785714, 15.714286, 15.5625, 15.5625, 15.5625, 15.5625, 15.5, 15.795918, 16.166666, 16.041666, 15.886905, 15.571428, 15.693878, 15.846939, 16.041666, 15.75, 15.678572, 15.46875, 15.46875, 15.5, 15.625, 15.5625, 15.357142, 15.428572, 15.428572, 15.8125, 15.875, 15.9375, 16.214285, 16.729168, 16.919643, 17.0625, 17.0625, 17.3125, 17.5625, 17.71875, 18, 18.046875, 18.109375, 18.229166, 18.166666, 18.125, 17.90625, 17.75, 17.674107, 17.428572, 17.104166, 17.008928, 17.03125, 17.28125, 17.59375, 17.84375, 18, 18.4375, 18.767857, 19.200893, 19.5, 19.75, 19.875, 19.96875, 20.0625, 20.299107, 20.833334, 20.982143, 21.3125, 21.53125, 21.794643, 22.089287, 22.482143, 22.9375, 23.464287, 23.6875, 23.678572, 23.549999, 23.803572, 23.866072, 23.9375, 23.767857, 23.598213, 23.4375, 23.291666, 23.25, 23.1875, -10, -10, -10, -10, -10, -10, -10, -10, -10, -10, -10, -10, -10, -10, -10, -10, -10, -10, -10, -10, -10, -10, -10, -10, -10, -10, -10, -10, -10, -10, -10, -10, -10, -10, -10, -10, -10, -10, -10, -10, -10, -10, -10, 60.125, 60.083332, 60.0625, 60, 60, 60.071426, 60.208332, 60.208332, -10, -10, -10
52.5625, 52.6875, 52.75, 52.9375, 53.21875, 53.40625, 53.629463, 53.65625, 53.5625, 53.5, 53.5, 53.75, 54.098213, 54.1875, 53.934525, 53.625, 53.125, 52.767857, 52.375, 52.1875, 52, 52, 52, 52, -10, -10, -10, -10, -10, -10, -10, -10, -10, -10, -10, -10, -10, 17.75, 17.75, 17.598213, 17.401787, 17.392857, 17.142857, 17.035715, 16.857143, 16.857143, 16.785715, 16.75, 16.714285, 16.714285, 16.785715, 16.892857, 16.964285, 16.928572, 16.857143, 16.928572, 17.035715, 17.071428, 17.025511, 16.65476, 16.583332, 16.84524, 17.061224, 17.142857, 17.071428, 16.857143, 16.714285, 16.642857, 16.785715, 17.051022, 17.142857, 16.785715, 17.1875, 17.3125, 17.4375, 17.642857, 17.3125, 17.1875, 17, 16.875, 16.9375, 17.071428, 17.642857, 17.5, 17.526787, 17.4375, 17.1875, 17.276787, 17.357143, 17.270834, 17.166668, 16.946428, 17.071428, 17.071428, 16.928572, 16.857143, 16.785715, 16.714285, 16.785715, 16.625, 16.8125, 17, 17, 17.119047, 17.102041, 17.071428, 16.964285, 16.806122, 16.714285, 16.714285, 16.989796, 17.476191, 17.452381, 17.261904, 17.045918, 16.5625, 16.357143, 16.392857, 16.489796, 16.704082, 16.979166, 16.946428, 16.839287, 16.785713, 16.625, 16.857143, 16.928572, 16.857143, 16.714285, 16.348213, 16.520834, 16.520834, 16.598639, 16.511904, 16.630953, 16.285715, 16.214285, 16.418367, 17.273809, 17.178572, 17.056122, 16.928572, 16.928572, 17.071428, 17.071428, 17, 16.625, 16.473213, 16.102041, 16.071428, 16, 16.071428, 15.964286, 15.982142, 16.017857, 16.040815, 16.348213, 16.392857, 16.428572, 16.25, 16.553572, 16.362499, 16.102041, 16.232143, 15.928572, 15.892858, 16.25, 16.3125, 16.571428, 16.571428, 16.530613, 16.647959, 16.714285, 16.732143, 16.8125, 17.0625, 17.1875, 17.464285, 17.5, 17.301022, 17, 16.892857, 16.6875, 16.75, 16.8125, 16.75, 16.857143, 16.785715, 16.642857, 16.642857, 16.714285, 16.714285, 16.903061, 17.071428, 16.892857, 16.760204, 16.642857, 16.765306, 16.954082, 16.964285, 16.875, 16.895407, 16.659723, 16.675596, 16.666666, 16.705357, 16.821428, 16.958334, 16.958334, 16.916666, 16.75, 16.892857, 17.035715, 17.295918, 17.395834, 17.428572, 17.375, 17.174107, 17.3125, 17.5, 17.65625, 17.96875, 18.0625, 18.125, 18.21875, 18.03125, 18, 17.9375, 17.9375, 18.03125, 17.866072, 17.541666, 17.446428, 17.40625, 17.53125, 17.71875, 17.90625, 18.125, 18.375, 18.625, 18.84375, 19.125, 19.375, 19.6875, 19.96875, 20.1875, 20.477678, 20.75, 20.875, 21.25, 21.59375, 22.026787, 22.25893, 22.469643, 22.928572, 23.357143, 23.5625, 23.59375, 23.65625, 23.78125, 23.977678, 24, 23.705357, 23.46875, 23.34375, 23.40625, 23.46875, 23.520834, 23.833332, -10, -10, -10, -10, -10, -10, -10, -10, -10, -10, -10, -10, -10, -10, -10, -10, -10, -10, -10, -10, -10, -10, -10, -10, -10, -10, -10, -10, -10, -10, -10, -10, -10, -10, -10, -10, -10, -10, -10, -10, -10, -10, 60, 60, 60, 60, 59.9375, 59.875, 59.892857, 60, -10, -10, -10, -10, -10, -10, -10, -10, -10, -10, -10, -10, -10, -10, -10, -10, -10, -10, -10, -10, -10, -10, -10, -10, -10, -10, -10, -10, -10, -10, -10, -10, -10, -10, -10, -10, -10, 50.5, 50.499996, 50.625, 50.5625, 50.625, 50.633926, 50.75, 50.875, 51.125, 51.49107, 51.700001, 51.705357, 51.8125, 51.6875, 51.75, 51.776787, 51.973213, 52.125, 52.419643, 52.5, 52.633926, 53.041668, 53.196426, 53.4375, 53.71875, 53.96875, 54.165176, 54.049107, 53.883926, 53.8125, 53.8125, 54.125, 54.473213, 54.4375, 54.077381, 53.75, 53.25, 53, 52.625, 52.375, 52.125, 52.0625, 52, 52, -10, -10, -10, -10, -10, -10, -10, -10, -10, -10, -10, -10, -10, 18.571428, 18.75238, 18.719387, 18.397959, 18.331633, 18.071428, 18, 17.857143, 17.928572, 17.928572, 17.928572, 17.928572, 17.625, 17.625, 17.75, 17.875, 17.9375, 18.107143, 17.875, 17.875, 18, 18.061224, 17.604166, 17.297619, 18.059525, 18.132654, 18.142857, 18, 17.625, 17.5625, 17.5, 17.625, 17.919643, 18.178572, 18.583334, 18.5, 18.5, 18.571428, 18.678572, 18.571428, 18.341837, 18.081633, 17.928572, 17.964285, 18.153061, 18.375, 18.375, 18.401787, 18.428572, 18.285715, 18.357143, 18.357143, 18.321428, 18.321428, 18.285715, 18.321428, 18.357143, 18.214285, 18.238096, 17.867346, 17.795918, 17.785715, 17.785715, 17.892857, 17.75, 17.75, 17.875, 17.875, 18.035715, 17.964285, 17.867346, 17.821428, 17.821428, 18.030613, 18.166666, 18.145834, 18.166666, 17.969387, 17.714285, 18, 18.125, 18.434525, 18.517859, 18.119047, 17.883928, 17.839287, 17.612246, 17.75, 18, 17.8125, 17.6875, 17.5625, 17.193876, 17.930952, 17.726191, 17.384354, 17.297619, 17.952381, 18.113096, 18.25, 18.285715, 18.452381, 18.357143, 18.163265, 18, 17.892857, 18, 18, 17.928572, 17.75, 17.642857, 17.875, 17.833334, 17.833334, 17.833334, 17.708334, 17.75, 17.75, 17.511904, 17.098213, 17.418367, 17.581633, 17.916666, 17.739796, 17.592857, 17.863096, 17.551022, 17.75, 17.583334, 17.321428, 17.428572, 17.5, 17.375, 17.637754, 17.790815, 17.857143, 17.794643, 17.8125, 17.9375, 17.9375, 18.0625, 18.125, 17.982143, 17.8125, 18.071428, 17.75, 18.020407, 18.010204, 17.928572, 17.928572, 17.857143, 17.75, 17.75, 17.75, 17.75, 17.758928, 18, 17.9375, 17.821428, 17.857143, 17.669643, 17.741072, 17.8125, 17.8125, 18.12755, 18.611113, 18.559525, 18.416666, 17.948978, 17.892857, 17.857143, 17.928572, 17.928572, 17.821428, 17.928572, 18, 18.178572, 18.357143, 18.25, 17.9375, 17.767857, 17.78125, 17.90625, 17.9375, 18.0625, 18.09375, 18.15625, 18.34375, 18.107143, 18.214285, 18.198978, 18.258928, 18.209822, 18, 17.875, 17.875, 17.84375, 17.90625, 17.96875, 18.09375, 18.25, 18.4375, 18.6875, 18.875, 19.1875, 19.4375, 19.75, 20.0625, 20.3125, 20.633928, 20.9375, 21, 21.25, 21.571428, 22.172621, 22.342262, 22.457142, 22.919643, 23.178572, 23.375, 23.4375, 23.5625, 23.75, 24.008928, 24.0625, 23.767857, 23.53125, 23.46875, 23.53125, 23.65625, 23.770834, 23.888887, 24.125, -10, -10, -10, -10, -10, -10, -10, -10, -10, -10, -10, -10, -10, -10, -10, -10, -10, -10, -10, -10, -10, -10, -10, -10, -10, -10, -10, -10, -10, -10, -10, -10, -10, -10, -10, -10, -10, -10, -10, -10, -10, 60.125, 60.166668, 60.1875, 60.1875, 60.0625, 59.9375, 59.955357, 60.083332, -10, -10, -10
52.974487, 53.604168, 53.758926, 53.9375, 54.21875, 54.59375, 54.763393, 54.504463, 54.267857, 54, 53.9375, 54.241074, 54.764881, 54.678574, 54.220242, 53.821426, 53.375, 53.09375, 52.75, 52.4375, 52.1875, 52.09375, 52, 52.0625, -10, -10, -10, -10, -10, -10, -10, -10, -10, -10, -10, -10, -10, 19.25, 19.450001, 19.612244, 19.098213, 19.008928, 18.6875, 18.5625, 18.375, 18.678572, 18.785715, 18.928572, 19.071428, 19, 18.666666, 19.142857, 19.25, 19.25, 19.178572, 19.035715, 18.928572, 18.928572, 18.989796, 18.761904, 19.027777, 18.952381, 18.918367, 18.892857, 18.5625, 18.5625, 18.75, 18.714285, 18.785715, 19.051022, 19.142857, 19.285715, 19.392857, 19.285715, 19.392857, 19.571428, 19.607143, 19.448978, 19.188776, 19, 18.928572, 19.040815, 19.125, 19.133928, 19.422619, 19.061224, 19, 19.035715, 19.5, 19.464285, 19.428572, 19.464285, 19.535715, 19.607143, 19.5, 19.523809, 19.081633, 18.938776, 18.857143, 18.857143, 18.6875, 18.6875, 18.625, 18.625, 18.857143, 18.928572, 18.928572, 18.928572, 19, 19.071428, 18.9375, 19, 18.875, 18.8125, 18.75, 18.892857, 19.071428, 19.178572, 19.37245, 19.336735, 19.083332, 18.974489, 18.908163, 19.190475, 18.928572, 19, 19.071428, 18.75, 18.892857, 19.130951, 19.089115, 18.901361, 19.152777, 19.170635, 19.130953, 19.132654, 19.214285, 19.2449, 19.333334, 19.464285, 19.017857, 18.8125, 18.625, 18.6875, 18.6875, 18.857143, 18.75, 18.714285, 18.821428, 18.857143, 18.928572, 18.666666, 18.846939, 18.678572, 18.678572, 18.367346, 17.821428, 18.357143, 18.535715, 18.964285, 18.882654, 18.664286, 18.704082, 18.551022, 18.464285, 18.357143, 18.321428, 18.428572, 18.3125, 18.4375, 18.7449, 18.897959, 18.928572, 19.010204, 19.085714, 18.903061, 18.767857, 18.875, 19.0625, 19.044643, 18.875, 19.071428, 19.208334, 19.020407, 18.938776, 18.857143, 18.857143, 18.857143, 18.857143, 18.857143, 18.857143, 18.857143, 18.964285, 19.035715, 19.035715, 18.964285, 18.928572, 18.857143, 18.857143, 18.928572, 18.928572, 19.163265, 19.523809, 19.551022, 19.5, 19.163265, 19.035715, 18.75, 19, 19, 18.892857, 18.964285, 18.8125, 19, 19.125, 19, 18.964285, 18.734694, 18.714285, 18.59375, 18.59375, 18.625, 18.59375, 18.65625, 18.75, 19.104166, 19.270834, 19.235119, 18.696428, 18.678572, 18.392857, 18.357143, 18.464285, 18.5, 18.5, 18.5, 18.571428, 18.714285, 18.910715, 19.28125, 19.34375, 19.46875, 19.5625, 19.8125, 20.125, 20.4375, 20.75, 20.9375, 21, 21.125, 21.517857, 22.380953, 22.485119, 22.564285, 22.955357, 22.991072, 23.142857, 23.125, 23.258928, 23.645834, 23.901787, 24.125, 24, 23.90625, 23.897322, 23.71875, 23.84375, 23.9375, 24.041666, 24.305555, 24.75, 25.200001, -10, -10, -10, -10, -10, -10, -10, -10, -10, -10, -10, -10, -10, -10, -10, -10, -10, -10, -10, -10, -10, -10, -10, -10, -10, -10, -10, -10, -10, -10, -10, -10, -10, -10, -10, -10, -10, -10, -10, 60.166668, 60.416668, 60.4375, 60.375, 60.1875, 60.0625, 60.080357, 60.25, -10, -10, -10, -10, -10, -10, -10, -10, -10, -10, -10, -10, -10, -10, -10, -10, -10, -10, -10, -10, -10, -10, -10, -10, -10, -10, -10, -10, -10, -10, -10, -10, -10, -10, -10, -10, -10, 51.125, 51.166664, 51.1875, 51.1875, 51.375, 51.446426, 51.5625, 51.5625, 51.724998, 51.589287, 51.669643, 51.857143, 52.291668, 52.375, 52.375, 52.401787, 52.660713, 52.928574, 53.443878, 53.708332, 53.755951, 53.916668, 54.133926, 54.375, 54.71875, 54.941963, 54.870537, 54.513393, 54.205357, 54, 54.0625, 54.574406, 55.014881, 54.991074, 54.505955, 53.833332, 53.303574, 52.96875, 52.625, 52.375, 52.1875, 52.09375, 52, 52.083332, 52.75, 53.200001, -10, -10, -10, -10, -10, -10, -10, -10, -10, -10, -10, 20.25, 20.450001, 20.348213, 19.973213, 19.883928, 19.5625, 19.25, 19.107143, 19.285715, 19.428572, 19.8125, 20.178572, 20.071428, 20.166666, 20.107143, 20.178572, 20.178572, 20.107143, 19.964285, 19.75, 19.75, 19.866072, 19.952381, 19.880953, 19.672619, 19.678572, 19.660713, 19.357143, 19.928572, 20, 20.071428, 20.107143, 20.044643, 20.125, 20.25, 20.3125, 19.928572, 20.1875, 20.3125, 20.375, 20.267857, 20.133928, 19.9375, 19.8125, 19.8125, 19.9375, 20.071428, 20.59524, 20.767859, 20.708334, 20.541666, 20.357143, 20.464285, 20.464285, 20.607143, 20.678572, 20.714285, 20.607143, 20.59524, 20.117346, 19.938776, 19.821428, 19.821428, 19.821428, 19.821428, 19.785715, 19.625, 19.6875, 19.75, 19.6875, 19.625, 19.6875, 19.75, 19.875, 19.8125, 19.6875, 19.625, 19.6875, 20.035715, 20.214285, 20.321428, 20.232143, 20.107143, 19.916666, 19.821428, 20, 20.071428, 19.928572, 19.928572, 20, 19.964285, 20.071428, 20.244898, 20.398638, 19.913691, 20.166668, 20.074831, 20.119047, 19.928572, 20, 20.0625, 20.25, 20.392857, 20.214285, 19.964285, 19.5, 19.5625, 19.5625, 19.5625, 19.5625, 19.5625, 19.6875, 19.928572, 20, 20.333334, 19.9949, 19.558037, 19.59375, 19.258928, 19.75, 19.586735, 19.473215, 19.625, 19.553572, 19.424999, 19.491072, 19.357143, 19.25, 19.1875, 19.1875, 19.25, 19.571428, 19.678572, 19.765306, 19.948978, 20.071428, 20.188776, 20.371429, 20.081633, 20.020407, 19.964285, 20, 19.918367, 19.887756, 20.040815, 20, 19.892857, 19.758928, 19.6875, 19.75, 19.75, 20, 20, 19.892857, 19.821428, 19.892857, 19.964285, 20, 19.928572, 20, 20, 19.964285, 20.035715, 19.75, 19.892857, 20.208334, 20.232143, 20.1875, 20.081633, 19.964285, 19.857143, 19.928572, 19.928572, 19.928572, 19.964285, 19.75, 19.875, 19.9375, 19.8125, 19.852041, 19.918367, 19.971939, 19.971939, 19.636904, 19.456633, 19.321428, 19.464285, 19.660715, 19.803572, 20.017857, 19.987244, 19.831633, 19.775511, 19.958334, 20, 20.041666, 20.041666, 20.041666, 20.125, 20.25, 20.416666, 20.541666, 20.09375, 20.03125, 19.96875, 19.9375, 20.125, 20.375, 20.625, 20.875, 21, 21.0625, 21.1875, 21.517857, 22.273811, 22.360119, 22.439285, 22.830357, 22.866072, 22.892857, 22.901787, 23.178572, 23.502977, 23.830357, 24.169643, 24.083334, 23.96875, 23.959822, 23.65625, 23.84375, 24.015625, 24.285713, 24.458332, -10, -10, -10, -10, -10, -10, -10, -10, -10, -10, -10, -10, -10, -10, -10, -10, 28, -10, -10, -10, -10, -10, -10, -10, -10, -10, -10, -10, -10, -10, -10, -10, -10, -10, -10, -10, -10, -10, -10, -10, -10, -10, 60.666668, 60.6875, 60.5625, 60.3125, 60.0625, 60.080357, 60.25, -10, -10, -10
